55.7331006891 -10.8994889083 -2.5027562923
55.7485750489 -10.8949075885 -2.5027562923
55.7640357885 -10.8902805129 -2.5027562923
52.6693202827 -10.9299616946 -2.5027562952
52.6848981918 -10.9344434581 -2.5027562952
52.7160934426 -10.9432686405 -2.5027562952
55.7710007839 -10.9134283879 -2.5027562952
55.8175050801 -10.8992103104 -2.5027562952
55.8329782464 -10.8943793084 -2.5027562952
52.6313494842 -10.9440406785 -2.5027562980
52.6469692076 -10.9486347048 -2.5027562980
52.6782490824 -10.9576840395 -2.5027562980
55.0161580710 -11.1079537519 -2.5027562980
55.8246752257 -10.9222954635 -2.5027562980
55.8712560986 -10.9076007062 -2.5027562980
55.8867538500 -10.9026106623 -2.5027562980
55.9022367722 -10.8975747950 -2.5027562980
54.1725542017 -11.1941257000 -2.5027563009
56.0490132290 -10.8729658382 -2.5027563009
56.0797858800 -10.8618888623 -2.5027563009
56.1411318861 -10.8391897021 -2.5027563009
56.1869627804 -10.8216898421 -2.5027563009
56.2022050106 -10.8157662565 -2.5027563009
52.4764634665 -10.9466009509 -2.5027563038
52.5077342931 -10.9566590904 -2.5027563038
52.5547507405 -10.9713989700 -2.5027563038
55.4906989351 -11.0643437481 -2.5027563038
55.6021941226 -11.0362988500 -2.5027563038
56.0261605197 -10.9066766946 -2.5027563038
56.2415593108 -10.8262499209 -2.5027563038
56.2872714171 -10.8078593333 -2.5027563038
56.4234033633 -10.7502638530 -2.5027563038
56.5876295679 -10.6749800595 -2.5027563038
56.6467284301 -10.6462849416 -2.5027563038
54.2713551548 -11.2419438870 -2.5027563067
55.2707619616 -11.1371951885 -2.5027563067
55.4642532984 -11.0954675691 -2.5027563067
56.7164261987 -10.6384470196 -2.5027563067
56.7896919739 -10.6005680579 -2.5027563067
56.8768594010 -10.5536891285 -2.5027563067
56.9345028447 -10.5215801999 -2.5027563067
56.9488540255 -10.5134465688 -2.5027563067
52.4143232197 -10.9770128180 -2.5027563096
55.0797426393 -11.1958968783 -2.5027563096
55.1124428226 -11.1905487809 -2.5027563096
56.6532307749 -10.6969521684 -2.5027563096
52.2809353752 -10.9561913582 -2.5027563125
52.3122663639 -10.9674061397 -2.5027563125
54.9683908951 -11.2370314989 -2.5027563125
55.0507011728 -11.2249411796 -2.5027563125
52.1943538669 -10.9499559607 -2.5027563153
52.1231574666 -10.9484553088 -2.5027563182
52.1387924729 -10.9545526397 -2.5027563182
52.1701162541 -10.9666084150 -2.5027563182
52.0517180984 -10.9460064417 -2.5027563211
52.0829928415 -10.9585775278 -2.5027563211
54.5593274144 -11.3515270034 -2.5027563211
54.6097673042 -11.3480445956 -2.5027563211
51.9956665920 -10.9491241137 -2.5027563240
52.0269607612 -10.9620267648 -2.5027563240
52.0583307192 -10.9747440433 -2.5027563240
51.9707020703 -10.9648965483 -2.5027563269
51.8672688449 -10.9467590932 -2.5027563297
51.8985512691 -10.9604214299 -2.5027563297
51.8418522874 -10.9619534143 -2.5027563326
51.7692881157 -10.9557501672 -2.5027563355
51.7121802897 -10.9559274237 -2.5027563384
51.6392435992 -10.9479771114 -2.5027563413
51.5973913155 -10.9544823365 -2.5027563441
51.6287241562 -10.9697412242 -2.5027563441
51.4975233018 -10.9586097181 -2.5027563499
51.4395034146 -10.9559314931 -2.5027563528
51.3114411810 -10.9699699856 -2.5027563614
51.2527609241 -10.9653352926 -2.5027563643
51.1782897662 -10.9511827300 -2.5027563672
51.1939369749 -10.9600751385 -2.5027563672
51.1506321121 -10.9632071421 -2.5027563701
50.2436021599 -10.9744181726 -2.5027564306
50.1213850470 -10.9729770784 -2.5027564392
49.9676370667 -10.9755560682 -2.5027564508
49.1199486366 -10.8384358998 -2.5027565055
48.8071384683 -10.6908076097 -2.5027565199
49.2736592175 -11.1483025981 -2.5027565199
49.4047616480 -11.2631550219 -2.5027565199
49.4213394871 -11.2772924824 -2.5027565199
49.4379590747 -11.2913808407 -2.5027565199
55.4204203413 -7.1360582896 -2.5006575584
55.9497873513 -6.8983904339 -2.5006575584
55.9430861853 -7.0135772870 -2.5006575584
55.9533858710 -6.9950815665 -2.5006575584
52.5811230230 -10.9470314670 -2.5006575584
52.5962250634 -10.9508044765 -2.5006575584
55.2896744851 -10.9090594605 -2.5006575584
52.4693524931 -10.9426883134 -2.5006575584
55.4012793367 -10.9015847395 -2.5006575584
55.4311762771 -10.8924018710 -2.5006575584
52.3722845110 -10.9403301507 -2.5006575584
52.3873676415 -10.9447209716 -2.5006575584
52.4478280701 -10.9618374985 -2.5006575584
52.2899341091 -10.9408044304 -2.5006575584
52.3201175401 -10.9500286387 -2.5006575584
52.2223276088 -10.9448316744 -2.5006575584
52.2374247117 -10.9496660752 -2.5006575584
52.2676614902 -10.9592007917 -2.5006575584
52.3131211042 -10.9731670304 -2.5006575584
55.6781315478 -10.8861583371 -2.5006575584
52.1544064358 -10.9479694427 -2.5006575584
52.1997708377 -10.9629411988 -2.5006575584
52.0861822118 -10.9502108652 -2.5006575584
54.5967564696 -11.2254086282 -2.5006575584
55.8829025609 -10.8859244669 -2.5006575584
55.9516724538 -10.8840175878 -2.5006575584
55.8254102018 -10.9603746883 -2.5006575584
56.1392769127 -10.8287443362 -2.5006575584
56.1540134699 -10.8219922005 -2.5006575584
56.1687299886 -10.8151965010 -2.5006575584
56.2127580267 -10.7945486158 -2.5006575584
56.2420075032 -10.7805666401 -2.5006575584
51.8104913419 -10.9500810106 -2.5006575584
55.8340622808 -10.9829462813 -2.5006575584
56.1936577798 -10.8302582770 -2.5006575584
56.2671553372 -10.7952580770 -2.5006575584
56.2964080591 -10.7809542561 -2.5006575584
56.3691651518 -10.7444397328 -2.5006575584
56.4987362825 -10.6760173879 -2.5006575584
56.5130194730 -10.6682025747 -2.5006575584
56.5699191869 -10.6365218304 -2.5006575584
56.5840852310 -10.6284966181 -2.5006575584
56.6123457893 -10.6123206521 -2.5006575584
51.7711643532 -10.9602151730 -2.5006575584
55.2353724915 -11.1989670465 -2.5006575584
55.2512081895 -11.1948872037 -2.5006575584
56.6668116757 -10.6085797598 -2.5006575584
56.7787783240 -10.5409246936 -2.5006575584
56.8203483308 -10.5148737722 -2.5006575584
51.6862367262 -10.9509355648 -2.5006575584
56.4494893880 -10.7572405424 -2.5006575584
56.8609802628 -10.5176512280 -2.5006575584
56.9707408744 -10.4454269590 -2.5006575584
54.9417154811 -11.3149766704 -2.5006575584
51.3944205048 -10.9509839216 -2.5006575584
51.2823492571 -10.9494906951 -2.5006575584
50.8876519640 -10.9550130818 -2.5006575584
50.8177107261 -10.9699582056 -2.5006575584
55.4118993162 -7.1524669415 -2.4989759922
55.9479052314 -6.9114325417 -2.4989759922
55.9599321501 -6.8763666437 -2.4989759922
55.9668988873 -6.8552430697 -2.4989759922
55.9448621265 -6.9896939272 -2.4989759922
55.9501981965 -6.9757055798 -2.4989759922
55.9580468942 -6.9546644773 -2.4989759922
55.9450412796 -7.0545380766 -2.4989759922
55.9674220827 -6.9983763034 -2.4989759922
55.9530083279 -7.1577507724 -2.4989759922
55.9440825270 -7.3902963767 -2.4989759922
55.9454193831 -7.4371081229 -2.4989759922
55.9465124956 -7.6204471546 -2.4989759922
55.9381438416 -7.8433062332 -2.4989759922
52.3745267435 -10.9534762071 -2.4989759922
52.3889463301 -10.9570303342 -2.4989759922
52.4467279201 -10.9708198244 -2.4989759922
52.2531881169 -10.9468285651 -2.4989759922
52.2675885695 -10.9507416630 -2.4989759922
52.2964238866 -10.9584399759 -2.4989759922
52.3253042448 -10.9659675547 -2.4989759922
52.3542286332 -10.9733241359 -2.4989759922
54.5882837303 -11.0241721037 -2.4989759922
52.1746454897 -10.9498459610 -2.4989759922
52.1890552120 -10.9539913889 -2.4989759922
52.2323570732 -10.9661716612 -2.4989759922
52.2468148374 -10.9701462964 -2.4989759922
55.0724083932 -10.9257809874 -2.4989759922
55.1010469455 -10.9168854812 -2.4989759922
52.0957241139 -10.9515994572 -2.4989759922
52.1101393686 -10.9559783412 -2.4989759922
52.1390084233 -10.9646080848 -2.4989759922
55.1942867920 -10.9121161786 -2.4989759922
55.2085716906 -10.9073291265 -2.4989759922
55.2370986924 -10.8976283555 -2.4989759922
52.0308612876 -10.9566919384 -2.4989759922
52.0741933442 -10.9702759866 -2.4989759922
55.3020981713 -10.9004897077 -2.4989759922
55.3163482049 -10.8953837809 -2.4989759922
51.9512414464 -10.9561219232 -2.4989759922
51.9656707116 -10.9609281932 -2.4989759922
52.0090429296 -10.9750906045 -2.4989759922
52.0380268282 -10.9843181341 -2.4989759922
55.3673957940 -10.9024840803 -2.4989759922
55.3958913512 -10.8918437373 -2.4989759922
51.8857246482 -10.9593011243 -2.4989759922
51.9001636047 -10.9643011909 -2.4989759922
51.9146172891 -10.9692585226 -2.4989759922
55.4187052435 -10.9090557411 -2.4989759922
55.4472387829 -10.8981117192 -2.4989759922
55.4614811469 -10.8925764506 -2.4989759922
51.7910595061 -10.9510916717 -2.4989759922
51.8199052339 -10.9616092845 -2.4989759922
51.8488126827 -10.9719560522 -2.4989759922
51.8632892363 -10.9770652558 -2.4989759922
51.8777808405 -10.9821316127 -2.4989759922
55.5130986401 -10.8981575337 -2.4989759922
55.5273408515 -10.8924274395 -2.4989759922
55.5415660499 -10.8866552394 -2.4989759922
51.7393600970 -10.9576066542 -2.4989759922
51.7971939812 -10.9790823100 -2.4989759922
55.5649624122 -10.9031996601 -2.4989759922
55.5934587452 -10.8913904341 -2.4989759922
51.6729686749 -10.9579563779 -2.4989759922
51.7018570835 -10.9691725356 -2.4989759922
51.7163260459 -10.9747164725 -2.4989759922
55.6740388364 -10.8832952255 -2.4989759922
51.6207466507 -10.9632412437 -2.4989759922
55.6979511860 -10.8992240963 -2.4989759922
55.7264216708 -10.8866281337 -2.4989759922
51.5394020676 -10.9559751558 -2.4989759922
51.5682810923 -10.9679815731 -2.4989759922
51.5011170059 -10.9660356901 -2.4989759922
55.8991117786 -10.8864628146 -2.4989759922
51.3516745932 -10.9528333600 -2.4989759922
55.9523553789 -10.8874033462 -2.4989759922
55.9665638555 -10.8803738982 -2.4989759922
51.3126929376 -10.9614631720 -2.4989759922
55.6440001263 -11.0536359057 -2.4989759922
55.7901831472 -10.9905065674 -2.4989759922
56.1748747367 -10.7987670985 -2.4989759922
56.2027425372 -10.7833512541 -2.4989759922
56.2166421133 -10.7755815709 -2.4989759922
56.2305186446 -10.7677708043 -2.4989759922
56.2857918945 -10.7361182754 -2.4989759922
56.2995513837 -10.7281031239 -2.4989759922
56.3269989303 -10.7119508873 -2.4989759922
56.4223027348 -10.6541452345 -2.4989759922
51.2446467813 -10.9560512104 -2.4989759922
51.3752576313 -11.0165767350 -2.4989759922
55.0490910630 -11.2854124483 -2.4989759922
55.3844662177 -11.1790608991 -2.4989759922
55.4145977975 -11.1683147212 -2.4989759922
55.4296396137 -11.1628748284 -2.4989759922
55.4446652719 -11.1573904629 -2.4989759922
55.4746675885 -11.1462885064 -2.4989759922
55.4896439844 -11.1406710126 -2.4989759922
55.5195465959 -11.1293032396 -2.4989759922
55.5493814286 -11.1177587516 -2.4989759922
55.5791474380 -11.1060379528 -2.4989759922
55.5940043083 -11.1001115649 -2.4989759922
56.5962964805 -10.5705737727 -2.4989759922
56.6360221744 -10.5436573495 -2.4989759922
51.2052605716 -10.9638633402 -2.4989759922
51.2197160013 -10.9708763226 -2.4989759922
55.1789412698 -11.2723732330 -2.4989759922
55.2096285138 -11.2628413766 -2.4989759922
55.2249508538 -11.2580074063 -2.4989759922
55.2860952068 -11.2382189032 -2.4989759922
55.3165785068 -11.2280536858 -2.4989759922
55.3773620190 -11.2071830987 -2.4989759922
56.7938922696 -10.4614701525 -2.4989759922
51.1368083561 -10.9569910365 -2.4989759922
55.0466575776 -11.3363001239 -2.4989759922
56.6098235308 -10.6196909418 -2.4989759922
55.0062378731 -11.3724242699 -2.4989759922
55.2550090215 -11.2991691223 -2.4989759922
56.7036698491 -10.5851293591 -2.4989759922
56.7435204875 -10.5572594843 -2.4989759922
54.7166408255 -11.4913280474 -2.4989759922
54.6088335886 -11.5373940961 -2.4989759922
57.3227476513 -10.1847145596 -2.4989759922
54.4018342188 -11.5967036468 -2.4989759922
54.5158702845 -11.5785704202 -2.4989759922
55.9602781429 -7.2070537171 -2.5006785393
55.9794638946 -7.1449147668 -2.5006785393
55.9486912271 -7.3152921611 -2.5006785393
55.9357238669 -5.3805156371 -2.5006785393
55.9356293318 -7.4791897879 -2.5006785393
55.9578376212 -7.4887358428 -2.5006785393
55.9489516766 -7.5680460466 -2.5006785393
55.9413011953 -7.7465192252 -2.5006785393
55.9429888309 -8.6697388242 -2.5006785393
52.1913032588 -10.9529307174 -2.5006785393
52.2184653075 -10.9596717804 -2.5006785393
52.2456667633 -10.9662520256 -2.5006785393
52.2592819713 -10.9694817693 -2.5006785393
54.6530317684 -10.9109398966 -2.5006785393
52.0901839792 -10.9513909599 -2.5006785393
52.1581509789 -10.9694377735 -2.5006785393
52.1717759938 -10.9729263908 -2.5006785393
54.7540397090 -10.9059523634 -2.5006785393
52.0157710111 -10.9555609515 -2.5006785393
52.0293555989 -10.9594708152 -2.5006785393
54.8419819558 -10.9031714359 -2.5006785393
54.9034184784 -10.9079959860 -2.5006785393
54.9168497257 -10.9033638744 -2.5006785393
54.9786205905 -10.9071839745 -2.5006785393
54.9920491067 -10.9023294049 -2.5006785393
55.0541379826 -10.9051362411 -2.5006785393
55.0809671588 -10.8949406489 -2.5006785393
55.1433625348 -10.8965411018 -2.5006785393
55.2060376949 -10.8972960292 -2.5006785393
55.2689813285 -10.8971990493 -2.5006785393
55.3053407302 -10.9079257704 -2.5006785393
55.3553541405 -10.9124508696 -2.5006785393
55.4459090836 -10.8979719541 -2.5006785393
55.5098215720 -10.8945955948 -2.5006785393
55.5337021169 -10.9099472442 -2.5006785393
55.5471363786 -10.9034506310 -2.5006785393
55.5980715719 -10.9053746319 -2.5006785393
55.6114920254 -10.8986876223 -2.5006785393
55.7139831154 -10.9005839231 -2.5006785393
55.8306530447 -10.8929214270 -2.5006785393
55.8959373805 -10.8842335974 -2.5006785393
55.7148551448 -11.0360841753 -2.5006785393
56.1063389988 -10.8157908293 -2.5006785393
56.1588057242 -10.7827972164 -2.5006785393
56.1848917681 -10.7660681800 -2.5006785393
56.1978975603 -10.7576458597 -2.5006785393
57.4999361967 -9.5537634785 -2.5006785393
55.5294782093 -11.1522179379 -2.5006785393
55.5859660803 -11.1260264580 -2.5006785393
55.6000393147 -11.1193742931 -2.5006785393
56.3146808969 -10.7088431802 -2.5006785393
56.3531102942 -10.6823114309 -2.5006785393
56.3658675828 -10.6733918562 -2.5006785393
56.4166312088 -10.6373373494 -2.5006785393
56.4919678791 -10.5821356869 -2.5006785393
56.5908702342 -10.5064701458 -2.5006785393
57.7185915684 -9.2901899562 -2.5006785393
55.2950081623 -11.2784789243 -2.5006785393
55.3530064263 -11.2550529638 -2.5006785393
56.4938825395 -10.6108426494 -2.5006785393
56.5811143967 -10.5447172129 -2.5006785393
56.6057844882 -10.5254938234 -2.5006785393
55.0830638364 -11.3830145065 -2.5006785393
56.8855534721 -10.3225907291 -2.5006785393
54.9260637378 -11.4600145044 -2.5006785393
55.0461780543 -11.4211575609 -2.5006785393
56.7218350526 -10.4944912381 -2.5006785393
56.7462055276 -10.4744361769 -2.5006785393
57.1966057325 -10.0555119017 -2.5006785393
54.6953800620 -11.5759470824 -2.5006785393
56.9575825446 -10.3553234142 -2.5006785393
54.6549449048 -11.6111843333 -2.5006785393
55.3751667739 -7.3710306095 -2.4996461868
55.3761487887 -7.6468058908 -2.4996461868
55.3934531185 -7.7822916783 -2.4996461868
55.9459968627 -7.6473764220 -2.4996461868
55.9516190691 -7.6309067693 -2.4996461868
55.9356588428 -5.7008685966 -2.4996461868
55.9297650361 -5.6844941742 -2.4996461868
55.9421310725 -7.7295489950 -2.4996461868
55.9521566665 -7.7710854472 -2.4996461868
55.9338781425 -5.5607001984 -2.4996461868
55.9342011005 -7.8788634778 -2.4996461868
55.9615849699 -7.8130036377 -2.4996461868
55.9596163080 -5.5598406917 -2.4996461868
55.9339354122 -7.9970448661 -2.4996461868
55.9454357433 -7.9724212546 -2.4996461868
55.9507625929 -5.4169103498 -2.4996461868
55.9612642840 -5.3820039076 -2.4996461868
55.9304416871 -5.2643956973 -2.4996461868
55.9373119718 -8.1524359603 -2.4996461868
55.9306361992 -5.0171614579 -2.4996461868
54.5446069154 -10.9093261685 -2.4996461868
54.5695524387 -10.9010905198 -2.4996461868
54.5820068192 -10.8969173865 -2.4996461868
54.4006405615 -10.9788567962 -2.4996461868
54.4386631798 -10.9677228967 -2.4996461868
54.6022305004 -10.9155936789 -2.4996461868
54.6852075382 -10.9121655334 -2.4996461868
54.7685130475 -10.9071163556 -2.4996461868
54.8396495367 -10.9054056012 -2.4996461868
54.9235413299 -10.8973250236 -2.4996461868
54.9827975807 -10.8984158134 -2.4996461868
55.0646798050 -10.9151670231 -2.4996461868
55.1372157650 -10.9085080903 -2.4996461868
55.2224182780 -10.8945556779 -2.4996461868
55.6623022581 -10.9041773874 -2.4996461868
55.5789746427 -11.1458618665 -2.4996461868
55.6707428950 -11.0949245420 -2.4996461868
55.6967667713 -11.0800230463 -2.4996461868
55.7356361437 -11.0573827701 -2.4996461868
56.1491757483 -10.7860437434 -2.4996461868
56.1612828882 -10.7771983021 -2.4996461868
56.2094481978 -10.7414595513 -2.4996461868
56.2927078039 -10.6775544563 -2.4996461868
56.3162514931 -10.6589805120 -2.4996461868
55.3894520447 -11.2702966486 -2.4996461868
55.4704137546 -11.2300963504 -2.4996461868
55.4838374523 -11.2232568669 -2.4996461868
55.5106238568 -11.2094589206 -2.4996461868
55.5239863293 -11.2025005786 -2.4996461868
55.6037235917 -11.1599232204 -2.4996461868
55.6433056973 -11.1381055039 -2.4996461868
56.4363482137 -10.5922145596 -2.4996461868
56.4708594358 -10.5630301221 -2.4996461868
56.6284259709 -10.4228395256 -2.4996461868
56.3581503312 -10.6874198788 -2.4996461868
55.0768336719 -11.4614248029 -2.4996461868
55.1472125651 -11.4326270888 -2.4996461868
54.9288036573 -11.5438162926 -2.4996461868
54.9574963131 -11.5332965023 -2.4996461868
55.3534245354 -7.6483096615 -2.5001611710
55.3616018181 -7.7094378632 -2.5001611710
55.3615824337 -7.7918618037 -2.5001611710
55.3868132443 -7.7092356790 -2.5001611710
55.3863099637 -7.8693717859 -2.5001611710
55.9391024686 -7.9700326995 -2.5001611710
55.9428525345 -6.1214308652 -2.5001611710
55.9373681098 -6.1043130928 -2.5001611710
55.9331081275 -8.0632503320 -2.5001611710
55.9450152917 -8.0290268957 -2.5001611710
55.9372364429 -6.0281896799 -2.5001611710
55.9466231307 -8.0971042818 -2.5001611710
55.9497379605 -8.0885215411 -2.5001611710
55.9630558699 -6.0288262114 -2.5001611710
55.9450606235 -8.2346838468 -2.5001611710
55.9624154999 -8.1916871898 -2.5001611710
55.9704241782 -5.9085163568 -2.5001611710
55.9392711117 -5.8310896705 -2.5001611710
55.9492813703 -8.2869619763 -2.5001611710
55.9651654267 -5.8303964642 -2.5001611710
55.9579587542 -5.8131517748 -2.5001611710
55.9543171899 -5.8045454945 -2.5001611710
55.9654034003 -5.7691420729 -2.5001611710
55.9589497984 -8.3840462308 -2.5001611710
55.9629134004 -8.3754257700 -2.5001611710
55.9524405943 -5.6816621106 -2.5001611710
55.9522263005 -8.4546388731 -2.5001611710
55.9627882383 -5.5917828466 -2.5001611710
55.9573678307 -8.6541639712 -2.5001611710
55.9510284109 -5.3652476797 -2.5001611710
55.9413764290 -5.2547030577 -2.5001611710
55.9416154055 -5.0343482612 -2.5001611710
55.9448109030 -4.9550536582 -2.5001611710
54.0587248556 -10.9399915170 -2.5001611710
54.1736384047 -10.9083557857 -2.5001611710
54.1965059996 -10.9016214990 -2.5001611710
54.3711090188 -10.8964357847 -2.5001611710
54.2636326262 -10.9570023172 -2.5001611710
54.3904299133 -10.9153408192 -2.5001611710
54.3130982862 -10.9920903059 -2.5001611710
54.6107127037 -10.9101386321 -2.5001611710
54.4338314880 -11.0026126255 -2.5001611710
54.6657190293 -10.9136668254 -2.5001611710
54.7766247459 -10.9184277216 -2.5001611710
54.8439725389 -10.9143480074 -2.5001611710
54.9230136576 -10.9035866131 -2.5001611710
55.4169415240 -10.9084509135 -2.5001611710
55.4997635642 -10.9138192752 -2.5001611710
55.5442986739 -11.1987373197 -2.5001611710
55.5688602746 -11.1838886644 -2.5001611710
55.7023481872 -11.0996423963 -2.5001611710
55.7143461366 -11.0917691277 -2.5001611710
56.0853922757 -10.8214930131 -2.5001611710
56.1740272294 -10.7485317562 -2.5001611710
56.2501478558 -10.6829854724 -2.5001611710
56.2823524020 -10.6544143553 -2.5001611710
56.3036806881 -10.6352086529 -2.5001611710
56.3354591338 -10.6061643434 -2.5001611710
55.3815443352 -11.3197943223 -2.5001611710
55.4068249983 -11.3059064577 -2.5001611710
55.4571376193 -11.2776832422 -2.5001611710
56.5075762106 -10.4738025622 -2.5001611710
56.5977630826 -10.3804587221 -2.5001611710
55.2000193988 -11.4408589134 -2.5001611710
56.6450218884 -10.3652212366 -2.5001611710
55.0921410481 -11.5186069705 -2.5001611710
55.1021826307 -11.5405956472 -2.5001611710
57.0274943311 -10.0189865223 -2.5001611710
54.5644691852 -11.8253330808 -2.5001611710
54.6772841602 -11.7880807516 -2.5001611710
55.9476961597 -8.3080005575 -2.4999349117
55.9529776139 -8.2905200562 -2.4999349117
55.9810396325 -6.6226174617 -2.4999349117
55.9641670760 -6.5609726046 -2.4999349117
55.9539536720 -6.5259080722 -2.4999349117
55.9322857973 -6.4561538129 -2.4999349117
55.9542227897 -8.3677192937 -2.4999349117
55.9626358783 -8.3414266289 -2.4999349117
55.9718184980 -6.5013875386 -2.4999349117
55.9437431269 -6.4137586917 -2.4999349117
55.9684997148 -8.4016089840 -2.4999349117
55.9357587417 -6.3186092136 -2.4999349117
55.9539487451 -8.5149688508 -2.4999349117
55.9680421876 -6.3365551633 -2.4999349117
55.9385042715 -6.2578103094 -2.4999349117
55.9631609801 -8.5586427715 -2.4999349117
55.9644336448 -6.2577967864 -2.4999349117
55.9500531643 -8.6553189150 -2.4999349117
55.9646220268 -8.6202747680 -2.4999349117
55.9495201073 -8.7173608541 -2.4999349117
55.9313064675 -6.0554978593 -2.4999349117
55.9492258029 -6.0366484342 -2.4999349117
55.9328093976 -6.0017973997 -2.4999349117
55.9506514374 -5.9282600061 -2.4999349117
55.9436643183 -8.9515671103 -2.4999349117
55.9544414215 -5.8823290750 -2.4999349117
55.9437000230 -9.0530691668 -2.4999349117
55.9357461427 -5.7459260761 -2.4999349117
55.9666371035 -5.7515852805 -2.4999349117
55.9367960461 -5.6991180640 -2.4999349117
55.9367929711 -5.6047450884 -2.4999349117
55.9430390035 -9.2895709827 -2.4999349117
55.9340992759 -5.4219390307 -2.4999349117
53.8525263531 -10.9219973160 -2.4999349117
53.8629218503 -10.9194474252 -2.4999349117
53.8733097589 -10.9168667937 -2.4999349117
53.8836899881 -10.9142554442 -2.4999349117
53.9044270450 -10.9089406827 -2.4999349117
53.9354727659 -10.9007387355 -2.4999349117
53.8582502684 -10.9454828877 -2.4999349117
53.9104976949 -10.9323390265 -2.4999349117
53.9729294483 -10.9155485131 -2.4999349117
53.9833053420 -10.9126424763 -2.4999349117
54.0040311125 -10.9067383853 -2.4999349117
54.0247215898 -10.9007117769 -2.4999349117
54.0002952250 -10.9329538990 -2.4999349117
54.0834595290 -10.9081955553 -2.4999349117
54.1633775436 -10.9078543542 -2.4999349117
54.2230207413 -10.9130175319 -2.4999349117
54.2644246455 -10.8982503822 -2.4999349117
54.3102284581 -10.9586949911 -2.4999349117
54.4862713101 -10.9147727382 -2.4999349117
54.4012100970 -10.9756999967 -2.4999349117
54.5477764454 -10.9144495517 -2.4999349117
54.5685030281 -10.9052058284 -2.4999349117
54.6406505539 -10.8986095503 -2.4999349117
54.7027424190 -10.8956124241 -2.4999349117
54.7967609952 -10.9024976566 -2.4999349117
54.8389752816 -10.9077668995 -2.4999349117
54.9124634194 -10.8956881403 -2.4999349117
54.9551781385 -10.8996235062 -2.4999349117
55.6844231706 -4.0880853097 -2.4999349117
56.1603013943 -4.2919351136 -2.4999349117
56.1232259539 -4.2547086751 -2.4999349117
55.7968187750 -10.9138665347 -2.4999349117
56.1947578647 -4.2580220958 -2.4999349117
55.8791122490 -10.9093805086 -2.4999349117
55.6403022508 -11.1523446345 -2.4999349117
55.7172944436 -11.0967839022 -2.4999349117
56.1536222957 -10.7310724458 -2.4999349117
56.1634429343 -10.7217163323 -2.4999349117
56.1732358529 -10.7123312085 -2.4999349117
56.1927381873 -10.6934742589 -2.4999349117
56.2505710473 -10.6362157563 -2.4999349117
55.4269408614 -11.3226984577 -2.4999349117
55.5075061113 -11.2715190252 -2.4999349117
55.5417063847 -11.2490763727 -2.4999349117
55.6653715760 -11.1642112244 -2.4999349117
56.1104555558 -10.8044145245 -2.4999349117
56.2773201249 -10.6435488233 -2.4999349117
56.4449477603 -10.4643085715 -2.4999349117
55.4163573455 -11.3576259569 -2.4999349117
56.6045832852 -10.3128529379 -2.4999349117
55.1898870544 -11.5151646244 -2.4999349117
55.2383481561 -11.4889149094 -2.4999349117
56.8649120317 -10.0428753655 -2.4999349117
54.9379965627 -11.6931975952 -2.4999349117
54.9885818671 -11.6699159021 -2.4999349117
57.0979656126 -9.7618587671 -2.4999349117
55.9602540628 -6.8608833526 -2.5000250340
55.9547855982 -6.8434604488 -2.5000250340
55.9492141495 -6.8260702032 -2.5000250340
55.9382934518 -8.8333786938 -2.5000250340
55.9475577782 -8.8073737608 -2.5000250340
55.9536056267 -8.7899919056 -2.5000250340
55.9565909606 -8.7812876361 -2.5000250340
55.9331986622 -6.7055495504 -2.5000250340
55.9416598990 -8.8937522599 -2.5000250340
55.9610283984 -8.8415919444 -2.5000250340
55.9590737133 -6.7059388498 -2.5000250340
55.9429179576 -6.6624774208 -2.5000250340
55.9362759603 -6.6451605557 -2.5000250340
55.9437978288 -8.9545755609 -2.5000250340
55.9335782957 -9.0417951779 -2.5000250340
55.9446923871 -9.0158238821 -2.5000250340
55.9595181220 -9.0426922303 -2.5000250340
55.9341625596 -6.4527819049 -2.5000250340
55.9507073175 -9.1221359180 -2.5000250340
55.9355453252 -9.2105187923 -2.5000250340
55.9283976943 -6.2743864740 -2.5000250340
55.9391553711 -9.3102621423 -2.5000250340
55.9436798216 -9.3015983429 -2.5000250340
55.9543501148 -6.2720115427 -2.5000250340
55.9420781960 -9.3562563975 -2.5000250340
55.9467386930 -9.3475837506 -2.5000250340
55.9359254242 -9.4664066862 -2.5000250340
55.9409117927 -9.4577517583 -2.5000250340
55.9416324568 -9.5045659969 -2.5000250340
55.9488809312 -6.0132772632 -2.5000250340
54.4824186790 -10.8967481590 -2.5000250340
55.9409656311 -9.5989366167 -2.5000250340
54.5959521062 -10.8950197588 -2.5000250340
55.9509372161 -9.8040905864 -2.5000250340
54.8878508482 -10.8991921544 -2.5000250340
55.1190405593 -10.8951246736 -2.5000250340
55.2853261391 -10.8965597118 -2.5000250340
54.9283334067 -4.0949185508 -2.5000250340
54.9174343505 -4.0892677649 -2.5000250340
55.6830799285 -11.1405868077 -2.5000250340
56.1496953555 -10.7103146005 -2.5000250340
55.6070984924 -11.2298089740 -2.5000250340
55.6780466229 -11.1753487489 -2.5000250340
55.7280259071 -11.1355549385 -2.5000250340
56.3444295028 -10.5252861142 -2.5000250340
56.3767216108 -10.4856706921 -2.5000250340
55.3902528198 -11.4114550405 -2.5000250340
55.4756028671 -11.3541756771 -2.5000250340
56.4590686833 -10.4200197189 -2.5000250340
56.4901072050 -10.3790552020 -2.5000250340
55.2500985643 -11.5275372553 -2.5000250340
55.3382347419 -11.4735418954 -2.5000250340
55.3926615879 -11.4387414166 -2.5000250340
56.7344795544 -10.1080949180 -2.5000250340
56.8552773491 -9.9526189174 -2.5000250340
55.0227312614 -11.7356347223 -2.5000250340
55.1158553722 -11.6869613467 -2.5000250340
54.7826447135 -11.8749785469 -2.5000250340
55.5729298989 -4.0897137491 -2.5000250340
56.3643039955 -4.4384902061 -2.5000250340
56.3045331347 -4.3795304818 -2.5000250340
55.7679825931 -3.9314959647 -2.5000250340
55.6064277857 -3.8207151299 -2.5000250340
55.5947146192 -3.8130596180 -2.5000250340
55.5358119163 -3.7753036349 -2.5000250340
55.5002045132 -3.7530696797 -2.5000250340
56.5174507189 -4.5637852928 -2.5000250340
55.4528313938 -3.6959716891 -2.5000250340
55.3678183459 -3.6463208576 -2.5000250340
56.8525413581 -4.8916361664 -2.5000250340
56.5338269096 -4.5102273658 -2.5000250340
56.5320659708 -4.4729082570 -2.5000250340
57.0646114198 -5.1090041791 -2.5000250340
55.3848905163 -7.6569983850 -2.5000011921
55.3712593593 -7.5962881920 -2.5000011921
55.3775613302 -7.5229829160 -2.5000011921
55.3603652090 -7.4625153234 -2.5000011921
55.3952884406 -7.4962674049 -2.5000011921
55.3835262173 -7.4555941260 -2.5000011921
55.9598346065 -9.0838571862 -2.5000011921
55.9471976519 -9.2608535733 -2.5000011921
55.9634844453 -9.2185886098 -2.5000011921
55.9624449570 -7.0558713117 -2.5000011921
55.9394119050 -6.9967907039 -2.5000011921
55.9560177682 -6.9107883046 -2.5000011921
55.9375452231 -6.8686499472 -2.5000011921
55.9493948839 -9.4410380956 -2.5000011921
55.9602839608 -6.6387104692 -2.5000011921
55.9380823830 -6.3124831213 -2.5000011921
55.6941393315 -11.1564267355 -2.5000011921
55.7030552283 -11.1487333869 -2.5000011921
55.7296658238 -11.1254955645 -2.5000011921
55.7384900652 -11.1176972575 -2.5000011921
55.7648238371 -11.0941461930 -2.5000011921
55.9016734371 -10.9646553521 -2.5000011921
56.2229959009 -10.6046707903 -2.5000011921
56.1288230144 -10.7566686011 -2.5000011921
56.3695623378 -10.4487945652 -2.5000011921
56.3831729235 -10.4293978823 -2.5000011921
56.4033730379 -10.4001527233 -2.5000011921
55.5023750512 -11.3717872813 -2.5000011921
55.5499320266 -11.3358705142 -2.5000011921
56.5146714117 -10.2741698903 -2.5000011921
55.6307129476 -11.3032865948 -2.5000011921
56.3722123207 -10.5687859380 -2.5000011921
54.2790698885 -4.0845250723 -2.5000011921
54.3819810167 -4.0905690512 -2.5000011921
54.4613408840 -4.0910885490 -2.5000011921
54.4373705429 -4.0830928154 -2.5000011921
54.4253677376 -4.0791481651 -2.5000011921
54.5171248955 -4.0846894668 -2.5000011921
54.3844822376 -4.0406620626 -2.5000011921
54.5612347528 -4.0747004131 -2.5000011921
54.6657157203 -4.0879222915 -2.5000011921
54.6417230696 -4.0787174632 -2.5000011921
54.7556092938 -4.0716163012 -2.5000011921
54.8610346891 -4.0898191663 -2.5000011921
54.8490499279 -4.0846212113 -2.5000011921
55.1401001315 -4.0873303649 -2.5000011921
55.2461986114 -4.0877729777 -2.5000011921
55.3769365375 -4.0764979616 -2.5000011921
55.5579177014 -4.0700523115 -2.5000011921
55.7789898155 -4.0666927650 -2.5000011921
56.1858704446 -4.2726616802 -2.5000011921
56.1283538448 -4.2274122810 -2.5000011921
56.1051608652 -4.2095515531 -2.5000011921
56.0935248505 -4.2006727240 -2.5000011921
56.0701742802 -4.1830185241 -2.5000011921
55.7574516713 -3.9663319324 -2.5000011921
56.4142909629 -4.4342259994 -2.5000011921
56.4033182232 -4.4244317246 -2.5000011921
56.3702268382 -4.3952442546 -2.5000011921
56.3032735367 -4.3377560407 -2.5000011921
56.2920159072 -4.3282905976 -2.5000011921
56.1894513380 -4.2446119108 -2.5000011921
56.1779186694 -4.2354835818 -2.5000011921
55.6578872174 -3.8762892685 -2.5000011921
55.6072742789 -3.8462967032 -2.5000011921
55.5818356114 -3.8315255271 -2.5000011921
55.5178605089 -3.7952582897 -2.5000011921
55.4662985770 -3.7669282581 -2.5000011921
56.6238052245 -4.5988553769 -2.5000011921
56.4414115880 -4.4260904256 -2.5000011921
56.2620158019 -4.2720555522 -2.5000011921
56.7445182132 -4.6880773305 -2.5000011921
55.3750325079 -7.6328370151 -2.5000011921
55.3691683641 -7.4400151886 -2.5000011921
55.9471303091 -9.4451243936 -2.5000011921
55.9556288785 -9.4211240162 -2.5000011921
55.9581205367 -9.4854442119 -2.5000011921
55.9369103747 -7.4103447362 -2.5000011921
55.9417028563 -7.2961650957 -2.5000011921
55.9528669292 -9.6893032115 -2.5000011921
55.9489237890 -9.8647560196 -2.5000011921
55.9452768308 -10.0713097047 -2.5000011921
55.9505203825 -6.3728478569 -2.5000011921
54.5060737363 -4.0916557830 -2.5000011921
54.5648046342 -4.0837075301 -2.5000011921
54.6758530713 -4.0931387231 -2.5000011921
54.6963719080 -4.0744247053 -2.5000011921
54.8813848873 -4.0880981311 -2.5000011921
54.8553989561 -4.0785053127 -2.5000011921
55.0767678267 -4.0872458356 -2.5000011921
55.2977600454 -4.0791388795 -2.5000011921
55.6100914016 -4.0734957252 -2.5000011921
56.2601580499 -4.2800065893 -2.5000011921
56.2228067697 -4.2534316614 -2.5000011921
56.1600352820 -4.2098800658 -2.5000011921
55.5817472339 -3.8678702261 -2.5000011921
55.5407651895 -3.8473320430 -2.5000011921
55.5133432651 -3.8338423231 -2.5000011921
55.4996024941 -3.8271583613 -2.5000011921
56.5181993024 -4.4467473029 -2.5000011921
55.3710242777 -3.7405098573 -2.5000011921
56.7783748661 -4.6398175312 -2.5000011921
56.2506592043 -4.2139147914 -2.5000011921
55.1390934269 -3.6172002816 -2.5000011921
57.0163926107 -4.8385518323 -2.5000011921
55.3487534575 -7.6756211216 -2.5000011921
55.3773384623 -7.4508739405 -2.5000011921
55.9476210425 -9.6899377063 -2.5000011921
55.9607742294 -9.6529929972 -2.5000011921
55.9782676557 -9.6009521835 -2.5000011921
55.9639610925 -7.9206418485 -2.5000011921
55.9565102143 -9.7352947023 -2.5000011921
55.9593186798 -9.7278948948 -2.5000011921
55.9369635335 -7.7793470724 -2.5000011921
55.9556342586 -9.8033304351 -2.5000011921
55.9586439900 -9.7959329211 -2.5000011921
55.9186184723 -7.6748048428 -2.5000011921
55.9439586597 -7.6722430130 -2.5000011921
55.9340103929 -7.6502114566 -2.5000011921
55.9247096115 -7.5740311328 -2.5000011921
55.9419200725 -10.0101642389 -2.5000011921
55.9281222330 -7.5267093012 -2.5000011921
55.9635923887 -10.0208715259 -2.5000011921
55.9672456111 -10.0134495185 -2.5000011921
55.9534097039 -7.5231428206 -2.5000011921
55.9511096041 -10.0984544794 -2.5000011921
55.9588533026 -10.0836721847 -2.5000011921
55.9525793486 -10.1468029182 -2.5000011921
55.9413702584 -7.3973054081 -2.5000011921
55.9464087125 -10.3931596286 -2.5000011921
54.8587011424 -4.0876683223 -2.5000011921
54.8448077111 -4.0835407433 -2.5000011921
54.5786633566 -4.0129680549 -2.5000011921
54.9213429372 -4.0815107276 -2.5000011921
54.6408314558 -4.0031172751 -2.5000011921
54.9982403674 -4.0807218163 -2.5000011921
54.9703978153 -4.0716823364 -2.5000011921
55.0754799578 -4.0811842557 -2.5000011921
55.0336972585 -4.0670013715 -2.5000011921
55.1391326398 -4.0779096997 -2.5000011921
55.1252091137 -4.0729525964 -2.5000011921
55.2030883583 -4.0754864665 -2.5000011921
55.1891573839 -4.0703401812 -2.5000011921
55.2812558799 -4.0792987909 -2.5000011921
55.2673358411 -4.0739212553 -2.5000011921
55.2394483450 -4.0632898351 -2.5000011921
55.3318637005 -4.0732206170 -2.5000011921
55.3039709298 -4.0622074407 -2.5000011921
55.2479923587 -4.0406771150 -2.5000011921
55.3966604345 -4.0733909532 -2.5000011921
55.4617144290 -4.0744385136 -2.5000011921
55.4198566557 -4.0568282808 -2.5000011921
55.4991364032 -4.0642015887 -2.5000011921
55.5786254716 -4.0728911463 -2.5000011921
55.5646851767 -4.0666339656 -2.5000011921
55.6304610080 -4.0699600615 -2.5000011921
56.1945095981 -4.2320744600 -2.5000011921
56.1404786293 -4.1999949753 -2.5000011921
55.8788301871 -4.0564528732 -2.5000011921
56.5371820553 -4.4270849752 -2.5000011921
56.4724311275 -4.3819961014 -2.5000011921
56.4594013101 -4.3730935294 -2.5000011921
56.4201546450 -4.3466176246 -2.5000011921
56.4070204005 -4.3378698508 -2.5000011921
56.3938603359 -4.3291609687 -2.5000011921
56.3010266251 -4.2692941214 -2.5000011921
56.2742769292 -4.2525436201 -2.5000011921
56.2069732248 -4.2113623067 -2.5000011921
56.1798824309 -4.1951692709 -2.5000011921
55.3861881088 -3.8088667145 -2.5000011921
55.3567303809 -3.7975367633 -2.5000011921
57.9577800781 -5.8745427396 -2.5000011921
56.7920167711 -4.5881060745 -2.5000011921
56.7546651238 -4.5586699271 -2.5000011921
56.7044593700 -4.5199395584 -2.5000011921
56.6665062309 -4.4912831182 -2.5000011921
56.6283002766 -4.4629646192 -2.5000011921
56.4730087798 -4.3531142389 -2.5000011921
56.1785805532 -4.1663109830 -2.5000011921
56.1237725556 -4.1344245820 -2.5000011921
55.3653412497 -3.7749494169 -2.5000011921
55.2463186199 -3.7311808509 -2.5000011921
55.2313689382 -3.7259081891 -2.5000011921
55.2014231094 -3.7154956521 -2.5000011921
55.1864272244 -3.7103558680 -2.5000011921
56.8195114775 -4.5791169745 -2.5000011921
56.7945857232 -4.5592935202 -2.5000011921
55.1186879096 -3.6623319372 -2.5000011921
55.0579907966 -3.6430219599 -2.5000011921
54.9970694482 -3.6244315310 -2.5000011921
57.0783446187 -4.7673775646 -2.5000011921
55.0499048401 -3.6152072612 -2.5000011921
54.9886549414 -3.5967144562 -2.5000011921
54.9271905150 -3.5789476831 -2.5000011921
57.1419996502 -4.7927587917 -2.5000011921
56.7739145946 -4.4818112791 -2.5000011921
54.9182981414 -3.5513387455 -2.5000011921
54.5421127779 -3.3865304763 -2.5000011921
58.6625349209 -6.7841642855 -2.5000011921
54.1985622817 -3.2554735870 -2.5000011921
55.3915618881 -7.7822897872 -2.5000011921
55.9336772082 -9.1003605621 -2.5000011921
55.9338360229 -9.0938063069 -2.5000011921
55.9340954829 -9.0806965305 -2.5000011921
55.9343392339 -9.0610295614 -2.5000011921
55.9457088575 -9.8968953263 -2.5000011921
55.9482239134 -9.8903019942 -2.5000011921
55.9580887669 -9.8638551321 -2.5000011921
55.9605060297 -9.8572253225 -2.5000011921
55.9195164225 -7.2799577630 -2.5000011921
55.0515539126 -4.0781051231 -2.5000011921
52.4638682136 -4.0575170212 -2.5000011921
52.4196707170 -4.0688441782 -2.5000011921
52.3902623173 -4.0766133292 -2.5000011921
55.1608300398 -4.0835683503 -2.5000011921
52.4283561639 -4.0416175411 -2.5000011921
52.3692630779 -4.0572288328 -2.5000011921
52.3397868401 -4.0652964156 -2.5000011921
55.2117462216 -4.0734166748 -2.5000011921
52.1713526455 -4.0897006246 -2.5000011921
52.1567054836 -4.0942979297 -2.5000011921
55.2776795084 -4.0683715835 -2.5000011921
55.2629556599 -4.0637799052 -2.5000011921
52.1788767629 -4.0620511168 -2.5000011921
52.1641477759 -4.0666262852 -2.5000011921
52.1053691011 -4.0853620626 -2.5000011921
55.3586625684 -4.0690254145 -2.5000011921
52.1126335638 -4.0576034427 -2.5000011921
55.5362597217 -4.0796358899 -2.5000011921
55.5215680636 -4.0742792353 -2.5000011921
55.5068606239 -4.0689660648 -2.5000011921
55.6034479392 -4.0788980633 -2.5000011921
55.5887538045 -4.0733426571 -2.5000011921
55.6562130212 -4.0733034555 -2.5000011921
55.6415021058 -4.0675919851 -2.5000011921
55.7092251924 -4.0682561523 -2.5000011921
55.0834672015 -3.8364777537 -2.5000011921
54.4434601678 -3.7095375105 -2.5000011921
55.8454162597 -4.0723179295 -2.5000011921
56.0598307648 -4.1428453414 -2.5000011921
55.6162839079 -3.9545871423 -2.5000011921
56.4554905369 -4.3243941369 -2.5000011921
56.2577636349 -4.2151060020 -2.5000011921
56.2434695651 -4.2076144157 -2.5000011921
55.4879866576 -3.8829949766 -2.5000011921
55.4574250110 -3.8726141927 -2.5000011921
55.4114687234 -3.8573824936 -2.5000011921
56.7700553048 -4.4923296584 -2.5000011921
56.7565790712 -4.4833214077 -2.5000011921
55.2797029962 -3.7909719806 -2.5000011921
53.6968813696 -3.5637943606 -2.5000011921
57.0613911770 -4.6713760796 -2.5000011921
56.9569986931 -4.5934876757 -2.5000011921
55.2397120645 -3.7540897883 -2.5000011921
55.0194154750 -3.6956272453 -2.5000011921
57.2171626756 -4.7637471342 -2.5000011921
54.9136343322 -3.6462284840 -2.5000011921
54.5674669388 -3.5321231354 -2.5000011921
55.9442990034 -8.4777048209 -2.5000011921
55.9326222329 -8.4493820479 -2.5000011921
55.9383428713 -8.2888414782 -2.5000011921
55.9541308112 -8.2665310297 -2.5000011921
55.4229694546 -4.0801384896 -2.5000011921
55.3923406721 -4.0719500053 -2.5000011921
55.3770082477 -4.0679237530 -2.5000011921
52.7104518387 -4.0575922280 -2.5000011921
52.6643973616 -4.0694504515 -2.5000011921
55.5059815592 -4.0781628412 -2.5000011921
52.5967509454 -4.0625879655 -2.5000011921
52.5749265436 -4.0435423455 -2.5000011921
52.5595224115 -4.0478506380 -2.5000011921
52.5441310916 -4.0522044800 -2.5000011921
52.5133874266 -4.0610486591 -2.5000011921
57.1495331851 -4.8114003926 -2.5000011921
57.0167944567 -4.7208868381 -2.5000011921
56.9629590368 -4.6857874889 -2.5000011921
55.7036607318 -4.0880581048 -2.5000011921
55.6730738919 -4.0782088180 -2.5000011921
52.5066357959 -4.0378376538 -2.5000011921
52.4758077882 -4.0469039192 -2.5000011921
52.4604140340 -4.0515054083 -2.5000011921
52.4450339591 -4.0561524147 -2.5000011921
52.4296676983 -4.0608448979 -2.5000011921
57.2160146361 -4.8290964664 -2.5000011921
57.1502344326 -4.7823636260 -2.5000011921
55.7724057367 -4.0854012913 -2.5000011921
55.7571114407 -4.0802506789 -2.5000011921
52.3302645380 -4.0669734221 -2.5000011921
52.3149307898 -4.0720053666 -2.5000011921
57.4368051612 -4.9661825598 -2.5000011921
57.2825129959 -4.8477466880 -2.5000011921
55.8719994491 -4.0944967249 -2.5000011921
52.2919729634 -4.0541483845 -2.5000011921
52.2612452124 -4.0644843818 -2.5000011921
52.1999758509 -4.0857008526 -2.5000011921
57.7844689756 -5.2345242876 -2.5000011921
57.6639674187 -5.1250457746 -2.5000011921
56.1532792110 -4.1778925675 -2.5000011921
52.1919309820 -4.0629057793 -2.5000011921
52.1765858063 -4.0683469573 -2.5000011921
56.3866380823 -4.2555026938 -2.5000011921
56.3273401357 -4.2278922272 -2.5000011921
56.2826545475 -4.2076458898 -2.5000011921
56.2077849442 -4.1747857826 -2.5000011921
56.1927531586 -4.1683468487 -2.5000011921
56.1777023913 -4.1619524098 -2.5000011921
56.1021684438 -4.1306495836 -2.5000011921
56.0414130919 -4.1064138344 -2.5000011921
55.4513642028 -3.9125515091 -2.5000011921
55.3880737733 -3.8960316462 -2.5000011921
52.1376972327 -4.0566425933 -2.5000011921
52.0916568823 -4.0735837300 -2.5000011921
52.0610476232 -4.0851045243 -2.5000011921
56.8466456214 -4.4720801501 -2.5000011921
56.6317945129 -4.3515616840 -2.5000011921
56.4266257165 -4.2477788815 -2.5000011921
55.3940403119 -3.8726065379 -2.5000011921
55.2983325514 -3.8491315539 -2.5000011921
55.2663392357 -3.8416845064 -2.5000011921
55.2343024207 -3.8344268724 -2.5000011921
55.2182680513 -3.8308691651 -2.5000011921
55.1701027799 -3.8204808545 -2.5000011921
52.0371198534 -4.0683599455 -2.5000011921
55.1104539646 -3.7835859930 -2.5000011921
51.9363670135 -4.0820175739 -2.5000011921
51.9210794920 -4.0882146727 -2.5000011921
54.9848747636 -3.7355851627 -2.5000011921
54.9195230432 -3.7245974083 -2.5000011921
54.9031651557 -3.7219713559 -2.5000011921
54.8540458856 -3.7143836950 -2.5000011921
57.0114372795 -4.4874831940 -2.5000011921
56.7390127321 -4.3271650840 -2.5000011921
56.1846947747 -4.0600267689 -2.5000011921
51.7954374938 -4.0884659787 -2.5000011921
57.1506198512 -4.5485778042 -2.5000011921
51.7552143234 -4.0796006937 -2.5000011921
51.7399204450 -4.0863336855 -2.5000011921
51.6841908346 -4.0847817559 -2.5000011921
51.6689125935 -4.0917248254 -2.5000011921
57.4119001793 -4.6728463889 -2.5000011921
51.6129737467 -4.0909223310 -2.5000011921
51.5568360117 -4.0907079268 -2.5000011921
51.4745670383 -4.0768855196 -2.5000011921
51.4439881138 -4.0920571669 -2.5000011921
51.3304178253 -4.0957994855 -2.5000011921
55.3779502959 -7.8807074044 -2.5000011921
55.7938164127 -4.0880358668 -2.5000011921
53.2298859961 -4.0163867854 -2.5000011921
53.0394443412 -4.0599716014 -2.5000011921
52.9920850411 -4.0719219285 -2.5000011921
52.9763224055 -4.0759987108 -2.5000011921
52.9448336585 -4.0842920722 -2.5000011921
52.9133945289 -4.0927715864 -2.5000011921
55.9260094119 -4.1002116149 -2.5000011921
55.8631615378 -4.0820807284 -2.5000011921
55.5778734219 -4.0097442555 -2.5000011921
52.8755044240 -4.0781547044 -2.5000011921
52.8597607361 -4.0825763261 -2.5000011921
56.4139241045 -4.2432220458 -2.5000011921
56.3373928937 -4.2134426437 -2.5000011921
56.0896725647 -4.1258075024 -2.5000011921
55.7428547128 -4.0246422646 -2.5000011921
55.6631640266 -4.0048121473 -2.5000011921
55.5831887622 -3.9861628552 -2.5000011921
52.7900735134 -4.0775444100 -2.5000011921
52.7428799820 -4.0917070713 -2.5000011921
56.6506781314 -4.3172610839 -2.5000011921
56.5903477561 -4.2905403857 -2.5000011921
56.4687596517 -4.2392498131 -2.5000011921
56.4075189462 -4.2146871201 -2.5000011921
55.2849610766 -3.8784478900 -2.5000011921
52.6497253241 -4.0702102678 -2.5000011921
52.6339591230 -4.0752998197 -2.5000011921
56.4097619893 -4.1636304711 -2.5000011921
54.9261831629 -3.8060887609 -2.5000011921
52.5948762611 -4.0626701675 -2.5000011921
52.5790879950 -4.0679220058 -2.5000011921
54.8287653077 -3.7728725590 -2.5000011921
52.5239504002 -4.0611003479 -2.5000011921
56.8121238688 -4.2856226729 -2.5000011921
52.4054092032 -4.0776215222 -2.5000011921
54.5972795308 -3.7100834319 -2.5000011921
52.3496919112 -4.0725834703 -2.5000011921
52.3339340433 -4.0785605648 -2.5000011921
52.3181939256 -4.0845842478 -2.5000011921
54.4460163594 -3.6816760576 -2.5000011921
52.2937317498 -4.0681167510 -2.5000011921
52.2622083169 -4.0804486858 -2.5000011921
57.5235089687 -4.6046974735 -2.5000011921
52.1023413086 -4.0937584410 -2.5000011921
52.0866471623 -4.1004671507 -2.5000011921
52.0456531741 -4.0918671689 -2.5000011921
52.0299536811 -4.0987435806 -2.5000011921
51.9887542418 -4.0905656956 -2.5000011921
51.9730511477 -4.0976104304 -2.5000011921
51.9316505307 -4.0898576070 -2.5000011921
51.9159455918 -4.0970712679 -2.5000011921
51.8900748959 -4.0824097462 -2.5000011921
51.7748942299 -4.0836511922 -2.5000011921
51.7013099130 -4.0930286814 -2.5000011921
51.6007736850 -4.0900707996 -2.5000011921
51.4408771091 -4.0933710922 -2.5000011921
51.3544548244 -4.0862329956 -2.5000011921
51.2517279083 -4.0895811381 -2.5000011921
51.0003988924 -4.1012564159 -2.5000011921
50.9560273481 -4.1009025591 -2.5000011921
50.9115343949 -4.1008888891 -2.5000011921
50.8958665521 -4.1111201898 -2.5000011921
55.9426930319 -9.1217104050 -2.5000011921
55.9481001908 -9.0599965469 -2.5000011921
55.9416461341 -9.0419200210 -2.5000011921
55.9349254245 -9.0239409304 -2.5000011921
55.9503889690 -8.9970989418 -2.5000011921
55.4129851923 -7.9242679919 -2.5000011921
55.4086552549 -7.8960054595 -2.5000011921
55.3992286012 -7.8919753188 -2.5000011921
55.4086653983 -7.8697203835 -2.5000011921
56.8387807100 -4.3280416906 -2.5000011921
56.6233586819 -4.2448564418 -2.5000011921
53.5210223865 -4.0419974314 -2.5000011921
53.3925051461 -4.0719592222 -2.5000011921
53.3764914009 -4.0759180489 -2.5000011921
53.3444993934 -4.0839777298 -2.5000011921
53.3125556297 -4.0922265452 -2.5000011921
56.8172600810 -4.2931939769 -2.5000011921
56.0611302152 -4.0490619657 -2.5000011921
55.1460326384 -3.9028117881 -2.5000011921
53.2904198971 -4.0730526943 -2.5000011921
53.2744098332 -4.0773135028 -2.5000011921
53.2584124436 -4.0816216534 -2.5000011921
53.2424278683 -4.0859771082 -2.5000011921
53.2104977200 -4.0948297780 -2.5000011921
56.8263004072 -4.2707750611 -2.5000011921
53.1399951436 -4.0899048283 -2.5000011921
58.1658453677 -5.0090530836 -2.5000011921
54.8158826040 -3.8392154561 -2.5000011921
53.3103896392 -4.0178627292 -2.5000011921
53.0531941347 -4.0908118169 -2.5000011921
57.1517692438 -4.3605926257 -2.5000011921
56.1597872260 -3.9992979368 -2.5000011921
53.0300248258 -4.0727024483 -2.5000011921
52.9105850152 -4.0859951615 -2.5000011921
59.0680792599 -5.7654329603 -2.5000011921
54.4279406769 -3.7735296850 -2.5000011921
52.8708363351 -4.0739394540 -2.5000011921
52.8548307303 -4.0794414627 -2.5000011921
52.8069125512 -4.0962312344 -2.5000011921
52.7909731692 -4.1019222437 -2.5000011921
57.6602711819 -4.5213493285 -2.5000011921
52.5652018332 -4.0840778336 -2.5000011921
52.7827331410 -3.9765807392 -2.5000011921
52.5081730648 -4.0810687170 -2.5000011921
52.3197766282 -4.0826714399 -2.5000011921
52.3037992653 -4.0898035447 -2.5000011921
52.2878430704 -4.0969828821 -2.5000011921
52.2299565194 -4.0968631393 -2.5000011921
52.2140215311 -4.1042608861 -2.5000011921
52.2038103022 -4.0823504757 -2.5000011921
52.1615361955 -4.0754984053 -2.5000011921
52.1455383058 -4.0830986453 -2.5000011921
52.1136103249 -4.0984409325 -2.5000011921
51.9965414840 -4.1024641890 -2.5000011921
51.9377517924 -4.1054010396 -2.5000011921
51.8356041359 -4.1045766968 -2.5000011921
51.7487609398 -4.0967846852 -2.5000011921
51.6891756561 -4.1023284873 -2.5000011921
51.6613323795 -4.0903000917 -2.5000011921
51.5414313909 -4.1038632236 -2.5000011921
51.2292256633 -4.0982082113 -2.5000011921
50.7273006789 -4.1235724503 -2.5000011921
50.3404458902 -4.1188223325 -2.5000011921
48.7374344368 -4.4477043515 -2.5000011921
49.4087442381 -3.7113375417 -2.5000011921
49.3916811394 -3.7270826315 -2.5000011921
49.3746646922 -3.7428781281 -2.5000011921
49.3576950453 -3.7587238934 -2.5000011921
49.2402303502 -3.8710400685 -2.5000011921
48.6891401951 -4.4677439263 -2.5000011921
48.6448320216 -4.5214865740 -2.5000011921
48.6301688327 -4.5394879095 -2.5000011921
48.5864996691 -4.5937510697 -2.5000011921
49.5660746183 -3.5384233222 -2.5000011921
49.5484993197 -3.5537037568 -2.5000011921
48.6556891421 -4.4702096469 -2.5000011921
48.5386671676 -4.6151812382 -2.5000011921
48.5341631779 -4.5818931393 -2.5000011921
48.5738748380 -4.4937713513 -2.5000011921
49.4890193282 -3.4133196555 -2.5000011921
55.4488744040 -7.9075345941 -2.5000011921
57.0111805376 -4.2427697094 -2.5000011921
53.7827490137 -4.0592455591 -2.5000011921
53.7184109337 -4.0751260370 -2.5000011921
53.6863134852 -4.0833514814 -2.5000011921
57.0194613643 -4.2200592891 -2.5000011921
56.7831601539 -4.1397905388 -2.5000011921
53.6963553393 -4.0557986633 -2.5000011921
53.5998722427 -4.0814384588 -2.5000011921
53.5291188021 -4.0762526410 -2.5000011921
53.4419716108 -4.0768444069 -2.5000011921
53.4259230962 -4.0817511415 -2.5000011921
