4.1063691155 -32.0649346074 -1.6002489328
4.0896788374 -32.5968102893 -1.6002489328
4.0861932743 -32.7144749049 -1.6002489328
4.0912278492 -33.0379043704 -1.6002489328
4.0985215435 -33.1241541761 -1.6002489328
4.0797468793 -33.1393807078 -1.6002489328
4.0949397482 -33.1580573316 -1.6002489328
4.3350239864 -33.7249958479 -1.6002489328
3.5965212141 -32.8633480496 -1.6002489328
3.6690062726 -32.9634565784 -1.6002489328
3.6984135551 -33.0031979594 -1.6002489328
3.7132052393 -33.0230032320 -1.6002489328
3.7280554463 -33.0427646615 -1.6002489328
3.8031797582 -33.1409081229 -1.6002489328
3.8643192280 -33.2186161803 -1.6002489328
4.4200582501 -33.8486358635 -1.6002489328
4.4546894059 -33.8839182767 -1.6002489328
4.4895286982 -33.9189951828 -1.6002489328
4.5245749075 -33.9538653540 -1.6002489328
3.4497594658 -32.6939961400 -1.6002489328
3.4915757559 -32.7554990970 -1.6002489328
3.5339362035 -32.8166285360 -1.6002489328
4.6322087804 -34.0917999113 -1.6002489328
4.6682748633 -34.1258229149 -1.6002489328
4.7045416066 -34.1596319440 -1.6002489328
4.7227498294 -34.1764558480 -1.6002489328
4.7410077407 -34.1932258152 -1.6002489328
4.7593151807 -34.2099416987 -1.6002489328
4.7776719892 -34.2266033524 -1.6002489328
3.3474857055 -32.5830337221 -1.6002489328
4.7984194223 -34.2777824242 -1.6002489328
4.8355829313 -34.3108188148 -1.6002489328
3.2207230576 -32.4275085300 -1.6002489328
3.2734620276 -32.5121584280 -1.6002489328
4.9515524360 -34.4431442238 -1.6002489328
5.0088322956 -34.4912507317 -1.6002489328
3.0973823075 -32.2685364453 -1.6002489328
3.1100033599 -32.2901228915 -1.6002489328
4.9741727213 -34.4938054778 -1.6002489328
5.1682377313 -34.6514786209 -1.6002489328
2.9775557586 -32.1061925909 -1.6002489328
3.0019032810 -32.1500398289 -1.6002489328
3.0639032768 -32.2590210111 -1.6002489328
2.7382939888 -31.8050439919 -1.6002489328
2.9018717267 -32.1190444916 -1.6002489328
3.2812770717 -32.7464754276 -1.6002489328
2.6395338304 -31.6558419848 -1.6002489328
2.6503444249 -31.6787855104 -1.6002489328
2.7506802992 -31.8838096376 -1.6002489328
5.2339797845 -34.8548535785 -1.6002489328
5.7536398544 -35.2179196155 -1.6002489328
6.2299381765 -35.6141983668 -1.6002489328
6.9722543371 -36.1605303098 -1.6002489328
18.4530364141 -31.8886424387 -1.6002489328
18.4644664837 -31.8648057450 -1.6002489328
18.4632859474 -31.9229936709 -1.6002489328
18.4976688112 -31.8512903636 -1.6002489328
18.4734025192 -31.9574393674 -1.6002489328
18.4965987644 -31.9096105754 -1.6002489328
18.4715793068 -32.0158711449 -1.6002489328
18.4544789718 -32.1569224022 -1.6002489328
18.4667026558 -32.1330802674 -1.6002489328
18.4476045382 -32.2745536904 -1.6002489328
18.4499468800 -32.5228525037 -1.6002489328
18.4764887097 -32.4751525875 -1.6002489328
18.4651593307 -32.5942757975 -1.6002489328
18.4531113255 -33.0394360602 -1.6002489328
18.5698021096 -32.8474863960 -1.6002489328
18.1840193352 -33.8184794312 -1.6002489328
18.2521693976 -33.7259792798 -1.6002489328
18.6679382851 -33.1058197792 -1.6002489328
18.7128100082 -33.0322537191 -1.6002489328
18.1514383601 -33.9019464177 -1.6002489328
18.2717153229 -33.7402022221 -1.6002489328
18.7778298843 -32.9706041167 -1.6002489328
18.8214973170 -32.8960681549 -1.6002489328
18.9346923938 -32.6954414176 -1.6002489328
17.9379609163 -34.2109312395 -1.6002489328
17.9562629899 -34.1886080714 -1.6002489328
18.0107718765 -34.1213150916 -1.6002489328
18.0646814292 -34.0535410259 -1.6002489328
18.2742421003 -33.7777412178 -1.6002489328
17.7504819910 -34.4688168156 -1.6002489328
18.9631187521 -32.7440476714 -1.6002489328
19.1256384878 -32.4371866086 -1.6002489328
19.1516616636 -32.3854905733 -1.6002489328
19.1773785328 -32.3336414808 -1.6002489328
18.2982540631 -33.8674093020 -1.6002489328
18.8312698143 -33.0698167285 -1.6002489328
19.1289545003 -32.5366871528 -1.6002489328
17.3589206347 -35.0599164896 -1.6002489328
17.2918285310 -35.1591549013 -1.6002489328
17.1587963629 -35.3180502084 -1.6002489328
11.3483240346 -28.4509452758 -1.3959774971
10.4554193073 -29.6400201100 -1.3959774971
9.6248895575 -33.4176968872 -1.3959774971
9.6729666730 -33.4250040247 -1.3959774971
9.8175605707 -33.4443616325 -1.3959774971
9.5087436995 -33.4227895472 -1.3959774971
9.5408200906 -33.4283954516 -1.3959774971
9.5568705833 -33.4311272135 -1.3959774971
9.5729290867 -33.4338114832 -1.3959774971
9.6372403972 -33.4440731763 -1.3959774971
9.7177928957 -33.4558290225 -1.3959774971
9.7662047542 -33.4623101934 -1.3959774971
9.7823545866 -33.4643750783 -1.3959774971
9.4562496603 -33.4377863106 -1.3959774971
9.5206161711 -33.4494283307 -1.3959774971
9.3068848420 -33.4324472520 -1.3959774971
9.3551053813 -33.4425759221 -1.3959774971
9.3873015241 -33.4490904562 -1.3959774971
9.6948992967 -33.5014429851 -1.3959774971
9.2052302352 -33.4344488756 -1.3959774971
9.3018108382 -33.4560817557 -1.3959774971
9.0870805579 -33.4304708105 -1.3959774971
9.2481889939 -33.4690681387 -1.3959774971
9.0167130643 -33.4370498873 -1.3959774971
9.0327914515 -33.4413320147 -1.3959774971
8.9138460743 -33.4335948988 -1.3959774971
8.9299146911 -33.4381813405 -1.3959774971
9.1399836155 -33.4934636336 -1.3959774971
8.8106452808 -33.4281927291 -1.3959774971
8.8266983685 -33.4330844810 -1.3959774971
8.6115659939 -33.4398711165 -1.3959774971
8.2222842290 -33.4479080757 -1.3959774971
8.1485295656 -33.4431329928 -1.3959774971
8.1807501213 -33.4567860248 -1.3959774971
8.0906576651 -33.4444407583 -1.3959774971
8.1228869708 -33.4584361570 -1.3959774971
8.0325803027 -33.4451479916 -1.3959774971
7.9158337044 -33.4447467748 -1.3959774971
7.8571768403 -33.4436314359 -1.3959774971
7.6368778946 -33.4414059177 -1.3959774971
7.0867649873 -33.4330939878 -1.3959774971
6.7397663166 -33.4369665220 -1.3959774971
4.0561763048 -31.0424735748 -1.3959774971
4.0708553224 -31.1287833802 -1.3959774971
4.0781274790 -31.4601069107 -1.3959774971
4.0797520568 -31.7583140299 -1.3959774971
4.0781184446 -32.1245177863 -1.3959774971
4.0920064208 -32.2777122485 -1.3959774971
4.0902575008 -32.3614264857 -1.3959774971
4.0832523693 -32.3939761495 -1.3959774971
4.0894950647 -32.4455062049 -1.3959774971
4.0897254424 -32.5299404625 -1.3959774971
4.0933500421 -33.0583804149 -1.3959774971
4.0846390418 -33.3161070539 -1.3959774971
3.7038441567 -32.9864368706 -1.3959774971
3.7483272441 -33.0463069470 -1.3959774971
3.7933398931 -33.1057799033 -1.3959774971
3.8236407778 -33.1452056043 -1.3959774971
4.3054679853 -33.7142383610 -1.3959774971
3.5680371538 -32.8387435660 -1.3959774971
3.5967621050 -32.8795069072 -1.3959774971
3.6549329941 -32.9605201891 -1.3959774971
3.6696251804 -32.9806655167 -1.3959774971
3.7439764606 -33.0807353881 -1.3959774971
4.3217203435 -33.7671518476 -1.3959774971
4.3387957746 -33.7853211683 -1.3959774971
4.4076327320 -33.8574909506 -1.3959774971
4.4249750266 -33.8754057316 -1.3959774971
4.5656056329 -34.0168612249 -1.3959774971
4.5834186824 -34.0343079962 -1.3959774971
3.4078549296 -32.6456911308 -1.3959774971
3.4216168756 -32.6665687375 -1.3959774971
3.5196712726 -32.8115593519 -1.3959774971
4.5308533704 -34.0165561529 -1.3959774971
4.5486656696 -34.0341057290 -1.3959774971
4.7112901675 -34.1896590427 -1.3959774971
4.7848853616 -34.2573929922 -1.3959774971
3.3195784040 -32.5536712490 -1.3959774971
3.3466211201 -32.5959095448 -1.3959774971
4.8058238686 -34.3089111788 -1.3959774971
4.8244998036 -34.3256460632 -1.3959774971
4.8619997791 -34.3589497262 -1.3959774971
4.8996961340 -34.3920309438 -1.3959774971
3.1545359751 -32.3308571838 -1.3959774971
3.2062459443 -32.4171414995 -1.3959774971
3.2589732496 -32.5028079184 -1.3959774971
4.8460016149 -34.3770713713 -1.3959774971
5.0563242663 -34.5567453396 -1.3959774971
5.1146897016 -34.6045510771 -1.3959774971
3.0703526846 -32.2341455003 -1.3959774971
3.1209242095 -32.3214326822 -1.3959774971
2.9390671782 -32.0470338553 -1.3959774971
2.9996895965 -32.1580110860 -1.3959774971
5.3434201585 -34.8443353013 -1.3959774971
5.3899973866 -34.9090501329 -1.3959774971
5.4309390793 -34.9389979117 -1.3959774971
5.4993691006 -35.0178836657 -1.3959774971
5.5409527749 -35.0471824599 -1.3959774971
5.6246365031 -35.1050394242 -1.3959774971
5.2389006553 -34.8561825322 -1.3959774971
5.6110073715 -35.1250039441 -1.3959774971
5.6532228515 -35.1536403740 -1.3959774971
5.7892028311 -35.2722108248 -1.3959774971
18.4620057885 -31.7293040509 -1.3959774971
18.4728288688 -31.7632027196 -1.3959774971
18.4609389268 -31.8445285982 -1.3959774971
18.4582578388 -31.9602465566 -1.3959774971
18.4563082637 -32.0182836546 -1.3959774971
18.4603633352 -32.1694620382 -1.3959774971
18.4569464648 -32.2279527833 -1.3959774971
18.4694068191 -32.2043142833 -1.3959774971
18.4531163535 -32.2865485079 -1.3959774971
18.4571923075 -32.3804418996 -1.3959774971
18.4522886337 -32.4393501965 -1.3959774971
18.4602269669 -32.4747430885 -1.3959774971
18.4734173572 -32.4510938044 -1.3959774971
18.4486729975 -32.5930565810 -1.3959774971
18.4622134310 -32.5694409580 -1.3959774971
18.4562403012 -32.7240211395 -1.3959774971
18.4489106588 -32.7835989820 -1.3959774971
18.4680532347 -32.8920236586 -1.3959774971
18.4506033348 -33.0119938529 -1.3959774971
18.4412319446 -33.0720808910 -1.3959774971
18.4616756552 -33.2188694693 -1.3959774971
18.4596653496 -33.3533926220 -1.3959774971
18.2534491404 -33.7310904797 -1.3959774971
18.0642347450 -34.0186522703 -1.3959774971
18.7866133530 -33.0194377456 -1.3959774971
18.8307953662 -32.9454554068 -1.3959774971
17.8075903003 -34.4028970396 -1.3959774971
18.3795795642 -33.6809126387 -1.3959774971
18.7623635287 -33.1056943616 -1.3959774971
18.9805067204 -32.7329403942 -1.3959774971
19.0979671060 -32.5670608657 -1.3959774971
17.8630131867 -34.4128433660 -1.3959774971
17.9008008550 -34.3690052790 -1.3959774971
18.0676087054 -34.1689991070 -1.3959774971
17.9379999922 -34.3626766084 -1.3959774971
17.7840612344 -34.5753222454 -1.3959774971
17.7825210872 -34.6131344631 -1.3959774971
18.0498902667 -34.3048042128 -1.3959774971
19.3792780589 -32.2213289391 -1.3959774971
17.8004521660 -34.6293459312 -1.3959774971
10.9386697878 -28.4249055566 -1.3227999350
10.4769058814 -29.7400589752 -1.3227916128
10.5778826611 -29.7224226898 -1.3227916128
9.1917963546 -33.4793517348 -1.3227570099
8.8491982583 -33.4278357870 -1.3227567909
8.3355729514 -33.4494642210 -1.3227552579
8.3516277738 -33.4550427348 -1.3227552579
8.1746971388 -33.4423313804 -1.3227548199
7.9716260303 -33.4395488506 -1.3227541629
7.8146464514 -33.4508606987 -1.3227535059
7.6077724881 -33.4346860999 -1.3227528488
7.5491332453 -33.4328665158 -1.3227526298
17.7158696220 -30.1273922636 -1.3227368615
17.7265338499 -30.1783211489 -1.3227366425
17.7169978350 -30.2959873405 -1.3227364234
3.8078127663 -33.1423374119 -1.3227329194
4.3881315401 -33.7959183326 -1.3227329194
4.4568246096 -33.8646307965 -1.3227329194
3.5248789070 -32.8073518617 -1.3227327004
4.5446904859 -33.9836537273 -1.3227327004
4.5800433538 -34.0171820219 -1.3227327004
4.6891128499 -34.1507999061 -1.3227324814
4.9132138178 -34.3778157200 -1.3227322623
18.5234841994 -30.3806828647 -1.3227291963
18.5182036259 -30.4855366151 -1.3227289773
18.5319350134 -30.8412215602 -1.3227278822
18.5114651805 -31.2505993783 -1.3227267872
18.5674091142 -31.1030995252 -1.3227267872
18.5243859699 -31.2839244755 -1.3227265682
18.5722986212 -31.3598602878 -1.3227259112
18.4813193324 -31.8743601950 -1.3227248162
18.4985882509 -32.0626356320 -1.3227239401
18.4902159728 -32.2417332174 -1.3227232831
18.4992036519 -32.2772055374 -1.3227230641
18.4953333599 -32.3372388634 -1.3227228451
18.5448775667 -32.5526212573 -1.3227215311
18.5539980257 -32.6861262871 -1.3227208741
18.5100462247 -32.9555480608 -1.3227199980
18.4717482144 -33.0657954219 -1.3227197790
18.5515861591 -32.9802821461 -1.3227195600
18.4720663989 -33.3380034982 -1.3227184650
10.9505815403 -28.4504475248 -1.3042606768
10.9628911808 -28.4900837060 -1.3042605096
10.9498689503 -28.5886537284 -1.3042603425
10.9630770405 -28.7237462015 -1.3042598411
11.3588127832 -28.4150733441 -1.3042580026
11.3382974432 -28.5871446231 -1.3042578354
10.3426722772 -29.7036915353 -1.3042569998
10.4035683757 -29.6845106615 -1.3042569998
10.4128697956 -29.6813524550 -1.3042569998
10.4175134579 -29.6797527292 -1.3042569998
10.4314157671 -29.6748712294 -1.3042569998
10.2929255243 -29.7673903387 -1.3042566655
10.3417406842 -29.7542869726 -1.3042566655
8.4365736288 -33.4234711241 -1.3042304252
8.4522958021 -33.4277012664 -1.3042304252
8.4680304202 -33.4318848811 -1.3042304252
8.4837773452 -33.4360219317 -1.3042304252
8.5153075652 -33.4441561960 -1.3042304252
8.5310905842 -33.4481533386 -1.3042304252
8.3829612713 -33.4337785094 -1.3042302581
8.4144799829 -33.4425092748 -1.3042302581
8.3132847226 -33.4389561292 -1.3042300909
8.1571753669 -33.4415271469 -1.3042297567
8.1887438737 -33.4515936019 -1.3042297567
8.1339335809 -33.4594105471 -1.3042295895
8.0156047329 -33.4450526413 -1.3042294224
7.9759886853 -33.4567413062 -1.3042292552
7.8571441249 -33.4388937559 -1.3042290881
7.8011801110 -33.4433119447 -1.3042289210
7.7607747541 -33.4534305867 -1.3042287538
7.6569952992 -33.4373923786 -1.3042285867
7.6318917904 -33.4530985124 -1.3042284196
7.6793901205 -33.4727892532 -1.3042284196
7.5021243230 -33.4497008720 -1.3042280853
7.3873296321 -33.4505816695 -1.3042277510
7.3612734851 -33.4650835436 -1.3042275839
7.1554732831 -33.4450960882 -1.3042270825
7.0542846317 -33.4470424796 -1.3042267482
6.9524485308 -33.4471532550 -1.3042264139
6.8499972804 -33.4454097624 -1.3042260797
6.5708036809 -33.4485142196 -1.3042250769
6.4531452062 -33.4601615503 -1.3042245755
6.3926027595 -33.4498369672 -1.3042244083
6.2283162729 -33.4564792068 -1.3042237398
5.8181335007 -33.4590412587 -1.3042220684
17.7828335531 -29.9279405909 -1.3042123745
18.0057625511 -29.9285841689 -1.3042108703
18.5187504218 -30.5604489555 -1.3042063577
18.5201849395 -30.7274892515 -1.3042060234
18.5278877907 -30.7019020438 -1.3042060234
18.5505417263 -30.6250052708 -1.3042060234
10.9803851479 -29.0317139609 -1.3009257865
10.2673254567 -29.7504248074 -1.3009279766
10.3024205367 -29.7327579266 -1.3009279766
10.3327783997 -29.7166218741 -1.3009279766
10.3413900779 -29.7118964452 -1.3009279766
10.4259116810 -29.6618726467 -1.3009279766
10.9344376358 -29.1573857343 -1.3009279766
10.9753941817 -29.0903273264 -1.3009279766
10.3487163916 -29.7354577342 -1.3009301666
10.3574392301 -29.7306376811 -1.3009301666
10.4091635815 -29.7006414133 -1.3009301666
10.4430409068 -29.6796321184 -1.3009301666
10.2657636183 -29.8047894979 -1.3009323567
10.9374056131 -29.2811509244 -1.3009345467
10.3998465660 -29.8176850123 -1.3009389269
10.4228103919 -29.8047730981 -1.3009389269
10.3501404861 -29.8712445749 -1.3009411169
11.3333000004 -28.4524388420 -1.3009411169
11.3373819966 -28.4099109700 -1.3009411169
11.3413493271 -28.3513017408 -1.3009411169
11.3437044723 -28.2498721682 -1.3009411169
11.3431347358 -28.2124933952 -1.3009411169
11.3393088523 -28.1324832811 -1.3009411169
11.3378546830 -28.5888935914 -1.3009433070
11.3642521922 -28.3741543311 -1.3009433070
11.3678549367 -28.2714020819 -1.3009433070
11.3678772115 -28.2497540250 -1.3009433070
11.3666178051 -28.1902374394 -1.3009433070
11.3497808484 -28.6523974146 -1.3009454970
11.3715502495 -28.5337612255 -1.3009454970
11.3470686870 -28.8472479529 -1.3009498771
11.3882609082 -28.7010636276 -1.3009498771
11.3040489354 -29.2945205000 -1.3009630174
8.2670066358 -33.4395854861 -1.3012608647
8.2823382079 -33.4433237774 -1.3012608647
8.2976807714 -33.4470166987 -1.3012608647
8.3437730677 -33.4578229219 -1.3012608647
8.4208008415 -33.4749229576 -1.3012608647
10.9518574190 -33.4026343065 -1.3012608647
11.1184635709 -33.3539247982 -1.3012608647
11.1335292668 -33.3492283389 -1.3012608647
8.1844106792 -33.4436033502 -1.3012630547
8.1997544982 -33.4475859576 -1.3012630547
8.2151100314 -33.4515231578 -1.3012630547
8.2304771444 -33.4554149164 -1.3012630547
8.2612455716 -33.4630619726 -1.3012630547
8.2766466166 -33.4668172034 -1.3012630547
8.3383598601 -33.4813820488 -1.3012630547
10.5881373347 -33.5136478360 -1.3012630547
10.7739782799 -33.4730806351 -1.3012630547
11.1407574538 -33.3722953844 -1.3012630547
11.2312621465 -33.3430506973 -1.3012630547
11.2462951814 -33.3380206070 -1.3012630547
11.3212335438 -33.3122043231 -1.3012630547
11.3361749358 -33.3069082161 -1.3012630547
11.4106433026 -33.2797659790 -1.3012630547
11.4254883449 -33.2742055237 -1.3012630547
11.4551287585 -33.2629529922 -1.3012630547
11.5730091479 -33.2161952396 -1.3012630547
8.1167712494 -33.4505343554 -1.3012652448
8.1783030189 -33.4669920604 -1.3012652448
11.2841559647 -33.3506935783 -1.3012652448
11.4190889233 -33.3024156317 -1.3012652448
8.0027094042 -33.4431632835 -1.3012674348
8.0641619408 -33.4609711372 -1.3012674348
7.9343327505 -33.4477243050 -1.3012696249
7.9496898543 -33.4524466701 -1.3012696249
7.8502805376 -33.4464188401 -1.3012718149
7.8656341473 -33.4513898526 -1.3012718149
7.9426190741 -33.4755624514 -1.3012718149
7.7966252505 -33.4541529580 -1.3012740050
7.6966004940 -33.4452009753 -1.3012761951
7.7119511735 -33.4506266065 -1.3012761951
7.8973674319 -33.5121771622 -1.3012761951
7.6270021236 -33.4457271390 -1.3012783851
7.6577237965 -33.4569447257 -1.3012783851
7.5878551418 -33.4569602134 -1.3012805752
7.5023581306 -33.4500466994 -1.3012827652
7.4319825010 -33.4479902235 -1.3012849553
7.3920937153 -33.4577811874 -1.3012871453
7.4228908153 -33.4703883602 -1.3012871453
7.3212381928 -33.4542545815 -1.3012893354
7.2501669490 -33.4497760066 -1.3012915254
7.2096139366 -33.4582086573 -1.3012937155
7.1381126769 -33.4522324835 -1.3012959055
7.1997330515 -33.4802700124 -1.3012959055
7.0817819048 -33.4525789543 -1.3012980956
7.0252567585 -33.4523329247 -1.3013002856
6.9531933495 -33.4438662094 -1.3013024757
6.9685433333 -33.4514909792 -1.3013024757
6.9116477692 -33.4500497642 -1.3013046657
6.8545762512 -33.4480059882 -1.3013068558
6.8699389127 -33.4559224671 -1.3013068558
6.7706460388 -33.4585637661 -1.3013112359
6.6977029668 -33.4466532661 -1.3013134260
6.5547527647 -33.4495956436 -1.3013199961
6.4965723121 -33.4437632000 -1.3013221862
6.5119239891 -33.4527387379 -1.3013221862
6.4535941883 -33.4464533579 -1.3013243762
6.2803268156 -33.4539209400 -1.3013331364
6.2366832445 -33.4549570255 -1.3013353265
6.0896475418 -33.4458685088 -1.3013418967
10.9441596029 -29.1827438866 -1.3001146526
10.9504593473 -29.1675473075 -1.3001146526
10.9685459941 -29.1216305294 -1.3001146526
10.9743024314 -29.1062199412 -1.3001146526
10.9799218818 -29.0907588748 -1.3001146526
10.9372245890 -29.2581335597 -1.3001128371
10.9441936476 -29.2429955562 -1.3001128371
10.9346306599 -29.3189856527 -1.3001110217
10.9495145837 -29.2886848479 -1.3001110217
10.9685188296 -29.2478819412 -1.3001110217
10.9726237208 -29.3509812799 -1.3001073908
10.9696671337 -29.4084720869 -1.3001055754
10.9597665381 -29.6120414097 -1.3000983136
10.9313154400 -29.7361104706 -1.3000946828
10.9314637676 -29.7758392171 -1.3000928673
8.0096675987 -33.4583649564 -1.2998677529
8.0392297848 -33.4655267178 -1.2998677529
8.1133160941 -33.4826648531 -1.2998677529
10.5825190334 -33.4267558554 -1.2998677529
10.5971900673 -33.4227477772 -1.2998677529
11.7877917039 -32.9279211715 -1.2998677529
7.8560677713 -33.4432355904 -1.2998659374
7.9002985944 -33.4552763217 -1.2998659374
8.0931352411 -33.5028999692 -1.2998659374
10.7064326203 -33.4166499601 -1.2998659374
10.7210732169 -33.4122753673 -1.2998659374
10.7503152674 -33.4033963492 -1.2998659374
7.7905348033 -33.4497894422 -1.2998641220
7.8200500890 -33.4582478170 -1.2998641220
10.8013750090 -33.4127993732 -1.2998641220
10.8306187543 -33.4034452536 -1.2998641220
7.7098993101 -33.4509966393 -1.2998623066
7.7394231492 -33.4599320596 -1.2998623066
7.7542047640 -33.4643342280 -1.2998623066
10.8527204155 -33.4216832410 -1.2998623066
10.8966419695 -33.4071312098 -1.2998623066
7.6141723265 -33.4461312234 -1.2998604911
7.6732214846 -33.4649602614 -1.2998604911
7.7919674828 -33.5005157535 -1.2998604911
7.9415285468 -33.5409924862 -1.2998604911
8.8425659077 -33.6884803706 -1.2998604911
10.7567705422 -33.4772482893 -1.2998604911
11.1084695397 -33.3566686988 -1.2998604911
11.1229309418 -33.3511050705 -1.2998604911
11.1373758224 -33.3454986871 -1.2998604911
11.1518040551 -33.3398495977 -1.2998604911
11.1662155136 -33.3341578517 -1.2998604911
11.1949876039 -33.3226465895 -1.2998604911
11.2093479839 -33.3168271740 -1.2998604911
11.2380167852 -33.3050610289 -1.2998604911
11.2523249556 -33.2991144023 -1.2998604911
11.2666154723 -33.2931254755 -1.2998604911
11.2808882101 -33.2870943010 -1.2998604911
11.3093798496 -33.2749054203 -1.2998604911
11.3519808502 -33.2563065727 -1.2998604911
11.3661442975 -33.2500230330 -1.2998604911
7.5328619179 -33.4444880731 -1.2998586757
7.5771165834 -33.4593970257 -1.2998586757
8.8873374535 -33.7158770545 -1.2998586757
8.9028711772 -33.7168823650 -1.2998586757
10.3267536058 -33.6128572571 -1.2998586757
10.3571892674 -33.6063076558 -1.2998586757
11.4891253863 -33.2200947698 -1.2998586757
11.6149020624 -33.1584022431 -1.2998586757
7.4512472533 -33.4415243415 -1.2998568602
7.4954788312 -33.4571576952 -1.2998568602
10.1013034570 -33.6800673415 -1.2998568602
10.1321407017 -33.6748504026 -1.2998568602
10.2244596947 -33.6581062353 -1.2998568602
10.2705041101 -33.6491203555 -1.2998568602
11.0965229450 -33.4129165993 -1.2998568602
11.5558417142 -33.2148080271 -1.2998568602
11.8869110236 -33.0382060083 -1.2998568602
7.3987980375 -33.4481811620 -1.2998550448
10.0432183254 -33.7138448256 -1.2998550448
10.0742564257 -33.7089709467 -1.2998550448
7.2488835081 -33.4424392133 -1.2998514139
7.2931311738 -33.4598683956 -1.2998514139
9.8463456564 -33.7890702781 -1.2998514139
7.2103801098 -33.4530000580 -1.2998495985
7.2399245442 -33.4648907666 -1.2998495985
7.2547230132 -33.4707705205 -1.2998495985
7.1274093998 -33.4447716326 -1.2998477830
9.6927066170 -33.8529973004 -1.2998477830
8.3179737087 -33.8186159739 -1.2998459676
8.3616480832 -33.8504040719 -1.2998441522
6.9655661758 -33.4529108736 -1.2998423367
7.0099179283 -33.4728539260 -1.2998423367
6.9259562334 -33.4613400955 -1.2998405213
10.2499374334 -29.8967390919 -1.3002780030
10.3362921689 -29.7952664117 -1.3002780030
10.3324988245 -29.8385721385 -1.3002784295
10.9407524084 -29.5151903692 -1.3002848267
10.9697253298 -29.4390067409 -1.3002848267
10.9712011786 -28.0127138726 -1.3002848267
10.9648121035 -27.9950217776 -1.3002848267
10.9492955486 -27.9539658297 -1.3002848267
10.9353214222 -27.9190370744 -1.3002848267
10.9335168429 -29.5942932820 -1.3002852532
10.9608007983 -29.5300954168 -1.3002852532
10.9946116597 -29.4411905368 -1.3002852532
10.9658848656 -29.5806053233 -1.3002856797
10.9734101570 -29.5628986663 -1.3002856797
10.9824734527 -27.9066177904 -1.3002856797
10.9676537590 -27.8711076456 -1.3002856797
10.9495708515 -27.8300194246 -1.3002856797
10.9415613175 -27.8125264809 -1.3002856797
10.9689118066 -27.8141496424 -1.3002861062
11.0879561224 -29.3908686193 -1.3002865327
10.9267208254 -29.8230077617 -1.3002869591
10.9242004363 -29.9225757478 -1.3002878121
10.9694541031 -29.8941791910 -1.3002882386
7.7084658071 -33.4569029227 -1.3003338724
7.7505193378 -33.4679513893 -1.3003338724
10.3701464329 -33.4202860507 -1.3003338724
7.9429256481 -33.5381939097 -1.3003342989
10.4327795752 -33.4265310413 -1.3003342989
10.4744562928 -33.4134039474 -1.3003342989
10.2288677076 -33.5099744778 -1.3003347254
10.5513574726 -33.4136177040 -1.3003347254
10.6922668368 -33.4153759777 -1.3003355783
10.7562388903 -33.4173208043 -1.3003360048
10.7701153926 -33.4120293977 -1.3003360048
10.7787615530 -33.4346032585 -1.3003364313
10.8204962827 -33.4184054508 -1.3003364313
8.7293885868 -33.7865699224 -1.3003368578
8.8042957910 -33.7896406071 -1.3003368578
10.8572179569 -33.4298449359 -1.3003368578
10.8989073697 -33.4129510589 -1.3003368578
10.6830023133 -33.5215244853 -1.3003372843
10.7537756995 -33.4957294595 -1.3003372843
11.1151765669 -33.3449035424 -1.3003372843
11.1968556406 -33.3061815672 -1.3003372843
11.2104014450 -33.2995872229 -1.3003372843
11.2912612376 -33.2591823174 -1.3003372843
11.3314190233 -33.2384432703 -1.3003372843
11.3979346027 -33.2030888752 -1.3003372843
10.4611155762 -33.6201193290 -1.3003377108
11.0840483280 -33.3857424904 -1.3003377108
11.2887675082 -33.2875754171 -1.3003377108
11.3961134452 -33.2315330342 -1.3003377108
11.4889306649 -33.1804239926 -1.3003377108
11.5676316556 -33.1350944702 -1.3003377108
11.5806697311 -33.1274040519 -1.3003377108
10.1154052837 -33.7368145308 -1.3003381372
11.3672650159 -33.2742418007 -1.3003381372
11.4609727402 -33.2237209331 -1.3003381372
11.6451499692 -33.1169132960 -1.3003381372
11.6840312615 -33.0930392872 -1.3003381372
11.7355405030 -33.0606723230 -1.3003381372
11.9376402984 -32.9251789012 -1.3003381372
10.0461513609 -33.7767884546 -1.3003385637
12.0873283886 -32.8458396394 -1.3003385637
12.1599968619 -32.7899423478 -1.3003385637
9.8854318237 -33.8327783974 -1.3003389902
9.8592919323 -33.8619010455 -1.3003394167
9.9200264461 -33.8510714197 -1.3003394167
10.0460352131 -33.8509218894 -1.3003398432
10.2694789238 -29.8376818620 -1.3002470281
10.9545898860 -29.7741191539 -1.3002463798
10.9632895181 -29.7481699330 -1.3002463798
10.9696124103 -29.7286414571 -1.3002463798
10.9931636722 -29.6499895673 -1.3002463798
10.9642556692 -29.8881187184 -1.3002463279
10.9840421772 -29.8358585096 -1.3002463279
10.9735646767 -28.1878762673 -1.3002463279
10.9833979739 -28.1464040720 -1.3002463020
10.9921646468 -28.0422610068 -1.3002462501
10.9679948868 -27.9337378551 -1.3002462241
10.9482635114 -27.8948278421 -1.3002462241
10.9415333010 -27.8819364190 -1.3002462241
10.9730943399 -27.8902282293 -1.3002461982
10.9415264466 -27.7814389656 -1.3002461723
10.9740932488 -27.6475129556 -1.3002460685
10.9594611123 -27.5364772570 -1.3002460167
10.0461063627 -33.4288529003 -1.3002439419
10.0851293689 -33.4173189703 -1.3002439419
10.1240484813 -33.4054391871 -1.3002439419
10.0266461873 -33.4596009441 -1.3002439159
10.1442258847 -33.4244696735 -1.3002439159
10.1572315120 -33.4203732788 -1.3002439159
10.1832061285 -33.4120651604 -1.3002439159
10.1961748904 -33.4078535093 -1.3002439159
10.2297109983 -33.4222504004 -1.3002438900
10.2556954520 -33.4135134361 -1.3002438900
10.3155491141 -33.4183751298 -1.3002438641
10.3415091380 -33.4091303862 -1.3002438641
10.4017082520 -33.4128306761 -1.3002438381
10.4146783225 -33.4079726529 -1.3002438381
10.2394045941 -33.4954342391 -1.3002438122
10.4622143462 -33.4157168872 -1.3002438122
10.4751926898 -33.4106798634 -1.3002438122
10.5360007339 -33.4125653906 -1.3002437863
10.3078655834 -33.5234199522 -1.3002437603
10.6454651908 -33.4194244457 -1.3002437344
9.5710809539 -33.7852895240 -1.3002436825
9.9759119429 -33.6988028789 -1.3002436825
10.1341172899 -33.6801560976 -1.3002436566
10.8310805267 -33.4155716551 -1.3002436566
11.1101543410 -33.3282358068 -1.3002436047
11.2488856582 -33.2496916604 -1.3002436047
10.4451534585 -33.6544120804 -1.3002435788
10.5270359874 -33.6238804797 -1.3002435788
10.6083637385 -33.5919004223 -1.3002435788
11.0703971817 -33.3770341542 -1.3002435788
11.4835059971 -33.1317163765 -1.3002435788
11.5198354805 -33.1074380319 -1.3002435788
11.5559480767 -33.0828382395 -1.3002435788
10.3150882377 -33.7250110548 -1.3002435529
11.4968479367 -33.1518739540 -1.3002435529
11.5333557820 -33.1274764133 -1.3002435529
11.5575734378 -33.1110318077 -1.3002435529
11.6057147581 -33.0777142013 -1.3002435529
11.7942374804 -32.9388186311 -1.3002435529
10.0833216629 -33.8202507623 -1.3002435269
10.1258166401 -33.8083711547 -1.3002435269
11.4237532559 -33.2279641030 -1.3002435269
11.8090323389 -32.9579353109 -1.3002435269
11.9353462184 -32.8568496914 -1.3002435269
10.1182059353 -33.8356437241 -1.3002435010
12.2051003959 -32.6500476611 -1.3002435010
11.8386220558 -32.9961686704 -1.3002434751
10.2266980590 -29.9329654352 -1.3002487421
10.2722946765 -29.7831141181 -1.3002487421
10.2278681357 -29.9986429803 -1.3002487421
10.2918554555 -29.8039682549 -1.3002487421
10.9436021829 -28.4301904567 -1.3002487421
10.9352486108 -28.4095759317 -1.3002487421
10.9688160204 -28.4281657632 -1.3002487421
10.9518863567 -28.3865644776 -1.3002487421
10.9372160922 -28.3521307181 -1.3002487421
10.9683321966 -28.3633231713 -1.3002487421
10.9377893677 -28.2942001385 -1.3002487421
10.9692192801 -28.3049412220 -1.3002487421
10.9881878492 -30.4915277164 -1.3002487421
10.9741530485 -28.1480440736 -1.3002487421
10.9807056240 -30.6647997035 -1.3002487421
10.9821590270 -30.7116079761 -1.3002487421
8.9737377065 -33.4231063499 -1.3002487421
9.6569365061 -33.4287012646 -1.3002487421
9.6809831686 -33.4224748648 -1.3002487421
9.6929925805 -33.4193083414 -1.3002487421
9.7353686223 -33.4329049190 -1.3002487421
9.7834689378 -33.4193816207 -1.3002487421
9.8194373229 -33.4088661601 -1.3002487421
9.8553109728 -33.3980319144 -1.3002487421
9.9342631756 -33.3983904805 -1.3002487421
9.8936286480 -33.4367666303 -1.3002487421
9.9897129633 -33.4054058037 -1.3002487421
10.0574880312 -33.4074261474 -1.3002487421
10.0173494600 -33.4470591313 -1.3002487421
10.1256214895 -33.4083214173 -1.3002487421
10.1495393751 -33.3993224764 -1.3002487421
10.0615963409 -33.4572630786 -1.3002487421
10.1940948109 -33.4080814809 -1.3002487421
10.1631241981 -33.4717135885 -1.3002487421
10.3080361542 -33.4142352480 -1.3002487421
10.3319858355 -33.4041569772 -1.3002487421
10.2658627723 -33.4836965711 -1.3002487421
10.4471072027 -33.4064786379 -1.3002487421
10.7154313971 -33.4106273024 -1.3002487421
10.9053410016 -33.4177985987 -1.3002487421
12.5843433296 -31.8007287887 -1.3002487421
9.3701578591 -33.9820586698 -1.3002487421
10.6221659622 -33.5917807781 -1.3002487421
10.6720840895 -33.5677533594 -1.3002487421
11.1192874691 -33.3180473085 -1.3002487421
11.1543039663 -33.2956811982 -1.3002487421
11.2237346220 -33.2500211504 -1.3002487421
11.2695667771 -33.2188996172 -1.3002487421
11.2923439589 -33.2031360270 -1.3002487421
10.3904521171 -33.7201569199 -1.3002487421
10.4033390221 -33.7148903565 -1.3002487421
10.4803281625 -33.6824925389 -1.3002487421
10.5313295630 -33.6601370606 -1.3002487421
11.1556961997 -33.3235238000 -1.3002487421
11.2024028354 -33.2932021833 -1.3002487421
11.3061591430 -33.2229722557 -1.3002487421
11.3855442571 -33.1664540039 -1.3002487421
11.4637420954 -33.1083041353 -1.3002487421
11.4858615587 -33.0913936743 -1.3002487421
11.5188521969 -33.0657833499 -1.3002487421
11.5624837048 -33.0311827461 -1.3002487421
11.5949369875 -33.0048948142 -1.3002487421
12.7773420937 -31.5601128384 -1.3002487421
10.2429420983 -33.8030668394 -1.3002487421
11.6188898713 -33.0788708730 -1.3002487421
9.8479334990 -34.0034340668 -1.3002487421
9.5857014963 -34.1391935747 -1.3002487421
10.9209915215 -33.7122713609 -1.3002487421
10.2373871846 -29.8107950406 -1.3002487421
10.2471055243 -29.9600143550 -1.3002487421
10.2603242482 -30.0300974706 -1.3002487421
10.2850410857 -30.0292035314 -1.3002487421
10.2902866434 -29.9980279791 -1.3002487421
10.9534594085 -30.5301466692 -1.3002487421
10.9742185283 -30.4653784821 -1.3002487421
11.0105287222 -30.3342993930 -1.3002487421
10.9707506538 -28.8817383106 -1.3002487421
10.9657598546 -28.8673200599 -1.3002487421
10.9581139314 -28.8457486779 -1.3002487421
10.9422493038 -28.8028137156 -1.3002487421
10.9537468911 -28.7655037034 -1.3002487421
10.9451978779 -28.7440429392 -1.3002487421
10.9626330727 -30.7134280722 -1.3002487421
10.9799156417 -30.6701187227 -1.3002487421
10.9937287544 -30.6337979166 -1.3002487421
10.9729466154 -30.7515498023 -1.3002487421
10.9730856552 -30.8117666065 -1.3002487421
10.9401743777 -30.9369867702 -1.3002487421
10.9775507995 -28.5760456253 -1.3002487421
10.9707513007 -28.5615924928 -1.3002487421
10.9496311990 -28.4646176951 -1.3002487421
10.9416481127 -31.0379336408 -1.3002487421
10.9869720385 -30.9515553647 -1.3002487421
10.9365640469 -28.3889923303 -1.3002487421
10.9695250236 -28.3988875927 -1.3002487421
10.9497468865 -28.3629689035 -1.3002487421
10.9416872408 -28.3486839975 -1.3002487421
10.9499718266 -28.0441432951 -1.3002487421
10.9446204015 -27.9945036887 -1.3002487421
10.9652772439 -27.7043774806 -1.3002487421
9.5366369088 -33.4198625422 -1.3002487421
9.5319486979 -33.4461670490 -1.3002487421
9.5429726624 -33.4431904978 -1.3002487421
9.5539877734 -33.4401813487 -1.3002487421
9.5869790225 -33.4309585791 -1.3002487421
9.5979577568 -33.4278193047 -1.3002487421
9.6089271565 -33.4246475671 -1.3002487421
9.6308375682 -33.4182068130 -1.3002487421
9.6527094909 -33.4116365423 -1.3002487421
9.6745421588 -33.4049369849 -1.3002487421
10.8089119716 -26.6016341346 -1.3002487421
9.6817018478 -33.4280253832 -1.3002487421
9.7036309702 -33.4211540104 -1.3002487421
9.7364474696 -33.4106039907 -1.3002487421
9.7691690513 -33.3997631583 -1.3002487421
9.6998994481 -33.4476730320 -1.3002487421
9.7987688886 -33.4152413257 -1.3002487421
9.8097002017 -33.4114756074 -1.3002487421
9.8315291699 -33.4038472431 -1.3002487421
9.8533126241 -33.3960898648 -1.3002487421
9.7955982606 -33.4418643121 -1.3002487421
9.8942791554 -33.4068871121 -1.3002487421
9.8916722899 -33.4336023565 -1.3002487421
9.9355407876 -33.4172451330 -1.3002487421
9.9574016878 -33.4088721526 -1.3002487421
9.9770929356 -33.4271595463 -1.3002487421
10.0208792191 -33.4097920371 -1.3002487421
10.0317934404 -33.4053693002 -1.3002487421
10.0535823946 -33.3964270645 -1.3002487421
10.0956074601 -33.4050252157 -1.3002487421
10.0279099571 -33.4590695663 -1.3002487421
10.1488279722 -33.4083964795 -1.3002487421
10.1706327879 -33.3987617753 -1.3002487421
10.1804680322 -33.4208435155 -1.3002487421
10.2132629990 -33.4060618465 -1.3002487421
10.2350528745 -33.3960459639 -1.3002487421
10.5181862240 -33.4166345533 -1.3002487421
10.5844254978 -33.4079656324 -1.3002487421
10.8659958799 -33.4093771628 -1.3002487421
11.1611451947 -33.2656175619 -1.3002487421
11.1820875651 -33.2499961479 -1.3002487421
10.5042152159 -33.6958760872 -1.3002487421
10.6094069106 -33.6419451154 -1.3002487421
11.3107243182 -33.1807344900 -1.3002487421
11.3616342235 -33.1392462750 -1.3002487421
11.4615854458 -33.0540337680 -1.3002487421
10.2384610212 -33.8431417456 -1.3002487421
10.2871511019 -33.8226524865 -1.3002487421
11.3361427941 -33.1913034191 -1.3002487421
11.4074572948 -33.1324812653 -1.3002487421
11.5657825924 -32.9925747765 -1.3002487421
11.6329330223 -32.9290403483 -1.3002487421
9.9821209077 -33.9912152242 -1.3002487421
10.0953597087 -33.9510780102 -1.3002487421
10.3649049740 -33.8679207523 -1.3002487421
12.0464911578 -32.5862757649 -1.3002487421
10.2105680552 -29.8897338189 -1.3002488613
10.2074993212 -29.8646485182 -1.3002488613
10.2420084883 -29.9686478470 -1.3002488613
10.9688894245 -30.6950424694 -1.3002488613
10.9826453718 -30.6367588775 -1.3002488613
10.9719305141 -29.4866489603 -1.3002488613
10.9665266620 -29.4648515193 -1.3002488613
10.9551397168 -29.4214047938 -1.3002488613
10.9450627714 -29.3853582180 -1.3002488613
10.9470253865 -30.8608062981 -1.3002488613
10.9829635146 -30.7374752149 -1.3002488613
10.9640746526 -29.3641645317 -1.3002488613
10.9553778129 -29.3352135689 -1.3002488613
10.9369595418 -29.2776304776 -1.3002488613
10.9432648870 -30.9476717696 -1.3002488613
10.9769120929 -30.8463150922 -1.3002488613
10.9977530351 -29.3940209284 -1.3002488613
10.9807144730 -29.3354186337 -1.3002488613
10.9762385128 -29.3208323452 -1.3002488613
10.9425018115 -29.2195054213 -1.3002488613
10.9392060128 -31.0279329215 -1.3002488613
10.9634565954 -30.9630136844 -1.3002488613
10.9652739705 -29.2113959171 -1.3002488613
10.9383720600 -29.1392478852 -1.3002488613
10.9782472191 -30.9930832447 -1.3002488613
10.9862118775 -30.9711704253 -1.3002488613
10.9637063621 -29.1377136608 -1.3002488613
10.9376296398 -29.0728120844 -1.3002488613
10.9776762289 -29.1070903485 -1.3002488613
10.9629479863 -29.0707448298 -1.3002488613
10.9382693996 -29.0130566585 -1.3002488613
10.9483929926 -31.1927679927 -1.3002488613
10.9374647032 -28.9528450707 -1.3002488613
10.9670770702 -31.2100437310 -1.3002488613
10.9736922603 -31.1955053169 -1.3002488613
10.9961656603 -31.1443180139 -1.3002488613
10.9362457277 -31.3288325154 -1.3002488613
10.9507977005 -31.3000732988 -1.3002488613
10.9377761171 -28.7912870327 -1.3002488613
10.9903941231 -31.3289791087 -1.3002488613
10.9498107140 -31.4566556850 -1.3002488613
10.9363074716 -28.6889561075 -1.3002488613
10.9667699799 -31.4757800765 -1.3002488613
10.9910733166 -31.4320122885 -1.3002488613
10.9978234748 -28.7498001332 -1.3002488613
10.9318841134 -28.6337332723 -1.3002488613
10.9351276993 -28.5925352687 -1.3002488613
10.9601494720 -28.5870885450 -1.3002488613
10.9627258270 -28.5453772126 -1.3002488613
10.9646548411 -28.5033970333 -1.3002488613
10.9562824104 -28.4466739994 -1.3002488613
10.9615030001 -32.1188657076 -1.3002488613
10.0837690383 -33.3978706987 -1.3002488613
10.2842764705 -33.4051590473 -1.3002488613
10.1635285398 -26.5952509126 -1.3002488613
10.1946090342 -26.5832862255 -1.3002488613
10.2879697338 -26.6025206515 -1.3002488613
10.2569977942 -26.5869065518 -1.3002488613
10.2989472913 -26.5809839732 -1.3002488613
10.6675706378 -33.4033887801 -1.3002488613
10.7004498919 -33.4107809135 -1.3002488613
10.4780573393 -26.5947372672 -1.3002488613
10.5209973647 -26.5913552064 -1.3002488613
10.9264847368 -33.4012934801 -1.3002488613
10.6667877746 -33.6038952739 -1.3002488613
10.6771888812 -33.5975087950 -1.3002488613
10.7391946517 -33.5585463479 -1.3002488613
11.2084018873 -33.2085524744 -1.3002488613
11.2268367027 -33.1925513244 -1.3002488613
10.7155227823 -26.5957205756 -1.3002488613
10.4554662772 -33.7521756993 -1.3002488613
10.4987260299 -33.7289356398 -1.3002488613
11.2148861745 -33.2348608802 -1.3002488613
11.2334765258 -33.2188209065 -1.3002488613
11.3340040635 -33.1286553023 -1.3002488613
11.3519639822 -33.1119124459 -1.3002488613
11.3787173447 -33.0865996633 -1.3002488613
11.4228037157 -33.0438872979 -1.3002488613
10.3899799936 -33.8131999441 -1.3002488613
10.5102917645 -33.7501622520 -1.3002488613
10.5642874744 -33.7202216536 -1.3002488613
11.1644333008 -33.3087994989 -1.3002488613
11.2023971883 -33.2772016512 -1.3002488613
11.3140086247 -33.1797441509 -1.3002488613
11.5179496717 -32.9821591758 -1.3002488613
11.5265078463 -32.9732575265 -1.3002488613
11.9638901394 -32.5600056533 -1.3002488613
11.2521240208 -26.8076247282 -1.3002488613
11.1935311537 -26.7595277130 -1.3002488613
11.1639169040 -26.7358710809 -1.3002488613
10.6304970964 -26.3754989349 -1.3002488613
10.6195154581 -26.3692514377 -1.3002488613
10.5974969783 -26.3568540368 -1.3002488613
10.5643326966 -26.3385027304 -1.3002488613
11.4761207595 -26.9751940219 -1.3002488613
11.4669094278 -26.9664423931 -1.3002488613
11.4298064243 -26.9317095108 -1.3002488613
10.4636106540 -26.2579337983 -1.3002488613
10.4522819669 -26.2521804958 -1.3002488613
10.4067985150 -26.2295031596 -1.3002488613
11.5749822076 -27.0381240439 -1.3002488613
11.8267338030 -27.2765059919 -1.3002488613
11.7593557814 -27.1988802342 -1.3002488613
11.9272381271 -27.3606685591 -1.3002488613
10.2335103426 -30.0918832820 -1.3002478429
10.2185707021 -30.0278997342 -1.3002478429
10.1938474709 -29.9403533332 -1.3002478429
10.2582134592 -30.0918553429 -1.3002478285
10.9361852019 -31.5166307706 -1.3002473098
10.9517261929 -31.4814054744 -1.3002473098
10.9840718664 -31.4031252111 -1.3002473098
10.9894470429 -29.5072739583 -1.3002473098
10.9614077767 -31.5194596281 -1.3002472954
10.9708190182 -31.4981280559 -1.3002472954
10.9674429823 -29.3908128968 -1.3002472954
10.9366486379 -31.6286254625 -1.3002472810
10.9476300539 -31.6606012097 -1.3002472665
10.9580014086 -29.2566767153 -1.3002472665
10.9760769750 -29.2387652724 -1.3002472521
10.9467789574 -29.1819896864 -1.3002472521
10.9646535572 -31.7325211973 -1.3002472377
10.9718968585 -29.1777731579 -1.3002472377
10.9642484133 -28.7501945000 -1.3002471081
10.9497638881 -32.2881370329 -1.3002470648
10.9383811773 -28.5938388936 -1.3002470648
10.9395915088 -28.3677745689 -1.3002469784
9.6909105045 -26.5803120303 -1.3002464597
9.6220825526 -26.5608931914 -1.3002464597
9.6105781866 -26.5577756199 -1.3002464597
9.8350677304 -26.5998479950 -1.3002464453
9.8122765685 -26.5923861240 -1.3002464453
9.7665637999 -26.5778675507 -1.3002464453
9.7321682351 -26.5673341416 -1.3002464453
9.8883760163 -26.5923162591 -1.3002464309
9.8541038789 -26.5807012659 -1.3002464309
9.8197300145 -26.5693908761 -1.3002464309
10.1075321159 -26.5965367264 -1.3002463876
10.0159535293 -26.5610536163 -1.3002463876
10.1736629564 -26.5975106369 -1.3002463732
10.1508520399 -26.5880455637 -1.3002463732
10.1394256819 -26.5833636776 -1.3002463732
10.0935832531 -26.5649747556 -1.3002463732
10.2287084006 -26.5946570297 -1.3002463588
10.2954441123 -26.5976796726 -1.3002463444
10.2248039634 -26.5403780145 -1.3002463300
10.2690785440 -26.5331250359 -1.3002463156
10.5081011704 -26.5920155382 -1.3002462868
10.5647379857 -26.5938559788 -1.3002462724
10.6329874906 -26.6026079926 -1.3002462580
10.7485695201 -26.4728626459 -1.3002461571
10.6657856252 -26.4284495780 -1.3002461571
11.3785824088 -26.8604641239 -1.3002461427
11.3679565424 -26.8521491973 -1.3002461427
11.3466312510 -26.8356138256 -1.3002461427
11.2603630454 -26.7707426300 -1.3002461427
10.6049337090 -26.3701385757 -1.3002461427
9.8527983519 -26.0735858495 -1.3002461427
11.6321736158 -27.0422657747 -1.3002461283
11.6018258596 -27.0151578377 -1.3002461283
10.4935982075 -26.2895866878 -1.3002461283
9.8856339140 -26.0581518932 -1.3002461283
11.6786216560 -27.0518298108 -1.3002461139
11.1890570183 -26.6604972943 -1.3002461139
11.8529977748 -27.1860508187 -1.3002460995
10.2875231294 -26.1478304217 -1.3002460995
10.2957047498 -30.1115614721 -1.3002487421
10.2874843896 -30.0924656952 -1.3002487421
10.9734331838 -30.0641909832 -1.3002487421
10.9600705650 -30.0235631435 -1.3002487421
10.9403537661 -31.6936360329 -1.3002487421
10.9613603264 -29.9547192660 -1.3002487421
10.9563388095 -29.9412237219 -1.3002487421
10.9391872007 -31.9852807941 -1.3002487421
10.9949304061 -32.0854578525 -1.3002487421
10.9937069935 -29.3627276232 -1.3002487421
10.9470203386 -32.3467731013 -1.3002487421
9.8715572560 -26.5953351197 -1.3002487421
9.8342253262 -26.5849066822 -1.3002487421
9.8092865932 -26.5781386246 -1.3002487421
9.7718045063 -26.5682634816 -1.3002487421
9.9529546279 -26.5940521049 -1.3002487421
10.0347713901 -26.5943421563 -1.3002487421
10.1293967560 -26.6004954271 -1.3002487421
10.1045450852 -26.5919807634 -1.3002487421
10.0921004677 -26.5877786056 -1.3002487421
10.0796434738 -26.5836132795 -1.3002487421
10.1746837931 -26.5907689948 -1.3002487421
10.2327197264 -26.5860989631 -1.3002487421
10.2285640056 -26.5588167552 -1.3002487421
10.3871007183 -26.5941324501 -1.3002487421
10.2368708627 -26.5361158432 -1.3002487421
10.4585091065 -26.5976186459 -1.3002487421
10.4460796181 -26.5923693738 -1.3002487421
10.5772978474 -26.5968815607 -1.3002487421
10.5524169567 -26.5857170270 -1.3002487421
10.4488931721 -26.5149686898 -1.3002487421
10.8412937672 -26.5901922347 -1.3002487421
10.9384827841 -26.5866590104 -1.3002487421
11.3159984958 -26.7833891988 -1.3002487421
11.2683262284 -26.7524538245 -1.3002487421
10.5659557689 -26.3806383743 -1.3002487421
11.4474186260 -26.8433783824 -1.3002487421
11.9322012377 -27.1991481723 -1.3002487421
11.5660691687 -26.8990862434 -1.3002487421
11.9054085393 -27.1427753444 -1.3002487421
12.0768810277 -27.2345913981 -1.3002487421
10.9461325713 -31.9228327632 -1.3002488613
10.9860031438 -31.8104090702 -1.3002488613
10.9699357877 -30.3780033347 -1.3002488613
10.9325550207 -30.2787778119 -1.3002488613
10.9462873685 -31.9874896694 -1.3002488613
10.9827973568 -31.8938777255 -1.3002488613
10.9648585001 -30.2946275911 -1.3002488613
10.9395816721 -30.2325898602 -1.3002488613
10.9711980369 -31.9905149211 -1.3002488613
10.9591740686 -30.2169108441 -1.3002488613
10.9510944044 -30.1982748979 -1.3002488613
10.9483644700 -30.1920789405 -1.3002488613
10.9400648622 -30.1735399014 -1.3002488613
10.9720828311 -32.0500826812 -1.3002488613
10.9935457979 -31.9997297386 -1.3002488613
10.9535306181 -30.1449052094 -1.3002488613
10.9389083943 -30.1139767963 -1.3002488613
10.9299160462 -30.0955247500 -1.3002488613
10.9546459662 -30.0910446297 -1.3002488613
10.9701843654 -30.0678914727 -1.3002488613
10.9561894892 -29.9881895271 -1.3002488613
10.9726781693 -32.2681771238 -1.3002488613
10.9392252220 -29.9082984982 -1.3002488613
10.9565076385 -29.8899416202 -1.3002488613
10.9306288390 -29.8466959866 -1.3002488613
10.2977578978 -26.5876859638 -1.3002488613
10.2843500470 -26.5834384918 -1.3002488613
10.2574969443 -26.5750626290 -1.3002488613
10.3990624910 -26.5956494548 -1.3002488613
10.3722796249 -26.5865947009 -1.3002488613
10.3588682198 -26.5821267849 -1.3002488613
10.3454436565 -26.5776985619 -1.3002488613
10.2240498875 -26.5396370145 -1.3002488613
10.4337361775 -26.5820323844 -1.3002488613
10.4820754900 -26.5734607520 -1.3002488613
10.3469469333 -26.5273306054 -1.3002488613
10.5978424398 -26.5906705110 -1.3002488613
10.5710266376 -26.5804397953 -1.3002488613
10.3544173737 -26.5043408729 -1.3002488613
10.6334139784 -26.5785519118 -1.3002488613
10.7095085876 -26.5829737401 -1.3002488613
10.6960849955 -26.5775082558 -1.3002488613
9.6661298883 -26.2860988630 -1.3002488613
10.7724522955 -26.5829669445 -1.3002488613
10.7590284080 -26.5773152613 -1.3002488613
10.7186572561 -26.5605988179 -1.3002488613
10.8490587860 -26.5896961922 -1.3002488613
10.8991035880 -26.5855325973 -1.3002488613
10.8722521156 -26.5735196094 -1.3002488613
9.0494377514 -26.1498018356 -1.3002488613
11.2399476241 -26.7276970566 -1.3002488613
11.2269498289 -26.7206618044 -1.3002488613
11.2139312790 -26.7136650328 -1.3002488613
11.2008920884 -26.7067068030 -1.3002488613
11.1747522414 -26.6929062123 -1.3002488613
11.1616518139 -26.6860639720 -1.3002488613
11.1485312030 -26.6792605152 -1.3002488613
11.1090494200 -26.6590834384 -1.3002488613
10.7597752232 -26.4990878662 -1.3002488613
10.6912511453 -26.4714239634 -1.3002488613
10.5807834278 -26.4292785225 -1.3002488613
11.5583911583 -26.8875525372 -1.3002488613
11.4828823333 -26.8402424807 -1.3002488613
11.4193249678 -26.8018462275 -1.3002488613
11.3680745247 -26.7718086800 -1.3002488613
10.4067104567 -26.3434127452 -1.3002488613
11.7082669449 -26.9578024407 -1.3002488613
10.2859139592 -26.2806228197 -1.3002488613
10.2715978118 -26.2764117277 -1.3002488613
11.8322003987 -27.0156619819 -1.3002488613
11.7095603708 -26.9294049973 -1.3002488613
10.2062769701 -26.2326940358 -1.3002488613
10.1193585724 -26.2094846918 -1.3002488613
12.2339001293 -27.3072580038 -1.3002488613
12.1657339118 -27.2478927847 -1.3002488613
11.7231729477 -26.9094291861 -1.3002488613
9.8955329582 -26.1078347224 -1.3002488613
9.8658728288 -26.1017675559 -1.3002488613
10.2321001509 -30.1975047164 -1.3002488613
10.2158278355 -30.1495274289 -1.3002488613
10.9598154644 -32.0315467531 -1.3002488613
10.9853931225 -30.8526631373 -1.3002488613
10.9736279831 -30.8135054447 -1.3002488613
10.9683380445 -30.7967997446 -1.3002488613
10.9417012216 -30.7194903892 -1.3002488613
10.9711014527 -32.0727805907 -1.3002488613
10.9901406971 -32.0168060956 -1.3002488613
10.9829089410 -30.6915783881 -1.3002488613
10.9834665060 -30.6267130289 -1.3002488613
10.9843016316 -30.5668060007 -1.3002488613
10.9358937043 -30.4122008439 -1.3002488613
10.9317716660 -30.3065430521 -1.3002488613
10.9590724868 -30.3052467713 -1.3002488613
10.9363428699 -30.0099718164 -1.3002488613
10.4576495797 -26.5962863136 -1.3002488613
10.4291979702 -26.5882704657 -1.3002488613
10.4149545056 -26.5843257006 -1.3002488613
7.9723526151 -26.5313297685 -1.3002488613
7.9148078593 -26.5448782780 -1.3002488613
7.8574274442 -26.5591067353 -1.3002488613
10.5355339100 -26.5939139024 -1.3002488613
10.5213066745 -26.5896545517 -1.3002488613
10.4928147151 -26.5812622031 -1.3002488613
10.4356843354 -26.5649839386 -1.3002488613
8.1121792503 -26.4767340294 -1.3002488613
7.8514708148 -26.5356791053 -1.3002488613
7.7939859848 -26.5506576399 -1.3002488613
7.7796427849 -26.5545084730 -1.3002488613
10.5995555290 -26.5883084378 -1.3002488613
10.5567840677 -26.5750888033 -1.3002488613
