4.4910158635 -2.7625417171 -2.5001062683
4.5646601538 -2.6926238455 -2.5001062683
2.2592350652 -4.0758413630 -2.5001062740
4.7373499828 -2.5534425284 -2.5001062740
4.7956869804 -2.4916477332 -2.5001062740
2.2988949443 -4.0889484912 -2.5001062798
4.5982572495 -2.7273884293 -2.5001062798
4.8710450576 -2.4451968826 -2.5001062798
2.0754842432 -4.1783934957 -2.5001062855
2.0920432067 -4.1739708441 -2.5001062855
2.1581460586 -4.1557909805 -2.5001062855
3.4456989043 0.1529932460 -2.4999531148
3.4732901459 0.2452631558 -2.4999531148
3.4758988824 0.2545341492 -2.4999531148
3.4810340226 0.2730990845 -2.4999531148
3.4638016873 2.0511438991 -2.4999531148
3.4583076927 2.0696058197 -2.4999531148
3.4440956890 2.1156155903 -2.4999531148
3.4445447670 0.0719794076 -2.4999530889
3.4507605111 0.0903620364 -2.4999530889
3.4612198669 2.1414008398 -2.4999530889
3.4551919271 2.1598459058 -2.4999530889
3.4545698991 0.0272452397 -2.4999530629
3.4610501301 0.0456879636 -2.4999530629
3.4674211344 0.0641687038 -2.4999530629
3.4767723539 0.0919596796 -2.4999530629
3.4828693241 0.1105326280 -2.4999530629
3.4560300395 2.2321666804 -2.4999530629
3.4722101887 2.2587648233 -2.4999530370
3.4654876917 2.2772728577 -2.4999530370
3.4517147907 2.3141679906 -2.4999530370
3.4510259497 -0.1187696404 -2.4999530111
3.4656051491 -0.0818778881 -2.4999530111
3.4489787355 2.3873868171 -2.4999530111
3.4506059144 -0.1831911706 -2.4999529851
3.4544821955 -0.1739854066 -2.4999529851
3.4406544874 -0.2663543074 -2.4999529592
3.4707027138 2.4612577412 -2.4999529592
3.4546909445 -0.3510283967 -2.4999529073
3.4381985041 -0.4921071448 -2.4999528555
3.4449745851 -0.5309459412 -2.4999528295
3.4347670874 -0.7439361635 -2.4999527258
3.4458102332 -0.7255971028 -2.4999527258
3.4293083885 -1.2234321186 -2.4999524405
-0.9540129451 -3.4430367894 -2.4999515068
-0.9269242026 -3.4506159865 -2.4999515068
-0.8997910931 -3.4580347848 -2.4999515068
-0.8590103187 -3.4688616682 -2.4999515068
1.6696818537 -3.4331321395 -2.4999515068
1.7370531182 -3.4129749264 -2.4999515068
1.7504911813 -3.4088240297 -2.4999515068
-1.0284598801 -3.4465485582 -2.4999514809
-0.9741912635 -3.4624271985 -2.4999514809
-0.8514254348 -3.4957990406 -2.4999514809
1.7306345123 -3.4402137588 -2.4999514809
1.8518504474 -3.4015896006 -2.4999514809
1.8998700142 -3.4108630078 -2.4999514550
1.9616294326 -3.4148639003 -2.4999514290
1.9885004662 -3.4051936710 -2.4999514290
2.0371524951 -3.4130372218 -2.4999514031
1.9097664617 -3.4841158617 -2.4999513772
2.1129743058 -3.4099662138 -2.4999513772
1.9723245584 -3.4880184417 -2.4999513512
2.2024888978 -3.4001536419 -2.4999513512
2.1846977312 -3.4335034672 -2.4999513253
2.2251393410 -3.4169582085 -2.4999513253
2.2883460013 -3.4165620318 -2.4999512994
2.3152213636 -3.4049588079 -2.4999512994
2.4289428882 -3.4070197142 -2.4999512475
2.4423603074 -3.4008221086 -2.4999512475
2.4525293348 -3.4227521374 -2.4999512216
2.5062726909 -3.3974437621 -2.4999512216
2.6213436756 -3.3948055312 -2.4999511697
2.6456650557 -3.4095941291 -2.4999511438
2.7619733136 -3.4035401943 -2.4999510919
2.8387405406 -3.4169475588 -2.4999510400
2.9310891251 -3.3928714123 -2.4999510141
3.0357473614 -3.3877051733 -2.4999509622
3.1410304826 -3.3802362315 -2.4999509103
3.4069608080 -3.3803802987 -2.4999507547
3.6978862869 -3.2294827634 -2.4999507029
3.7364577402 -3.1995168392 -2.4999507029
3.7620236458 -3.1793498985 -2.4999507029
2.9585460221 -3.7370033964 -2.4999506769
2.9873054935 -3.7214294358 -2.4999506769
3.0445455005 -3.6897724313 -2.4999506769
3.6736252907 -3.2783901363 -2.4999506769
3.8153422472 -3.1676173021 -2.4999506769
3.8280454047 -3.1573195239 -2.4999506769
4.0634818167 -2.9546351135 -2.4999506769
2.7504913552 -3.8701164188 -2.4999506510
2.7652772913 -3.8629655884 -2.4999506510
2.8388861184 -3.8265570784 -2.4999506510
3.9192001915 -3.1132297248 -2.4999506510
4.1039782816 -2.9503102449 -2.4999506510
4.2347935698 -2.8257098587 -2.4999506510
2.5811651552 -3.9746306376 -2.4999506251
2.6113371140 -3.9612852300 -2.4999506251
2.6714415262 -3.9340600667 -2.4999506251
2.7013718759 -3.9201812639 -2.4999506251
4.0838306431 -3.0014648002 -2.4999506251
4.4242093859 -2.6655352758 -2.4999506251
2.5452764378 -4.0165346742 -2.4999505991
4.4531754838 -2.6698471648 -2.4999505991
2.2533746891 -4.1833786366 -2.4999505473
1.8321728818 -4.4167871309 -2.4999504435
3.4538363607 -0.2340443609 -2.5000222629
3.4524533905 1.8646025387 -2.5000222629
3.4332739695 1.9227383417 -2.5000222629
3.4408091680 -0.3484921420 -2.5000222485
3.4323201411 1.9983693950 -2.5000222485
3.4495191722 -0.3954952208 -2.5000222340
3.4585583478 1.9968881456 -2.5000222340
3.4406898844 2.0454342544 -2.5000222340
3.4333417777 2.0647778050 -2.5000222340
3.4612729948 -0.4331278533 -2.5000222196
3.4471640225 -0.5971035145 -2.5000221908
3.4566414497 -0.6358984722 -2.5000221764
3.4504152049 2.2761777702 -2.5000221764
3.4341677432 -0.7429439611 -2.5000221620
3.4324631213 -0.8018058478 -2.5000221476
3.4462345087 -0.8816983428 -2.5000221188
3.4490099650 2.5025461173 -2.5000221188
3.4316784484 -0.9607656335 -2.5000221044
3.4491798780 2.7041891500 -2.5000220612
3.4448177336 2.8064373653 -2.5000220323
1.6241210154 -3.4325212107 -2.5000216433
1.6867562728 -3.4105132500 -2.5000216433
1.7241787696 -3.3968646407 -2.5000216433
1.7825352223 -3.4007229194 -2.5000216289
1.7366667118 -3.4695435332 -2.5000216001
1.7872312553 -3.4506769563 -2.5000216001
1.9001615875 -3.4060486008 -2.5000216001
1.9126350523 -3.4009047000 -2.5000216001
1.8932697905 -3.4610554132 -2.5000215713
2.0189341637 -3.4081422574 -2.5000215713
2.0787229518 -3.4079610436 -2.5000215569
2.1990498972 -3.4051117464 -2.5000215280
2.2595654780 -3.4024317967 -2.5000215136
2.3203005709 -3.3989073210 -2.5000214992
2.3812436274 -3.3945327674 -2.5000214848
3.0294364706 -3.3995889252 -2.5000212831
3.6690986741 -3.2434263502 -2.5000211246
3.6810833330 -3.2330503251 -2.5000211246
3.7523419563 -3.1700538188 -2.5000211246
3.7641092018 -3.1594318660 -2.5000211246
3.7875491707 -3.1380837642 -2.5000211246
3.8108624268 -3.1165973574 -2.5000211246
3.8571055409 -3.0732126415 -2.5000211246
3.8800337803 -3.0513158511 -2.5000211246
2.9511761563 -3.7942147658 -2.5000211102
2.9919539978 -3.7693300298 -2.5000211102
3.0190158430 -3.7525395832 -2.5000211102
3.8621843966 -3.1016901418 -2.5000211102
3.9424515196 -3.0243499995 -2.5000211102
3.9875939081 -2.9794147182 -2.5000211102
4.0322014413 -2.9339484370 -2.5000211102
4.0653023324 -2.8995040840 -2.5000211102
4.1197870349 -2.8414484114 -2.5000211102
2.7275005712 -3.9496104501 -2.5000210958
2.7836761251 -3.9189862591 -2.5000210958
2.4909800464 -4.1228496832 -2.5000210670
2.1827571843 -4.3084927687 -2.5000210382
4.8686785452 -2.0951270461 -2.5000210238
2.6198682987 -0.2699773376 -2.5000020684
2.6283149670 -0.2394657511 -2.5000020684
2.6514807830 -0.1473612939 -2.5000020684
2.7218568631 -0.0479481097 -2.5000020799
2.7500408343 -0.0284662634 -2.5000020857
2.7991035143 0.1375706813 -2.5000020915
2.8562836373 0.2232837549 -2.5000021030
2.8594641326 0.2648814074 -2.5000021030
2.9383233476 0.4137832596 -2.5000021203
3.4404819974 -0.6450405590 -2.5000022817
3.4437334167 -0.6349929011 -2.5000022817
3.4501470160 -0.6148689502 -2.5000022817
3.4674477711 1.4766179007 -2.5000022817
3.4424119956 1.5573063148 -2.5000022817
3.4634697855 -0.6525169804 -2.5000022874
3.4347683473 1.6553891787 -2.5000022874
3.4408874712 -0.7914583679 -2.5000022932
3.4367710277 -0.8703161126 -2.5000022989
3.4429961086 1.7725435092 -2.5000022989
3.4456136948 1.8316983964 -2.5000023047
3.4489437306 -0.9688966189 -2.5000023105
3.4531531377 -0.9588225126 -2.5000023105
3.4639270017 1.8508656617 -2.5000023105
3.4597949764 1.8609717536 -2.5000023105
3.4583435043 -1.0085937276 -2.5000023162
3.4492258990 -1.0889516494 -2.5000023220
3.4537904493 -1.0788761831 -2.5000023220
3.4696644007 -1.1597884791 -2.5000023335
0.2488763490 -3.4197896347 -2.5000023566
0.7652127927 -3.5053629487 -2.5000023912
1.0792282722 -3.4353050411 -2.5000023912
1.1022508414 -3.4291212866 -2.5000023912
1.1547993280 -3.4395959754 -2.5000023969
1.2123413451 -3.4227632741 -2.5000023969
1.2352873833 -3.4157921974 -2.5000023969
1.3113765515 -3.4170449189 -2.5000024027
1.3534331512 -3.4285700276 -2.5000024085
1.3764110747 -3.4207641028 -2.5000024085
1.4533098818 -3.4192550466 -2.5000024142
1.4762309467 -3.4108583806 -2.5000024142
1.4876727498 -3.4066092308 -2.5000024142
1.5105183965 -3.3980094838 -2.5000024142
1.5649047693 -3.4029001000 -2.5000024200
1.8643203542 -3.4052727864 -2.5000024488
1.9204701750 -3.4052300572 -2.5000024546
1.9860219799 -3.4808119315 -2.5000024776
2.2743479369 -3.4091093738 -2.5000024949
2.5921715001 -3.4119178845 -2.5000025352
3.1590855703 -3.6624427181 -2.5000026620
3.1834155613 -3.6439498540 -2.5000026620
3.6017673276 -3.2871703951 -2.5000026620
3.6785746854 -3.2127328253 -2.5000026620
3.7217672878 -3.1694881222 -2.5000026620
3.7644451751 -3.1257353717 -2.5000026620
3.7750335208 -3.1147185179 -2.5000026620
3.7855892304 -3.1036703901 -2.5000026620
3.8274838638 -3.0591670763 -2.5000026620
2.8462388646 -3.9098434957 -2.5000026678
2.9105510084 -3.8679423123 -2.5000026678
3.8867412726 -3.0304254272 -2.5000026678
3.8970471392 -3.0190472165 -2.5000026678
3.9379326691 -2.9732310051 -2.5000026678
3.9982373568 -2.9036076438 -2.5000026678
3.9865113943 -2.9543794440 -2.5000026736
4.1720440423 -2.7276019075 -2.5000026736
4.2657729497 -2.6433812232 -2.5000026793
2.3844732301 -4.2545931422 -2.5000026851
2.4539348641 -4.2194839411 -2.5000026851
4.2480730051 -2.7076471613 -2.5000026851
2.2069851138 -4.3915495261 -2.5000026966
2.5116514601 -0.4751183784 -2.5000023528
2.5149738935 -0.4602269222 -2.5000023528
2.5213541640 -0.4303863437 -2.5000023528
2.5244117779 -0.4154382659 -2.5000023528
2.5481086646 -0.4202124507 -2.5000023614
2.6196885524 -0.2906849354 -2.5000023787
2.6250896390 -0.2518423541 -2.5000023787
3.4518127567 -0.8948056513 -2.5000027159
3.4576017466 -0.8743445399 -2.5000027159
3.4699430543 1.0168740838 -2.5000027159
3.4644215875 1.0374090026 -2.5000027159
3.4587787259 1.0579108951 -2.5000027159
3.4530146669 1.0783790437 -2.5000027159
3.4568396458 -0.9630395555 -2.5000027245
3.4388956330 1.2078815440 -2.5000027245
3.4322446453 1.2282294329 -2.5000027245
0.8376808975 -3.4501009897 -2.5000027332
0.8795561677 -3.4398976119 -2.5000027332
0.9004477950 -3.4346102909 -2.5000027332
3.4671248648 -1.0112460762 -2.5000027332
3.4518059532 1.2460346069 -2.5000027332
3.4379313608 1.2868407689 -2.5000027332
0.9797981480 -3.4384205635 -2.5000027418
1.0423353542 -3.4204093821 -2.5000027418
1.0527267162 -3.4172997269 -2.5000027418
3.4557256702 -1.1214323870 -2.5000027418
3.4643084203 1.2845039459 -2.5000027418
3.4607712006 1.2947576494 -2.5000027418
3.4499777656 1.3254553499 -2.5000027418
3.4351635580 1.3662343200 -2.5000027418
3.4275757674 1.3865573572 -2.5000027418
1.0805829056 -3.4340946934 -2.5000027505
1.1222517773 -3.4210183067 -2.5000027505
1.1430274608 -3.4142954474 -2.5000027505
3.4600577309 -1.1808139192 -2.5000027505
3.4638133859 -1.1705620032 -2.5000027505
3.4305738974 1.4460211640 -2.5000027505
1.2026387586 -3.4198147417 -2.5000027591
1.2130276602 -3.4162308828 -2.5000027591
3.4514057960 -1.2713032797 -2.5000027591
3.4594222793 -1.2508379867 -2.5000027591
3.4673175429 -1.2303256236 -2.5000027591
3.4570772874 1.4446452766 -2.5000027591
3.4325587668 1.5058545137 -2.5000027591
1.1264612437 -3.4704186075 -2.5000027677
1.2313903248 -3.4354326275 -2.5000027677
1.2418253011 -3.4317636479 -2.5000027677
1.2522493782 -3.4280638157 -2.5000027677
1.2626624649 -3.4243331635 -2.5000027677
1.3042030869 -3.4091030102 -2.5000027677
3.4489523234 -1.3416903121 -2.5000027677
3.4531839284 -1.3314705440 -2.5000027677
1.2078025285 -3.4691404109 -2.5000027764
1.2917763019 -3.4394752615 -2.5000027764
1.3230819402 -3.4278397466 -2.5000027764
1.3334940541 -3.4238995597 -2.5000027764
1.3957178278 -3.3996132072 -2.5000027764
3.4495226094 -1.4022087712 -2.5000027764
3.4539332364 -1.3919870513 -2.5000027764
3.4583136065 -1.3817523286 -2.5000027764
3.4669834227 -1.3612442336 -2.5000027764
3.4424556551 1.6061994926 -2.5000027764
1.3838803113 -3.4303237994 -2.5000027850
1.4151011086 -3.4178712734 -2.5000027850
1.4462101672 -3.4051421707 -2.5000027850
3.4490531820 -1.4630560561 -2.5000027850
3.4509473617 1.6466323887 -2.5000027850
3.4417003658 1.6670439007 -2.5000027850
1.4450404759 -3.4317749093 -2.5000027937
1.4762717426 -3.4187795640 -2.5000027937
1.5073864529 -3.4055075705 -2.5000027937
3.4617583543 -1.4935233404 -2.5000027937
3.4350447118 1.7383741549 -2.5000027937
3.4420296475 1.7794481575 -2.5000028023
3.4319970249 1.7998045849 -2.5000028023
1.5787986381 -3.4268722404 -2.5000028110
1.6099811291 -3.4126900595 -2.5000028110
1.6410365332 -3.3982317099 -2.5000028110
3.4566296646 -1.6167530698 -2.5000028110
1.6927996206 -3.4002718185 -2.5000028196
1.7764316083 -3.4127216190 -2.5000028369
3.4375552267 1.9973263041 -2.5000028369
1.8600433112 -3.3964348855 -2.5000028456
1.8088086043 -3.4504849329 -2.5000028542
3.4543334884 -1.9742357475 -2.5000028715
3.4445790359 2.1782427580 -2.5000028715
3.4321869659 2.1986072889 -2.5000028715
3.4338736123 2.2418251227 -2.5000028801
3.4599252373 -2.1482038157 -2.5000029061
3.4359318510 2.3726249094 -2.5000029061
2.4930144199 3.4090258884 -2.5000029147
2.6157477444 3.4058977184 -2.5000029406
3.4456669965 2.6532877217 -2.5000029666
2.5638498872 -3.4095241323 -2.5000029839
2.7614315918 -3.4110847523 -2.5000030271
2.9875607160 3.4079808767 -2.5000030271
3.8105844529 3.0125091352 -2.5000031481
3.8019339662 3.0237796251 -2.5000031481
3.7932501772 3.0350244759 -2.5000031481
3.7315376095 3.1130123021 -2.5000031481
3.6590494277 3.2005541845 -2.5000031481
3.2977772292 3.5820592820 -2.5000031481
3.1825444408 3.6876230330 -2.5000031481
3.1718995930 3.6970327130 -2.5000031481
3.0966128147 3.7620130412 -2.5000031481
3.9885098210 2.8072189980 -2.5000031568
3.9231857535 2.9009273104 -2.5000031568
3.8727474612 2.9701797431 -2.5000031568
3.8470693719 3.0044675260 -2.5000031568
3.2092514283 3.6962220400 -2.5000031568
2.9681753397 3.8975457635 -2.5000031568
4.0874023629 2.7009438009 -2.5000031654
4.0483955601 2.7611672013 -2.5000031654
3.7327897121 3.1878315920 -2.5000031654
3.8328502622 3.1021844340 -2.5000031741
3.6219446129 -3.2373801744 -2.5000031914
3.6317832545 -3.2266403694 -2.5000031914
3.6415900827 -3.2158715069 -2.5000031914
2.9563782882 -3.8708521893 -2.5000032000
2.9797832398 -3.8532701488 -2.5000032000
3.0378369504 -3.8087119390 -2.5000032000
3.0493682504 -3.7996975302 -2.5000032000
3.1519356671 -3.7170441653 -2.5000032000
3.2079557122 -3.6699546554 -2.5000032000
3.7657569964 -3.1111819844 -2.5000032000
3.8497418901 -3.0097019797 -2.5000032000
3.8960927636 -2.9903780501 -2.5000032086
4.0547171634 -2.7784527455 -2.5000032086
2.6438277682 -4.1431580739 -2.5000032173
2.6813249548 -4.1194961506 -2.5000032173
2.7925360080 -4.0465269571 -2.5000032173
4.1498381502 -2.6828330112 -2.5000032173
4.1580340313 -2.6705340279 -2.5000032173
2.6314015071 -4.1793229557 -2.5000032259
4.3783433108 -2.4051516182 -2.5000032346
2.3664204376 -4.4411766149 -2.5000032605
2.1317353591 -4.5828797856 -2.5000032692
4.8278553560 -1.7330301088 -2.5000032778
2.6829490820 -0.1127108271 -2.5000017495
3.4443819725 -1.2594354909 -2.5000018561
3.4693321769 -1.1677258398 -2.5000018561
3.4785973257 0.5779979623 -2.5000018561
3.4574067050 0.6597804043 -2.5000018561
3.4489621510 0.6903160896 -2.5000018561
3.4526061672 -1.3170870916 -2.5000018590
3.4482302931 0.7784610766 -2.5000018590
3.4450945172 0.7886202856 -2.5000018590
3.4387328760 0.8089106529 -2.5000018590
1.8373443475 -3.4008802443 -2.5000018618
3.4432433847 -1.4260648072 -2.5000018618
3.4519443211 0.8467790192 -2.5000018618
3.4349544746 0.8975284291 -2.5000018618
3.4450808331 -1.4948606390 -2.5000018647
3.4522290321 -1.4745303879 -2.5000018647
3.4557579950 -1.4643494921 -2.5000018647
3.4543084385 0.9155587665 -2.5000018647
3.4493437987 -1.5539197582 -2.5000018676
3.4531076223 -1.5437470501 -2.5000018676
3.4365463624 -1.6539822694 -2.5000018705
3.4446361278 -1.6336997262 -2.5000018705
3.4486359756 -1.6235405952 -2.5000018705
3.4526057533 -1.6133696763 -2.5000018705
3.4338217937 -1.7239561971 -2.5000018734
3.4320560107 1.1751385570 -2.5000018734
3.4474048322 -1.7537231583 -2.5000018763
3.4334612616 -1.8446658930 -2.5000018791
3.4412940277 -1.8852315920 -2.5000018820
3.4460379668 -1.8750812469 -2.5000018820
3.4535105487 1.3059472708 -2.5000018820
3.4345454907 1.3465533790 -2.5000018820
3.4486745083 -1.9260590102 -2.5000018849
3.4280928360 1.4690624471 -2.5000018878
3.4517551857 -2.0288586461 -2.5000018907
3.4444067228 1.4902228698 -2.5000018907
3.4338941772 1.5104968887 -2.5000018907
3.4463649097 -2.1428820665 -2.5000018964
3.4440887981 1.5940793951 -2.5000018964
3.4370981878 1.6565128225 -2.5000018993
3.4465825152 1.6887469756 -2.5000019022
3.4351928367 -2.5368146436 -2.5000019195
3.4274400849 -2.6346730430 -2.5000019252
2.0182807282 3.4667541487 -2.5000019368
2.2179653880 3.4091422033 -2.5000019425
2.3194860149 3.4036461819 -2.5000019483
2.2976727023 3.4172313040 -2.5000019483
3.1485100765 -3.7202564747 -2.5000019858
3.2884023041 -3.5874597383 -2.5000019858
3.6734593196 -3.1559604211 -2.5000019858
3.7072742285 -3.1124394162 -2.5000019858
3.0293659651 -3.8567694614 -2.5000019886
3.0715182625 -3.8208206074 -2.5000019886
3.1028517247 -3.7935330258 -2.5000019886
3.7348665939 -3.1161582030 -2.5000019886
3.8333033769 -2.9822558206 -2.5000019886
3.8412907969 -2.9709410410 -2.5000019886
3.8571650490 -2.9482408449 -2.5000019886
2.8268448699 -4.0482701289 -2.5000019915
3.9623421611 -2.8348807852 -2.5000019915
3.9698930545 -2.8231849304 -2.5000019915
2.6934516487 -4.1736037391 -2.5000019944
2.6137083437 -4.2561890286 -2.5000019973
4.2030806198 -2.5221478003 -2.5000019973
4.4017351852 -2.2259954308 -2.5000020030
3.7219593672 3.1420456271 -2.5000020319
3.7016692257 3.1639328309 -2.5000020319
3.2123973577 3.6231557969 -2.5000020319
3.1892697251 3.6420198405 -2.5000020319
3.8787544077 3.0011595123 -2.5000020347
3.1928319082 3.6702226524 -2.5000020347
3.0146321336 3.8074164141 -2.5000020347
4.0022814814 2.8886582796 -2.5000020376
3.9740354302 2.9239416527 -2.5000020376
3.1608538705 3.7265791147 -2.5000020376
2.8314271318 3.9650206959 -2.5000020376
4.1760119790 2.6981455599 -2.5000020405
4.0953500307 2.8079290606 -2.5000020405
2.6788661773 4.0908995059 -2.5000020405
2.6529805535 4.1065988136 -2.5000020405
4.3569675374 2.4724782861 -2.5000020434
2.4941807093 4.2260506726 -2.5000020434
2.4674987181 4.2406549537 -2.5000020434
2.9975572060 3.9389674939 -2.5000020463
2.4770865343 4.2904434456 -2.5000020492
3.4440422831 -1.6565578945 -2.5000014305
3.4558527283 -1.6168947014 -2.5000014305
3.4671930333 -1.5770945383 -2.5000014305
3.4548846432 0.3429671556 -2.5000014305
3.4519662366 0.3528931338 -2.5000014305
3.4460413992 0.3727189736 -2.5000014305
3.4537942370 0.5065201138 -2.5000014305
3.5040664379 -1.7079336416 -2.5000014305
3.4697915518 0.5342961498 -2.5000014305
3.4373729291 0.6236393404 -2.5000014305
3.4405517938 -2.0241144565 -2.5000014305
3.4446357055 -2.0142205204 -2.5000014305
3.4672212172 0.6806919575 -2.5000014305
3.4422042413 -2.1421978291 -2.5000014305
3.4566550571 -2.2820769452 -2.5000014305
3.4467839644 1.0785011839 -2.5000014305
3.4365662767 1.0982836643 -2.5000014305
3.4494950146 -2.4542686748 -2.5000014305
3.4456476047 1.2831597511 -2.5000014305
3.4342191080 1.3029319265 -2.5000014305
3.4431192466 -2.8411009804 -2.5000014305
3.4635836885 -2.8976440743 -2.5000014305
3.4701505634 -2.9311068563 -2.5000014305
1.4013724361 3.4286367465 -2.5000014305
1.3893350458 3.4324745631 -2.5000014305
1.3289807003 3.4511286016 -2.5000014305
1.4811378293 3.4277489953 -2.5000014305
1.6537714145 3.4167034435 -2.5000014305
3.1280211282 -3.7843553475 -2.5000014305
3.2287613048 -3.6841104451 -2.5000014305
3.7172897040 -3.0834957533 -2.5000014305
3.7316910536 -3.0620400283 -2.5000014305
3.7741299603 -2.9971669057 -2.5000014305
3.8017800060 -2.9535041111 -2.5000014305
3.0306089887 -3.9079056557 -2.5000014305
3.3088219719 -3.6351254717 -2.5000014305
3.9870625044 -2.7306344558 -2.5000014305
1.8610799880 3.4101891713 -2.5000014305
1.7526737030 3.4556884368 -2.5000014305
2.1401453973 3.4126816887 -2.5000014305
2.2342512991 3.4185776595 -2.5000014305
2.4731179735 3.4241668524 -2.5000014305
2.7537440613 3.4210119999 -2.5000014305
3.7559604042 3.1440854970 -2.5000014305
3.7447544657 3.1548898557 -2.5000014305
3.6309562261 3.2610921808 -2.5000014305
3.1458849116 3.6508940811 -2.5000014305
3.1076978397 3.6777734383 -2.5000014305
3.0692737324 3.7043128482 -2.5000014305
3.9484435305 2.9833415987 -2.5000014305
2.8864552808 3.8523749268 -2.5000014305
5.1677391980 0.9420215380 -2.5000014305
4.0405602473 2.9190329117 -2.5000014305
2.8321726101 3.9138488176 -2.5000014305
2.7916643160 3.9379337993 -2.5000014305
2.7781142498 3.9458821223 -2.5000014305
2.7100144982 3.9850205837 -2.5000014305
2.0586393878 4.2966170101 -2.5000014305
5.2480987118 0.7522394572 -2.5000014305
5.0056458535 1.4525557716 -2.5000014305
2.5554077169 4.0962656106 -2.5000014305
2.3858147606 4.1804979508 -2.5000014305
2.2999237967 4.2203434380 -2.5000014305
2.1697952613 4.2772378449 -2.5000014305
2.1114834837 4.3014081536 -2.5000014305
5.3384634538 0.4812202285 -2.5000014305
4.4261849257 2.5210170821 -2.5000014305
4.3789792067 2.5846870030 -2.5000014305
4.3694253441 2.5973368116 -2.5000014305
2.4959249481 4.1537115464 -2.5000014305
2.2083625611 4.2871139777 -2.5000014305
5.4501724790 -0.0638056639 -2.5000014305
4.1889833835 2.8599518609 -2.5000014305
3.4510600626 -2.0409512608 -2.5000014305
3.4896552458 -1.9169764468 -2.5000014305
3.4448515999 0.1084849770 -2.5000014305
3.4410095591 0.1921532323 -2.5000014305
3.4340455545 0.2110297500 -2.5000014305
3.4349859748 0.2762420601 -2.5000014305
3.4459936930 -2.2649226876 -2.5000014305
3.4497941039 -2.2554537838 -2.5000014305
3.4461736135 0.3135184534 -2.5000014305
3.4450499803 0.3795257232 -2.5000014305
3.4465777643 -2.3878411226 -2.5000014305
3.4507417876 -2.3783699532 -2.5000014305
3.4632572763 0.3984765006 -2.5000014305
3.4425038686 -2.5121421039 -2.5000014305
3.4629059587 0.6294246084 -2.5000014305
3.4676182525 0.7772138536 -2.5000014305
3.4503188522 -2.8569511545 -2.5000014305
3.4429976019 1.0569745173 -2.5000014305
3.1870918113 -3.7306002667 -2.5000014305
3.2355270981 -3.6779846677 -2.5000014305
3.6594095519 -3.1179717252 -2.5000014305
3.6657325024 -3.1078677662 -2.5000014305
3.7030400299 -3.0468552539 -2.5000014305
3.7481873414 -3.0179972775 -2.5000014305
3.8241272606 -2.8818764467 -2.5000014305
3.8678998936 -2.8505322768 -2.5000014305
0.6841955110 3.4188547396 -2.5000014305
0.6581895055 3.4213645469 -2.5000014305
0.6191537937 3.4248406616 -2.5000014305
0.5931135118 3.4269655555 -2.5000014305
1.4798246855 3.4158126061 -2.5000014305
1.4408058892 3.4265804906 -2.5000014305
1.2838213192 3.4661770189 -2.5000014305
1.2443632853 3.4752035003 -2.5000014305
1.5775000501 3.4124770556 -2.5000014305
1.5254865724 3.4279132068 -2.5000014305
1.4994122500 3.4354002160 -2.5000014305
1.6755628918 3.4069695738 -2.5000014305
1.5975573934 3.4316340386 -2.5000014305
1.7220939517 3.4170344883 -2.5000014305
1.6439024902 3.4425232094 -2.5000014305
1.8208966550 3.4083004481 -2.5000014305
1.7689155576 3.4266168734 -2.5000014305
1.7637176872 3.4539692070 -2.5000014305
1.9545796219 3.4098995940 -2.5000014305
2.0153869612 3.4118077137 -2.5000014305
2.0634876886 3.4182804827 -2.5000014305
1.9458797729 3.4650797728 -2.5000014305
2.1734670807 3.4240125020 -2.5000014305
2.2974689834 3.4210085667 -2.5000014305
2.4094000717 3.4209914212 -2.5000014305
2.4591921175 3.4232237242 -2.5000014305
2.6603941499 3.4267259549 -2.5000014305
2.8899957843 3.4343536791 -2.5000014305
2.8769391377 3.4421529038 -2.5000014305
5.4401261484 0.6151891856 -2.5000014305
5.4160315069 0.6918238356 -2.5000014305
5.3142067015 0.9795672666 -2.5000014305
5.2603665846 1.1137666447 -2.5000014305
5.2160322382 1.2171250027 -2.5000014305
5.1490063990 1.3631380515 -2.5000014305
3.6702924520 3.2411459129 -2.5000014305
3.6327374670 3.2713598483 -2.5000014305
3.6075524864 3.2913168014 -2.5000014305
2.0064781944 4.1629216330 -2.5000014305
5.4862999699 0.5449434953 -2.5000014305
5.1914761938 1.3297576574 -2.5000014305
5.1283573204 1.4605657818 -2.5000014305
3.9536943572 3.0273235710 -2.5000014305
3.8940859071 3.0817094719 -2.5000014305
3.8215037408 3.1457999128 -2.5000014305
3.7970583112 3.1668758681 -2.5000014305
3.0791818162 3.6872233570 -2.5000014305
3.0376914212 3.7121739511 -2.5000014305
2.8978212265 3.7926654313 -2.5000014305
2.8837045946 3.8004862372 -2.5000014305
2.4500387399 4.0153819498 -2.5000014305
2.4056608963 4.0347363297 -2.5000014305
2.3163986824 4.0722598243 -2.5000014305
2.1661936078 4.1312596998 -2.5000014305
2.0904530392 4.1590870210 -2.5000014305
1.8762871591 4.2310092013 -2.5000014305
1.7681332681 4.2636291315 -2.5000014305
1.5812349849 4.3143154225 -2.5000014305
1.3610788565 4.3650214702 -2.5000014305
5.1354244285 1.5003248343 -2.5000014305
5.1132605592 1.5436095452 -2.5000014305
5.0128114284 1.7288405955 -2.5000014305
4.9967283561 1.7569895263 -2.5000014305
4.2013356823 2.8178790803 -2.5000014305
4.1900969414 2.8295601829 -2.5000014305
4.1333876297 2.8874642016 -2.5000014305
4.0874074204 2.9331795561 -2.5000014305
4.0525690386 2.9671072801 -2.5000014305
3.9938403955 3.0229621625 -2.5000014305
3.5605302518 3.3887940910 -2.5000014305
2.7811305215 3.8829751344 -2.5000014305
2.7089949135 3.9199247685 -2.5000014305
2.6945026517 3.9271864353 -2.5000014305
2.5484230660 3.9974331664 -2.5000014305
2.2955353929 4.1068350962 -2.5000014305
1.0949551293 4.4381551502 -2.5000014305
4.3078271056 2.7395605144 -2.5000014305
2.3378708228 4.1679330812 -2.5000014305
2.4887391048 -0.4605455553 -2.5000014305
3.4381165145 -2.2502172918 -2.5000014305
3.4437913048 -2.2325598089 -2.5000014305
3.4465894996 -2.2237185545 -2.5000014305
3.4493615282 -2.2148690611 -2.5000014305
3.4521073662 -2.2060114063 -2.5000014305
3.4575203748 -2.1882719225 -2.5000014305
3.4628283359 -2.1705007240 -2.5000014305
3.4680310637 -2.1526984328 -2.5000014305
3.4416305242 -0.3251220496 -2.5000014305
3.4463522050 -2.3020148876 -2.5000014305
3.4582095354 -2.2665655822 -2.5000014305
3.4611082624 -2.2576815272 -2.5000014305
3.4530265773 -0.2822149058 -2.5000014305
3.4285240091 -0.2115861109 -2.5000014305
3.4221377406 -0.1940210599 -2.5000014305
3.4473079498 -2.3719801534 -2.5000014305
3.4630987160 -2.3276250041 -2.5000014305
3.4382915451 -0.1680330184 -2.5000014305
3.4316474309 -0.1504109417 -2.5000014305
3.4248991749 -0.1328284822 -2.5000014305
3.4431934313 -2.4512591553 -2.5000014305
3.4667589391 -2.3891655632 -2.5000014305
3.4828017565 -2.3445208465 -2.5000014305
3.4474413561 -0.1241000603 -2.5000014305
3.4335285102 -0.0887903348 -2.5000014305
3.4264156531 -0.0711978247 -2.5000014305
3.4551323745 -2.4867288714 -2.5000014305
3.4622061490 -2.4689665776 -2.5000014305
3.4657035972 -2.4600698143 -2.5000014305
3.4523957109 -0.0709279448 -2.5000014305
3.4341524688 -0.0267492433 -2.5000014305
3.4335050251 0.0356869967 -2.5000014305
3.4256557186 0.0532771893 -2.5000014305
3.4484014776 -2.6840484107 -2.5000014305
3.4410378077 0.1352109912 -2.5000014305
3.4197469335 0.1791991567 -2.5000014305
3.4576408933 -2.7209948911 -2.5000014305
3.4392876196 0.3001923767 -2.5000014305
3.4203549193 0.3353759203 -2.5000014305
3.4595373037 -2.8780487129 -2.5000014305
3.4220873383 0.3821636433 -2.5000014305
3.4616551149 -2.9250660188 -2.5000014305
3.4530322371 0.3762945451 -2.5000014305
3.4428688614 -3.0078127528 -2.5000014305
3.4630777638 -2.9723552539 -2.5000014305
3.4463033727 0.7124372227 -2.5000014305
3.4403897227 0.7212730227 -2.5000014305
3.4513783779 0.8331597087 -2.5000014305
3.4521075571 0.8737753613 -2.5000014305
3.4513253546 1.2290084113 -2.5000014305
1.9212781971 3.4184938119 -2.5000014305
1.9073662149 3.4228064715 -2.5000014305
1.8515925377 3.4396450075 -2.5000014305
1.8096336619 3.4518401757 -2.5000014305
1.9981756160 3.4192838189 -2.5000014305
1.9563916621 3.4327806315 -2.5000014305
1.8724726606 3.4586592010 -2.5000014305
2.0615015842 3.4235911033 -2.5000014305
2.0475739098 3.4283185467 -2.5000014305
2.1390678484 3.4220979429 -2.5000014305
2.1251442516 3.4270548478 -2.5000014305
2.0972533726 3.4368449842 -2.5000014305
2.2030235323 3.4245220873 -2.5000014305
2.2811911083 3.4207108766 -2.5000014305
2.0990285770 3.4873894296 -2.5000014305
2.3457207507 3.4212215461 -2.5000014305
2.3039059147 3.4378025505 -2.5000014305
2.3965955786 3.4266203586 -2.5000014305
2.3826574769 3.4323390574 -2.5000014305
2.1147708197 3.5331007293 -2.5000014305
2.4477142979 3.4314848700 -2.5000014305
2.5269491467 3.4236437745 -2.5000014305
2.5785606086 3.4271227581 -2.5000014305
2.5646202246 3.4333797402 -2.5000014305
2.5506613923 3.4395954567 -2.5000014305
2.6443263631 3.4236030371 -2.5000014305
2.7486587441 3.4275018625 -2.5000014305
2.7207543078 3.4409809121 -2.5000014305
2.8398644522 3.4362372330 -2.5000014305
2.9597396880 3.4285677057 -2.5000014305
2.9457933617 3.4359522781 -2.5000014305
2.9990359063 3.4349537719 -2.5000014305
3.0663941298 3.4256800966 -2.5000014305
3.1598039510 3.4284949510 -2.5000014305
3.2399121738 3.4378220708 -2.5000014305
5.4069321792 1.1229214712 -2.5000014305
3.2662033168 3.4503531392 -2.5000014305
5.4286749357 1.1334849850 -2.5000014305
2.1944799395 3.9654349746 -2.5000014305
2.1634026093 3.9756259016 -2.5000014305
1.9284935953 4.0461679295 -2.5000014305
1.7702488532 4.0873761285 -2.5000014305
1.5948572068 4.1272770925 -2.5000014305
2.3572078844 3.9344447671 -2.5000014305
2.2643221249 3.9673580770 -2.5000014305
3.8231267607 3.1631117472 -2.5000014305
3.7967677401 3.1829523377 -2.5000014305
3.7702917973 3.2026366322 -2.5000014305
3.7035964970 3.2511590650 -2.5000014305
3.6901717229 3.2607448766 -2.5000014305
3.1745725231 3.5867936247 -2.5000014305
3.1601571959 3.5948130192 -2.5000014305
3.1457182090 3.6027897354 -2.5000014305
3.0439934673 3.6574259423 -2.5000014305
2.6719436214 3.8351103595 -2.5000014305
2.6264429082 3.8545701105 -2.5000014305
2.5807712923 3.8736253019 -2.5000014305
4.9531997879 2.0561799714 -2.5000014305
3.9682937723 3.0804189764 -2.5000014305
3.8903116512 3.1420606460 -2.5000014305
2.9815499901 3.7167329923 -2.5000014305
2.9667511234 3.7241808227 -2.5000014305
2.9370876178 3.7389449877 -2.5000014305
2.9222232385 3.7462611932 -2.5000014305
2.9073372815 3.7535333951 -2.5000014305
2.8924298773 3.7607615298 -2.5000014305
2.8775011561 3.7679455341 -2.5000014305
2.8175757178 3.7962389957 -2.5000014305
2.7874885027 3.8101193277 -2.5000014305
2.7724142314 3.8169926805 -2.5000014305
2.7422050208 3.8306054589 -2.5000014305
4.2731690473 2.8493256856 -2.5000014305
4.2363535660 2.8830342328 -2.5000014305
4.1992403901 2.9164147359 -2.5000014305
4.0221958888 3.0677764031 -2.5000014305
2.8579009306 3.8040399849 -2.5000014305
2.7520708429 3.8526735543 -2.5000014305
2.6452564461 3.8991053990 -2.5000014305
4.4106212546 2.7518920398 -2.5000014305
4.3986703091 2.7635715431 -2.5000014305
4.3746650296 2.7868242351 -2.5000014305
4.6375372118 2.5520629361 -2.5000014305
2.3828092399 4.0537283926 -2.5000014305
2.3512062401 4.0650319937 -2.5000014305
4.8328363978 2.3654247511 -2.5000014305
4.6439437969 2.5808052717 -2.5000014305
4.8514052554 2.3809015986 -2.5000014305
4.6271179180 2.6343625406 -2.5000014305
2.1424371630 4.1850943251 -2.5000014305
2.1495605251 4.2081939570 -2.5000014305
5.3949733438 1.9286919455 -2.5000014305
2.4715365549 -0.4869538340 -2.5000014305
3.4479904887 -2.4258490456 -2.5000014305
3.4582410718 -2.3934862107 -2.5000014305
3.4681080052 -2.3610043517 -2.5000014305
3.4410838306 -0.6398401552 -2.5000014305
3.4356904824 -0.6237460196 -2.5000014305
3.4519753702 -2.4900940195 -2.5000014305
3.4558325650 -0.6078946417 -2.5000014305
3.4445717181 -0.5755662835 -2.5000014305
3.4387980430 -0.5594526373 -2.5000014305
3.4392008166 -2.5952398455 -2.5000014305
3.4603969026 -2.5386722083 -2.5000014305
3.4633291350 -2.5305557121 -2.5000014305
3.4403985925 -0.4946397697 -2.5000014305
3.4585985494 -2.6120670810 -2.5000014305
3.5529506460 -0.7585097363 -2.5000014305
3.3584340565 -0.2468390387 -2.5000014305
3.3389687907 -0.2079296427 -2.5000014305
3.4493618899 -0.3877890573 -2.5000014305
3.4540919816 -0.3377718519 -2.5000014305
3.4425344505 -0.1449902899 -2.5000014305
3.4385925447 -0.0854388180 -2.5000014305
3.4255469363 -0.0613535912 -2.5000014305
3.4378663572 -0.0336292256 -2.5000014305
3.4634902280 -0.0300116201 -2.5000014305
3.4222304351 0.0425351565 -2.5000014305
3.4200911129 0.1395175815 -2.5000014305
3.4203549266 0.1843924548 -2.5000014305
3.4303739941 0.2134915373 -2.5000014305
3.4267202797 0.4727630052 -2.5000014305
3.4234225660 0.7860055871 -2.5000014305
2.1461984477 3.4206730061 -2.5000014305
2.1168044027 3.4290350992 -2.5000014305
2.0873613992 3.4372231408 -2.5000014305
1.9245958845 3.4791337007 -2.5000014305
-0.4826208381 3.4805063115 -2.5000014305
-0.7042899266 3.4222983732 -2.5000014305
-0.7189731009 3.4180688908 -2.5000014305
-0.7336436995 3.4137959913 -2.5000014305
2.2264885915 3.4221376744 -2.5000014305
2.1970844758 3.4309747653 -2.5000014305
2.1823629403 3.4353280351 -2.5000014305
2.1528815582 3.4439038329 -2.5000014305
2.0047420278 3.4841584550 -2.5000014305
-0.6221771161 3.4701143810 -2.5000014305
-0.7992657745 3.4193876075 -2.5000014305
-0.8432478704 3.4057262039 -2.5000014305
2.3218154152 3.4175859083 -2.5000014305
2.2335145639 3.4452671144 -2.5000014305
-0.8505207440 3.4287791992 -2.5000014305
-0.8652224500 3.4241171112 -2.5000014305
-0.8799103004 3.4194115532 -2.5000014305
2.3587094582 3.4309678075 -2.5000014305
2.4400126820 3.4290010017 -2.5000014305
2.1579650505 3.5178777711 -2.5000014305
2.5216149027 3.4257124140 -2.5000014305
2.4774459060 3.4415217144 -2.5000014305
2.6034947337 3.4210927955 -2.5000014305
2.5888006526 3.4266483436 -2.5000014305
2.5446207044 3.4430538430 -2.5000014305
-0.9244928451 3.5066127459 -2.5000014305
2.8066366222 3.4178902149 -2.5000014305
2.7772474823 3.4301597307 -2.5000014305
2.8454631177 3.4276705934 -2.5000014305
3.0911442082 3.4225733329 -2.5000014305
3.1457364519 3.4230359390 -2.5000014305
3.2005229627 3.4229189889 -2.5000014305
5.3253081007 1.5981674002 -2.5000014305
5.2783393324 1.6659658099 -2.5000014305
5.2496785437 1.7063087895 -2.5000014305
5.2109093865 1.7597007584 -2.5000014305
5.1912885736 1.7862237804 -2.5000014305
1.8757781912 3.9114592094 -2.5000014305
5.0891664094 1.9579949464 -2.5000014305
3.3253287478 3.4132419666 -2.5000014305
2.4880053269 3.7701060138 -2.5000014305
2.4565379366 3.7804842355 -2.5000014305
2.2346243416 3.8478943756 -2.5000014305
4.8700472498 2.2511574078 -2.5000014305
4.8475247799 2.2756551736 -2.5000014305
4.8362092919 2.2878539802 -2.5000014305
3.3659878529 3.4190570659 -2.5000014305
4.9215458328 2.2303106978 -2.5000014305
3.4068066288 3.4245638115 -2.5000014305
2.7859905301 3.7133684600 -2.5000014305
3.9333357687 3.1305456868 -2.5000014305
3.9056269364 3.1494861622 -2.5000014305
3.8778065309 3.1682623713 -2.5000014305
3.7795705662 3.2326760698 -2.5000014305
3.6369669384 3.3211365615 -2.5000014305
3.6225640241 3.3297497446 -2.5000014305
3.0728694180 3.6178539269 -2.5000014305
2.8726945228 3.7045706880 -2.5000014305
4.2586801691 2.9200811860 -2.5000014305
4.0161065909 3.1021912309 -2.5000014305
3.9747498123 3.1312760465 -2.5000014305
3.9331365507 3.1599926985 -2.5000014305
3.8772588962 3.1977049643 -2.5000014305
3.6638428975 3.3331718850 -2.5000014305
4.4047255985 2.8318931467 -2.5000014305
3.8906630000 3.2178212582 -2.5000014305
2.6859620258 3.8289236752 -2.5000014305
2.5262013279 3.8847770544 -2.5000014305
4.5990412081 2.6933310099 -2.5000014305
4.5864912467 2.7047929296 -2.5000014305
4.5612898794 2.7276051435 -2.5000014305
4.5486386941 2.7389552380 -2.5000014305
4.1267194130 3.0818454474 -2.5000014305
3.9040671039 3.2379375522 -2.5000014305
3.8757234176 3.2567029847 -2.5000014305
2.3880859563 3.9541147941 -2.5000014305
4.7026275311 2.6295482160 -2.5000014305
4.3171036820 2.9662695200 -2.5000014305
2.2804432067 4.0107840942 -2.5000014305
4.8893851779 2.4777775615 -2.5000014305
4.8173597921 2.5511764862 -2.5000014305
2.1711669235 4.0653429562 -2.5000014305
2.1545689256 4.0696167815 -2.5000014305
2.1213353647 4.0780170396 -2.5000014305
5.0011663789 2.3943062874 -2.5000014305
4.9894992272 2.4069590745 -2.5000014305
4.6606993107 2.7351618501 -2.5000014305
2.0100062978 4.1294361005 -2.5000014305
3.4304892968 -1.8692164658 -2.5000014305
3.4314259741 -1.8478523165 -2.5000014305
3.4329965387 -1.7908492976 -2.5000014305
3.4332177856 -1.7338250757 -2.5000014305
3.4329528327 -1.7124420441 -2.5000014305
3.4679316073 -0.9308036332 -2.5000014305
3.4630245049 -0.9163566827 -2.5000014305
3.4605389226 -0.9091441578 -2.5000014305
3.4580320153 -0.9019390172 -2.5000014305
3.4372117258 -0.8445712817 -2.5000014305
3.4403272526 -0.7858091191 -2.5000014305
3.4540108155 -0.7552198871 -2.5000014305
3.4612112615 -0.7098725014 -2.5000014305
3.4526258064 -0.5746084425 -2.5000014305
3.6359854762 -0.9000062578 -2.5000014305
3.3150469399 -0.2359547697 -2.5000014305
3.2066085238 -0.0836806288 -2.5000014305
3.6664971253 -0.9159242186 -2.5000014305
3.7388107097 -1.0837884749 -2.5000014305
3.4466984987 -0.3570025487 -2.5000014305
3.4481071678 -0.2191054105 -2.5000014305
3.4418791794 -0.0362712528 -2.5000014305
2.4382975911 3.4156870718 -2.5000014305
2.4230015236 3.4198493146 -2.5000014305
2.3616961362 3.4360452604 -2.5000014305
-0.2587552639 3.4500882580 -2.5000014305
-0.3048791547 3.4385029646 -2.5000014305
-0.3815180065 3.4182860131 -2.5000014305
-0.3968094242 3.4141067201 -2.5000014305
2.1196090433 3.5172093076 -2.5000014305
-0.4032168910 3.4374150802 -2.5000014305
-0.4645322722 3.4201686670 -2.5000014305
-0.4798288959 3.4157437945 -2.5000014305
-0.5632060614 3.4160504036 -2.5000014305
-0.5784900709 3.4113336542 -2.5000014305
2.6731059712 3.4217776374 -2.5000014305
-0.5395537426 3.4484983727 -2.5000014305
-0.6163147607 3.4248094000 -2.5000014305
-0.6622002357 3.4100519620 -2.5000014305
2.7724377773 3.4145846285 -2.5000014305
2.7571435090 3.4197353233 -2.5000014305
-0.7156596572 3.4177995056 -2.5000014305
-0.7309481738 3.4126317632 -2.5000014305
2.8414798060 3.4163341703 -2.5000014305
2.8108645404 3.4269987394 -2.5000014305
-0.7540634716 3.4302844290 -2.5000014305
2.9413623371 3.4059144775 -2.5000014305
-0.8233820611 3.4316583543 -2.5000014305
2.9804072785 3.4170861308 -2.5000014305
-0.8776340679 3.4377613723 -2.5000014305
-0.9083110133 3.4264220397 -2.5000014305
-1.0022693985 3.4423240577 -2.5000014305
-1.0636009277 3.4179890332 -2.5000014305
3.2460210070 3.4140222249 -2.5000014305
-1.1739363913 3.4246335154 -2.5000014305
-1.1892431190 3.4181100777 -2.5000014305
3.3320785201 3.4026493536 -2.5000014305
3.3015356322 3.4162167089 -2.5000014305
-1.2600475194 3.4136739810 -2.5000014305
4.7380076062 2.5349719820 -2.5000014305
3.3878149328 3.4039339797 -2.5000014305
-1.2851592829 3.4289764460 -2.5000014305
-1.3157771214 3.4152262111 -2.5000014305
-1.3310553999 3.4082832241 -2.5000014305
-1.3463130730 3.4012950715 -2.5000014305
3.5801960893 3.3383807235 -2.5000014305
-1.3869942425 3.4090860202 -2.5000014305
3.9181261580 3.1821893890 -2.5000014305
3.8595282055 3.2160929817 -2.5000014305
3.8300798165 3.2327841715 -2.5000014305
3.6813850775 3.3136108698 -2.5000014305
3.6363171897 3.3369974859 -2.5000014305
3.6212486584 3.3447040317 -2.5000014305
3.6061573956 3.3523659684 -2.5000014305
2.9854043241 3.6215384444 -2.5000014305
2.9694969172 3.6273182272 -2.5000014305
-1.4278501974 3.4165752524 -2.5000014305
-1.4583921689 3.4019810272 -2.5000014305
-1.4736306418 3.3946162170 -2.5000014305
4.2041750405 3.0319262670 -2.5000014305
4.1473350459 3.0692250422 -2.5000014305
4.1330563980 3.0784444429 -2.5000014305
2.8975915222 3.6783610273 -2.5000014305
2.8493175460 3.6947775519 -2.5000014305
2.8008997834 3.7107650256 -2.5000014305
2.7523420475 3.7263221893 -2.5000014305
2.7361256910 3.7314120733 -2.5000014305
-1.4994625537 3.4089238850 -2.5000014305
4.3860790705 2.9356754188 -2.5000014305
4.3303652263 2.9751333052 -2.5000014305
2.6943871614 3.7695309381 -2.5000014305
2.6616848395 3.7793190762 -2.5000014305
2.6453121053 3.7841405479 -2.5000014305
-1.5254008751 3.4231235779 -2.5000014305
-1.5712355908 3.4002985771 -2.5000014305
3.9103468064 3.2705592064 -2.5000014305
2.4204971372 3.8699949612 -2.5000014305
2.3705413047 3.8821699946 -2.5000014305
-1.6431562514 3.3906944728 -2.5000014305
4.2729293840 3.0731809437 -2.5000014305
2.3091101595 3.9212884517 -2.5000014305
-1.6847943340 3.3962209259 -2.5000014305
4.8094587732 2.6966427115 -2.5000014305
4.7962793941 2.7078224241 -2.5000014305
4.3293086782 3.0640864179 -2.5000014305
3.9344345177 3.3124772609 -2.5000014305
2.0944318002 3.9902796264 -2.5000014305
4.6777461116 2.8363674177 -2.5000014305
2.0134481603 4.0293155101 -2.5000014305
1.9963387278 4.0322182866 -2.5000014305
-1.7990186853 3.3897222759 -2.5000014305
4.9067263814 2.6765165162 -2.5000014305
4.6928032153 2.8552782323 -2.5000014305
5.2772708045 2.3568605552 -2.5000014305
-1.8529074914 3.4151761130 -2.5000014305
3.4309207668 -1.7979766160 -2.5000014305
3.4321969434 -0.9256083720 -2.5000014305
3.1854513809 -0.1475112324 -2.5000014305
1.6597532773 3.3996606409 -2.5000014305
1.5499052838 3.4046827452 -2.5000014305
1.5185033079 3.4056997403 -2.5000014305
1.4713904364 3.4068768440 -2.5000014305
1.4556840536 3.4071762941 -2.5000014305
1.4242689740 3.4076358011 -2.5000014305
2.8252038227 3.4034048824 -2.5000014305
0.0552247862 3.4439212458 -2.5000014305
2.9102882996 3.4043936665 -2.5000014305
2.8631322123 3.4179221327 -2.5000014305
3.0114108898 3.3991661118 -2.5000014305
2.9642972120 3.4135921901 -2.5000014305
2.9485644318 3.4183078990 -2.5000014305
3.0657791104 3.4073400005 -2.5000014305
-0.2168011477 3.4456419940 -2.5000014305
-0.2957285493 3.4217013414 -2.5000014305
4.6212041766 2.6522663075 -2.5000014305
3.1675414149 3.3991529913 -2.5000014305
-0.3818212787 3.4195668725 -2.5000014305
-0.3975570924 3.4143841316 -2.5000014305
4.4985400002 2.7667301822 -2.5000014305
3.2382078852 3.4002105307 -2.5000014305
-0.4839369655 3.4106071522 -2.5000014305
3.3646655828 3.4054661158 -2.5000014305
-0.6260892763 3.4107102917 -2.5000014305
3.4361301099 3.4039163932 -2.5000014305
-0.6660952822 3.4214422962 -2.5000014305
-0.6818353998 3.4154186132 -2.5000014305
3.9694693654 3.1903870407 -2.5000014305
3.8634593762 3.2432785681 -2.5000014305
3.8482264804 3.2506549065 -2.5000014305
3.7255914102 3.3080368931 -2.5000014305
-0.7535552270 3.4133183228 -2.5000014305
-0.7692709298 3.4070359530 -2.5000014305
4.0558413921 3.1726211669 -2.5000014305
3.7045776831 3.3440008063 -2.5000014305
2.8566582626 3.6453780984 -2.5000014305
2.8238093818 3.6541220704 -2.5000014305
2.7744405004 3.6668732507 -2.5000014305
-0.8097848116 3.4167109290 -2.5000014305
4.2463451856 3.0947648471 -2.5000014305
4.0329819699 3.2392285520 -2.5000014305
-0.9386563854 3.4149656319 -2.5000014305
-0.9543761514 3.4081356922 -2.5000014305
2.2868037961 3.8417099315 -2.5000014305
4.8871423492 2.7566754985 -2.5000014305
-1.1674506490 3.4172740028 -2.5000014305
5.0140507877 2.7504296616 -2.5000014305
-1.2251350956 3.4163516688 -2.5000014305
-1.2408577082 3.4086742672 -2.5000014305
-1.4419132984 3.4148825454 -2.5000014305
-1.7360878171 3.3895611559 -2.5000014305
2.5152062552 -0.5008707210 -2.5000014305
3.4406743260 -1.6188151726 -2.5000014305
3.4512343350 -1.5572828606 -2.5000014305
3.4499546915 -1.5521715798 -2.5000014305
3.4460251198 -1.5368607627 -2.5000014305
3.4363288732 -1.5012755626 -2.5000014305
3.4348836153 -1.4962086198 -2.5000014305
3.4536340026 -1.4741629421 -2.5000014305
3.4426379152 -1.4384336356 -2.5000014305
3.4304728086 -1.0451366586 -2.5000014305
3.4313279119 -0.9501531621 -2.5000014305
3.2226696505 -0.2584686116 -2.5000014305
3.1574255976 3.4263280190 -2.5000014305
3.1414048174 3.4305483551 -2.5000014305
3.1253716228 3.4347212803 -2.5000014305
0.2583997710 3.4183754754 -2.5000014305
3.2278501861 3.4322648313 -2.5000014305
3.2118115356 3.4366934700 -2.5000014305
3.1796952835 3.4454083153 -2.5000014305
0.2039577834 3.4284423921 -2.5000014305
0.1719429898 3.4193619089 -2.5000014305
3.3306813736 3.4278714901 -2.5000014305
3.2986152349 3.4372897637 -2.5000014305
3.2825614101 3.4419277163 -2.5000014305
0.1974305053 3.4517174844 -2.5000014305
0.1171521190 3.4285624444 -2.5000014305
3.8443685407 3.2740637192 -2.5000014305
3.7819650665 3.2987993402 -2.5000014305
3.6878220065 3.3345139955 -2.5000014305
3.6720705081 3.3403037417 -2.5000014305
3.6247142158 3.3573930532 -2.5000014305
3.4977086143 3.4009031031 -2.5000014305
0.0300121437 3.4272944372 -2.5000014305
4.0395921834 3.2175352474 -2.5000014305
3.6803766407 3.3630049189 -2.5000014305
2.8374885576 3.5997758781 -2.5000014305
-0.0414227336 3.4298709817 -2.5000014305
2.7424607858 3.6424663872 -2.5000014305
2.6757753403 3.6541379333 -2.5000014305
-0.1131545407 3.4315119161 -2.5000014305
-0.1451819446 3.4205552362 -2.5000014305
4.4407007726 3.0747179803 -2.5000014305
2.6127007070 3.6889008968 -2.5000014305
2.5791027965 3.6940667872 -2.5000014305
-0.1530740396 3.4434036523 -2.5000014305
-0.1851711003 3.4322105871 -2.5000014305
-0.2011946569 3.4265428918 -2.5000014305
-0.2331911216 3.4150654240 -2.5000014305
2.3796793735 3.7448959152 -2.5000014305
-0.3214447486 3.4081503237 -2.5000014305
4.7897431823 2.9282594294 -2.5000014305
-0.3939744809 3.4060867896 -2.5000014305
4.7879238785 2.9578568979 -2.5000014305
-0.3707263537 3.4410695882 -2.5000014305
-0.4667403556 3.4030591230 -2.5000014305
-0.5237859317 3.4057307249 -2.5000014305
1.8541572056 3.8776362340 -2.5000014305
-0.5650808210 3.4146040642 -2.5000014305
-0.5810506320 3.4078126043 -2.5000014305
-0.6544822694 3.4022923811 -2.5000014305
-0.6802360433 3.4173246890 -2.5000014305
-0.8281357808 3.4026479521 -2.5000014305
-0.8864023298 3.4015549768 -2.5000014305
-1.0034711664 3.3975315956 -2.5000014305
-1.3826081962 3.4124433179 -2.5000014305
-1.4145005663 3.3939764575 -2.5000014305
-1.4585812580 3.3961320762 -2.5000014305
-2.3493786539 3.3792668970 -2.5000014305
-2.6595667428 3.3811716879 -2.5000014305
-3.0385630437 3.3758998082 -2.5000014305
-3.0794370384 3.7554521665 -2.5000014305
-3.1638493419 3.6837977651 -2.5000014305
-3.1806041059 3.6693175001 -2.5000014305
-3.1973159613 3.6547877348 -2.5000014305
-3.2139847619 3.6402085964 -2.5000014305
-3.2802265049 3.5814008696 -2.5000014305
-3.6472438001 3.2283850986 -2.5000014305
-3.7237984691 3.1483902683 -2.5000014305
-3.7389669509 3.1322559151 -2.5000014305
-3.8585831339 3.0015802130 -2.5000014305
-2.8698774740 3.9549620426 -2.5000014305
-2.8874356772 3.9413502131 -2.5000014305
-2.9572635281 3.8863852851 -2.5000014305
-3.0264361201 3.8305979694 -2.5000014305
-3.8019675279 3.0999590049 -2.5000014305
-3.8617756244 3.0342318136 -2.5000014305
-3.9500191167 2.9343256623 -2.5000014305
-4.0507093023 2.8158111579 -2.5000014305
-4.0648925246 2.7987111985 -2.5000014305
-4.0790251000 2.7815693574 -2.5000014305
-2.7423035851 4.0814456008 -2.5000014305
-2.7781302004 4.0549226173 -2.5000014305
-2.8493095448 4.0012430917 -2.5000014305
-4.1399273890 2.7450773025 -2.5000014305
-4.1816937550 2.6928629542 -2.5000014305
-2.6296072577 4.1923604359 -2.5000014305
-2.6478687796 4.1794583304 -2.5000014305
-2.7385995047 4.1141406110 -2.5000014305
-4.1867223182 2.7253806025 -2.5000014305
-2.4903355459 4.3462861391 -2.5000014305
-4.0707996756 2.9793422939 -2.5000014305
3.4320360798 -1.3491616187 -2.5000014305
2.5537494773 -0.5103418430 -2.5000014305
2.9390483707 -0.5201419812 -2.5000014305
3.6012076721 3.3890895006 -2.5000014305
3.5692714811 3.3979203466 -2.5000014305
3.5532839329 3.4022648763 -2.5000014305
2.9866728880 3.5242722103 -2.5000014305
0.7183990128 3.4248737246 -2.5000014305
3.7672713054 3.3651866035 -2.5000014305
3.5435190376 3.4299170631 -2.5000014305
2.8094081051 3.5744083738 -2.5000014305
0.9394087321 3.5007748342 -2.5000014305
0.6480449843 3.4315952631 -2.5000014305
0.6319706012 3.4272981291 -2.5000014305
2.5632497851 3.6248009897 -2.5000014305
