8.1501153225 -10.9448587112 -2.4893474579
8.3910988439 -11.0009142149 -2.4893474579
10.7807058522 -10.9780048719 -2.4893474579
8.0001835153 -10.9293621433 -2.4893474579
8.0161243808 -10.9338749520 -2.4893474579
11.3435674670 -10.8428936611 -2.4893474579
7.9137211923 -10.9292406152 -2.4893474579
7.9615858153 -10.9434047843 -2.4893474579
8.0416334636 -10.9660660207 -2.4893474579
7.8747831842 -10.9426692502 -2.4893474579
11.1362968961 -10.9596427905 -2.4893474579
9.9234019349 -11.2025171455 -2.4893474579
7.6924590673 -10.9599017803 -2.4893474579
9.6057614922 -11.2879859991 -2.4893474579
7.5321364001 -10.9543114044 -2.4893474579
7.4595926403 -10.9528203823 -2.4893474579
7.4756052648 -10.9589322538 -2.4893474579
7.3868051359 -10.9503671214 -2.4893474579
7.3137865385 -10.9469456595 -2.4893474579
7.2565328083 -10.9493100845 -2.4893474579
7.2311005530 -10.9647999333 -2.4893474579
6.7642596457 -10.9599902379 -2.4893474579
6.6890984085 -10.9482335636 -2.4893474579
6.7051008356 -10.9566247165 -2.4893474579
6.6457845290 -10.9526341410 -2.4893474579
6.5863171758 -10.9480154586 -2.4893474579
6.4989216706 -10.9549312937 -2.4893474579
6.3507406265 -10.9534390665 -2.4893474579
6.2173400866 -10.9579382200 -2.4893474579
4.1246531431 -9.7186318477 -2.4893474579
3.8031466114 -10.6550277760 -2.4893474579
3.8182943101 -10.6719573792 -2.4893474579
3.8487396180 -10.7056817868 -2.4893474579
4.3789980945 -11.2351854727 -2.4893474579
4.4297169989 -11.2807062788 -2.4893474579
4.4979668034 -11.3406971256 -2.4893474579
4.5151397958 -11.3555683249 -2.4893474579
3.5061027830 -10.3400899072 -2.4893474579
3.5632874361 -10.4110752353 -2.4893474579
3.6067249460 -10.4638674682 -2.4893474579
3.6213080173 -10.4813789587 -2.4893474579
3.6359428270 -10.4988472331 -2.4893474579
3.6506292469 -10.5162721387 -2.4893474579
3.7098884523 -10.5855350288 -2.4893474579
4.4821154682 -11.3589473436 -2.4893474579
4.6387321404 -11.4913616311 -2.4893474579
4.6917142366 -11.5345673554 -2.4893474579
4.7094598845 -11.5488645665 -2.4893474579
4.7272477485 -11.5631092202 -2.4893474579
3.3474996599 -10.1741971486 -2.4893474579
3.3612269682 -10.1924767417 -2.4893474579
3.3750082908 -10.2107156470 -2.4893474579
3.4027324960 -10.2470707560 -2.4893474579
3.5301329550 -10.4086128179 -2.4893474579
3.2601144391 -10.0963938121 -2.4893474579
3.2871642887 -10.1334306725 -2.4893474579
4.9151335839 -11.7687291451 -2.4893474579
5.0825054045 -11.8894710425 -2.4893474579
5.0874775570 -11.9224423904 -2.4893474579
5.2014033056 -12.0003496370 -2.4893474579
5.2648852076 -12.0713910080 -2.4893474579
2.9910600374 -9.8342445474 -2.4893474579
3.6185159111 -10.6646516564 -2.4893474579
5.4867733506 -12.2394697019 -2.4893474579
5.5264633866 -12.2632953930 -2.4893474579
5.4941593478 -12.2721374117 -2.4893474579
5.5740657085 -12.3194638759 -2.4893474579
5.5941293617 -12.3311474976 -2.4893474579
5.6545264641 -12.3658415378 -2.4893474579
5.8767337668 -12.5420672430 -2.4893474579
5.3369419055 -12.2608875469 -2.4893474579
5.9697782572 -12.6169775006 -2.4893474579
6.1174479353 -12.7430092448 -2.4893474579
10.9334852416 -5.9003894373 -2.5027558514
10.1123674874 -7.2193931461 -2.5027558572
10.9564941315 -6.0488227799 -2.5027558572
10.2206080990 -7.1792615320 -2.5027558600
10.4283797655 -7.0148418616 -2.5027558600
10.9419057336 -6.2005419980 -2.5027558600
10.2114077795 -7.2144979878 -2.5027558629
10.2251081803 -7.2053918461 -2.5027558629
10.4447135631 -7.0326615793 -2.5027558629
10.9506277445 -6.3251026402 -2.5027558658
10.2607821621 -7.2687766258 -2.5027558716
10.9374388404 -6.6889908862 -2.5027558831
10.6645395820 -10.8940879875 -2.5027562894
7.7848963232 -10.9370096244 -2.5027562923
10.7331235773 -10.8994889083 -2.5027562923
10.7485979371 -10.8949075885 -2.5027562923
10.7640586767 -10.8902805129 -2.5027562923
7.6849210800 -10.9344434581 -2.5027562952
7.7161163308 -10.9432686405 -2.5027562952
7.6939318483 -10.9621392687 -2.5027562980
10.8867767382 -10.9026106623 -2.5027562980
7.5619025277 -10.9483010463 -2.5027563009
11.0181984697 -10.8838605590 -2.5027563009
11.0644306347 -10.8674501081 -2.5027563009
11.0951703833 -10.8562821495 -2.5027563009
7.4921143295 -10.9516531469 -2.5027563038
7.5077571813 -10.9566590904 -2.5027563038
11.3782199120 -10.7698648032 -2.5027563038
7.4063847063 -10.9488304955 -2.5027563067
7.3359911634 -10.9501372075 -2.5027563096
7.3672853706 -10.9610265019 -2.5027563096
7.3829564967 -10.9664016710 -2.5027563096
10.1288037939 -11.1878022058 -2.5027563096
11.5935548275 -10.7257206780 -2.5027563096
7.2809582634 -10.9561913582 -2.5027563125
10.0178214813 -11.2299233908 -2.5027563125
7.2256723684 -10.9616830966 -2.5027563153
11.2927943263 -10.9099227284 -2.5027563153
7.1231803548 -10.9484553088 -2.5027563182
7.0986808550 -10.9647936287 -2.5027563211
6.9956894802 -10.9491241137 -2.5027563240
7.0113270227 -10.9555985827 -2.5027563240
6.8985741573 -10.9604214299 -2.5027563297
6.6965659714 -10.9485680908 -2.5027563384
6.5974142036 -10.9544823365 -2.5027563441
6.5553959584 -10.9606764585 -2.5027563470
6.4975461900 -10.9586097181 -2.5027563499
6.0479513652 -10.9592080554 -2.5027563758
5.6206396452 -10.9747844373 -2.5027564047
3.8369830431 -10.7225791850 -2.5027565199
3.8519642454 -10.7383986702 -2.5027565199
4.3388935622 -11.2061166398 -2.5027565199
4.4379819629 -11.2913808407 -2.5027565199
4.4546431538 -11.3054199737 -2.5027565199
4.1763377725 -11.1906952738 -2.5027565315
10.1404895611 -7.1880344481 -2.5006575584
10.1449975353 -7.2169855328 -2.5006575584
10.4219194517 -7.0173409442 -2.5006575584
10.4306204227 -7.0458353839 -2.5006575584
10.4654897677 -6.9989768403 -2.5006575584
10.4941304618 -7.0417744332 -2.5006575584
10.9427922050 -6.6797289745 -2.5006575584
10.9434468418 -6.8568394210 -2.5006575584
10.9545635172 -7.1367980166 -2.5006575584
7.6472332937 -10.9383436275 -2.5006575584
7.7076000719 -10.9523859867 -2.5006575584
7.7681287798 -10.9657130751 -2.5006575584
10.2383446374 -10.8981847206 -2.5006575584
10.2682243141 -10.8899660065 -2.5006575584
7.6113582261 -10.9545327949 -2.5006575584
7.6416172536 -10.9618552284 -2.5006575584
10.2896945123 -10.9090594605 -2.5006575584
10.3196376289 -10.9005367529 -2.5006575584
10.3495297983 -10.8918370410 -2.5006575584
7.5146776530 -10.9548653078 -2.5006575584
10.3263239068 -10.9237666683 -2.5006575584
10.4162546252 -10.8970154154 -2.5006575584
10.4311963043 -10.8924018710 -2.5006575584
7.3873876686 -10.9447209716 -2.5006575584
7.4327140685 -10.9576254556 -2.5006575584
10.4982630911 -10.8965063873 -2.5006575584
10.5430391117 -10.8818054956 -2.5006575584
7.3050390301 -10.9454388567 -2.5006575584
7.3201375673 -10.9500286387 -2.5006575584
7.3352496159 -10.9545737366 -2.5006575584
10.5506814388 -10.9047386619 -2.5006575584
10.5656453765 -10.8997274249 -2.5006575584
10.6104473285 -10.8844284263 -2.5006575584
7.2374447389 -10.9496660752 -2.5006575584
7.2676815173 -10.9592007917 -2.5006575584
10.6333316048 -10.9020581047 -2.5006575584
10.6781515749 -10.8861583371 -2.5006575584
7.1544264630 -10.9479694427 -2.5006575584
7.1695331451 -10.9530047530 -2.5006575584
10.7312130744 -10.8925338318 -2.5006575584
10.7461401180 -10.8869886029 -2.5006575584
10.7610506926 -10.8813992413 -2.5006575584
7.1164448876 -10.9606403736 -2.5006575584
10.8144011096 -10.8869127518 -2.5006575584
7.0176867040 -10.9515492224 -2.5006575584
7.0479384700 -10.9623840682 -2.5006575584
6.9791472212 -10.9632198003 -2.5006575584
10.9516924810 -10.8840175878 -2.5006575584
6.8798292419 -10.9514906289 -2.5006575584
6.9100830739 -10.9631410868 -2.5006575584
10.9908577052 -10.8938568709 -2.5006575584
11.1392969399 -10.8287443362 -2.5006575584
11.1834463672 -10.8083572970 -2.5006575584
11.2127780539 -10.7945486158 -2.5006575584
11.2274131325 -10.7875792593 -2.5006575584
11.2857453623 -10.7592698218 -2.5006575584
6.8256258024 -10.9561336746 -2.5006575584
6.9319188942 -10.9972467503 -2.5006575584
10.4333781211 -11.1191175402 -2.5006575584
10.5112311831 -11.0953308700 -2.5006575584
11.3546770946 -10.7518286654 -2.5006575584
11.4125773975 -10.7220158843 -2.5006575584
11.4413942492 -10.7068530981 -2.5006575584
11.4844500640 -10.6837899147 -2.5006575584
11.5415362160 -10.6524463627 -2.5006575584
11.5699392141 -10.6365218304 -2.5006575584
6.7711843803 -10.9602151730 -2.5006575584
6.8014917311 -10.9725082577 -2.5006575584
10.2195448211 -11.2030000266 -2.5006575584
10.2986619274 -11.1823668581 -2.5006575584
11.3801874556 -10.7659637936 -2.5006575584
11.7230151656 -10.5750834486 -2.5006575584
11.8341734493 -10.5061082774 -2.5006575584
10.0496292938 -11.2678756440 -2.5006575584
10.1297245216 -11.2497484955 -2.5006575584
10.1616860687 -11.2421662615 -2.5006575584
10.2254717905 -11.2264351779 -2.5006575584
11.9707609015 -10.4454269590 -2.5006575584
12.0519429437 -10.3895652877 -2.5006575584
6.6313400825 -10.9535576106 -2.5006575584
6.6464655842 -10.9601402805 -2.5006575584
6.6767746747 -10.9731712448 -2.5006575584
9.9740862573 -11.3085055010 -2.5006575584
10.0709008708 -11.2879452242 -2.5006575584
11.7338868207 -10.6249723393 -2.5006575584
11.9155883348 -10.5111043792 -2.5006575584
6.5610943321 -10.9488149400 -2.5006575584
6.5762061115 -10.9556054303 -2.5006575584
9.8650160926 -11.3541001326 -2.5006575584
12.4353009013 -10.1579731858 -2.5006575584
9.7545318465 -11.3975109526 -2.5006575584
6.4653098454 -10.9579638765 -2.5006575584
12.3358472145 -10.2998495771 -2.5006575584
6.4246998612 -10.9655061110 -2.5006575584
9.4318104227 -11.5126000704 -2.5006575584
6.2974842822 -10.9571057015 -2.5006575584
6.2301361589 -10.9771407819 -2.5006575584
6.1431470460 -10.9589627934 -2.5006575584
6.0863182028 -10.9558539497 -2.5006575584
6.0293311490 -10.9521376449 -2.5006575584
5.8451962359 -10.9581307231 -2.5006575584
5.7017971501 -10.9561985243 -2.5006575584
5.6156083529 -10.9592344779 -2.5006575584
5.4853731380 -10.9612918376 -2.5006575584
5.4265935935 -10.9511595387 -2.5006575584
5.4417172726 -10.9613060771 -2.5006575584
5.4130963025 -10.9712134266 -2.5006575584
5.3252001123 -10.9698056702 -2.5006575584
5.1035523432 -10.9602791590 -2.5006575584
10.2205175402 -7.1405843637 -2.4989764690
10.3906771934 -7.0417901844 -2.4989764690
10.9580535700 -6.9546644773 -2.4989764690
10.9392455761 -7.0684945342 -2.4989764690
10.9452388765 -7.2310383166 -2.4989764690
10.9520028145 -7.2170435558 -2.4989764690
10.9424248432 -7.2907308742 -2.4989764690
10.9631991209 -7.3552346381 -2.4989764690
7.3601244094 -10.9498794398 -2.4989764690
7.3745334192 -10.9534762071 -2.4989764690
7.3889530059 -10.9570303342 -2.4989764690
7.4033830432 -10.9605417901 -2.4989764690
7.4756855668 -10.9774579374 -2.4989764690
9.9299418658 -10.9171336705 -2.4989764690
9.9728087034 -10.9049916219 -2.4989764690
9.9870734953 -10.9008597930 -2.4989764690
7.2675952452 -10.9507416630 -2.4989764690
7.2964305623 -10.9584399759 -2.4989764690
9.5882904060 -11.0241721037 -2.4989764690
10.0367590253 -10.9113591384 -2.4989764690
10.0510423737 -10.9070381049 -2.4989764690
10.0653128772 -10.9026748377 -2.4989764690
7.2612909717 -10.9740781455 -2.4989764690
7.2757719981 -10.9779671741 -2.4989764690
10.0724150689 -10.9257809874 -2.4989764690
10.1153530362 -10.9123742286 -2.4989764690
7.0957307896 -10.9515994572 -2.4989764690
7.1245741896 -10.9603145630 -2.4989764690
7.1534686462 -10.9688588690 -2.4989764690
10.2371053681 -10.8976283555 -2.4989764690
10.2513472217 -10.8927147214 -2.4989764690
7.0308679634 -10.9566919384 -2.4989764690
7.0452985664 -10.9612626760 -2.4989764690
7.1176509209 -10.9834749523 -2.4989764690
6.9512481221 -10.9561219232 -2.4989764690
10.3388444594 -10.9129556478 -2.4989764690
6.8713072217 -10.9542583665 -2.4989764690
6.9290922508 -10.9741730761 -2.4989764690
10.4187119192 -10.9090557411 -2.4989764690
10.4472454586 -10.8981117192 -2.4989764690
6.7910661818 -10.9510916717 -2.4989764690
6.8199119097 -10.9616092845 -2.4989764690
6.8488193584 -10.9719560522 -2.4989764690
10.5131053158 -10.8981575337 -2.4989764690
6.7827184258 -10.9737775760 -2.4989764690
10.5934654209 -10.8913904341 -2.4989764690
6.6874112601 -10.9635858210 -2.4989764690
6.7018637592 -10.9691725356 -2.4989764690
10.6170736225 -10.9076989046 -2.4989764690
10.6313436042 -10.9016612117 -2.4989764690
6.5919014289 -10.9515453133 -2.4989764690
10.7122024195 -10.8929471703 -2.4989764690
10.7264283465 -10.8866281337 -2.4989764690
6.5394087434 -10.9559751558 -2.4989764690
6.5538393764 -10.9619997219 -2.4989764690
10.7362739424 -10.9087052604 -2.4989764690
10.7647998503 -10.8958824411 -2.4989764690
6.4866813401 -10.9598551638 -2.4989764690
10.8176162677 -10.8982614247 -2.4989764690
10.8318574541 -10.8916305317 -2.4989764690
10.8602806693 -10.8782425070 -2.4989764690
6.4192912562 -10.9568016351 -2.4989764690
6.4481772728 -10.9695186933 -2.4989764690
10.9133243817 -10.8795908749 -2.4989764690
6.4094858137 -10.9788966250 -2.4989764690
10.9238830292 -10.9013359950 -2.4989764690
10.9523620546 -10.8874033462 -2.4989764690
10.9665705312 -10.8803738982 -2.4989764690
6.2982716226 -10.9547252733 -2.4989764690
10.6292871964 -11.0597103937 -2.4989764690
10.6440068020 -11.0536359057 -2.4989764690
10.7173317521 -11.0226117920 -2.4989764690
10.7901898229 -10.9905065674 -2.4989764690
11.0907376232 -10.8440216317 -2.4989764690
11.2027492129 -10.7833512541 -2.4989764690
11.2305253203 -10.7677708043 -2.4989764690
11.2443786852 -10.7599190225 -2.4989764690
11.2582087624 -10.7520262943 -2.4989764690
11.2857985703 -10.7361182754 -2.4989764690
11.2995580594 -10.7281031239 -2.4989764690
11.3132937780 -10.7200473044 -2.4989764690
11.3679965471 -10.6874187616 -2.4989764690
6.2446534570 -10.9560512104 -2.4989764690
6.2590856047 -10.9629477155 -2.4989764690
10.4146044732 -11.1683147212 -2.4989764690
10.4746742642 -11.1462885064 -2.4989764690
10.5791541137 -11.1060379528 -2.4989764690
10.6384754976 -11.0820690700 -2.4989764690
11.3255537231 -10.7408806677 -2.4989764690
11.3805021439 -10.7081056012 -2.4989764690
11.4350589081 -10.6746826538 -2.4989764690
11.4486360065 -10.6662262320 -2.4989764690
11.4892163773 -10.6406165052 -2.4989764690
11.5696873309 -10.5883217383 -2.4989764690
10.1942986168 -11.2676299994 -2.4989764690
10.2096351895 -11.2628413766 -2.4989764690
10.2249575295 -11.2580074063 -2.4989764690
10.3013510502 -11.2331588383 -2.4989764690
10.3165851825 -11.2280536858 -2.4989764690
10.3773686947 -11.2071830987 -2.4989764690
11.5022079906 -10.6610016288 -2.4989764690
11.7679251554 -10.4803890706 -2.4989764690
11.8455084641 -10.4231729681 -2.4989764690
11.8839162452 -10.3940507920 -2.4989764690
6.1368150318 -10.9569910365 -2.4989764690
10.0932463617 -11.3231057235 -2.4989764690
9.9278235184 -11.3928928653 -2.4989764690
9.9592281921 -11.3848446360 -2.4989764690
12.0531124565 -10.3217986835 -2.4989764690
9.8229889649 -11.4431473366 -2.4989764690
9.8863521198 -11.4281021513 -2.4989764690
12.0050355674 -10.3915894227 -2.4989764690
12.0684197196 -10.3405075845 -2.4989764690
12.1060851139 -10.3094104514 -2.4989764690
9.5603755421 -11.5462812258 -2.4989764690
9.6411054385 -11.5312305498 -2.4989764690
10.9501284982 -7.2379485831 -2.5006785393
10.9577700084 -7.2147886516 -2.5006785393
10.9513360045 -5.4962974299 -2.5006785393
10.9461489713 -5.4808883371 -2.5006785393
10.9408708634 -5.4655102023 -2.5006785393
10.9327833418 -5.4425022233 -2.5006785393
10.9272783627 -5.4272038358 -2.5006785393
10.9443546935 -5.4035520933 -2.5006785393
10.9298454273 -5.3652009768 -2.5006785393
10.9518138289 -7.4407407806 -2.5006785393
10.9564617163 -5.3012304560 -2.5006785393
10.9469156902 -5.2780905860 -2.5006785393
10.9709408066 -7.4577322812 -2.5006785393
10.9659655047 -5.2610126196 -2.5006785393
10.9698810042 -7.5216282924 -2.5006785393
10.9489514482 -7.6246066923 -2.5006785393
10.9417540628 -7.7964443401 -2.5006785393
10.9517924242 -8.6230053032 -2.5006785393
7.1777306335 -10.9494999527 -2.5006785393
7.2184586318 -10.9596717804 -2.5006785393
7.2320544933 -10.9629820197 -2.5006785393
7.2592752956 -10.9694817693 -2.5006785393
7.3001774101 -10.9789291470 -2.5006785393
9.6261087492 -10.9186033993 -2.5006785393
9.6798956252 -10.9031172819 -2.5006785393
7.1309255311 -10.9623396997 -2.5006785393
7.1445296678 -10.9659088661 -2.5006785393
7.2400459103 -10.9897640713 -2.5006785393
9.7405948412 -10.9101028422 -2.5006785393
9.7540330333 -10.9059523634 -2.5006785393
9.7808722902 -10.8975322391 -2.5006785393
7.0157643354 -10.9555609515 -2.5006785393
9.8419752801 -10.9031714359 -2.5006785393
6.9545488241 -10.9626591042 -2.5006785393
9.9786139148 -10.9071839745 -2.5006785393
9.9920424310 -10.9023294049 -2.5006785393
10.1791857188 -10.9082315395 -2.5006785393
10.2060310191 -10.8972960292 -2.5006785393
10.2152165648 -10.9196558377 -2.5006785393
10.2421288246 -10.9085069569 -2.5006785393
10.2689746527 -10.8971990493 -2.5006785393
10.3053340545 -10.9079257704 -2.5006785393
10.3187633355 -10.9021047004 -2.5006785393
10.3687899130 -10.9064818311 -2.5006785393
10.4459024079 -10.8979719541 -2.5006785393
10.5098148963 -10.8945955948 -2.5006785393
10.5846247201 -10.9120219121 -2.5006785393
10.5980648962 -10.9053746319 -2.5006785393
10.7005499282 -10.9075741116 -2.5006785393
10.7139764397 -10.9005839231 -2.5006785393
10.7273822142 -10.8935540471 -2.5006785393
10.7789212217 -10.8935176395 -2.5006785393
10.8038160184 -10.9075524480 -2.5006785393
10.8825517644 -10.8917621110 -2.5006785393
10.6733046707 -11.0569378371 -2.5006785393
11.1194855476 -10.8076006646 -2.5006785393
11.1587990485 -10.7827972164 -2.5006785393
11.1848850923 -10.7660681800 -2.5006785393
11.2238274404 -10.7406859830 -2.5006785393
11.2367579771 -10.7321485752 -2.5006785393
11.3138057051 -10.6801242827 -2.5006785393
10.5153014505 -11.1586612265 -2.5006785393
10.5718665534 -11.1326369625 -2.5006785393
11.1586477617 -10.8115288454 -2.5006785393
11.2110603949 -10.7779165104 -2.5006785393
11.2501068594 -10.7523015557 -2.5006785393
11.3146742212 -10.7088431802 -2.5006785393
11.4039736781 -10.6464072499 -2.5006785393
11.4418454751 -10.6190854766 -2.5006785393
11.4544153416 -10.6099036641 -2.5006785393
11.4669579916 -10.6006847078 -2.5006785393
11.4919612034 -10.5821356869 -2.5006785393
11.5168542354 -10.5634390632 -2.5006785393
11.5908635585 -10.5064701458 -2.5006785393
10.2367300961 -11.3012169823 -2.5006785393
10.3095269761 -11.2726867985 -2.5006785393
10.3529997506 -11.2550529638 -2.5006785393
11.6425686239 -10.4963859131 -2.5006785393
11.6669516956 -10.4767997461 -2.5006785393
11.7393996865 -10.4171805188 -2.5006785393
10.1718382948 -11.3513637840 -2.5006785393
12.1193646407 -10.1344864687 -2.5006785393
9.9029183886 -11.4924116710 -2.5006785393
12.2684588240 -10.0145923566 -2.5006785393
9.6645218957 -11.5838494931 -2.5006785393
9.3672425471 -11.7240172334 -2.5006785393
10.0551107044 -7.4099212356 -2.4996461868
10.9572289672 -7.6883614045 -2.4996461868
10.9554781197 -5.6844903632 -2.4996461868
10.9502708062 -5.6017752938 -2.4996461868
10.9342106373 -7.8788634778 -2.4996461868
10.9412026053 -7.8624595614 -2.4996461868
10.9582568645 -7.8212713061 -2.4996461868
10.9471447841 -5.4679649277 -2.4996461868
10.9339449489 -7.9970448661 -2.4996461868
10.9495402176 -8.0756492536 -2.4996461868
10.9416388873 -8.1442287734 -2.4996461868
10.9459319688 -8.1360088509 -2.4996461868
10.9544450900 -8.1195310867 -2.4996461868
10.9482462538 -8.3310983402 -2.4996461868
9.7101769361 -10.9030979945 -2.4996461868
9.7809939198 -10.9023546344 -2.4996461868
9.8021736959 -10.9201004835 -2.4996461868
9.8986214259 -10.9076550554 -2.4996461868
9.9453781334 -10.9143813295 -2.4996461868
10.0173944490 -10.9097232055 -2.4996461868
10.0423340468 -10.8986904364 -2.4996461868
10.1621556133 -10.8967663829 -2.4996461868
10.2455463565 -10.9101339260 -2.4996461868
10.3797009817 -10.8960359095 -2.4996461868
10.4159393815 -10.9041833497 -2.4996461868
10.6967763081 -11.0800230463 -2.4996461868
11.1491852851 -10.7860437434 -2.4996461868
11.1612924250 -10.7771983021 -2.4996461868
11.2214327226 -10.7324360082 -2.4996461868
11.2690641737 -10.6959887831 -2.4996461868
11.3162610299 -10.6589805120 -2.4996461868
11.3630166829 -10.6214163767 -2.4996461868
11.3862270101 -10.6024275004 -2.4996461868
10.3350962303 -11.2962958022 -2.4996461868
10.4704232913 -11.2300963504 -2.4996461868
10.4972503955 -11.2163777035 -2.4996461868
11.5051198400 -10.5335405662 -2.4996461868
11.5616187364 -10.4837195842 -2.4996461868
11.6614360575 -10.3919571756 -2.4996461868
10.2213890103 -11.3745651984 -2.4996461868
10.2352411625 -11.3684617712 -2.4996461868
10.2490751992 -11.3623173935 -2.4996461868
10.3179694161 -11.3309831425 -2.4996461868
10.3453960686 -11.3181646982 -2.4996461868
10.3590808354 -11.3116946825 -2.4996461868
11.5437687496 -10.5318669092 -2.4996461868
11.6337606769 -10.4508400500 -2.4996461868
10.0768432087 -11.4614248029 -2.4996461868
10.1331805221 -11.4384698590 -2.4996461868
9.9431673018 -11.5385776170 -2.4996461868
9.9575058499 -11.5332965023 -2.4996461868
10.1290609452 -7.5497778803 -2.5001611710
10.9371198216 -8.1227966932 -2.5001611710
10.9351014499 -5.9515530368 -2.5001611710
10.9432950034 -8.1742420851 -2.5001611710
10.9673410697 -5.9689053956 -2.5001611710
10.9577219360 -5.9430296048 -2.5001611710
10.9450539478 -8.2346838468 -2.5001611710
10.9392644359 -5.8310896705 -2.5001611710
10.9492746946 -8.2869619763 -2.5001611710
10.9654687652 -8.4825147992 -2.5001611710
10.9398663120 -5.3944101088 -2.5001611710
10.9364114606 -5.2929668598 -2.5001611710
10.9444013176 -5.1689269938 -2.5001611710
8.2399585138 -10.7014372906 -2.5001611710
9.1736317290 -10.9083557857 -2.5001611710
9.1964993239 -10.9016214990 -2.5001611710
9.2079180804 -10.8982036503 -2.5001611710
9.1573474078 -10.9382027785 -2.5001611710
9.3024465690 -10.9193318854 -2.5001611710
9.2983404687 -10.9460496180 -2.5001611710
9.3904232376 -10.9153408192 -2.5001611710
9.4133283641 -10.9073237989 -2.5001611710
9.4361856583 -10.8991714045 -2.5001611710
9.4787696169 -10.9093601297 -2.5001611710
9.4902100306 -10.9051072405 -2.5001611710
9.5674408337 -10.9013728677 -2.5001611710
9.4572455085 -10.9943372996 -2.5001611710
9.8439658631 -10.9143480074 -2.5001611710
10.0815002439 -10.9046704718 -2.5001611710
10.2768859928 -10.9073502693 -2.5001611710
10.4639837013 -10.9077645072 -2.5001611710
10.5585960708 -10.9047925726 -2.5001611710
10.5565837798 -11.1913311565 -2.5001611710
11.1188258108 -10.7943785552 -2.5001611710
11.2068097839 -10.7206335858 -2.5001611710
11.3142954517 -10.6255585661 -2.5001611710
11.3774203952 -10.5670020836 -2.5001611710
10.3688666265 -11.3266821053 -2.5001611710
10.4571309435 -11.2776832422 -2.5001611710
11.5379075629 -10.4429551502 -2.5001611710
15.4088587599 -6.8260634320 -2.5001611710
15.6274939374 -6.8645948510 -2.5001611710
15.6925711580 -6.6592499515 -2.5001611710
15.9426010781 -6.9040430160 -2.5001611710
15.9663328744 -6.8801992274 -2.5001611710
15.9864074234 -6.7387513827 -2.5001611710
15.9854819484 -6.7152659721 -2.5001611710
16.4501595820 -6.8953123464 -2.5001611710
16.4491573129 -6.8455979123 -2.5001611710
16.4880143243 -6.5946159797 -2.5001611710
17.2235820641 -6.8820084690 -2.5001611710
17.8133816944 -9.1879581251 -2.5001611710
10.0621205789 -7.5485373369 -2.4999349117
10.0699112967 -7.7042622539 -2.4999349117
10.1425965440 -7.7082151305 -2.4999349117
10.1634279549 -7.4398426862 -2.4999349117
10.9632274179 -8.2554677976 -2.4999349117
10.9641646918 -6.5609735583 -2.4999349117
10.9378550479 -6.4735449526 -2.4999349117
10.9542204055 -8.3677202474 -2.4999349117
10.9378152950 -6.3963356840 -2.4999349117
10.9421416915 -6.3360233077 -2.4999349117
10.9604521996 -8.4974486885 -2.4999349117
10.9668542636 -8.4798893885 -2.4999349117
10.9452468800 -6.2752417110 -2.4999349117
10.9385018874 -6.2578112631 -2.4999349117
10.9316538884 -6.2404210259 -2.4999349117
10.9631585959 -8.5586437251 -2.4999349117
10.9327980343 -6.1791768586 -2.4999349117
10.9500507801 -8.6553198687 -2.4999349117
10.9537318550 -8.6465750318 -2.4999349117
10.9752736098 -8.5938808241 -2.4999349117
10.9787728266 -8.5850616424 -2.4999349117
10.9477331381 -6.1523691503 -2.4999349117
10.9326860872 -6.1175276484 -2.4999349117
10.9495177231 -8.7173618078 -2.4999349117
10.9760252961 -8.6559204996 -2.4999349117
10.9557787413 -8.7622862872 -2.4999349117
10.9637477552 -8.7447500018 -2.4999349117
10.9676933207 -8.7359642555 -2.4999349117
10.9530466462 -8.8250622693 -2.4999349117
10.9374134497 -5.9020960512 -2.4999349117
10.9436619341 -8.9515680639 -2.4999349117
10.9511452299 -8.9890791573 -2.4999349117
10.9604561078 -8.9715663161 -2.4999349117
10.9367936620 -5.6991190177 -2.4999349117
10.9525991508 -5.6782277162 -2.4999349117
10.9411839128 -5.5659063165 -2.4999349117
10.9339451507 -5.5094311293 -2.4999349117
10.9350398410 -9.3462719274 -2.4999349117
10.9521377821 -9.3201109453 -2.4999349117
10.9436091992 -9.3770613394 -2.4999349117
10.9482048287 -5.3996672795 -2.4999349117
8.8157775877 -10.9059278336 -2.4999349117
10.9357020295 -9.4740762906 -2.4999349117
8.8525239689 -10.9219982697 -2.4999349117
8.8629194661 -10.9194483788 -2.4999349117
8.9000614697 -10.9350305526 -2.4999349117
8.9417484397 -10.9240832379 -2.4999349117
8.9729270642 -10.9155494668 -2.4999349117
9.0247192056 -10.9007127306 -2.4999349117
9.1041548531 -10.9016999500 -2.4999349117
9.1840694503 -10.9008859330 -2.4999349117
9.1605921318 -10.9342480627 -2.4999349117
9.2644222613 -10.8982513359 -2.4999349117
9.3348502872 -10.8977543270 -2.4999349117
9.3953295421 -10.9000057374 -2.4999349117
9.3713432322 -10.9614096925 -2.4999349117
9.5069984971 -10.9058938479 -2.4999349117
9.5173434908 -10.9014079735 -2.4999349117
9.5379934421 -10.8923445159 -2.4999349117
9.6199593502 -10.9082811917 -2.4999349117
10.9467388087 -4.9182816349 -2.4999349117
9.6820678605 -10.9056514743 -2.4999349117
10.1926424610 -10.8990188816 -2.4999349117
10.2158957171 -10.9129280252 -2.4999349117
10.4922448966 -4.0913052116 -2.4999349117
11.1959991529 -4.2938588634 -2.4999349117
10.6844363819 -11.1207917510 -2.4999349117
10.6954119308 -11.1128218620 -2.4999349117
11.1338958182 -10.7496982683 -2.4999349117
11.1536199115 -10.7310733995 -2.4999349117
11.1634405501 -10.7217172860 -2.4999349117
11.2410005695 -10.6458309383 -2.4999349117
10.4845934785 -11.2863127487 -2.4999349117
10.4960595428 -11.2789333070 -2.4999349117
10.5075037272 -11.2715199789 -2.4999349117
10.5643929524 -11.2339473232 -2.4999349117
11.0801766262 -10.8319229707 -2.4999349117
11.3248348387 -10.5946599642 -2.4999349117
11.3808931009 -10.5350725088 -2.4999349117
11.4449453761 -10.4643095251 -2.4999349117
10.3340263382 -11.4069005732 -2.4999349117
10.3694348697 -11.3859921040 -2.4999349117
10.4046564559 -11.3647702274 -2.4999349117
11.4447878117 -10.5008049520 -2.4999349117
11.5786472309 -10.3447658475 -2.4999349117
11.5959678241 -10.3235167670 -2.4999349117
11.6302303492 -10.2807130455 -2.4999349117
10.0920476760 -11.5659356576 -2.4999349117
11.5973389270 -10.3600941149 -2.4999349117
11.6662202609 -10.2740415714 -2.4999349117
11.7575680549 -10.1531072444 -2.4999349117
11.4247357366 -10.5944500532 -2.4999349117
9.9125991051 -11.7046145288 -2.4999349117
9.7679071558 -11.7923499275 -2.4999349117
9.8454674678 -11.7602064538 -2.4999349117
12.1534892149 -9.7126534428 -2.4999349117
9.6541902519 -11.8881884158 -2.4999349117
15.4816416526 -7.3664299579 -2.4999349117
16.0847200379 -7.5546419270 -2.4999349117
16.0851226420 -7.5307126257 -2.4999349117
17.9861449565 -6.9685227526 -2.4999349117
17.9619165706 -6.5847464037 -2.4999349117
10.0729306821 -7.5635565419 -2.5000250340
10.0632218583 -7.4845026915 -2.5000250340
10.0859176884 -7.3357158101 -2.5000250340
10.1108718382 -7.3368942783 -2.5000250340
10.9348267247 -6.7827400301 -2.5000250340
10.9505850204 -8.7986858754 -2.5000250340
10.9535960900 -8.7899904751 -2.5000250340
10.9517358725 -6.7575509591 -2.5000250340
10.9416503622 -8.8937508294 -2.5000250340
10.9590641766 -6.7059374193 -2.5000250340
10.9402903972 -8.9632397972 -2.5000250340
10.9345737127 -6.5756774665 -2.5000250340
10.9519640100 -8.9984539008 -2.5000250340
10.9349937646 -6.5144240531 -2.5000250340
10.9372239167 -6.2916617873 -2.5000250340
10.9283881575 -6.2743850434 -2.5000250340
9.4168872615 -10.9002928602 -2.5000250340
9.4639227644 -10.9053876759 -2.5000250340
9.3802600190 -10.9691639277 -2.5000250340
10.0370044092 -10.8914784622 -2.5000250340
10.9334103428 -10.0722205749 -2.5000250340
9.9283238700 -4.0949171203 -2.5000250340
11.1583509565 -10.7010204294 -2.5000250340
10.7969869687 -11.0786095890 -2.5000250340
11.2532251753 -10.6322261258 -2.5000250340
11.3198945029 -10.5547439817 -2.5000250340
11.3606246151 -10.5055247358 -2.5000250340
11.5130572769 -10.3480909344 -2.5000250340
11.5282106368 -10.3273363727 -2.5000250340
10.2943168465 -11.5007988710 -2.5000250340
10.1612666307 -11.6068508147 -2.5000250340
11.7550153827 -10.0749726529 -2.5000250340
10.4911256531 -4.0923616873 -2.5000250340
11.1136765933 -4.2365310153 -2.5000250340
10.8547531284 -4.0254721891 -2.5000250340
10.7764765176 -3.9674284011 -2.5000250340
11.3145579355 -4.3892818562 -2.5000250340
11.2742480979 -4.3504493329 -2.5000250340
11.2334815979 -4.3120964928 -2.5000250340
10.6064182490 -3.8207136994 -2.5000250340
10.5239551866 -3.7678557856 -2.5000250340
11.4695410699 -4.5122981384 -2.5000250340
11.3885599873 -4.3943715270 -2.5000250340
15.7149258873 -7.9175285950 -2.5000250340
16.0516680176 -7.9950760950 -2.5000250340
16.5583890884 -8.0341566348 -2.5000250340
16.5591140057 -8.0088756810 -2.5000250340
17.3584161685 -7.9476290996 -2.5000250340
17.3806932246 -8.0312178678 -2.5000250340
17.9965457911 -8.3438502047 -2.5000250340
17.6847364911 -5.2366103018 -2.5000250340
10.1010436240 -7.7167743903 -2.5000011921
10.2392427750 -7.5671289547 -2.5000011921
10.9779442101 -7.2500502183 -2.5000011921
10.9753030942 -7.2415344269 -2.5000011921
10.9475109737 -7.1568205330 -2.5000011921
10.9416525166 -7.1399784853 -2.5000011921
10.9492579912 -7.0896818552 -2.5000011921
10.9781495168 -7.0983584206 -2.5000011921
10.9526491939 -9.3120642801 -2.5000011921
10.9618455987 -6.9877785665 -2.5000011921
10.9416431731 -9.4578866536 -2.5000011921
10.9364504767 -6.8081935307 -2.5000011921
10.9340935564 -6.7473783220 -2.5000011921
10.9390084626 -6.7030148199 -2.5000011921
10.9443446626 -6.4137930103 -2.5000011921
10.9231043136 -6.3339068622 -2.5000011921
10.9253261118 -6.2489316084 -2.5000011921
10.9175175191 -6.0287150801 -2.5000011921
10.9568499488 -10.6229240662 -2.5000011921
10.7119521426 -11.1410146508 -2.5000011921
10.7472950139 -11.1098738345 -2.5000011921
11.1486923583 -10.6960254433 -2.5000011921
11.1637695050 -10.6779311970 -2.5000011921
11.1861838446 -10.6506233673 -2.5000011921
11.2926738769 -10.5540137650 -2.5000011921
11.5083428954 -10.2842689266 -2.5000011921
9.4613446987 -4.0910895026 -2.5000011921
9.3410325489 -4.0525331245 -2.5000011921
9.5171287102 -4.0846904205 -2.5000011921
9.7464889865 -4.0940021981 -2.5000011921
9.7225308875 -4.0843194042 -2.5000011921
9.5166761906 -4.0077783096 -2.5000011921
9.5980241666 -4.0108903943 -2.5000011921
9.8250383530 -4.0743327278 -2.5000011921
9.9187350452 -4.0889187651 -2.5000011921
9.9067473652 -4.0835501373 -2.5000011921
10.0229312195 -4.0838146831 -2.5000011921
10.2815827275 -4.0792665882 -2.5000011921
10.2695649070 -4.0728246336 -2.5000011921
11.1051646799 -4.2095525068 -2.5000011921
11.0584637438 -4.1742442615 -2.5000011921
11.4142947776 -4.4342269531 -2.5000011921
11.3923203730 -4.4146709056 -2.5000011921
11.2353142846 -4.2814661347 -2.5000011921
11.2009607677 -4.2537752691 -2.5000011921
11.1894551527 -4.2446128644 -2.5000011921
10.6199645443 -3.8537396194 -2.5000011921
10.4792242454 -3.7739544899 -2.5000011921
10.4533598125 -3.7599421896 -2.5000011921
11.6238090392 -4.5988563305 -2.5000011921
11.5922568838 -4.5677052936 -2.5000011921
10.3336362632 -3.6705716322 -2.5000011921
10.2806118667 -3.6444302015 -2.5000011921
11.7342987815 -4.6773060267 -2.5000011921
11.4354627435 -4.3883173606 -2.5000011921
11.0780050006 -4.0984376894 -2.5000011921
11.8530791399 -4.7702349759 -2.5000011921
12.4141422280 -5.3453578024 -2.5000011921
10.0763513971 -7.7322693815 -2.5000011921
10.0708794124 -7.6579251049 -2.5000011921
10.0635520970 -7.6417715093 -2.5000011921
10.9456825343 -8.5517157514 -2.5000011921
10.9464003089 -9.3733296570 -2.5000011921
10.9490444486 -9.3653404530 -2.5000011921
10.9274842675 -7.5226758235 -2.5000011921
10.9354872778 -9.4770057808 -2.5000011921
10.9413654858 -9.4610823366 -2.5000011921
10.9459996532 -9.5174528180 -2.5000011921
10.9521169755 -9.5014664711 -2.5000011921
10.9554102734 -7.4582536272 -2.5000011921
10.9494745518 -9.5742955346 -2.5000011921
10.9622868550 -9.5422418326 -2.5000011921
10.9465059944 -7.3694259593 -2.5000011921
10.9414087712 -9.6555446876 -2.5000011921
10.9448877758 -9.6475690147 -2.5000011921
10.9456573617 -9.7052908207 -2.5000011921
10.9528860027 -9.6893032115 -2.5000011921
10.9600199291 -9.6732731150 -2.5000011921
10.9567848143 -7.2704203419 -2.5000011921
10.9670362938 -9.7738188950 -2.5000011921
10.9534072909 -7.0949557342 -2.5000011921
10.9451921773 -7.0789679590 -2.5000011921
10.9408621472 -9.9319001658 -2.5000011921
10.9494315692 -9.9159369607 -2.5000011921
10.9536808261 -9.9079364155 -2.5000011921
10.9581639414 -7.0002922726 -2.5000011921
10.9577179061 -10.1442933777 -2.5000011921
10.9582156674 -10.1891662657 -2.5000011921
9.3828943728 -4.0830951609 -2.5000011921
9.3438695388 -4.0731878184 -2.5000011921
9.4020042144 -4.0630893754 -2.5000011921
9.3235100849 -4.0432853904 -2.5000011921
9.5778096499 -4.0876250682 -2.5000011921
9.5388173409 -4.0759877836 -2.5000011921
9.5257971441 -4.0721856428 -2.5000011921
9.4866698670 -4.0610105479 -2.5000011921
9.6108990742 -4.0724847042 -2.5000011921
9.7224038381 -4.0830767378 -2.5000011921
9.8212059915 -4.0918169976 -2.5000011921
9.7952431159 -4.0825802655 -2.5000011921
9.7822412988 -4.0780195419 -2.5000011921
9.8814039607 -4.0880981311 -2.5000011921
9.9548890587 -4.0902262671 -2.5000011921
9.9159049850 -4.0752425118 -2.5000011921
9.9897095609 -4.0779346331 -2.5000011921
9.9766931503 -4.0727986629 -2.5000011921
10.0377715766 -4.0711804228 -2.5000011921
10.3107753691 -4.0852246523 -2.5000011921
10.2977791189 -4.0791388795 -2.5000011921
10.3471264563 -4.0756961021 -2.5000011921
10.3966955916 -4.0727846578 -2.5000011921
10.4464809656 -4.0704082046 -2.5000011921
10.5095036160 -4.0752439470 -2.5000011921
10.4964769716 -4.0685703439 -2.5000011921
10.5597082137 -4.0740967317 -2.5000011921
10.6607046446 -4.0734443376 -2.5000011921
10.7363666407 -4.0601986358 -2.5000011921
10.8388255872 -4.0633898394 -2.5000011921
11.0706125624 -4.1790518257 -2.5000011921
11.0578905453 -4.1707179066 -2.5000011921
11.3829511129 -4.3709641350 -2.5000011921
11.3586124325 -4.3524827087 -2.5000011921
11.3096091782 -4.3159534557 -2.5000011921
11.2601771234 -4.2800065893 -2.5000011921
11.2353024563 -4.2622531271 -2.5000011921
11.1977946036 -4.2358996470 -2.5000011921
11.1726600768 -4.2185160326 -2.5000011921
10.6496595081 -3.9029061283 -2.5000011921
10.5817663074 -3.8678702261 -2.5000011921
10.5544651765 -3.8541376832 -2.5000011921
10.5407842630 -3.8473320430 -2.5000011921
10.5133623385 -3.8338423231 -2.5000011921
10.4720810093 -3.8139125268 -2.5000011921
10.4582814629 -3.8073507699 -2.5000011921
11.5419965619 -4.4661713618 -2.5000011921
10.4824938887 -3.7920972288 -2.5000011921
10.4686297632 -3.7855047642 -2.5000011921
10.4547461967 -3.7789533410 -2.5000011921
10.3850410067 -3.7468138406 -2.5000011921
10.3710433512 -3.7405098573 -2.5000011921
10.3429924016 -3.7280262512 -2.5000011921
10.3148680857 -3.7157088223 -2.5000011921
10.2584032954 -3.6915742154 -2.5000011921
11.8235322659 -4.6818709908 -2.5000011921
11.3008930264 -4.2497538899 -2.5000011921
10.1534759427 -3.6228187109 -2.5000011921
10.0172813704 -3.5458027411 -2.5000011921
9.8485646934 -3.4630540343 -2.5000011921
9.8337299724 -3.4583382865 -2.5000011921
9.6676005223 -3.3586011717 -2.5000011921
9.5060791705 -3.2916020408 -2.5000011921
12.8233272567 -5.6411512586 -2.5000011921
10.9504238917 -9.6082563762 -2.5000011921
10.9623686867 -9.5712790194 -2.5000011921
10.9359969774 -7.9138107639 -2.5000011921
10.9308158599 -7.8991560647 -2.5000011921
10.9555699569 -9.6677932407 -2.5000011921
10.9658736759 -9.6381603659 -2.5000011921
10.9639525094 -7.9206408948 -2.5000011921
10.9565016312 -9.7352937487 -2.5000011921
10.9347194810 -7.7113414799 -2.5000011921
10.9464269957 -9.8866033281 -2.5000011921
10.9593204174 -9.8570633191 -2.5000011921
10.9247010285 -7.5740301791 -2.5000011921
10.9206424426 -7.5121070637 -2.5000011921
10.9599086435 -10.0282817402 -2.5000011921
10.9413616753 -7.3973044545 -2.5000011921
10.9206066280 -7.3607029736 -2.5000011921
10.9484949093 -7.1303311382 -2.5000011921
9.9352334557 -4.0858637668 -2.5000011921
9.9213343541 -4.0815097739 -2.5000011921
9.9982317843 -4.0807208626 -2.5000011921
9.9843171934 -4.0761805318 -2.5000011921
10.0476302068 -4.0716868386 -2.5000011921
10.0057643280 -4.0577514032 -2.5000011921
10.2812472969 -4.0792978373 -2.5000011921
10.3318551174 -4.0732196634 -2.5000011921
10.3966518514 -4.0733899996 -2.5000011921
10.4198480726 -4.0568273271 -2.5000011921
10.6304524249 -4.0699591078 -2.5000011921
10.6165032325 -4.0635486010 -2.5000011921
10.8011919970 -4.0714010894 -2.5000011921
11.2079491513 -4.2401930976 -2.5000011921
11.1945010150 -4.2320735063 -2.5000011921
11.1404700462 -4.1999940216 -2.5000011921
11.4593927271 -4.3730925758 -2.5000011921
11.3938517529 -4.3291600150 -2.5000011921
11.3542177918 -4.3032674796 -2.5000011921
11.3409556010 -4.2947149231 -2.5000011921
11.3276681682 -4.2862016361 -2.5000011921
11.2474200167 -4.2359507185 -2.5000011921
11.2204739937 -4.2195179047 -2.5000011921
11.1798738478 -4.1951683172 -2.5000011921
11.1390592118 -4.1711799920 -2.5000011921
10.4595260761 -3.8379513716 -2.5000011921
11.6918280161 -4.5103490477 -2.5000011921
11.5511333946 -4.4073493858 -2.5000011921
11.5121871268 -4.3800579850 -2.5000011921
10.4096941035 -3.7920860023 -2.5000011921
10.3356746375 -3.7637424427 -2.5000011921
10.3059508288 -3.7527120851 -2.5000011921
10.2612440557 -3.7364967598 -2.5000011921
11.7569696964 -4.5298347558 -2.5000011921
11.6809779693 -4.4719261429 -2.5000011921
10.1489411377 -3.6722549618 -2.5000011921
10.1338175714 -3.6672705926 -2.5000011921
10.0579822136 -3.6430210063 -2.5000011921
12.0901967813 -4.7781084040 -2.5000011921
10.1565415963 -3.6493078855 -2.5000011921
9.9117833132 -3.5746187724 -2.5000011921
12.3037783929 -4.8803511386 -2.5000011921
10.4589129040 -7.9662718908 -2.5000011921
10.9605146128 -9.8572243688 -2.5000011921
10.9676485812 -9.8372924422 -2.5000011921
10.9338425096 -8.1595276302 -2.5000011921
10.9552926761 -9.9387295480 -2.5000011921
10.9579314461 -9.9321077075 -2.5000011921
10.9400964808 -8.1109884263 -2.5000011921
10.9335496430 -8.0356673508 -2.5000011921
10.9308437501 -7.9729988410 -2.5000011921
10.9493970183 -7.9558669200 -2.5000011921
10.0809154923 -4.0860800871 -2.5000011921
10.0368684301 -4.0741813690 -2.5000011921
9.9927175079 -4.0626740123 -2.5000011921
9.6661022752 -3.9903264915 -2.5000011921
10.1314693615 -4.0751186708 -2.5000011921
7.3397954232 -4.0652954619 -2.5000011921
7.3250753323 -4.0693946150 -2.5000011921
7.3103674318 -4.0735372948 -2.5000011921
10.1970461690 -4.0690190634 -2.5000011921
7.2447975038 -4.0673641727 -2.5000011921
7.1053776842 -4.0853611089 -2.5000011921
10.4546761353 -4.0761057564 -2.5000011921
10.5362683048 -4.0796349362 -2.5000011921
10.5215766467 -4.0742782816 -2.5000011921
10.6562216043 -4.0733025018 -2.5000011921
10.7919128862 -4.0759413784 -2.5000011921
10.8454248427 -4.0723169758 -2.5000011921
11.1894647123 -4.2069185334 -2.5000011921
11.1032367812 -4.1638186951 -2.5000011921
10.7063106174 -3.9890766090 -2.5000011921
11.4833704169 -4.3406709510 -2.5000011921
11.1860821332 -4.1780709387 -2.5000011921
10.3807654670 -3.8474539101 -2.5000011921
11.8237005767 -4.5287591715 -2.5000011921
11.6615161579 -4.4213843966 -2.5000011921
11.5374326968 -4.3446679909 -2.5000011921
11.4676283076 -4.3034834226 -2.5000011921
10.0194240581 -3.6956262916 -2.5000011921
10.0092445216 -3.6682957701 -2.5000011921
9.8976718840 -3.6427146106 -2.5000011921
12.1185399431 -4.6238084295 -2.5000011921
10.0942080526 -7.7694135383 -2.5000011921
10.0765788098 -7.7568497544 -2.5000011921
10.3229320612 -7.8971936571 -2.5000011921
10.9396823908 -8.4663550111 -2.5000011921
10.9326260476 -8.4493820479 -2.5000011921
10.9401724258 -8.4058547307 -2.5000011921
10.9387837514 -8.3447777416 -2.5000011921
10.9306485136 -8.3278175408 -2.5000011921
10.9383466860 -8.2888414782 -2.5000011921
10.9390301498 -8.1868809878 -2.5000011921
10.9407167968 -8.1409247121 -2.5000011921
10.9445299555 -8.0535359712 -2.5000011921
10.4535530699 -4.0885080407 -2.5000011921
10.4382693593 -4.0843006500 -2.5000011921
7.7566135521 -4.0461431792 -2.5000011921
7.6950924905 -4.0614995508 -2.5000011921
7.6797409533 -4.0654523035 -2.5000011921
7.6644011763 -4.0694504515 -2.5000011921
7.6490732936 -4.0734939598 -2.5000011921
10.4753434500 -4.0694832640 -2.5000011921
10.4446507111 -4.0609851266 -2.5000011921
10.3985186752 -4.0485787691 -2.5000011921
7.6582698274 -4.0460679400 -2.5000011921
7.6121151336 -4.0583897372 -2.5000011921
7.5660716064 -4.0711206462 -2.5000011921
10.6199529984 -4.0868701887 -2.5000011921
7.5287565331 -4.0566038332 -2.5000011921
7.4827004395 -4.0700745733 -2.5000011921
10.7036645465 -4.0880581048 -2.5000011921
10.6883784106 -4.0831108410 -2.5000011921
10.6270895262 -4.0637746209 -2.5000011921
10.7724095514 -4.0854012913 -2.5000011921
10.7264812886 -4.0700852965 -2.5000011921
7.3917501849 -4.0472998986 -2.5000011921
7.3763579698 -4.0521500548 -2.5000011921
7.3609801698 -4.0570457227 -2.5000011921
7.3456169192 -4.0619868596 -2.5000011921
7.3302683527 -4.0669734221 -2.5000011921
7.3149346045 -4.0720053666 -2.5000011921
7.2996158088 -4.0770826491 -2.5000011921
10.8567354379 -4.0890514566 -2.5000011921
10.8261517960 -4.0782965336 -2.5000011921
10.8108362476 -4.0729869731 -2.5000011921
7.2612490271 -4.0644843818 -2.5000011921
10.7570322105 -4.0292596349 -2.5000011921
7.1612606083 -4.0738335053 -2.5000011921
7.1153718899 -4.0905648871 -2.5000011921
11.5042369808 -4.3128187871 -2.5000011921
11.4308986882 -4.2766699422 -2.5000011921
11.4014150115 -4.2625147930 -2.5000011921
11.3866418970 -4.2555026938 -2.5000011921
11.3570337623 -4.2416097531 -2.5000011921
11.2826583622 -4.2076458898 -2.5000011921
11.1626365887 -4.1556025217 -2.5000011921
10.6868547445 -3.9811403126 -2.5000011921
7.1223375813 -4.0622442319 -2.5000011921
7.0763475473 -4.0793214902 -2.5000011921
11.7756292262 -4.4308494720 -2.5000011921
10.3302850627 -3.8567677543 -2.5000011921
10.2503300103 -3.8380319967 -2.5000011921
6.9759158542 -4.0922281003 -2.5000011921
11.9717707891 -4.5197024358 -2.5000011921
10.1427975536 -3.7901117877 -2.5000011921
10.0780799622 -3.7772516455 -2.5000011921
12.0684557140 -4.5524838186 -2.5000011921
9.8704302483 -3.7168644769 -2.5000011921
6.8966336244 -4.0720951117 -2.5000011921
12.4879631224 -4.8217986285 -2.5000011921
12.3015293023 -4.6821650349 -2.5000011921
9.8411754500 -3.6880350651 -2.5000011921
9.7752711548 -3.6787510016 -2.5000011921
11.4985637760 -4.1751658575 -2.5000011921
6.8319826045 -4.0466159720 -2.5000011921
6.7399242597 -4.0863336855 -2.5000011921
6.7246503657 -4.0931118899 -2.5000011921
6.6994933624 -4.0778839127 -2.5000011921
6.6841946493 -4.0847817559 -2.5000011921
9.6343901634 -3.5886160642 -2.5000011921
9.3488818255 -3.5650751994 -2.5000011921
6.5568398264 -4.0907079268 -2.5000011921
12.7726020550 -4.8990802962 -2.5000011921
6.5310929376 -4.0762478178 -2.5000011921
6.4592701706 -4.0844487287 -2.5000011921
6.4439919285 -4.0920571669 -2.5000011921
6.3720432226 -4.1014488629 -2.5000011921
6.2886407876 -4.0904630317 -2.5000011921
6.2733810834 -4.0985761961 -2.5000011921
6.2467029157 -4.0854411860 -2.5000011921
6.2314285395 -4.0936784323 -2.5000011921
6.1317885455 -4.0933667488 -2.5000011921
10.8408918647 -4.1009486994 -2.5000011921
8.1344412480 -4.0373341287 -2.5000011921
7.9448031409 -4.0842920722 -2.5000011921
7.8976633971 -4.0970810583 -2.5000011921
7.8439996795 -4.0870445010 -2.5000011921
11.1208301350 -4.1361193376 -2.5000011921
10.5831582446 -3.9861628552 -2.5000011921
7.8058018739 -4.0729166630 -2.5000011921
11.2220827095 -4.1453703764 -2.5000011921
11.1597484457 -4.1237326906 -2.5000011921
12.4291369930 -4.6873973511 -2.5000011921
7.4923509092 -4.0720703547 -2.5000011921
11.9734433003 -4.3388352465 -2.5000011921
7.2307278781 -4.0929669081 -2.5000011921
7.1902139963 -4.0832919320 -2.5000011921
7.0866166448 -4.1004671507 -2.5000011921
6.8586125724 -4.0971296004 -2.5000011921
6.6007431675 -4.0900707996 -2.5000011921
10.9435514763 -9.2216668726 -2.5000011921
10.9349197024 -9.0239409304 -2.5000011921
10.9444969859 -8.9826073739 -2.5000011921
10.9368987068 -8.9645925213 -2.5000011921
11.3327532985 -9.0816988326 -2.5000011921
10.4469307808 -7.9932542081 -2.5000011921
11.3609487266 -9.0951499213 -2.5000011921
11.3405600673 -9.0180806845 -2.5000011921
10.3476736821 -7.8970309789 -2.5000011921
11.3544731074 -8.8357421442 -2.5000011921
11.3466493090 -8.8164804932 -2.5000011921
11.8082140328 -4.3156128927 -2.5000011921
11.1033483440 -4.0845738615 -2.5000011921
10.2263941506 -3.9337572511 -2.5000011921
8.3764856788 -4.0759180489 -2.5000011921
8.3604837146 -4.0799242298 -2.5000011921
11.0128104534 -4.0373988245 -2.5000011921
8.4189341256 -4.0406749263 -2.5000011921
8.2584067216 -4.0816216534 -2.5000011921
11.3238075322 -4.0953019528 -2.5000011921
10.0150171144 -3.8702191195 -2.5000011921
9.9152780726 -3.8659167273 -2.5000011921
8.1399894215 -4.0899048283 -2.5000011921
8.4076789831 -3.9936572392 -2.5000011921
8.3103839171 -4.0178627292 -2.5000011921
8.0942056720 -4.0530522831 -2.5000011921
7.9501202294 -4.0983309141 -2.5000011921
9.5470519927 -3.7928117222 -2.5000011921
7.9265652670 -4.0806580554 -2.5000011921
7.9105792932 -4.0859951615 -2.5000011921
7.9671996540 -4.0419238605 -2.5000011921
7.8388357494 -4.0849907947 -2.5000011921
7.7668158255 -4.0849311812 -2.5000011921
7.7508431913 -4.0907408363 -2.5000011921
7.6539791487 -4.0753373165 -2.5000011921
7.5972011654 -4.0714075648 -2.5000011921
7.5651961112 -4.0840778336 -2.5000011921
7.5241696506 -4.0745412251 -2.5000011921
7.4509159643 -4.0786480158 -2.5000011921
7.3037935433 -4.0898035447 -2.5000011921
7.2778860884 -4.0749531815 -2.5000011921
7.0976747911 -4.1061828454 -2.5000011921
7.0551573800 -4.1001452273 -2.5000011921
6.9965357619 -4.1024641890 -2.5000011921
6.9377460703 -4.1054010396 -2.5000011921
6.7922511559 -4.1005180692 -2.5000011921
6.6453747425 -4.0993799603 -2.5000011921
6.6014388961 -4.0967618900 -2.5000011921
6.5855063583 -4.1060188891 -2.5000011921
5.9867281850 -4.1154942583 -2.5000011921
5.9410928239 -4.1179285631 -2.5000011921
5.8953559810 -4.1207155168 -2.5000011921
5.6506282550 -4.1207274538 -2.5000011921
4.0133614678 -4.9891724684 -2.5000011921
4.5994686060 -3.5415074936 -2.5000011921
4.5469047561 -3.5872079104 -2.5000011921
4.4430040703 -3.6799991333 -2.5000011921
4.3576893233 -3.7587238934 -2.5000011921
4.3407666253 -3.7746197886 -2.5000011921
4.2568625374 -3.8548463300 -2.5000011921
3.7943620750 -4.3438890532 -2.5000011921
3.7640356688 -4.3790534263 -2.5000011921
3.7040096356 -4.4499173526 -2.5000011921
3.6595426756 -4.5035286935 -2.5000011921
3.6155532371 -4.5575325426 -2.5000011921
10.2397036676 -4.0992913899 -2.5000011921
10.1597437050 -4.0977073520 -2.5000011921
10.0797690601 -4.0973061261 -2.5000011921
9.9518227589 -4.0991245358 -2.5000011921
8.8044334353 -4.0789136516 -2.5000011921
7.8467847354 -4.0849164971 -2.5000011921
4.0308850763 -6.3501028706 -2.5000011921
4.0338736193 -6.1904655959 -2.5000011921
4.5051256889 -3.5868271486 -2.5000011921
4.4876448400 -3.6033818900 -2.5000011921
4.3666607652 -3.7207028047 -2.5000011921
3.7540152953 -4.3995139938 -2.5000011921
3.6057980936 -4.5892280701 -2.5000011921
3.3880032793 -4.8482267917 -2.5000011921
4.8709644941 -3.1987395541 -2.5000011921
3.2595245609 -4.9948691096 -2.5000011921
3.1935740571 -5.0964266573 -2.5000011921
18.4955302678 -5.9345426915 -2.5000011921
18.4849331721 -5.9097010137 -2.5000011921
18.4260992105 -5.4885013932 -2.5000011921
