42.0843247357 -11.4145431687 -2.4893476963
41.0346454285 -10.3756671529 -2.4893476963
41.1213633305 -10.4813789587 -2.4893476963
41.1654224617 -10.5336535230 -2.4893476963
41.2700183730 -10.6540918875 -2.4893476963
41.9137061416 -11.2987676588 -2.4893476963
42.0861908703 -11.4476874219 -2.4893476963
42.2273030616 -11.5631092202 -2.4893476963
40.8612822813 -10.1924767417 -2.4893476963
40.9167304491 -10.2651866416 -2.4893476963
40.9588790530 -10.3192857213 -2.4893476963
41.0015060961 -10.3730086255 -2.4893476963
41.0301882681 -10.4086128179 -2.4893476963
42.3746938528 -11.7082112636 -2.4893476963
40.7467271170 -10.0778155302 -2.4893476963
42.6013545249 -11.9026106699 -2.4893476963
40.6870000550 -10.0358100921 -2.4893476963
42.6633299471 -11.9746053833 -2.4893476963
42.7014586187 -12.0003496370 -2.4893476963
42.7205799047 -12.0131370577 -2.4893476963
40.5367531442 -9.8595006172 -2.4893476963
40.5495508831 -9.8787009953 -2.4893476963
42.9868286637 -12.2394697019 -2.4893476963
43.3767890799 -12.5420672430 -2.4893476963
48.4481698667 -6.0852725320 -2.5027558572
48.4418828454 -6.2005419980 -2.5027558600
48.4410648273 -6.2805393803 -2.5027558629
45.3377326676 -10.9258814753 -2.5027562894
48.1799753767 -10.8897095752 -2.5027562894
45.2692874973 -10.9328235946 -2.5027562923
45.3160821184 -10.9452432748 -2.5027562923
48.4022367722 -10.8975747950 -2.5027562980
48.5951474951 -10.8562821495 -2.5027563009
44.9764634665 -10.9466009509 -2.5027563038
47.9906989351 -11.0643437481 -2.5027563038
48.9384332679 -10.7436411460 -2.5027563038
49.1467284301 -10.6462849416 -2.5027563038
44.9533127830 -10.9644703072 -2.5027563067
47.7707619616 -11.1371951885 -2.5027563067
48.7351421406 -10.8547821477 -2.5027563067
44.8359682753 -10.9501372075 -2.5027563096
44.8829336085 -10.9664016710 -2.5027563096
47.5797426393 -11.1958968783 -2.5027563096
47.6614323400 -11.1821641232 -2.5027563096
47.7266322820 -11.1703089275 -2.5027563096
49.4751933256 -10.5262476813 -2.5027563096
44.7809353752 -10.9561913582 -2.5027563125
47.4519078847 -11.2393033959 -2.5027563125
47.5177985931 -11.2299233908 -2.5027563125
47.3723065864 -11.2739281138 -2.5027563153
44.5986579668 -10.9647936287 -2.5027563211
44.3261966875 -10.9549776482 -2.5027563326
44.3418522874 -10.9619534143 -2.5027563326
44.1965430832 -10.9485680908 -2.5027563384
43.7096104204 -10.9689212209 -2.5027563672
43.1944984266 -10.9659199860 -2.5027563989
43.1497703840 -10.9652302061 -2.5027564018
41.3071384683 -10.6908076097 -2.5027565199
41.3369601549 -10.7225791850 -2.5027565199
41.3820438244 -10.7699043436 -2.5027565199
41.8717317957 -11.2347332900 -2.5027565199
41.8882257027 -11.2489685831 -2.5027565199
41.9379590747 -11.2913808407 -2.5027565199
48.4446156827 -6.7382304043 -2.5006575584
48.4391643597 -6.8095754656 -2.5006575584
48.4434268146 -6.8568394210 -2.5006575584
48.4497873513 -6.8983904339 -2.5006575584
44.9844421747 -10.9467919793 -2.5006575584
45.0146576258 -10.9548653078 -2.5006575584
44.8873676415 -10.9447209716 -2.5006575584
44.9326940413 -10.9576254556 -2.5006575584
48.0281082621 -10.8867499377 -2.5006575584
44.7899341091 -10.9408044304 -2.5006575584
48.1104273013 -10.8844284263 -2.5006575584
44.7374247117 -10.9496660752 -2.5006575584
48.2311930473 -10.8925338318 -2.5006575584
48.2461200909 -10.8869886029 -2.5006575584
48.3143810824 -10.8869127518 -2.5006575584
48.3292911339 -10.8811214622 -2.5006575584
44.5025649648 -10.9460647293 -2.5006575584
44.5176666769 -10.9515492224 -2.5006575584
48.3679780667 -10.8918743277 -2.5006575584
48.3978093891 -10.8799304827 -2.5006575584
44.4337690083 -10.9462899447 -2.5006575584
44.4488716876 -10.9519779477 -2.5006575584
44.4639911269 -10.9576212493 -2.5006575584
44.4791271940 -10.9632198003 -2.5006575584
48.4665733402 -10.8778201782 -2.5006575584
44.3798092148 -10.9514906289 -2.5006575584
48.2342905218 -10.9943780833 -2.5006575584
48.6245204459 -10.8354528489 -2.5006575584
48.6392769127 -10.8287443362 -2.5006575584
44.3104913419 -10.9500810106 -2.5006575584
44.3256057752 -10.9561336746 -2.5006575584
48.0577511215 -11.0805070643 -2.5006575584
48.9844300369 -10.6837899147 -2.5006575584
44.2409302628 -10.9477429950 -2.5006575584
47.7195247940 -11.2030000266 -2.5006575584
47.7986419003 -11.1823668581 -2.5006575584
48.9092448576 -10.7509918680 -2.5006575584
44.1862367262 -10.9509355648 -2.5006575584
47.5496092667 -11.2678756440 -2.5006575584
44.1313200553 -10.9535576106 -2.5006575584
44.1615904653 -10.9666781776 -2.5006575584
43.9501715474 -10.9508453247 -2.5006575584
43.8944205048 -10.9509839216 -2.5006575584
43.7823492571 -10.9494906951 -2.5006575584
43.7411516516 -10.9556337462 -2.5006575584
43.7149421611 -10.9693264598 -2.5006575584
43.6280072026 -10.9508912214 -2.5006575584
48.4580468942 -6.9546644773 -2.4989759922
48.4403774741 -7.1268721204 -2.4989759922
48.4555916509 -7.0918939952 -2.4989759922
48.5626052907 -6.7901017593 -2.4989759922
48.4452322008 -7.2310383166 -2.4989759922
44.8745267435 -10.9534762071 -2.4989759922
44.9756788911 -10.9774579374 -2.4989759922
47.4442360879 -10.9131285963 -2.4989759922
44.7964238866 -10.9584399759 -2.4989759922
47.5081476183 -10.9198743528 -2.4989759922
47.5653062015 -10.9026748377 -2.4989759922
47.5938081743 -10.8938217548 -2.4989759922
44.6746454897 -10.9498459610 -2.4989759922
47.6724086942 -10.8939068131 -2.4989759922
44.6390084233 -10.9646080848 -2.4989759922
44.6534619705 -10.9688588690 -2.4989759922
47.7370986924 -10.8976283555 -2.4989759922
44.5164442688 -10.9520785324 -2.4989759922
44.5452918907 -10.9612626760 -2.4989759922
44.5741933442 -10.9702759866 -2.4989759922
47.7735531031 -10.9105749874 -2.4989759922
44.4368264621 -10.9512729898 -2.4989759922
44.4512414464 -10.9561219232 -2.4989759922
44.4656707116 -10.9609281932 -2.4989759922
44.4945715796 -10.9704125753 -2.4989759922
44.5090429296 -10.9750906045 -2.4989759922
47.8245356709 -10.9181280259 -2.4989759922
47.8958913512 -10.8918437373 -2.4989759922
44.3199052339 -10.9616092845 -2.4989759922
44.3343513064 -10.9668040468 -2.4989759922
44.2393600970 -10.9576066542 -2.4989759922
44.2682452746 -10.9684300240 -2.4989759922
48.2264216708 -10.8866281337 -2.4989759922
44.0394020676 -10.9559751558 -2.4989759922
43.9722506692 -10.9536319416 -2.4989759922
44.0155775673 -10.9721734662 -2.4989759922
44.0300562221 -10.9782684385 -2.4989759922
48.3318507783 -10.8916305317 -2.4989759922
43.9192845805 -10.9568016351 -2.4989759922
48.4133177060 -10.8795908749 -2.4989759922
43.8126929376 -10.9614631720 -2.4989759922
48.2173250763 -11.0226117920 -2.4989759922
48.2901831472 -10.9905065674 -2.4989759922
48.6609067563 -10.8064131248 -2.4989759922
48.7443720095 -10.7599190225 -2.4989759922
48.7582020867 -10.7520262943 -2.4989759922
48.8132871023 -10.7200473044 -2.4989759922
48.8406867476 -10.7038139437 -2.4989759922
48.8951955178 -10.6708623320 -2.4989759922
43.7446467813 -10.9560512104 -2.4989759922
47.8844662177 -11.1790608991 -2.4989759922
47.8995399549 -11.1737100939 -2.4989759922
48.0046036972 -11.1350092405 -2.4989759922
48.0791474380 -11.1060379528 -2.4989759922
48.9486293308 -10.6662262320 -2.4989759922
49.0563334828 -10.5971365927 -2.4989759922
49.1755074358 -10.5163894430 -2.4989759922
49.3455017884 -10.4231729681 -2.4989759922
49.3839095695 -10.3940507920 -2.4989759922
43.6657004371 -10.9713793156 -2.4989759922
47.5155385793 -11.3448665039 -2.4989759922
47.4120967872 -11.3968472692 -2.4989759922
47.5062378731 -11.3724242699 -2.4989759922
49.5557967684 -10.3507988638 -2.4989759922
47.0321296436 -11.5757873308 -2.4989759922
47.7735563296 -7.0496955237 -2.5006785393
47.7795538422 -7.0325472631 -2.5006785393
47.7686164357 -7.2538961362 -2.5006785393
47.7337208689 -7.4283043901 -2.5006785393
47.7415999168 -7.6017231555 -2.5006785393
47.7360660032 -7.6960979520 -2.5006785393
48.2519803214 -7.2194080558 -2.5006785393
48.4327900175 -5.4425022233 -2.5006785393
48.4542660239 -7.2998669198 -2.5006785393
48.4651413502 -7.2689188410 -2.5006785393
48.4357238669 -5.3805156371 -2.5006785393
48.4449603089 -7.3931714935 -2.5006785393
48.4569403097 -7.3623269924 -2.5006785393
48.4371909580 -5.3180155562 -2.5006785393
48.4518205046 -7.4407407806 -2.5006785393
48.4404444250 -5.2627114643 -2.5006785393
48.4511453499 -7.5041789093 -2.5006785393
48.4659721804 -5.2610126196 -2.5006785393
48.4417903350 -7.5834351529 -2.5006785393
48.4698876800 -7.5216282924 -2.5006785393
48.4543589150 -7.7733367342 -2.5006785393
48.4500257827 -7.8312918052 -2.5006785393
48.4308220939 -7.9125479940 -2.5006785393
48.4351540924 -8.0427847822 -2.5006785393
44.7184653075 -10.9596717804 -2.5006785393
44.7320611690 -10.9629820197 -2.5006785393
47.1261154249 -10.9186033993 -2.5006785393
47.1530317684 -10.9109398966 -2.5006785393
47.1933200942 -10.8991463930 -2.5006785393
44.6309322069 -10.9623396997 -2.5006785393
44.6581509789 -10.9694377735 -2.5006785393
44.7127121233 -10.9831501992 -2.5006785393
46.9283899454 -10.9945180310 -2.5006785393
44.5565591754 -10.9671699005 -2.5006785393
44.5701779261 -10.9709590546 -2.5006785393
47.3419819558 -10.9031714359 -2.5006785393
44.5090506889 -10.9787810408 -2.5006785393
44.5363688665 -10.9865999188 -2.5006785393
47.3630433441 -10.9216536465 -2.5006785393
47.4034184784 -10.9079959860 -2.5006785393
47.4168497257 -10.9033638744 -2.5006785393
44.4338987865 -10.9816461076 -2.5006785393
47.4112658351 -10.9308598063 -2.5006785393
47.4382497010 -10.9215090435 -2.5006785393
47.4786205905 -10.9071839745 -2.5006785393
47.4920491067 -10.9023294049 -2.5006785393
47.4868052536 -10.9299292283 -2.5006785393
47.5272489554 -10.9151729244 -2.5006785393
47.6165227978 -10.9071058180 -2.5006785393
47.7286876155 -10.9141013001 -2.5006785393
47.8822213207 -10.9004730535 -2.5006785393
47.9695414794 -10.9136352703 -2.5006785393
47.9964136684 -10.9009818627 -2.5006785393
48.0739469538 -10.8903383243 -2.5006785393
48.1114920254 -10.8986876223 -2.5006785393
48.1248926388 -10.8919609418 -2.5006785393
48.2273888900 -10.8935540471 -2.5006785393
48.3306530447 -10.8929214270 -2.5006785393
48.6718611180 -10.7744519901 -2.5006785393
48.6978975603 -10.7576458597 -2.5006785393
48.7238341161 -10.7406859830 -2.5006785393
47.9012739688 -11.2086928255 -2.5006785393
47.9298930122 -11.1964381475 -2.5006785393
47.9441752201 -11.1902473669 -2.5006785393
48.0011190446 -11.1650625693 -2.5006785393
48.0577608845 -11.1392057490 -2.5006785393
48.0718732291 -11.1326369625 -2.5006785393
48.1000393147 -11.1193742931 -2.5006785393
48.7501135352 -10.7523015557 -2.5006785393
48.8275168393 -10.7000371705 -2.5006785393
48.8403266758 -10.6911932283 -2.5006785393
47.7804656023 -11.2842280556 -2.5006785393
48.8024583469 -10.7463748172 -2.5006785393
48.9053002026 -10.6751477025 -2.5006785393
47.5978994883 -11.3778488930 -2.5006785393
47.6718449705 -11.3513637840 -2.5006785393
49.2549316429 -10.4357089008 -2.5006785393
49.4089040605 -10.3015700634 -2.5006785393
49.4205326154 -10.2910080161 -2.5006785393
47.6207697458 -11.3954326946 -2.5006785393
49.6526719325 -10.1008361608 -2.5006785393
47.3269228449 -11.5149039223 -2.5006785393
47.3421497704 -11.5104954431 -2.5006785393
49.9345588536 -9.8647054299 -2.5006785393
47.7488819385 -7.0766996087 -2.4996461868
47.7365800604 -7.3282545298 -2.4996461868
47.7516964725 -7.4358073272 -2.4996461868
47.7388845659 -7.5367794115 -2.4996461868
47.7403917063 -7.5952904731 -2.4996461868
48.4297650361 -5.6844941742 -2.4996461868
48.4482395071 -7.7131007754 -2.4996461868
48.4457051065 -7.7875558271 -2.4996461868
48.4361908930 -5.4433237668 -2.4996461868
48.4339354122 -7.9970448661 -2.4996461868
48.4399952737 -8.0402999474 -2.4996461868
48.4294050409 -5.1598256163 -2.4996461868
48.4562934812 -5.0129061919 -2.4996461868
48.4590271762 -8.4974642270 -2.4996461868
47.2226271031 -10.8985088879 -2.4996461868
47.3021641592 -10.9201004835 -2.4996461868
47.8796914450 -10.8960359095 -2.4996461868
48.2121173229 -10.9025371698 -2.4996461868
48.2620989656 -10.9003431477 -2.4996461868
48.0789746427 -11.1458618665 -2.4996461868
48.1446313120 -11.1096718108 -2.4996461868
48.1837658535 -11.0874930400 -2.4996461868
48.1967667713 -11.0800230463 -2.4996461868
48.2743030657 -11.0343984415 -2.4996461868
48.7214231858 -10.7324360082 -2.4996461868
48.8630071462 -10.6214163767 -2.4996461868
48.8862174733 -10.6024275004 -2.4996461868
47.9029950163 -11.2636964886 -2.4996461868
47.9435059558 -11.2436560391 -2.4996461868
48.0506492300 -11.1884654613 -2.4996461868
48.1433056973 -11.1381055039 -2.4996461868
49.0051103033 -10.5335405662 -2.4996461868
47.7628814624 -11.3561321191 -2.4996461868
47.7766789047 -11.3499060022 -2.4996461868
47.6752435657 -11.4208170641 -2.4996461868
49.3990428468 -10.2229316779 -2.4996461868
49.4816248710 -10.1335841517 -2.4996461868
49.6686950197 -9.9526528770 -2.4996461868
44.9723544495 -12.3437952911 -2.4996461868
47.7480797531 -7.8944618896 -2.5001611710
47.7530973350 -7.8814235953 -2.5001611710
47.7604788537 -7.8618110638 -2.5001611710
48.4577423689 -7.9099464027 -2.5001611710
48.4736238325 -6.2247915612 -2.5001611710
48.4420764785 -8.0375959262 -2.5001611710
48.4450152917 -8.0290268957 -2.5001611710
48.4431712416 -6.0453080056 -2.5001611710
48.4372364429 -6.0281896799 -2.5001611710
48.4434829252 -8.1056777707 -2.5001611710
48.4589299244 -8.0627185597 -2.5001611710
48.4477832908 -5.9858046827 -2.5001611710
48.4466447110 -8.1656688323 -2.5001611710
48.4378033568 -5.8915392044 -2.5001611710
48.4392711117 -5.8310896705 -2.5001611710
48.4651654267 -5.8303964642 -2.5001611710
48.4394968244 -5.7702292257 -2.5001611710
48.4564170913 -8.3310228218 -2.5001611710
48.4384664248 -5.7089830392 -2.5001611710
48.4524405943 -5.6816621106 -2.5001611710
48.4443541822 -5.6644953087 -2.5001611710
48.4605457538 -8.4374248073 -2.5001611710
48.4568891337 -8.4997572416 -2.5001611710
48.4654754409 -8.4825147992 -2.5001611710
48.4410516482 -5.5488130818 -2.5001611710
48.4490953251 -5.5119262366 -2.5001611710
48.4520680346 -5.4661789738 -2.5001611710
48.4686210528 -5.4460155449 -2.5001611710
48.4398729877 -5.3944101088 -2.5001611710
48.4701140679 -8.7297624921 -2.5001611710
48.4448109030 -4.9550536582 -2.5001611710
48.4778630731 -4.7967962535 -2.5001611710
46.5587248556 -10.9399915170 -2.5001611710
46.5932964815 -10.9308579292 -2.5001611710
46.6621897664 -10.9116721647 -2.5001611710
46.6736384047 -10.9083557857 -2.5001611710
46.6965059996 -10.9016214990 -2.5001611710
46.7079247561 -10.8982036503 -2.5001611710
46.7378343546 -10.9143726954 -2.5001611710
46.8139239282 -10.9156005481 -2.5001611710
46.8482690485 -10.9042031722 -2.5001611710
46.7636326262 -10.9570023172 -2.5001611710
46.9361923340 -10.8991714045 -2.5001611710
46.8405426696 -10.9577432616 -2.5001611710
46.9902167063 -10.9051072405 -2.5001611710
46.8481222427 -10.9806972450 -2.5001611710
47.0331188755 -10.9147154410 -2.5001611710
46.9922904049 -10.9816648652 -2.5001611710
47.1542525269 -10.9184388447 -2.5001611710
47.1886094338 -10.9040211316 -2.5001611710
47.2439323035 -10.9064591011 -2.5001611710
47.3109767353 -10.9029240242 -2.5001611710
47.3668638538 -10.9036476940 -2.5001611710
47.6844976302 -10.9040164500 -2.5001611710
47.7191482390 -10.9123841625 -2.5001611710
47.8815061419 -10.9017190047 -2.5001611710
48.1424333699 -10.9073631390 -2.5001611710
48.0072926302 -11.2207371893 -2.5001611710
48.0196496534 -11.2134404004 -2.5001611710
48.0933335958 -11.1688949543 -2.5001611710
48.1298761806 -11.1461335609 -2.5001611710
48.2143461366 -11.0917691277 -2.5001611710
48.6849844662 -10.7392647119 -2.5001611710
48.7068164596 -10.7206335858 -2.5001611710
48.7285378429 -10.7018736204 -2.5001611710
48.7501478558 -10.6829854724 -2.5001611710
48.8248949735 -10.6158771013 -2.5001611710
48.8982365327 -10.5472354174 -2.5001611710
47.8688733022 -11.3266821053 -2.5001611710
47.9571376193 -11.2776832422 -2.5001611710
48.7552650331 -10.7106461866 -2.5001611710
48.9044945521 -10.5746605484 -2.5001611710
48.9667019422 -10.5145113316 -2.5001611710
49.1450218884 -10.3652212366 -2.5001611710
49.2322695597 -10.2682570008 -2.5001611710
49.2607746381 -10.2354236555 -2.5001611710
47.5788831576 -11.5246377764 -2.5001611710
49.3447914769 -10.1732217181 -2.5001611710
49.0796110027 -10.5040410564 -2.5001611710
49.2782640212 -10.2890893747 -2.5001611710
49.5429427497 -9.9574229185 -2.5001611710
46.0570110793 -16.7121655107 -2.5001611710
46.0582843560 -16.7363049815 -2.5001611710
55.2235796526 -9.5618641225 -2.5001611710
48.4681148308 -8.3238571542 -2.4999349117
48.4357587417 -6.3186092136 -2.4999349117
48.4604545838 -8.4974477348 -2.4999349117
48.4665560121 -8.5498595823 -2.4999349117
48.4537342392 -8.6465740781 -2.4999349117
48.4326884714 -6.1175266948 -2.4999349117
48.4495201073 -8.7173608541 -2.4999349117
48.4533847158 -8.7086173227 -2.4999349117
48.4760276803 -8.6559195459 -2.4999349117
48.4477085004 -8.7797741646 -2.4999349117
48.4419407103 -5.9651646382 -2.4999349117
48.4290329577 -5.9390755791 -2.4999349117
48.4620461779 -8.8618971673 -2.4999349117
48.4527533988 -8.9340991992 -2.4999349117
48.4407980575 -5.8561323411 -2.4999349117
48.4604584920 -8.9715653624 -2.4999349117
48.4367929711 -5.6047450884 -2.4999349117
46.3525263531 -10.9219973160 -2.4999349117
46.5002952250 -10.9329538990 -2.4999349117
46.5211408674 -10.9269489346 -2.4999349117
46.5834595290 -10.9081955553 -2.4999349117
46.6944034268 -10.8973544093 -2.4999349117
46.7437445355 -10.9056951974 -2.4999349117
46.8348526714 -10.8977533733 -2.4999349117
46.9561687658 -10.9012260177 -2.4999349117
47.2027424190 -10.8956124241 -2.4999349117
47.5084472355 -10.8971352063 -2.4999349117
48.1594329193 -4.0989732278 -2.4999349117
48.7507425755 -4.3511468962 -2.4999349117
48.7143614251 -4.3128461704 -2.4999349117
48.2103658248 -3.8016497408 -2.4999349117
48.2063662394 -11.1048185867 -2.4999349117
47.9615984960 -11.3009687612 -2.4999349117
47.9960619270 -11.2789323533 -2.4999349117
48.1986133363 -11.1403718300 -2.4999349117
48.7484646014 -10.6725434800 -2.4999349117
47.8576550443 -11.3929955450 -2.4999349117
47.6777235119 -11.5216373118 -2.4999349117
49.6804870757 -9.6632946797 -2.4999349117
47.7635206114 -7.0626737515 -2.5000250340
48.4509489477 -8.7214788404 -2.5000250340
48.4537316191 -8.7127827296 -2.5000250340
48.4646046962 -8.6779171126 -2.5000250340
48.4602540628 -6.8608833526 -2.5000250340
48.4348362614 -6.7827414606 -2.5000250340
48.4577221880 -6.7749588102 -2.5000250340
48.4456657529 -6.7401816343 -2.5000250340
48.4331986622 -6.7055495504 -2.5000250340
48.4482188949 -8.8764037868 -2.5000250340
48.4610283984 -8.8415919444 -2.5000250340
48.4590737133 -6.7059388498 -2.5000250340
48.4526885657 -6.6885256411 -2.5000250340
48.4362759603 -6.6451605557 -2.5000250340
48.4472700738 -8.9458995845 -2.5000250340
48.4753592035 -6.6801365135 -2.5000250340
48.4688211156 -6.6626274059 -2.5000250340
48.4446923871 -9.0158238821 -2.5000250340
48.4483458118 -9.0071449915 -2.5000250340
48.4555755603 -8.9897549777 -2.5000250340
48.4710527087 -6.6014132157 -2.5000250340
48.4404677648 -9.0861388253 -2.5000250340
48.4443292123 -9.0774721242 -2.5000250340
48.4706391529 -9.0164906978 -2.5000250340
48.4419427706 -6.4700896334 -2.5000250340
48.4341625596 -6.4527819049 -2.5000250340
48.4561809878 -6.4428057282 -2.5000250340
48.4361337079 -6.3994158663 -2.5000250340
48.4355453252 -9.2105187923 -2.5000250340
48.4329153529 -6.3370592674 -2.5000250340
48.4355572466 -9.2645598169 -2.5000250340
48.4486481713 -9.2385621869 -2.5000250340
48.4283976943 -6.2743864740 -2.5000250340
48.4631994707 -6.2894418714 -2.5000250340
48.4363428101 -6.2373094761 -2.5000250340
48.4271854915 -6.2200389529 -2.5000250340
48.4420781960 -9.3562563975 -2.5000250340
48.4467386930 -9.3475837506 -2.5000250340
48.4443193353 -9.4025329651 -2.5000250340
48.4557005931 -6.1710839293 -2.5000250340
48.4461511232 -6.1537000380 -2.5000250340
46.8424619155 -10.9064520158 -2.5000250340
48.4467316824 -9.4958940197 -2.5000250340
48.4518052325 -9.4872069959 -2.5000250340
46.8891192514 -10.9126330499 -2.5000250340
48.4331180225 -5.9872894239 -2.5000250340
47.0205459935 -10.9053582390 -2.5000250340
47.0959521062 -10.8950197588 -2.5000250340
48.4339344702 -5.8533462245 -2.5000250340
47.1439388073 -10.8974904875 -2.5000250340
48.4251631498 -5.7967608785 -2.5000250340
47.2014345370 -10.8942772060 -2.5000250340
47.2591895664 -10.8900412858 -2.5000250340
48.4388896659 -9.8214389059 -2.5000250340
48.4475377970 -9.8927722019 -2.5000250340
48.4311129369 -5.5567547431 -2.5000250340
47.4870825214 -10.8947914771 -2.5000250340
47.7018257405 -10.8968264882 -2.5000250340
47.9025932551 -10.8994981836 -2.5000250340
48.2226988586 -11.1087537062 -2.5000250340
48.2716882922 -11.0683067563 -2.5000250340
48.6410027661 -10.7195816674 -2.5000250340
48.6756081105 -10.6823596830 -2.5000250340
47.7171075131 -4.0901534860 -2.5000250340
48.0246545476 -11.2902347787 -2.5000250340
48.0453992373 -11.2753115069 -2.5000250340
48.0660552728 -11.2602657637 -2.5000250340
48.1070984924 -11.2298089740 -2.5000250340
48.1274842398 -11.2143989936 -2.5000250340
48.1376428352 -11.2066488424 -2.5000250340
48.1578910249 -11.1910585568 -2.5000250340
48.2577290362 -11.1113253555 -2.5000250340
48.6847505717 -10.7081103899 -2.5000250340
48.7020396652 -10.6892919564 -2.5000250340
48.7447726652 -10.6418012530 -2.5000250340
48.7532347120 -10.6322275563 -2.5000250340
48.7700736586 -10.6130052758 -2.5000250340
48.7867985850 -10.5936837068 -2.5000250340
48.8116709073 -10.5645166678 -2.5000250340
47.8687053745 -11.4254580313 -2.5000250340
47.7055574776 -11.5537490131 -2.5000250340
49.1221071969 -10.2358518276 -2.5000250340
49.1365945957 -10.2144541108 -2.5000250340
47.5001312745 -11.7199770323 -2.5000250340
48.1195108453 -4.0928480475 -2.5000250340
48.1553391543 -4.0886866571 -2.5000250340
48.2383327339 -4.0892993507 -2.5000250340
48.3841216936 -4.0784581937 -2.5000250340
48.8045331347 -4.3795304818 -2.5000250340
48.7843781277 -4.3601141352 -2.5000250340
48.7437252607 -4.3216408682 -2.5000250340
48.0712206034 -3.7978527103 -2.5000250340
48.0358119163 -3.7753036349 -2.5000250340
49.0645840980 -4.6159738462 -2.5000250340
49.0174507189 -4.5637852928 -2.5000250340
48.9695506066 -4.5122995689 -2.5000250340
48.9012223211 -4.4414217248 -2.5000250340
48.7704948723 -4.3136078782 -2.5000250340
48.1314328366 -3.8082295997 -2.5000250340
48.0605914332 -3.7623762771 -2.5000250340
47.9165232318 -3.6744772635 -2.5000250340
47.8922124349 -3.6603270213 -2.5000250340
47.8310729083 -3.6255828303 -2.5000250340
49.2111002269 -4.7504357078 -2.5000250340
49.1568112064 -4.6852718468 -2.5000250340
49.1292351173 -4.6530538185 -2.5000250340
48.6614715359 -4.1819836371 -2.5000250340
49.3267889290 -4.8576730165 -2.5000250340
48.1223838875 -3.7445597193 -2.5000250340
47.7169888514 -3.5093992266 -2.5000250340
49.4393952833 -4.9692497412 -2.5000250340
47.7026722437 -3.4748905098 -2.5000250340
49.5881240607 -5.1450679732 -2.5000250340
49.4558098645 -4.8684362193 -2.5000250340
52.8776992398 -7.7370410073 -2.5000250340
49.4229548690 -16.9802465764 -2.5000250340
47.7425825451 -7.5798068810 -2.5000011921
47.7556072472 -7.5353216538 -2.5000011921
47.7412552699 -7.3357035827 -2.5000011921
47.7425492513 -7.2097625916 -2.5000011921
47.7549100129 -7.1198325018 -2.5000011921
47.7457840205 -7.1007303694 -2.5000011921
48.4396488648 -9.1429132199 -2.5000011921
48.4484496148 -9.1176547482 -2.5000011921
48.4653769353 -9.0669084788 -2.5000011921
48.4589246344 -7.1906061815 -2.5000011921
48.4532658704 -7.1736959929 -2.5000011921
48.4408645463 -9.2100636201 -2.5000011921
48.4440216695 -9.2016489299 -2.5000011921
48.4471538867 -9.1932249372 -2.5000011921
48.4533434937 -9.1763493390 -2.5000011921
48.4366431833 -7.0560157901 -2.5000011921
48.4405081970 -9.2776913315 -2.5000011921
48.4537873719 -9.2439765326 -2.5000011921
48.4698238266 -9.2016159507 -2.5000011921
48.4461175426 -7.0136220239 -2.5000011921
48.4394119050 -6.9967907039 -2.5000011921
48.4421191969 -9.3373513777 -2.5000011921
48.4456528548 -9.3289324191 -2.5000011921
48.4549829669 -6.9708537152 -2.5000011921
48.4373989257 -6.9287240927 -2.5000011921
48.4462123145 -9.3890041376 -2.5000011921
48.4498987527 -9.3805728447 -2.5000011921
48.4643946121 -9.3467397300 -2.5000011921
48.4455295808 -9.4494676333 -2.5000011921
48.4442681614 -6.8250096545 -2.5000011921
48.4435909787 -9.5102976137 -2.5000011921
48.4556519038 -9.4849896908 -2.5000011921
48.4622882415 -6.8064012477 -2.5000011921
48.4390046479 -6.7030138662 -2.5000011921
48.4314610548 -9.6413428227 -2.5000011921
48.4490437564 -9.6077096159 -2.5000011921
48.4533771526 -9.5992689903 -2.5000011921
48.4476302206 -6.6667643669 -2.5000011921
48.4432637751 -6.6583407906 -2.5000011921
48.4602839608 -6.6387104692 -2.5000011921
48.4377868127 -6.5965387741 -2.5000011921
48.4310057656 -6.5344684861 -2.5000011921
46.4808249994 -5.0048886821 -2.5000011921
48.4391634668 -9.7771906994 -2.5000011921
48.4583530445 -9.7434568440 -2.5000011921
48.4284187954 -6.2103034147 -2.5000011921
48.4529479551 -6.1184837184 -2.5000011921
48.4439280385 -10.4119056275 -2.5000011921
48.2119483279 -11.1410136971 -2.5000011921
48.2296658238 -11.1254955645 -2.5000011921
48.6105296441 -10.7408670859 -2.5000011921
48.6335046092 -10.7140292178 -2.5000011921
48.6637656903 -10.6779302433 -2.5000011921
48.6712640532 -10.6688497487 -2.5000011921
48.7083511451 -10.6231167446 -2.5000011921
48.7302772899 -10.5954154025 -2.5000011921
47.9784323122 -11.3594463780 -2.5000011921
48.0163761281 -11.3310533401 -2.5000011921
48.0446120620 -11.3094650106 -2.5000011921
48.2985631851 -11.0961666335 -2.5000011921
48.7272385099 -10.6382032530 -2.5000011921
48.7998012909 -10.5445515364 -2.5000011921
48.8210266124 -10.5160417194 -2.5000011921
48.8350359044 -10.4969310132 -2.5000011921
48.8899351227 -10.4196694288 -2.5000011921
47.9349139230 -11.4208807357 -2.5000011921
47.9639502326 -11.4000118003 -2.5000011921
48.7311930679 -10.6718717094 -2.5000011921
48.9566107491 -10.3643692968 -2.5000011921
48.9955849416 -10.3044077209 -2.5000011921
49.0146714117 -10.2741698903 -2.5000011921
48.7799247741 -10.6495942913 -2.5000011921
49.0095086806 -10.3275028891 -2.5000011921
49.0872549149 -10.2484158239 -2.5000011921
46.8030345264 -4.0915842209 -2.5000011921
46.7430456726 -4.0742024997 -2.5000011921
46.9373705429 -4.0830928154 -2.5000011921
47.0171248955 -4.0846894668 -2.5000011921
46.9810927642 -4.0722542831 -2.5000011921
47.0852525783 -4.0834291157 -2.5000011921
47.0612347528 -4.0747004131 -2.5000011921
46.9282437571 -4.0292432138 -2.5000011921
46.8551004879 -4.0062793128 -2.5000011921
47.1297064272 -4.0741683202 -2.5000011921
46.9723086896 -4.0182801513 -2.5000011921
47.2464851718 -4.0940012444 -2.5000011921
47.2225270728 -4.0843184505 -2.5000011921
47.2796419641 -4.0814950429 -2.5000011921
47.3610346891 -4.0898191663 -2.5000011921
47.3490499279 -4.0846212113 -2.5000011921
47.4187312306 -4.0889178115 -2.5000011921
47.4067435505 -4.0835491836 -2.5000011921
47.4766945748 -4.0888180487 -2.5000011921
47.4647063460 -4.0832779552 -2.5000011921
47.5229274048 -4.0838137294 -2.5000011921
47.4748144432 -4.0613197756 -2.5000011921
47.5813957084 -4.0851625631 -2.5000011921
47.6870446937 -4.0841250868 -2.5000011921
47.7815789128 -4.0792656345 -2.5000011921
47.9249101842 -4.0759071933 -2.5000011921
48.0214188667 -4.0763285867 -2.5000011921
48.1186378491 -4.0789089236 -2.5000011921
48.1066174986 -4.0714698892 -2.5000011921
48.2669326258 -4.0587794340 -2.5000011921
48.6167705638 -4.2184647648 -2.5000011921
48.9142909629 -4.4342259994 -2.5000011921
48.8923165583 -4.4146699519 -2.5000011921
48.8702268382 -4.3952442546 -2.5000011921
48.8257045482 -4.3567866259 -2.5000011921
48.8032735367 -4.3377560407 -2.5000011921
48.7467068656 -4.2907630841 -2.5000011921
48.6779186694 -4.2354835818 -2.5000011921
48.6431593515 -4.2083038470 -2.5000011921
48.1704847231 -3.8838808220 -2.5000011921
48.0818356114 -3.8315255271 -2.5000011921
48.0690836170 -3.8241964428 -2.5000011921
47.9792204307 -3.7739535363 -2.5000011921
47.9403928063 -3.7529925307 -2.5000011921
49.0922530691 -4.5677043399 -2.5000011921
49.0175654651 -4.4961164750 -2.5000011921
48.9851057431 -4.4659123020 -2.5000011921
48.7620158019 -4.2720555522 -2.5000011921
47.9256674737 -3.7178212312 -2.5000011921
47.8336324485 -3.6705706786 -2.5000011921
47.7806080520 -3.6444292478 -2.5000011921
49.2445182132 -4.6880773305 -2.5000011921
47.6159237058 -3.5416995194 -2.5000011921
49.4024841089 -4.8261429564 -2.5000011921
49.3330811775 -4.7480760983 -2.5000011921
47.7208467970 -3.5625416813 -2.5000011921
47.4742897861 -3.4560395336 -2.5000011921
47.4465533043 -3.4450201366 -2.5000011921
47.4274775064 -3.4116216769 -2.5000011921
49.0947153402 -4.4359506525 -2.5000011921
47.5992065105 -3.4291529601 -2.5000011921
47.3029740569 -3.3139922666 -2.5000011921
50.0656537210 -5.3585468352 -2.5000011921
48.1328152405 0.8584342669 -2.5000011921
48.2311479930 1.2074415852 -2.5000011921
55.2968188511 -5.7032465392 -2.5000011921
55.2822406934 -5.6459071033 -2.5000011921
54.9309192635 -4.5476797467 -2.5000011921
54.1194685842 -2.9057420811 -2.5000011921
47.7457020233 -7.6357706412 -2.5000011921
47.7416427363 -7.3044913652 -2.5000011921
47.7519088652 -7.2744133722 -2.5000011921
47.7490926616 -7.0915881651 -2.5000011921
48.4354720190 -9.4770057808 -2.5000011921
48.4413502271 -9.4610823366 -2.5000011921
48.4471341238 -9.4451243936 -2.5000011921
48.4416117640 -7.4906274284 -2.5000011921
48.4521017167 -9.5014664711 -2.5000011921
48.4551248833 -9.4934597956 -2.5000011921
48.4669803038 -9.4613447146 -2.5000011921
48.4431689114 -7.4262778267 -2.5000011921
48.4461970245 -9.5822850966 -2.5000011921
48.4494592930 -9.5742955346 -2.5000011921
48.4559128551 -9.5582876342 -2.5000011921
48.4517596699 -9.6315869688 -2.5000011921
48.4622132221 -7.3441770291 -2.5000011921
48.4486368342 -7.3121285384 -2.5000011921
48.4528707439 -9.6893032115 -2.5000011921
48.4553920480 -9.7979064490 -2.5000011921
48.4557429973 -7.1538070554 -2.5000011921
48.4451769185 -7.0789679590 -2.5000011921
47.5338413179 -6.0183332735 -2.5000011921
48.4494163104 -9.9159369607 -2.5000011921
48.4536655673 -9.9079364155 -2.5000011921
48.4473041636 -6.8360352256 -2.5000011921
48.4427862740 -10.1682836474 -2.5000011921
48.4382182951 -6.7754579685 -2.5000011921
48.4433469761 -6.7385510133 -2.5000011921
48.4571345279 -10.2796329432 -2.5000011921
48.4730384987 -10.2555109560 -2.5000011921
48.4368643831 -6.5567724744 -2.5000011921
48.4353280323 -6.4726037107 -2.5000011921
48.4317579023 -6.3489383764 -2.5000011921
48.4564636517 -10.6097771557 -2.5000011921
46.1974874933 -4.0825045590 -2.5000011921
46.1584844079 -4.0786797059 -2.5000011921
46.1324641570 -4.0763221648 -2.5000011921
46.1194489149 -4.0752011339 -2.5000011921
46.0934087669 -4.0730746008 -2.5000011921
46.7786224436 -4.0574464286 -2.5000011921
46.9801192367 -4.0842833690 -2.5000011921
46.8627858291 -4.0530132316 -2.5000011921
47.0648084489 -4.0837075301 -2.5000011921
47.1369096460 -4.0806309718 -2.5000011921
47.1239027552 -4.0765385907 -2.5000011921
47.1108838154 -4.0724847042 -2.5000011921
46.9669128935 -4.0304425038 -2.5000011921
47.2613107485 -4.0963429704 -2.5000011921
47.2353756981 -4.0874604291 -2.5000011921
47.3943602709 -4.0929521516 -2.5000011921
47.3032629215 -4.0597817343 -2.5000011921
47.1191056981 -3.9991343795 -2.5000011921
47.4548737999 -4.0902262671 -2.5000011921
47.4158897262 -4.0752425118 -2.5000011921
47.5156812593 -4.0883219753 -2.5000011921
47.5767716414 -4.0872458356 -2.5000011921
47.5507772482 -4.0764970810 -2.5000011921
47.5860747461 -4.0649346832 -2.5000011921
47.7226219576 -4.0713437396 -2.5000011921
47.7977638601 -4.0791388795 -2.5000011921
47.8471111975 -4.0756961021 -2.5000011921
47.9096949471 -4.0791630711 -2.5000011921
47.9464657068 -4.0704082046 -2.5000011921
48.0094883572 -4.0752439470 -2.5000011921
48.0596929549 -4.0740967317 -2.5000011921
48.1606893858 -4.0734443376 -2.5000011921
48.2874949706 -4.0615134102 -2.5000011921
48.3388103284 -4.0633898394 -2.5000011921
48.3257471765 -4.0557420941 -2.5000011921
48.3772353443 -4.0580310204 -2.5000011921
48.8950640843 -4.3802587659 -2.5000011921
48.8585971737 -4.3524827087 -2.5000011921
48.6977793448 -4.2358996470 -2.5000011921
48.6726448180 -4.2185160326 -2.5000011921
48.6347512899 -4.1927201909 -2.5000011921
48.6220694256 -4.1841964328 -2.5000011921
48.0270680182 -3.8405669033 -2.5000011921
47.9996063088 -3.8271583613 -2.5000011921
47.9858458255 -3.8205150765 -2.5000011921
47.9720657505 -3.8139125268 -2.5000011921
49.1126205399 -4.5252828330 -2.5000011921
48.9582585313 -4.3988055920 -2.5000011921
48.9340832520 -4.3798780442 -2.5000011921
48.9219537248 -4.3704679892 -2.5000011921
47.9686145044 -3.7855047642 -2.5000011921
47.9129648079 -3.7595458916 -2.5000011921
47.8289240942 -3.7218467375 -2.5000011921
47.7725309455 -3.6975452031 -2.5000011921
49.3235170071 -4.6818709908 -2.5000011921
49.2897098638 -4.6502807771 -2.5000011921
49.2783786808 -4.6398175312 -2.5000011921
48.8506649361 -4.2861846437 -2.5000011921
48.8258252365 -4.2678956267 -2.5000011921
47.6678074431 -3.6284796054 -2.5000011921
47.6534606839 -3.6228187109 -2.5000011921
47.6247172418 -3.6116243664 -2.5000011921
49.4730985169 -4.7942051652 -2.5000011921
47.7054888674 -3.6175089218 -2.5000011921
47.6334231150 -3.5890734673 -2.5000011921
47.5026754380 -3.5405875369 -2.5000011921
49.6818196948 -4.9816839424 -2.5000011921
48.9908903718 -4.3322236995 -2.5000011921
47.4372589121 -3.4922681756 -2.5000011921
49.7513753716 -5.0244828332 -2.5000011921
49.9388696918 -5.2152971904 -2.5000011921
49.8901915501 -5.1536543980 -2.5000011921
49.8704658994 -5.1292000104 -2.5000011921
47.2129389050 -3.3714095845 -2.5000011921
47.0825980043 -3.3107911487 -2.5000011921
47.7368891745 -7.6321197700 -2.5000011921
47.7571943305 -7.6190035235 -2.5000011921
47.7469798036 -7.5175536730 -2.5000011921
48.4476210425 -9.6899377063 -2.5000011921
48.4555785400 -9.6677941943 -2.5000011921
48.4428714900 -7.8615471244 -2.5000011921
48.4421402197 -9.7721673426 -2.5000011921
48.4450578241 -9.7648098828 -2.5000011921
48.4479536509 -9.7574438243 -2.5000011921
48.4621052430 -9.7204868117 -2.5000011921
48.4526026573 -9.8107190133 -2.5000011921
48.4645977374 -9.7811113451 -2.5000011921
48.4251271462 -7.6893912539 -2.5000011921
48.3224137445 -7.4818882096 -2.5000011921
48.4431576785 -9.8939652843 -2.5000011921
48.4529259821 -9.8718533479 -2.5000011921
48.4749527732 -9.8199281175 -2.5000011921
48.4406643001 -7.6648893620 -2.5000011921
48.4517784284 -9.9334379275 -2.5000011921
48.4551730581 -9.9260512504 -2.5000011921
48.4388325222 -7.6033213353 -2.5000011921
48.4247096115 -7.5740311328 -2.5000011921
48.3036992969 -7.3530759569 -2.5000011921
48.4562201570 -10.0356829577 -2.5000011921
48.4511096041 -10.0984544794 -2.5000011921
48.4243062826 -7.4163677558 -2.5000011921
48.4447549269 -10.2102269030 -2.5000011921
48.4415540235 -7.3486249614 -2.5000011921
48.4614497973 -10.2296755785 -2.5000011921
48.4649328468 -10.2715554652 -2.5000011921
48.4392096918 -7.2503628419 -2.5000011921
48.4667044058 -10.4062905126 -2.5000011921
48.4502020767 -6.6147030667 -2.5000011921
47.4213429372 -4.0815107276 -2.5000011921
47.4074310164 -4.0771978698 -2.5000011921
47.3935063984 -4.0729261849 -2.5000011921
47.3656195577 -4.0645064827 -2.5000011921
47.0842001261 -3.9894376604 -2.5000011921
47.4982403674 -4.0807218163 -2.5000011921
47.4703978153 -4.0716823364 -2.5000011921
47.5615663969 -4.0764154342 -2.5000011921
47.5476387898 -4.0716877923 -2.5000011921
47.5693701986 -4.0535367113 -2.5000011921
47.6891573839 -4.0703401812 -2.5000011921
47.7812558799 -4.0792987909 -2.5000011921
47.7254811317 -4.0580360437 -2.5000011921
47.8318637005 -4.0732206170 -2.5000011921
47.8179254599 -4.0676934009 -2.5000011921
47.9477792230 -4.0685271702 -2.5000011921
47.8918653624 -4.0452947955 -2.5000011921
47.9851707508 -4.0581795891 -2.5000011921
48.0786254716 -4.0728911463 -2.5000011921
48.0507264329 -4.0604180503 -2.5000011921
48.0227540875 -4.0481102326 -2.5000011921
48.1025437208 -4.0571803402 -2.5000011921
48.1685584459 -4.0610153541 -2.5000011921
48.2347814590 -4.0657541054 -2.5000011921
48.3538769770 -4.0708518100 -2.5000011921
48.6945095981 -4.2320744600 -2.5000011921
48.5997083703 -4.1763561467 -2.5000011921
48.3788301871 -4.0564528732 -2.5000011921
48.1953484300 -3.9668137191 -2.5000011921
48.9854345523 -4.3909371789 -2.5000011921
48.9594013101 -4.3730935294 -2.5000011921
48.9332629545 -4.3554042137 -2.5000011921
48.8542263749 -4.3032684332 -2.5000011921
48.8409641841 -4.2947158768 -2.5000011921
48.8010266251 -4.2692941214 -2.5000011921
48.7876641649 -4.2608990881 -2.5000011921
48.7742769292 -4.2525436201 -2.5000011921
48.7608650350 -4.2442277906 -2.5000011921
48.6798824309 -4.1951692709 -2.5000011921
48.6663012261 -4.1871329283 -2.5000011921
48.5980418831 -4.1475557722 -2.5000011921
48.1048971788 -3.8993618741 -2.5000011921
47.9595346591 -3.8379523252 -2.5000011921
47.9448998938 -3.8320484647 -2.5000011921
47.9155782894 -3.8203707492 -2.5000011921
49.2044593700 -4.5199395584 -2.5000011921
48.6512237175 -4.1502867162 -2.5000011921
48.5824210540 -4.1109365926 -2.5000011921
47.7463186199 -3.7311808509 -2.5000011921
47.7164037243 -3.7206797743 -2.5000011921
47.6714162006 -3.7052604669 -2.5000011921
49.2569782795 -4.5298357095 -2.5000011921
47.6640584763 -3.6772850010 -2.5000011921
47.6489497208 -3.6722559154 -2.5000011921
47.6338261544 -3.6672715463 -2.5000011921
47.6035351187 -3.6574371314 -2.5000011921
49.7070469177 -4.8873388013 -2.5000011921
49.5902053644 -4.7781093577 -2.5000011921
47.5039878635 -3.6012696914 -2.5000011921
47.4117918963 -3.5746197260 -2.5000011921
47.3963805421 -3.5703373398 -2.5000011921
49.7812663631 -4.9260751970 -2.5000011921
49.2739145946 -4.4818112791 -2.5000011921
47.3563017339 -3.5344076432 -2.5000011921
47.3407716679 -3.5302895829 -2.5000011921
47.3252294879 -3.5262174813 -2.5000011921
47.3096753298 -3.5221913741 -2.5000011921
47.2629423493 -3.5103893693 -2.5000011921
49.9222705669 -5.0359548043 -2.5000011921
50.1028355317 -5.1997554053 -2.5000011921
49.6748061571 -4.7572471846 -2.5000011921
47.2430814097 -3.4557575226 -2.5000011921
47.1325170753 -3.4302586483 -2.5000011921
49.8323356227 -4.8745878368 -2.5000011921
46.8699882716 -3.3302248300 -2.5000011921
50.0816499649 -5.0661319017 -2.5000011921
46.8617047775 -3.2798415190 -2.5000011921
48.4336810229 -9.1003605621 -2.5000011921
48.4344122567 -9.0413612035 -2.5000011921
48.4340270360 -9.0020265178 -2.5000011921
48.4457126722 -9.8968953263 -2.5000011921
48.4390282247 -8.1726529348 -2.5000011921
48.4338377412 -8.1595285839 -2.5000011921
48.4631453945 -9.9188417073 -2.5000011921
48.4455692606 -8.1241515810 -2.5000011921
48.4803956170 -9.9410239318 -2.5000011921
48.4453136955 -8.0619526909 -2.5000011921
48.4263957155 -7.9099008836 -2.5000011921
48.4410906632 -7.8856901696 -2.5000011921
48.4369260328 -7.7771165743 -2.5000011921
48.4235570471 -7.6606566251 -2.5000011921
47.4927127395 -4.0626749660 -2.5000011921
44.9491283816 -4.0612491532 -2.5000011921
47.6608338545 -4.0835683503 -2.5000011921
47.5578272548 -4.0547592818 -2.5000011921
44.8545228073 -4.0612408252 -2.5000011921
44.8250705639 -4.0693955687 -2.5000011921
44.8103626635 -4.0735382485 -2.5000011921
47.7117500363 -4.0734166748 -2.5000011921
44.8185513287 -4.0461182223 -2.5000011921
44.7595191840 -4.0630285059 -2.5000011921
44.6713564602 -4.0897006246 -2.5000011921
44.6788805776 -4.0620511168 -2.5000011921
44.6347345412 -4.0759072345 -2.5000011921
44.6053729158 -4.0853620626 -2.5000011921
44.5978955243 -4.0623745899 -2.5000011921
47.9840291317 -4.0864676185 -2.5000011921
47.9546713669 -4.0761067101 -2.5000011921
47.9399696259 -4.0709914354 -2.5000011921
48.0215718783 -4.0742792353 -2.5000011921
48.0068644386 -4.0689660648 -2.5000011921
48.0887576192 -4.0733426571 -2.5000011921
48.1562168359 -4.0733034555 -2.5000011921
48.1120337250 -4.0562997215 -2.5000011921
48.3601161174 -4.0786325942 -2.5000011921
48.6894599439 -4.2069194871 -2.5000011921
48.6751419557 -4.1996300025 -2.5000011921
48.6320594875 -4.1780161246 -2.5000011921
49.1075746720 -4.4159505608 -2.5000011921
49.0663948988 -4.3904905667 -2.5000011921
49.0249908040 -4.3653970226 -2.5000011921
48.9833656485 -4.3406719047 -2.5000011921
48.9415227107 -4.3163171604 -2.5000011921
48.9135080552 -4.3002873757 -2.5000011921
48.8853990524 -4.2844236156 -2.5000011921
48.8147202411 -4.2454942030 -2.5000011921
48.7434733798 -4.2076144157 -2.5000011921
48.5993379742 -4.1350366325 -2.5000011921
48.0337164503 -3.8989047208 -2.5000011921
47.9879904723 -3.8829949766 -2.5000011921
47.9574288257 -3.8726141927 -2.5000011921
47.7330329930 -3.7773206797 -2.5000011921
47.6549799833 -3.7554906754 -2.5000011921
47.6393311133 -3.7512633448 -2.5000011921
49.3775145614 -4.5367044655 -2.5000011921
47.5035939260 -3.6918011897 -2.5000011921
49.7925713437 -4.8265227858 -2.5000011921
47.3816857623 -3.6392499051 -2.5000011921
47.3176599278 -3.6258604746 -2.5000011921
47.3385593068 -3.6054610862 -2.5000011921
47.3063670426 -3.5989274125 -2.5000011921
47.2257221979 -3.5834274759 -2.5000011921
48.9156648546 -4.1629443229 -2.5000011921
46.9399336224 -3.4895967244 -2.5000011921
46.8604723999 -3.4555135588 -2.5000011921
46.8632329834 -3.4314986788 -2.5000011921
48.4545810825 -8.2153271933 -2.5000011921
48.4407091674 -8.1409247121 -2.5000011921
48.4265719095 -8.0252562359 -2.5000011921
48.4292580661 -7.9421086176 -2.5000011921
48.4531186600 -7.8917825262 -2.5000011921
48.4271001194 -7.8151581682 -2.5000011921
48.4290687224 -7.7779387447 -2.5000011921
47.9229656399 -4.0801384896 -2.5000011921
45.1797333239 -4.0654523035 -2.5000011921
45.1337498100 -4.0775827931 -2.5000011921
48.0365677808 -4.0870235544 -2.5000011921
48.0212793156 -4.0825705750 -2.5000011921
47.9599957359 -4.0652114965 -2.5000011921
45.0967471307 -4.0625879655 -2.5000011921
45.0813992435 -4.0668316142 -2.5000011921
48.1199453690 -4.0868701887 -2.5000011921
45.0287489037 -4.0566038332 -2.5000011921
45.0133836119 -4.0610486591 -2.5000011921
48.2036569171 -4.0880581048 -2.5000011921
48.1424255009 -4.0685406656 -2.5000011921
44.9604102193 -4.0515054083 -2.5000011921
44.8989733415 -4.0703661296 -2.5000011921
48.2724019220 -4.0854012913 -2.5000011921
44.8763503404 -4.0521500548 -2.5000011921
44.8609725404 -4.0570457227 -2.5000011921
44.8456092899 -4.0619868596 -2.5000011921
44.8149269751 -4.0720053666 -2.5000011921
48.3567278085 -4.0890514566 -2.5000011921
44.7612413977 -4.0644843818 -2.5000011921
48.4107711006 -4.0828150060 -2.5000011921
48.3954685484 -4.0772550839 -2.5000011921
44.6919271673 -4.0629057793 -2.5000011921
49.0479728637 -4.3350273688 -2.5000011921
49.0188324000 -4.3201785030 -2.5000011921
49.0042293514 -4.3128187871 -2.5000011921
48.9602904730 -4.2909992790 -2.5000011921
48.9161596889 -4.2695705630 -2.5000011921
48.8570261329 -4.2416097531 -2.5000011921
48.8421913717 -4.2347290331 -2.5000011921
48.7527612810 -4.1943689882 -2.5000011921
48.6776985766 -4.1619524098 -2.5000011921
48.1868471151 -3.9811403126 -2.5000011921
48.1086925780 -3.9571171472 -2.5000011921
48.0301912778 -3.9342525454 -2.5000011921
44.5457648734 -4.0909327818 -2.5000011921
49.4030140538 -4.5058181858 -2.5000011921
49.3889584800 -4.4973211788 -2.5000011921
49.3466418067 -4.4720801501 -2.5000011921
49.1607435115 -4.3670782998 -2.5000011921
49.0297435845 -4.2986081220 -2.5000011921
48.7775289171 -4.1788937404 -2.5000011921
47.8621803923 -3.8645928403 -2.5000011921
47.7983287367 -3.8491315539 -2.5000011921
47.7342986060 -3.8344268724 -2.5000011921
47.7182642366 -3.8308691651 -2.5000011921
47.6700989652 -3.8204808545 -2.5000011921
47.6540236219 -3.8171131224 -2.5000011921
44.4911836339 -4.0861931885 -2.5000011921
49.6924086666 -4.6644897546 -2.5000011921
49.4717631597 -4.5197024358 -2.5000011921
47.6750905237 -3.7968288012 -2.5000011921
47.5294367565 -3.7681095708 -2.5000011921
44.4210756774 -4.0882146727 -2.5000011921
49.7197636705 -4.6540336093 -2.5000011921
47.3540420709 -3.7143836950 -2.5000011921
44.3660113420 -4.0847697778 -2.5000011921
48.9879651899 -4.1968952597 -2.5000011921
47.3247021179 -3.6856409503 -2.5000011921
47.2587706471 -3.6765518843 -2.5000011921
44.2954336791 -4.0884659787 -2.5000011921
50.2221494405 -4.9832746167 -2.5000011921
44.3319749751 -4.0466159720 -2.5000011921
47.0315896187 -3.6027442131 -2.5000011921
44.1994857330 -4.0778839127 -2.5000011921
44.1841870199 -4.0847817559 -2.5000011921
44.1689087788 -4.0917248254 -2.5000011921
44.0977101674 -4.0980760466 -2.5000011921
44.0568321970 -4.0907079268 -2.5000011921
43.9592625412 -4.0844487287 -2.5000011921
43.9439842991 -4.0920571669 -2.5000011921
43.9485188299 -4.0627944462 -2.5000011921
43.7886331582 -4.0904630317 -2.5000011921
43.7466952863 -4.0854411860 -2.5000011921
43.7314209101 -4.0936784323 -2.5000011921
43.6740512383 -4.0975043746 -2.5000011921
48.4324706781 -8.7285122179 -2.5000011921
48.4479876168 -8.4422904984 -2.5000011921
48.2405179733 -4.0989375676 -2.5000011921
48.1933981098 -4.0869158470 -2.5000011921
48.1776680095 -4.0830015911 -2.5000011921
45.9099184076 -4.0061995869 -2.5000011921
45.5925095838 -4.0719570406 -2.5000011921
48.3409223823 -4.1009486994 -2.5000011921
48.2938164127 -4.0880358668 -2.5000011921
45.9057168771 -3.9823944945 -2.5000011921
48.3631615378 -4.0820807284 -2.5000011921
48.3316582495 -4.0732944735 -2.5000011921
45.3283129445 -4.0915591902 -2.5000011921
48.7604296052 -4.1847984253 -2.5000011921
48.2428547128 -4.0246422646 -2.5000011921
48.0831887622 -3.9861628552 -2.5000011921
45.2428799820 -4.0917070713 -2.5000011921
48.9228563035 -4.2207598308 -2.5000011921
47.8622276606 -3.9164793115 -2.5000011921
45.2200577900 -4.0734200380 -2.5000011921
45.1728304143 -4.0882042119 -2.5000011921
45.1813025487 -4.0601711930 -2.5000011921
45.1182080468 -4.0804359885 -2.5000011921
48.7382372107 -4.0997923304 -2.5000011921
48.7068321458 -4.0887866918 -2.5000011921
47.4758254211 -3.8113129378 -2.5000011921
47.4427357095 -3.8077812002 -2.5000011921
45.0790879950 -4.0679220058 -2.5000011921
48.8873974007 -4.1290425846 -2.5000011921
44.9923814268 -4.0720703547 -2.5000011921
47.2470902792 -3.7424723475 -2.5000011921
47.1800919993 -3.7383160237 -2.5000011921
44.8339340433 -4.0785605648 -2.5000011921
44.7059890143 -4.0768897572 -2.5000011921
44.6902445139 -4.0832919320 -2.5000011921
44.6337887944 -4.0804804463 -2.5000011921
44.4730511477 -4.0976104304 -2.5000011921
44.3900748959 -4.0824097462 -2.5000011921
44.2591716172 -4.0913285938 -2.5000011921
44.1432742181 -4.0953391630 -2.5000011921
44.1007736850 -4.0900707996 -2.5000011921
43.9408771091 -4.0933710922 -2.5000011921
43.7953049638 -4.0922031637 -2.5000011921
43.7080128983 -4.0872895999 -2.5000011921
43.6201785863 -4.0837041205 -2.5000011921
43.4403593510 -4.1110022416 -2.5000011921
48.4435571984 -9.2216668726 -2.5000011921
48.4351662297 -9.1856748941 -2.5000011921
48.4479668435 -9.1397936872 -2.5000011921
48.4426930319 -9.1217104050 -2.5000011921
48.4371523384 -9.1037071026 -2.5000011921
48.4349254245 -9.0239409304 -2.5000011921
48.4445027079 -8.9826073739 -2.5000011921
48.4369044289 -8.9645925213 -2.5000011921
48.4396677243 -8.8065011980 -2.5000011921
48.4354027877 -8.7511975880 -2.5000011921
48.4560666687 -8.7386540915 -2.5000011921
48.4519163142 -8.6431850984 -2.5000011921
48.8512161104 -9.0564946704 -2.5000011921
48.8460045869 -9.0372561715 -2.5000011921
48.8410542268 -8.9390227760 -2.5000011921
48.8344534326 -8.9199127409 -2.5000011921
48.8545628698 -8.7733103242 -2.5000011921
48.8460003432 -8.7540520495 -2.5000011921
48.8545804130 -8.7150172914 -2.5000011921
48.9517932480 -4.1857970275 -2.5000011921
48.4751212332 -4.0534173123 -2.5000011921
46.0210223865 -4.0419974314 -2.5000011921
45.8925051461 -4.0719592222 -2.5000011921
45.8444993934 -4.0839777298 -2.5000011921
45.8125556297 -4.0922265452 -2.5000011921
49.2247441999 -4.2568385319 -2.5000011921
48.8486683397 -4.1280006216 -2.5000011921
48.7532943858 -4.0999878466 -2.5000011921
45.7904198971 -4.0730526943 -2.5000011921
45.7744098332 -4.0773135028 -2.5000011921
45.7424278683 -4.0859771082 -2.5000011921
50.1007369239 -4.6546749911 -2.5000011921
49.6610997047 -4.4186202424 -2.5000011921
