47.6323613678 0.3951729077 -2.4002625942
48.0679898432 0.4655495973 -2.4002625942
48.2270372719 0.4797643144 -2.4002625942
48.3274143536 0.5038574682 -2.4002625942
48.3435248441 0.4851305667 -2.4002625942
48.4270337058 0.5058630191 -2.4002625942
46.2388681327 -3.4282489969 -2.4002625942
46.3032122281 -3.4428636225 -2.4002625942
46.2011294057 -3.4441640560 -2.4002625942
46.2333746563 -3.4517895364 -2.4002625942
46.2656644574 -3.4592241096 -2.4002625942
46.0503508732 -3.4308435823 -2.4002625942
46.0825199543 -3.4393613522 -2.4002625942
46.0986232519 -3.4435488285 -2.4002625942
45.9796344209 -3.4365115127 -2.4002625942
46.0118382730 -3.4454475657 -2.4002625942
45.8924852204 -3.4365137282 -2.4002625942
45.8050035118 -3.4351227424 -2.4002625942
45.7011430787 -3.4270130308 -2.4002625942
45.6452037069 -3.4336510007 -2.4002625942
45.6935169539 -3.4499515901 -2.4002625942
45.8392979555 -3.4962720234 -2.4002625942
45.5568424029 -3.4282843199 -2.4002625942
45.4114798659 -3.4257413793 -2.4002625942
45.3866626945 -3.4420474964 -2.4002625942
45.4674167847 -3.4727996738 -2.4002625942
45.1821671677 -3.4368970928 -2.4002625942
45.1242952226 -3.4382028856 -2.4002625942
45.1403992859 -3.4452249690 -2.4002625942
44.9655769675 -3.4460421856 -2.4002625942
44.9817049153 -3.4535337520 -2.4002625942
44.9978549539 -3.4609775762 -2.4002625942
44.9069170928 -3.4450983695 -2.4002625942
44.9230425053 -3.4527634666 -2.4002625942
44.8480747030 -3.4435407752 -2.4002625942
44.7298675794 -3.4385710896 -2.4002625942
44.5236816704 -3.4388655476 -2.4002625942
44.5120625500 -3.4600629843 -2.4002625942
44.2706330861 -3.4334470141 -2.4002625942
44.2260439176 -3.4349078137 -2.4002625942
41.5705381125 -0.8084994258 -2.4002625942
41.5570619053 -0.8364556524 -2.4002625942
41.5739603561 -0.8716026349 -2.4002625942
41.5780368539 -0.9348656346 -2.4002625942
41.5739207073 -0.9807462813 -2.4002625942
41.5701407043 -1.0267780593 -2.4002625942
41.5452320365 -1.0840728531 -2.4002625942
41.5702312421 -1.1833297407 -2.4002625942
41.5757388267 -1.2942641266 -2.4002625942
41.5742870262 -1.3411617171 -2.4002625942
41.5823608042 -1.5001763426 -2.4002625942
41.6035558602 -1.5825718614 -2.4002625942
41.5935620738 -1.6126260709 -2.4002625942
41.5836946269 -1.6427706666 -2.4002625942
41.5945029686 -1.6602743427 -2.4002625942
41.5844350102 -1.9135214797 -2.4002625942
41.5950933899 -2.0590703649 -2.4002625942
41.5940783023 -2.3495400267 -2.4002625942
41.5975369766 -2.9408379283 -2.4002625942
41.2285438804 -3.0628807864 -2.4002625942
41.2586203596 -3.0999324257 -2.4002625942
41.3194283083 -3.1734986407 -2.4002625942
41.7856433682 -3.6845549814 -2.4002625942
41.8363352314 -3.7350971235 -2.4002625942
41.8533319478 -3.7518442882 -2.4002625942
41.9046183004 -3.8017830824 -2.4002625942
41.9390545413 -3.8348219064 -2.4002625942
41.9736856483 -3.8676564158 -2.4002625942
40.9623176870 -2.7551304718 -2.4002625942
40.9905780715 -2.7937625809 -2.4002625942
41.7853978792 -3.7185452326 -2.4002625942
42.0095719226 -3.9342600200 -2.4002625942
42.0979754252 -4.0149068353 -2.4002625942
42.1336691937 -4.0467979636 -2.4002625942
42.2237236018 -4.1255970225 -2.4002625942
42.2418737925 -4.1411965137 -2.4002625942
40.8729107012 -2.6717482306 -2.4002625942
42.2626920749 -4.1906825633 -2.4002625942
42.2810346299 -4.2061664939 -2.4002625942
42.2994229089 -4.2215960962 -2.4002625942
42.3178567509 -4.2369712352 -2.4002625942
42.3548604788 -4.2675575852 -2.4002625942
42.4107037481 -4.3130252870 -2.4002625942
40.6909662422 -2.4465992731 -2.4002625942
40.7981473033 -2.6066225419 -2.4002625942
42.5087468328 -4.4215444249 -2.4002625942
40.5926086217 -2.3377940290 -2.4002625942
40.6839535417 -2.4800136183 -2.4002625942
42.6866591307 -4.5860542055 -2.4002625942
40.4710747625 -2.1853464264 -2.4002625942
42.7509113293 -4.6622967237 -2.4002625942
42.8699426876 -4.7456434018 -2.4002625942
40.4133092086 -2.1349286744 -2.4002625942
42.4834119732 -4.4936690865 -2.4002625942
42.9164969577 -4.8065655560 -2.4002625942
40.3438302661 -2.0626449055 -2.4002625942
40.3924285878 -2.1471079583 -2.4002625942
43.0453680646 -4.9204576771 -2.4002625942
43.0864027951 -4.9467278638 -2.4002625942
40.1490398897 -1.7519242265 -2.4002625942
40.2053693143 -1.8603277419 -2.4002625942
43.2186852155 -5.0574132521 -2.4002625942
40.0186939648 -1.5977292261 -2.4002625942
48.4599834484 1.3162304946 -2.4893476963
45.7678309322 -3.4488172321 -2.4893476963
45.9766079602 -3.4934906837 -2.4893476963
48.2753554197 -3.4544490384 -2.4893476963
48.6561058997 -3.3527401388 -2.4893476963
45.5863489027 -3.4281145002 -2.4893476963
45.6182349954 -3.4365835076 -2.4893476963
45.8911541570 -3.5009192217 -2.4893476963
48.4090245614 -3.4469793904 -2.4893476963
48.6631693582 -3.3758581585 -2.4893476963
45.5161796939 -3.4338799587 -2.4893476963
45.6281297647 -3.4641465400 -2.4893476963
45.8052504292 -3.5070072069 -2.4893476963
47.6024942560 -3.6387486562 -2.4893476963
48.9768823742 -3.3212715823 -2.4893476963
45.1604977502 -3.4489186654 -2.4893476963
45.1044791857 -3.4548513203 -2.4893476963
44.5835546973 -3.4528398448 -2.4893476963
44.5094804960 -3.4453697362 -2.4893476963
44.3501027292 -3.4490809708 -2.4893476963
44.3981852658 -3.4726838670 -2.4893476963
44.2912916920 -3.4466081521 -2.4893476963
43.9110084591 -3.4605348059 -2.4893476963
41.6179493740 -1.7577766807 -2.4893476963
41.6263938556 -2.1412675678 -2.4893476963
41.3335473364 -3.1888471055 -2.4893476963
41.3487949311 -3.2056867936 -2.4893476963
41.3640922740 -3.2224813028 -2.4893476963
41.8120603946 -3.6737993261 -2.4893476963
41.8454660976 -3.7045939919 -2.4893476963
41.9128211488 -3.7655877177 -2.4893476963
41.9297723120 -3.7807112855 -2.4893476963
41.9467681393 -3.7957846426 -2.4893476963
41.9638084820 -3.8108076570 -2.4893476963
41.9808931909 -3.8257801973 -2.4893476963
42.0151951089 -3.8555733317 -2.4893476963
42.0324120179 -3.8703936651 -2.4893476963
42.0843247357 -3.9145481755 -2.4893476963
41.0061580961 -2.8400949140 -2.4893476963
42.1917695497 -4.0345723622 -2.4893476963
42.2273030616 -4.0631142270 -2.4893476963
42.2988735599 -4.1195647818 -2.4893476963
40.8612822813 -2.6924817485 -2.4893476963
40.9027878091 -2.7470757628 -2.4893476963
40.9447761937 -2.8012992890 -2.4893476963
42.3201635611 -4.1666270589 -2.4893476963
42.4112514989 -4.2356728546 -2.4893476963
42.4663909465 -4.2764509929 -2.4893476963
40.7067297798 -2.5218482366 -2.4893476963
40.8975959084 -2.7799633996 -2.4893476963
42.7184260477 -4.6853498327 -2.4893476963
48.4305690646 1.5790242103 -2.5027558514
48.4361118369 1.6202323313 -2.5027558514
48.4371926761 1.4769253474 -2.5027558543
48.4451495869 1.5183187939 -2.5027558543
48.4478805473 1.5338881391 -2.5027558543
48.4336050766 1.3578196554 -2.5027558572
48.4391155479 1.3784587283 -2.5027558572
48.4481698667 1.4147287793 -2.5027558572
48.4354374226 1.2787930268 -2.5027558600
48.4418828454 1.2994593133 -2.5027558600
48.4336728955 1.1988109240 -2.5027558629
48.4410648273 1.2194619310 -2.5027558629
48.4446879584 1.1593192857 -2.5027558658
48.4355798658 0.9068432826 -2.5027558773
48.4437377053 0.9223517810 -2.5027558773
45.3377326676 -3.4258801640 -2.5027562894
45.3688745880 -3.4338012762 -2.5027562894
45.4312962940 -3.4490900757 -2.5027562894
45.5723772313 -3.4807823520 -2.5027562894
45.7300603098 -3.5115771616 -2.5027562894
48.1180638798 -3.4069472693 -2.5027562894
48.1335608099 -3.4027062166 -2.5027562894
48.1490451264 -3.3984193397 -2.5027562894
48.1645166938 -3.3940866762 -2.5027562894
45.2692874973 -3.4328222833 -2.5027562923
45.3160821184 -3.4452419635 -2.5027562923
45.3943121631 -3.4650170399 -2.5027562923
48.2176128448 -3.4040231208 -2.5027562923
48.2485750489 -3.3949062772 -2.5027562923
45.2160934426 -3.4432673292 -2.5027562952
45.2473403603 -3.4519077956 -2.5027562952
45.2943052188 -3.4645214928 -2.5027562952
45.3099848191 -3.4686333770 -2.5027562952
48.2865162133 -3.4087335805 -2.5027562952
48.3329782464 -3.3943779971 -2.5027562952
45.1313494842 -3.4440393672 -2.5027562980
45.2252679110 -3.4709093443 -2.5027562980
48.3712560986 -3.4075993949 -2.5027562980
48.3867538500 -3.4026093510 -2.5027562980
45.0775122699 -3.4530992471 -2.5027563009
44.9764634665 -3.4465996396 -2.5027563038
44.9920914413 -3.4516518356 -2.5027563038
47.9906989351 -3.5643424368 -2.5027563038
48.6034690193 -3.3789763778 -2.5027563038
48.6342762854 -3.3675771179 -2.5027563038
48.6956857984 -3.3442328036 -2.5027563038
48.7872714171 -3.3078580220 -2.5027563038
48.8932851094 -3.2633744277 -2.5027563038
44.8907425683 -3.4435233968 -2.5027563067
44.9376470624 -3.4593020296 -2.5027563067
47.8031115028 -3.6307166727 -2.5027563067
47.8676927919 -3.6171886649 -2.5027563067
48.7658039532 -3.3426029775 -2.5027563067
48.7963931809 -3.3302439263 -2.5027563067
44.8359682753 -3.4501358962 -2.5027563096
44.8672624825 -3.4610251906 -2.5027563096
47.6940498460 -3.6763316510 -2.5027563096
47.7591785076 -3.6640909181 -2.5027563096
48.5889690589 -3.4356819227 -2.5027563096
49.0935319394 -3.2257193667 -2.5027563096
49.4751933256 -3.0262463700 -2.5027563096
44.7965925757 -3.4618206084 -2.5027563125
47.5013363935 -3.7323401645 -2.5027563125
47.5507011728 -3.7249398683 -2.5027563125
47.5671412650 -3.7223757857 -2.5027563125
49.3855401273 -3.1040510740 -2.5027563125
47.3557148495 -3.7759143033 -2.5027563153
47.4220455048 -3.7676699358 -2.5027563153
44.6231574666 -3.4484539975 -2.5027563182
44.6544454477 -3.4606023815 -2.5027563182
47.2250548634 -3.8141118349 -2.5027563182
49.7973911408 -2.9138741060 -2.5027563182
44.5517180984 -3.4460051304 -2.5027563211
44.5986579668 -3.4647923174 -2.5027563211
47.2105444416 -3.8397363124 -2.5027563211
47.4115770995 -3.8177636417 -2.5027563211
44.4956665920 -3.4491228024 -2.5027563240
44.5113041345 -3.4555972714 -2.5027563240
44.4393919071 -3.4516596903 -2.5027563269
44.4550372004 -3.4583006190 -2.5027563269
46.8417301189 -3.9097688417 -2.5027563269
44.3672688449 -3.4467577819 -2.5027563297
44.3418522874 -3.4619521030 -2.5027563326
44.2692881157 -3.4557488559 -2.5027563355
44.1965430832 -3.4485667795 -2.5027563384
44.2278391980 -3.4632391554 -2.5027563384
46.7060052449 -4.0083920334 -2.5027563384
44.1548793081 -3.4555046379 -2.5027563413
44.1862171988 -3.4704233893 -2.5027563413
44.0973913155 -3.4544810252 -2.5027563441
43.9818790998 -3.4506140679 -2.5027563499
43.7957641875 -3.4614238211 -2.5027563614
43.7527609241 -3.4653339813 -2.5027563643
43.6939369749 -3.4600738272 -2.5027563672
43.6506321121 -3.4632058308 -2.5027563701
43.6228770487 -3.4751126752 -2.5027563730
43.5635999964 -3.4684847498 -2.5027563758
43.5041998226 -3.4612212011 -2.5027563787
43.4603377102 -3.4629027804 -2.5027563816
43.4760205464 -3.4724398793 -2.5027563816
43.4320315661 -3.4739172086 -2.5027563845
43.3722227741 -3.4652612986 -2.5027563874
43.2391101702 -3.4662653933 -2.5027563960
43.0149135421 -3.4610874209 -2.5027564104
42.8947592900 -3.4650661226 -2.5027564191
41.6075975338 -2.9104542937 -2.5027564709
41.7915579064 -3.4684426769 -2.5027565026
41.3071384683 -3.1908062984 -2.5027565199
41.3519413572 -3.2383973589 -2.5027565199
41.8388706741 -3.7061153285 -2.5027565199
41.9213394871 -3.7772911711 -2.5027565199
48.4488202689 0.9784693157 -2.5006575584
48.4427721778 0.8202682837 -2.5006575584
48.4501091594 0.8387480710 -2.5006575584
48.4435112473 0.5892857766 -2.5006575584
45.1113381990 -3.4545355367 -2.5006575584
47.8345701203 -3.3962117454 -2.5006575584
44.9693524931 -3.4426910552 -2.5006575584
47.9012793367 -3.4015874813 -2.5006575584
47.9311762771 -3.3924046128 -2.5006575584
44.9629744926 -3.4660074956 -2.5006575584
47.9383421159 -3.4154911031 -2.5006575584
47.9832889496 -3.4013210513 -2.5006575584
47.9982430640 -3.3965091291 -2.5006575584
44.8201175401 -3.4500313806 -2.5006575584
48.1104273013 -3.3844311682 -2.5006575584
44.7374247117 -3.4496688170 -2.5006575584
48.1333115777 -3.4020608465 -2.5006575584
48.2461200909 -3.3869913447 -2.5006575584
44.4791271940 -3.4632225421 -2.5006575584
48.4516724538 -3.3840203296 -2.5006575584
48.4665733402 -3.3778229200 -2.5006575584
48.6687299886 -3.3151992428 -2.5006575584
48.6981023955 -3.3014773904 -2.5006575584
48.7420075032 -3.2805693820 -2.5006575584
48.7566010926 -3.2735135614 -2.5006575584
48.7857253351 -3.2592725636 -2.5006575584
48.8002557334 -3.2520875110 -2.5006575584
48.8147648134 -3.2448595063 -2.5006575584
47.8708276496 -3.6373189228 -2.5006575584
47.9645414700 -3.6097438176 -2.5006575584
48.0112111559 -3.5953336118 -2.5006575584
48.0267390724 -3.5904382418 -2.5006575584
48.8546570674 -3.2518314072 -2.5006575584
48.8691651518 -3.2444424746 -2.5006575584
48.8981154299 -3.2295360189 -2.5006575584
48.9125573704 -3.2220186262 -2.5006575584
47.7986419003 -3.6823696000 -2.5006575584
48.8801674284 -3.2659665354 -2.5006575584
49.0532754395 -3.1735691260 -2.5006575584
44.2164906621 -3.4637340140 -2.5006575584
48.7289909419 -3.3670892433 -2.5006575584
49.1079776629 -3.1705290259 -2.5006575584
49.1507045370 -3.1459887609 -2.5006575584
49.4023404936 -2.9908744687 -2.5006575584
49.4705809818 -2.9746742297 -2.5006575584
44.0610743049 -3.4488176818 -2.5006575584
49.7138989726 -2.8320366721 -2.5006575584
43.9652898182 -3.4579666183 -2.5006575584
43.8944205048 -3.4509866634 -2.5006575584
46.9961340732 -3.9814664760 -2.5006575584
43.7260412544 -3.4478549051 -2.5006575584
43.6582706461 -3.4669923448 -2.5006575584
46.6005135417 -4.1570154424 -2.5006575584
43.2017771229 -3.4562012661 -2.5006575584
48.4448621265 0.5103070265 -2.4989764690
48.4501981965 0.5242953739 -2.4989764690
48.4580468942 0.5453364763 -2.4989764690
48.5337900752 0.7882092796 -2.4989764690
48.4535897746 0.4664613191 -2.4989764690
48.4555916509 0.4081069584 -2.4989764690
48.5262685388 0.5933842994 -2.4989764690
48.4495353160 0.2232492363 -2.4989764690
48.4600556554 0.2442963108 -2.4989764690
48.4441563230 -0.0794199655 -2.4989764690
48.4447650540 -0.2520624723 -2.4989764690
44.8745267435 -3.4534752534 -2.4989764690
44.9033763674 -3.4605408364 -2.4989764690
44.9178167291 -3.4640095902 -2.4989764690
44.9756788911 -3.4774569837 -2.4989764690
47.0251852245 -3.5119741214 -2.4989764690
47.4728020277 -3.4049906682 -2.4989764690
44.7531881169 -3.4468276115 -2.4989764690
44.8108584987 -3.4622241700 -2.4989764690
44.8397609985 -3.4696662826 -2.4989764690
47.5081476183 -3.4198733992 -2.4989764690
47.5367523496 -3.4113581847 -2.4989764690
47.5653062015 -3.4026738840 -2.4989764690
44.6890552120 -3.4539904353 -2.4989764690
44.7612842960 -3.4740771918 -2.4989764690
44.5957241139 -3.4515985035 -2.4989764690
44.6679280291 -3.4730659248 -2.4989764690
47.7370986924 -3.3976274018 -2.4989764690
44.5164442688 -3.4520775787 -2.4989764690
44.4656707116 -3.4609272395 -2.4989764690
44.5380268282 -3.4843171804 -2.4989764690
44.3713005459 -3.4542574128 -2.4989764690
44.4001636047 -3.4643002373 -2.4989764690
47.9044143179 -3.4144634450 -2.4989764690
47.9472387829 -3.3981107655 -2.4989764690
44.2910595061 -3.4510907180 -2.4989764690
44.3199052339 -3.4616083308 -2.4989764690
44.3488126827 -3.4719550986 -2.4989764690
44.3777808405 -3.4821306590 -2.4989764690
44.2537946814 -3.4630387474 -2.4989764690
44.2971939812 -3.4790813564 -2.4989764690
48.0506881699 -3.4090400448 -2.4989764690
48.1076805867 -3.3854216962 -2.4989764690
44.1585494816 -3.4522833016 -2.4989764690
48.1313369284 -3.4016602580 -2.4989764690
48.1455889870 -3.3955803783 -2.4989764690
48.1740388364 -3.3832942718 -2.4989764690
48.2264216708 -3.3866271800 -2.4989764690
44.0394020676 -3.4559742022 -2.4989764690
44.1117315537 -3.4856693629 -2.4989764690
48.2790275546 -3.3894068452 -2.4989764690
48.2932427191 -3.3828901236 -2.4989764690
48.3033488525 -3.4048492071 -2.4989764690
43.9192845805 -3.4568006814 -2.4989764690
48.3991117786 -3.3864618609 -2.4989764690
43.8660967536 -3.4594123179 -2.4989764690
48.4665638555 -3.3803729446 -2.4989764690
48.6609067563 -3.3064121711 -2.4989764690
48.6748747367 -3.2987661448 -2.4989764690
48.6888200377 -3.2910788322 -2.4989764690
48.7166421133 -3.2755806173 -2.4989764690
48.7305186446 -3.2677698506 -2.4989764690
48.7443720095 -3.2599180688 -2.4989764690
48.8406867476 -3.2038129900 -2.4989764690
47.8995399549 -3.6737091402 -2.4989764690
47.9145977975 -3.6683137676 -2.4989764690
47.9746675885 -3.6462875527 -2.4989764690
47.9896439844 -3.6406700589 -2.4989764690
48.0493814286 -3.6177577980 -2.4989764690
48.0791474380 -3.6060369992 -2.4989764690
48.3000940080 -3.5125535188 -2.4989764690
48.8667947812 -3.2163593338 -2.4989764690
48.9214501778 -3.1830979214 -2.4989764690
49.0295612023 -3.1146467053 -2.4989764690
49.0429602928 -3.1059109715 -2.4989764690
49.0696806552 -3.0883207847 -2.4989764690
49.0962964805 -3.0705728190 -2.4989764690
49.1755074358 -3.0163884893 -2.4989764690
43.6908259508 -3.4568066729 -2.4989764690
47.6942919411 -3.7676290457 -2.4989764690
47.7096285138 -3.7628404229 -2.4989764690
47.7708311372 -3.7432328824 -2.4989764690
47.7860952068 -3.7382179495 -2.4989764690
49.1496701259 -3.0636080550 -2.4989764690
49.2156373847 -3.0177632941 -2.4989764690
49.2679184797 -2.9803881170 -2.4989764690
49.3455017884 -2.9231720144 -2.4989764690
49.3839095695 -2.8940498383 -2.4989764690
47.5466575776 -3.8362991703 -2.4989764690
47.5621979349 -3.8319469761 -2.4989764690
47.6706104430 -3.8001971402 -2.4989764690
43.5970344180 -3.4639729280 -2.4989764690
43.6114906482 -3.4713060625 -2.4989764690
47.3963651027 -3.9007541994 -2.4989764690
47.4278168427 -3.8928919116 -2.4989764690
47.2912350616 -3.9503875547 -2.4989764690
47.3071140306 -3.9467904474 -2.4989764690
47.1364928395 -4.0074994307 -2.4989764690
47.1525414328 -4.0043598289 -2.4989764690
47.3818294495 -3.9789377618 -2.4989764690
46.8725931048 -4.1253812194 -2.4989764690
47.4908973531 0.4555707415 -2.5006785393
48.4717242252 0.4161925485 -2.5006785393
48.4456915693 1.9423673190 -2.5006785393
48.4408775391 2.0344900361 -2.5006785393
48.4327900175 2.0574980151 -2.5006785393
48.4509959313 0.1222332759 -2.5006785393
48.4309493970 2.1973069285 -2.5006785393
48.4549903967 0.0669777615 -2.5006785393
48.4744659509 -0.1273531670 -2.5006785393
48.4500257827 -0.3312915668 -2.5006785393
48.4299168188 -0.9991258398 -2.5006785393
44.6913032588 -3.4529304789 -2.5006785393
44.7456667633 -3.4662517871 -2.5006785393
47.1799023010 -3.4031170435 -2.5006785393
44.5901839792 -3.4513907214 -2.5006785393
44.6445363435 -3.4659086277 -2.5006785393
47.2540397090 -3.4059521250 -2.5006785393
44.5157710111 -3.4555607130 -2.5006785393
44.5293555989 -3.4594705768 -2.5006785393
47.3151082661 -3.4119527289 -2.5006785393
44.4545554998 -3.4626588658 -2.5006785393
47.3765151699 -3.4171406737 -2.5006785393
47.4168497257 -3.4033636360 -2.5006785393
44.4338987865 -3.4816458692 -2.5006785393
47.4920491067 -3.4023291665 -2.5006785393
47.5541379826 -3.4051360027 -2.5006785393
47.6791923945 -3.4082313011 -2.5006785393
47.7060376949 -3.3972957908 -2.5006785393
47.7689813285 -3.3971988108 -2.5006785393
47.8822213207 -3.4004728151 -2.5006785393
48.0098215720 -3.3945953564 -2.5006785393
48.0739469538 -3.3903380859 -2.5006785393
48.2273888900 -3.3935538087 -2.5006785393
47.9155925534 -3.7025864132 -2.5006785393
47.9298930122 -3.6964379091 -2.5006785393
48.0011190446 -3.6650623309 -2.5006785393
48.0718732291 -3.6326367241 -2.5006785393
48.6849104699 -3.2947999628 -2.5006785393
48.8275168393 -3.2000369321 -2.5006785393
48.9544220173 -3.1099034257 -2.5006785393
49.1791063459 -2.9669524128 -2.5006785393
47.5830638364 -3.8830142681 -2.5006785393
47.4862358434 -3.9409411187 -2.5006785393
47.3421497704 -4.0104952047 -2.5006785393
47.5388586578 -3.9491023059 -2.5006785393
47.1953800620 -4.0759468440 -2.5006785393
50.1626993906 -2.1989849969 -2.5006785393
47.5014315281 0.4185083216 -2.4996461868
47.5070102725 0.3367861697 -2.4996461868
47.5339599193 0.4575791372 -2.4996461868
47.4934447176 0.2050520912 -2.4996461868
47.4832004822 0.1051599678 -2.4996461868
47.5448983925 0.2912837560 -2.4996461868
47.5393351471 0.1898399379 -2.4996461868
47.4725190825 -0.1499314306 -2.4996461868
47.4967310260 -0.1558661293 -2.4996461868
48.4421310725 -0.2295479817 -2.4996461868
48.4601639056 -0.1800963450 -2.4996461868
48.4464454422 1.8402342912 -2.4996461868
48.4372032483 1.8648768834 -2.4996461868
48.4358453418 -0.3121880955 -2.4996461868
48.4424428130 -0.2957756181 -2.4996461868
48.4489430671 -0.2793243951 -2.4996461868
48.4616510170 -0.2463080170 -2.4996461868
48.4647668923 -0.2380306078 -2.4996461868
48.4597989014 1.8734659314 -2.4996461868
48.4534648902 1.8899818736 -2.4996461868
48.4271550837 1.9556622489 -2.4996461868
48.4494868080 1.9649158629 -2.4996461868
48.4492205704 -0.4641898106 -2.4996461868
48.4529810339 -0.4559482196 -2.4996461868
48.4431885295 2.0995494750 -2.4996461868
48.4355172229 2.1159631877 -2.4996461868
48.4277489415 2.1323312272 -2.4996461868
48.4319511632 -0.5566926515 -2.4996461868
48.4371140979 -0.6003041271 -2.4996461868
48.4593436180 2.1780407182 -2.4996461868
48.4429741541 2.2110081300 -2.4996461868
48.4476724804 2.2549125578 -2.4996461868
48.4410420494 -0.6966727085 -2.4996461868
48.4543136948 -0.6719781685 -2.4996461868
48.4441104163 -0.7412020442 -2.4996461868
48.4641213091 2.3270953721 -2.4996461868
48.4274649828 2.3929055151 -2.4996461868
48.4465107142 -0.7860134537 -2.4996461868
48.4389643195 2.4213568035 -2.4996461868
48.4433665154 -0.8393232419 -2.4996461868
48.4542623187 -0.8682003687 -2.4996461868
48.4445023642 -0.9302731611 -2.4996461868
48.4258486291 2.5819701291 -2.4996461868
48.4649869066 -0.9431074435 -2.4996461868
48.4643651159 -0.9891902797 -2.4996461868
48.4684924017 -1.0272172090 -2.4996461868
47.0070983634 -3.4214015455 -2.4996461868
47.0695524387 -3.4010895065 -2.4996461868
47.0820068192 -3.3969163732 -2.4996461868
47.1022305004 -3.4155926657 -2.4996461868
47.1272120958 -3.4070159868 -2.4996461868
47.1852075382 -3.4121645201 -2.4996461868
47.2226271031 -3.3985078746 -2.4996461868
47.2685130475 -3.4071153423 -2.4996461868
47.2809843830 -3.4023536212 -2.4996461868
47.3271689192 -3.4103398378 -2.4996461868
47.3645667008 -3.3954234366 -2.4996461868
47.3986118892 -3.4076540421 -2.4996461868
47.4235413299 -3.3973240103 -2.4996461868
47.4827975807 -3.3984148001 -2.4996461868
47.5048907448 -3.4151831966 -2.4996461868
47.5423245101 -3.3986894231 -2.4996461868
47.6021110634 -3.3981416426 -2.4996461868
47.6621460766 -3.3967653697 -2.4996461868
47.8672361818 -3.4025677288 -2.4996461868
48.0014303475 -3.4127357306 -2.4996461868
48.0263793029 -3.3988391335 -2.4996461868
48.0631953337 -3.4058080087 -2.4996461868
48.1623022581 -3.4041763741 -2.4996461868
48.2245709837 -3.3949831033 -2.4996461868
48.2620989656 -3.4003421344 -2.4996461868
48.3625382613 -3.3942804306 -2.4996461868
48.0657794771 -3.6529821084 -2.4996461868
48.0789746427 -3.6458608532 -2.4996461868
48.1053014873 -3.6315013978 -2.4996461868
48.1184329361 -3.6242633234 -2.4996461868
48.1576980098 -3.6023164738 -2.4996461868
48.1967667713 -3.5800220330 -2.4996461868
48.2743030657 -3.5343974283 -2.4996461868
48.6612828882 -3.2771972888 -2.4996461868
48.6733638087 -3.2683160710 -2.4996461868
48.6854184041 -3.2593991546 -2.4996461868
48.7333714282 -3.2233760671 -2.4996461868
48.7452928204 -3.2142818339 -2.4996461868
48.7808948535 -3.1867880990 -2.4996461868
48.7927078039 -3.1775534430 -2.4996461868
48.8162514931 -3.1589794988 -2.4996461868
48.8396848806 -3.1402665872 -2.4996461868
48.8630071462 -3.1214153634 -2.4996461868
47.8350866936 -3.7962947889 -2.4996461868
47.8623078244 -3.7833756238 -2.4996461868
47.8894520447 -3.7702956354 -2.4996461868
47.9435059558 -3.7436550258 -2.4996461868
47.9569698832 -3.7368950811 -2.4996461868
48.0239863293 -3.7024995653 -2.4996461868
48.0373281593 -3.6955017251 -2.4996461868
48.0506492300 -3.6884644480 -2.4996461868
48.0772286276 -3.6742718297 -2.4996461868
48.9131974324 -3.1114991916 -2.4996461868
48.9593844896 -3.0727912707 -2.4996461868
49.0277982406 -3.0137114847 -2.4996461868
49.0390981187 -3.0037472011 -2.4996461868
49.0616091997 -2.9837185709 -2.4996461868
49.1173650444 -2.9330673979 -2.4996461868
47.6936213070 -3.8866479749 -2.4996461868
47.7490656624 -3.8623163802 -2.4996461868
47.7766789047 -3.8499049889 -2.4996461868
49.0095216762 -3.0616985051 -2.4996461868
49.2758229500 -2.8146975884 -2.4996461868
49.3078580056 -2.7825114313 -2.4996461868
47.7310935002 -3.8966995181 -2.4996461868
49.0253209098 -3.0799938461 -2.4996461868
49.2712637139 -2.8532256581 -2.4996461868
49.4405981685 -2.6785011973 -2.4996461868
49.4509046278 -2.6673172435 -2.4996461868
47.4288036573 -4.0438152793 -2.4996461868
47.4431577651 -4.0385766038 -2.4996461868
47.4718191759 -4.0279719814 -2.4996461868
49.6297960841 -2.4997960898 -2.4996461868
47.1890118100 -4.2001858150 -2.4996461868
50.0109231251 -2.1127870535 -2.4996461868
47.0013537486 -4.2784520176 -2.4996461868
50.1159507071 -1.9958630946 -2.4996461868
46.9620647736 -4.3135444953 -2.4996461868
47.4997351944 -0.0673867067 -2.5001611710
47.4969384613 -0.2378109819 -2.5001611710
47.6034115920 0.0585777041 -2.5001611710
47.5829491509 -0.1288320716 -2.5001611710
48.4391024686 -0.4700307028 -2.5001611710
48.4445550588 -0.4529027634 -2.5001611710
48.4428525345 1.3785711315 -2.5001611710
48.4317825065 1.4127739291 -2.5001611710
48.4420764785 -0.5375939295 -2.5001611710
48.4431712416 1.4546939912 -2.5001611710
48.4372364429 1.4718123169 -2.5001611710
48.4433016791 -0.6742400883 -2.5001611710
48.4378033568 1.6084627924 -2.5001611710
48.4691790645 -0.6744154466 -2.5001611710
48.4392711117 1.6689123262 -2.5001611710
48.4564170913 -0.8310208250 -2.5001611710
48.4643794262 1.7925007312 -2.5001611710
48.4524405943 1.8183398861 -2.5001611710
48.4443541822 1.8355066880 -2.5001611710
48.4687632174 -0.9201598253 -2.5001611710
48.4368733631 1.9060230969 -2.5001611710
48.4568891337 -0.9997552448 -2.5001611710
48.4410516482 1.9511889150 -2.5001611710
48.4653282735 -1.0365536281 -2.5001611710
48.4697429980 -1.0279136314 -2.5001611710
48.4659191731 2.0079786888 -2.5001611710
48.4639615326 -1.1918396195 -2.5001611710
48.4566201019 2.2666036425 -2.5001611710
48.4554263532 2.3138992094 -2.5001611710
48.4444079934 2.3310750030 -2.5001611710
48.4487456394 -1.4920564353 -2.5001611710
48.4609336666 -1.6020695852 -2.5001611710
45.7514246795 -3.4186905308 -2.5001611710
45.7743695703 -3.4174121893 -2.5001611710
45.7973064964 -3.4159981205 -2.5001611710
46.6162986128 -3.4245965818 -2.5001611710
46.6621897664 -3.4116701679 -2.5001611710
46.6965059996 -3.4016195022 -2.5001611710
46.7607364241 -3.4072565019 -2.5001611710
46.7564616384 -3.4339154289 -2.5001611710
46.8368319303 -3.4080341617 -2.5001611710
46.8057227153 -3.4690679652 -2.5001611710
46.8481222427 -3.4806952483 -2.5001611710
46.9258457174 -3.4797947845 -2.5001611710
47.1335831970 -3.4008164392 -2.5001611710
47.1886094338 -3.4040191348 -2.5001611710
47.2439323035 -3.4064571044 -2.5001611710
47.5471287784 -3.4225729074 -2.5001611710
47.6501212374 -3.4228328961 -2.5001611710
47.7768926685 -3.4073482725 -2.5001611710
47.8815061419 -3.4017170080 -2.5001611710
47.9054871643 -3.4154432108 -2.5001611710
48.0442986739 -3.6987353229 -2.5001611710
48.0933335958 -3.6688929576 -2.5001611710
48.1298761806 -3.6461315642 -2.5001611710
48.6630426269 -3.2577643497 -2.5001611710
48.8036806881 -3.1352066561 -2.5001611710
48.8248949735 -3.1158751045 -2.5001611710
48.8354591338 -3.1061623466 -2.5001611710
48.8565010272 -3.0866432914 -2.5001611710
48.8774270710 -3.0670000868 -2.5001611710
47.8434703876 -3.8403430746 -2.5001611710
47.9445908277 -3.7847928314 -2.5001611710
48.2396725234 -3.6040094651 -2.5001611710
48.8518462222 -3.1239330701 -2.5001611710
48.9871992886 -2.9942154072 -2.5001611710
47.6739439311 -3.9535188881 -2.5001611710
47.7000193988 -3.9408569167 -2.5001611710
47.7130289263 -3.9344681345 -2.5001611710
49.2034742263 -2.8008340899 -2.5001611710
47.5656074849 -4.0306273399 -2.5001611710
47.5921410481 -4.0186049738 -2.5001611710
49.3447914769 -2.6732197214 -2.5001611710
49.4816755223 -2.5395382232 -2.5001611710
47.2391458907 -4.2407002413 -2.5001611710
49.8932052582 -2.0524255603 -2.5001611710
54.8501534865 1.3660678502 -2.5001611710
47.4883091492 -0.3758484480 -2.4999349117
47.5184750620 -0.2213586170 -2.4999349117
47.5391714535 -0.0287598244 -2.4999349117
47.5045954433 -0.4111565919 -2.4999349117
47.5212374141 -0.3395431295 -2.4999349117
47.5485163880 -0.1826305198 -2.4999349117
47.5871961476 0.2223432033 -2.4999349117
47.6100826760 0.2425999878 -2.4999349117
47.6130328388 -0.2424913883 -2.4999349117
47.7076800660 -0.0454024829 -2.4999349117
48.4378574320 1.0264463601 -2.4999349117
48.4322857973 1.0438365461 -2.4999349117
48.4542227897 -0.8677289348 -2.4999349117
48.4598574457 -0.8502087746 -2.4999349117
48.4681148308 -0.8238667952 -2.4999349117
48.4771218229 0.9809795373 -2.4999349117
48.4317892492 1.1210442282 -2.4999349117
48.4503714855 -0.9542228509 -2.4999349117
48.4565179360 -0.9367239626 -2.4999349117
48.4636791322 1.1027309254 -2.4999349117
48.4292704975 1.1987562032 -2.4999349117
48.4539487451 -1.0149784918 -2.4999349117
48.4604545838 -0.9974573759 -2.4999349117
48.4616595526 1.1810015673 -2.4999349117
48.4562930437 -1.0761884694 -2.4999349117
48.4400107385 1.3034163757 -2.4999349117
48.4328004185 1.3208144540 -2.4999349117
48.4500531643 -1.1553285560 -2.4999349117
48.4537342392 -1.1465837192 -2.4999349117
48.4573894293 -1.1378280313 -2.4999349117
48.4610187024 -1.1290615690 -2.4999349117
48.4326884714 1.3824636642 -2.4999349117
48.4509683634 1.4009266484 -2.4999349117
48.4470875691 1.4096630079 -2.4999349117
48.4436334219 -1.2885102345 -2.4999349117
48.4477085004 -1.2797838056 -2.4999349117
48.4572790758 1.4458441739 -2.4999349117
48.4410691483 1.4807917235 -2.4999349117
48.4577281020 -1.3706752913 -2.4999349117
48.4464533614 -1.4978235312 -2.4999349117
48.4387652322 1.6988228893 -2.4999349117
48.4292155763 1.7162066784 -2.4999349117
48.4357461427 1.7540642829 -2.4999349117
48.4499712296 -1.5911494683 -2.4999349117
48.4520247847 1.9166265709 -2.4999349117
48.4485963414 -1.7808537610 -2.4999349117
48.4395467855 1.9818601527 -2.4999349117
48.4485913768 2.0124159639 -2.4999349117
46.3629218503 -3.4194570662 -2.4999349117
46.4147836912 -3.4062469584 -2.4999349117
46.3791725225 -3.4403277307 -2.4999349117
46.4000638538 -3.4350392400 -2.4999349117
46.4209235310 -3.4296272417 -2.4999349117
46.5002952250 -3.4329635400 -2.4999349117
46.5211408674 -3.4269585756 -2.4999349117
46.5627237472 -3.4145791871 -2.4999349117
46.5834595290 -3.4082051964 -2.4999349117
46.6144915873 -3.3984144656 -2.4999349117
46.6010523497 -3.4280358275 -2.4999349117
46.6426423817 -3.4147108138 -2.4999349117
46.6840718344 -3.4008946204 -2.4999349117
46.6944034268 -3.3973640504 -2.4999349117
46.6082915117 -3.4510994312 -2.4999349117
46.7230207413 -3.4130271729 -2.4999349117
46.8245192843 -3.4017090569 -2.4999349117
46.7494943463 -3.4549656326 -2.4999349117
46.7704657991 -3.4474859374 -2.4999349117
46.8953319263 -3.4000144248 -2.4999349117
46.9250982162 -3.4140584717 -2.4999349117
46.9458245751 -3.4055405610 -2.4999349117
46.9561687658 -3.4012356587 -2.4999349117
46.9862713101 -3.4147823792 -2.4999349117
48.4401210678 -2.3651681987 -2.4999349117
47.1199617344 -3.4082898791 -2.4999349117
47.2864115526 -3.4078197278 -2.4999349117
47.3596572310 -3.3968101041 -2.4999349117
47.4124634194 -3.3956977813 -2.4999349117
47.4773912416 -3.4148689830 -2.4999349117
47.6488758527 -3.3978114512 -2.4999349117
47.7366039832 -3.3997401838 -2.4999349117
47.7704037794 -3.4066901875 -2.4999349117
47.8250706378 -3.3996418828 -2.4999349117
48.1149807802 3.4055648033 -2.4999349117
47.8935355899 -3.4117385596 -2.4999349117
47.9038939687 -3.4046301296 -2.4999349117
47.9937154900 -3.4006680207 -2.4999349117
48.6510738709 3.2174029428 -2.4999349117
48.6325360696 3.2360162435 -2.4999349117
48.6232259539 3.2452816838 -2.4999349117
48.6045237000 3.2637297389 -2.4999349117
48.7143614251 3.1871441885 -2.4999349117
48.1624171796 -3.6366426392 -2.4999349117
48.1954143149 -3.6128305494 -2.4999349117
47.9500673948 -3.8082557985 -2.4999349117
48.0075061113 -3.7715286663 -2.4999349117
48.0303284401 -3.7566006106 -2.4999349117
48.0417063847 -3.7490860137 -2.4999349117
48.0757061453 -3.7263407367 -2.4999349117
48.1095027154 -3.7032946266 -2.4999349117
48.1207226249 -3.6955460511 -2.4999349117
48.7773201249 -3.1435584644 -2.4999349117
48.7964136979 -3.1240869211 -2.4999349117
48.9176762926 -2.9948075286 -2.4999349117
47.8340287224 -3.9069092605 -2.4999349117
47.8458521661 -3.8999746960 -2.4999349117
47.9396907070 -3.8432453020 -2.4999349117
49.0786496151 -2.8447745349 -2.4999349117
47.7020313962 -4.0086656244 -2.4999349117
47.8104489666 -3.9484794422 -2.4999349117
49.0885885208 -2.8707440479 -2.4999349117
49.2248088907 -2.6974353053 -2.4999349117
47.6152883031 -4.0812790140 -2.4999349117
47.6522528820 -4.0623048770 -2.4999349117
47.2769657787 -4.3147711075 -2.4999349117
47.2466324658 -4.3528968192 -2.4999349117
52.9817505564 0.0892715689 -2.4999349117
53.5860540029 0.1128699765 -2.4999349117
55.4954003838 0.1766256001 -2.4999349117
47.5313570121 -0.1460416240 -2.5000250340
47.5242263368 -0.0625740352 -2.5000250340
47.4913486269 0.1441786758 -2.5000250340
47.5015270761 0.2082429004 -2.5000250340
47.5632313951 0.0154978450 -2.5000250340
47.5411505912 0.1422378258 -2.5000250340
47.4842272877 0.4332752761 -2.5000250340
47.4848645279 0.5001354652 -2.5000250340
48.4441185931 -1.1621872227 -2.5000250340
48.4618298066 -1.1012991892 -2.5000250340
48.4603149786 0.5537741986 -2.5000250340
48.4578460953 0.5624902483 -2.5000250340
48.4477130531 0.5972802700 -2.5000250340
48.4509489477 -1.2214768734 -2.5000250340
48.4646046962 -1.1779151456 -2.5000250340
48.4435399119 0.6912887425 -2.5000250340
48.4444953164 -1.3160492274 -2.5000250340
48.4475577782 -1.3073717939 -2.5000250340
48.4595505326 -1.2725726066 -2.5000250340
48.4653922876 -1.2551204073 -2.5000250340
48.4711306872 -1.2376339517 -2.5000250340
48.4517454093 0.7424495773 -2.5000250340
48.4487184276 0.7511394512 -2.5000250340
48.4394834318 0.7771548147 -2.5000250340
48.4482188949 -1.3764018198 -2.5000250340
48.4514598743 -1.3677131071 -2.5000250340
48.4578646541 -1.3503071098 -2.5000250340
48.4610283984 -1.3415899774 -2.5000250340
48.4672784575 -1.3241278266 -2.5000250340
48.4590737133 0.7940631172 -2.5000250340
48.4526885657 0.8114763259 -2.5000250340
48.4429179576 0.8375245461 -2.5000250340
48.4362759603 0.8548414113 -2.5000250340
48.4437978288 -1.4545735939 -2.5000250340
48.4520237006 0.8809754202 -2.5000250340
48.4345832495 0.9243230700 -2.5000250340
48.4335782957 -1.5417932109 -2.5000250340
48.4424187935 0.9682648595 -2.5000250340
48.4426944441 -1.6394928458 -2.5000250340
48.4361337079 1.1005861007 -2.5000250340
48.4355453252 -1.7105168253 -2.5000250340
48.4481566666 -1.6845214291 -2.5000250340
48.4497426117 1.1282881713 -2.5000250340
48.4329153529 1.1629426996 -2.5000250340
48.4443101714 -1.7472389925 -2.5000250340
48.4486481713 -1.7385602199 -2.5000250340
48.4615078662 -1.7124474390 -2.5000250340
48.4363428101 1.2626924908 -2.5000250340
48.4420781960 -1.8562544306 -2.5000250340
48.4391814364 1.3086920193 -2.5000250340
48.4297734323 -1.9284837553 -2.5000250340
48.4378292453 1.4101850749 -2.5000250340
46.8609567078 -3.3985277425 -2.5000250340
48.4365076002 -2.0132208849 -2.5000250340
48.4416324568 -2.0045640300 -2.5000250340
46.8891192514 -3.4126310829 -2.5000250340
46.9076497962 -3.4044326279 -2.5000250340
46.9168967982 -3.4002923238 -2.5000250340
46.9824186790 -3.3967461920 -2.5000250340
46.8802695557 -3.4691633913 -2.5000250340
47.0390311979 -3.3963803796 -2.5000250340
48.4251631498 1.7032410885 -2.5000250340
47.2987647588 -3.3953941781 -2.5000250340
48.4469512425 -2.5548996909 -2.5000250340
47.5779297488 -3.3935415495 -2.5000250340
47.7434892734 -3.3969387723 -2.5000250340
47.5164462249 3.4129884719 -2.5000250340
48.1631299057 -3.6563250357 -2.5000250340
48.6496953555 -3.2103126335 -2.5000250340
48.6927450142 -3.1635938232 -2.5000250340
48.0453992373 -3.7753095399 -2.5000250340
48.0866219311 -3.7450961088 -2.5000250340
48.1274842398 -3.7143970267 -2.5000250340
48.1376428352 -3.7066468754 -2.5000250340
48.2379508276 -3.6275057448 -2.5000250340
48.2675821513 -3.6031884006 -2.5000250340
48.7616684011 -3.1226269023 -2.5000250340
48.8034089059 -3.0742615587 -2.5000250340
48.8116709073 -3.0645147009 -2.5000250340
48.8199040397 -3.0547434452 -2.5000250340
48.8606341518 -3.0055241994 -2.5000250340
48.8767216108 -2.9856687252 -2.5000250340
48.9006318371 -2.9557079232 -2.5000250340
47.9009953806 -3.9044038335 -2.5000250340
47.9117170415 -3.8973228459 -2.5000250340
47.9330972883 -3.8830658760 -2.5000250340
48.9746485346 -2.8995814025 -2.5000250340
49.0581571987 -2.7855595751 -2.5000250340
47.8053336632 -3.9940324714 -2.5000250340
49.0704097215 -2.8100590479 -2.5000250340
49.1221071969 -2.7358498607 -2.5000250340
47.6385766942 -4.1194951465 -2.5000250340
49.2344795544 -2.6080929510 -2.5000250340
48.8345493763 3.0911242338 -2.5000250340
48.7641085999 3.1591845948 -2.5000250340
48.7437252607 3.1783610988 -2.5000250340
48.7232288236 3.1974166724 -2.5000250340
48.7026200060 3.2163506488 -2.5000250340
48.2108126568 3.6088376407 -2.5000250340
48.1064277857 3.6792868370 -2.5000250340
49.0079317022 2.9465704080 -2.5000250340
48.9501782181 3.0080973672 -2.5000250340
48.9208942401 3.0384740291 -2.5000250340
48.6666468075 3.2812376425 -2.5000250340
48.6030073457 3.3366547023 -2.5000250340
48.1079096022 3.7071964277 -2.5000250340
48.0367981549 3.7526298263 -2.5000250340
47.8310729083 3.8744191367 -2.5000250340
47.8064743310 3.8880629704 -2.5000250340
49.1841002927 2.7822686382 -2.5000250340
49.1384589026 2.8362360131 -2.5000250340
49.3267889290 2.6423289505 -2.5000250340
49.3181379318 2.6535990486 -2.5000250340
49.0144411363 3.0105498142 -2.5000250340
49.4310738575 2.5423559220 -2.5000250340
49.0320659708 3.0270937100 -2.5000250340
48.8820619863 3.1799563512 -2.5000250340
48.0022950606 3.8589228264 -2.5000250340
47.8038482925 3.9720842118 -2.5000250340
49.5567028650 2.4029725076 -2.5000250340
49.5487589215 2.4149237799 -2.5000250340
52.9497523444 -0.3686601653 -2.5000250340
54.0603490049 -0.4583073568 -2.5000250340
55.5118964300 -0.4004235913 -2.5000250340
55.4878712810 0.4272828951 -2.5000250340
55.4468357559 0.8690725744 -2.5000250340
47.4737461828 -0.3240603643 -2.5000011921
47.4881463002 -0.1580289196 -2.5000011921
47.4858602104 0.1526657474 -2.5000011921
47.5375233720 0.0879742574 -2.5000011921
47.4785362392 0.2293015894 -2.5000011921
47.4707599454 0.2459570004 -2.5000011921
47.6205748965 0.0716848183 -2.5000011921
48.4484496148 -1.6176586821 -2.5000011921
48.4699415318 0.2754705507 -2.5000011921
48.4416487019 0.3600185344 -2.5000011921
48.4471538867 -1.6932288711 -2.5000011921
48.4533434937 -1.6763532729 -2.5000011921
48.4429984739 0.4271663731 -2.5000011921
48.4519900284 0.6581233538 -2.5000011921
48.4516565565 -1.9934414795 -2.5000011921
48.4422710856 0.7358145003 -2.5000011921
48.4529872499 -2.0461904931 -2.5000011921
48.4571386325 -2.0377384711 -2.5000011921
48.4390046479 0.7969821999 -2.5000011921
48.4403021524 -2.1245561598 -2.5000011921
48.4636133788 0.9065219116 -2.5000011921
48.4453423378 -2.3146065323 -2.5000011921
48.4552082555 -2.2977307768 -2.5000011921
48.4510793188 -2.3522561839 -2.5000011921
48.4644633916 -2.5998624699 -2.5000011921
46.6184908529 2.9837176297 -2.5000011921
48.1941393315 -3.6564306694 -2.5000011921
48.6411098917 -3.2050420169 -2.5000011921
48.1464784492 -3.7281883162 -2.5000011921
48.8210266124 -3.0160456533 -2.5000011921
48.8350359044 -2.9969349471 -2.5000011921
48.8489318858 -2.9777416916 -2.5000011921
48.8899351227 -2.9196733627 -2.5000011921
47.9832043887 -3.8859603087 -2.5000011921
48.8961695072 -2.9529950664 -2.5000011921
48.9165784866 -2.9236336410 -2.5000011921
48.9631802606 -2.8544278194 -2.5000011921
46.7790698885 3.4154709938 -2.5000011921
46.7616882224 3.4456358963 -2.5000011921
46.9373705429 3.4169032507 -2.5000011921
46.9253677376 3.4208479010 -2.5000011921
46.8047181594 3.4583350580 -2.5000011921
47.2464851718 3.4059948217 -2.5000011921
47.2105266455 3.4204658159 -2.5000011921
47.0613301012 3.5022568049 -2.5000011921
47.5229274048 3.4161823367 -2.5000011921
47.6401001315 3.4126657012 -2.5000011921
47.6281067870 3.4186891713 -2.5000011921
47.9610440971 3.4311548446 -2.5000011921
48.0819455830 3.4153182596 -2.5000011921
48.6167705638 3.2815313013 -2.5000011921
48.9142909629 3.0657700667 -2.5000011921
48.8923165583 3.0853261142 -2.5000011921
48.8702268382 3.1047518115 -2.5000011921
48.6431593515 3.2916922191 -2.5000011921
48.1199607296 3.6462574004 -2.5000011921
48.0818356114 3.6684705390 -2.5000011921
48.0563099978 3.6830909528 -2.5000011921
48.0050015094 3.7118774520 -2.5000011921
47.9921214458 3.7189790573 -2.5000011921
47.9403928063 3.7470035354 -2.5000011921
49.0922530691 2.9322917262 -2.5000011921
48.9523792543 3.0639986858 -2.5000011921
48.8638240910 3.1423398489 -2.5000011921
47.7778001338 3.8837793190 -2.5000011921
47.2094283405 4.1925748863 -2.5000011921
47.3029740569 4.1860037995 -2.5000011921
54.5082911214 -0.8188629518 -2.5000011921
54.5473474145 -1.0847385547 -2.5000011921
47.5359227448 -0.4044308631 -2.5000011921
47.4804138860 -0.2532519515 -2.5000011921
47.5372809458 -0.3331365464 -2.5000011921
47.4756584395 -0.1821034446 -2.5000011921
47.4951877432 -0.0575101539 -2.5000011921
47.4853995207 0.0589539572 -2.5000011921
47.5051910067 0.1644779940 -2.5000011921
48.4383109930 -1.8972487760 -2.5000011921
48.4516496844 -1.8573423893 -2.5000011921
48.4551248833 -1.9934587227 -2.5000011921
48.4553950146 0.0417474457 -2.5000011921
48.4462608953 0.0657428937 -2.5000011921
48.4369141894 0.0896563367 -2.5000011921
48.4494592930 -2.0742944617 -2.5000011921
48.4529873792 0.1145846489 -2.5000011921
48.4551677579 -2.1235796629 -2.5000011921
48.4721461330 0.1316834806 -2.5000011921
48.4417066710 0.2038359772 -2.5000011921
48.4419923434 -2.2132674448 -2.5000011921
48.4528707439 -2.1893021386 -2.5000011921
48.4423208253 0.2615596462 -2.5000011921
48.4527782148 -2.2474188981 -2.5000011921
48.4602559811 -2.2313883319 -2.5000011921
48.4493434691 0.3037078593 -2.5000011921
48.4592921232 -2.2898876701 -2.5000011921
48.4557429973 0.3461940175 -2.5000011921
48.4399145164 0.3781526223 -2.5000011921
48.4530254604 -2.3567560712 -2.5000011921
48.4451769185 0.4210331139 -2.5000011921
48.4489774729 -2.4674327224 -2.5000011921
48.4430234335 -2.5272112618 -2.5000011921
48.4550940648 0.6036055778 -2.5000011921
48.4630681574 0.6845529568 -2.5000011921
48.4836937914 0.6971592451 -2.5000011921
48.4560306436 -2.9089777956 -2.5000011921
48.4561762492 -3.0708580901 -2.5000011921
48.4364500773 1.2603574441 -2.5000011921
46.9218144890 3.4066526362 -2.5000011921
46.8958676638 3.4135265511 -2.5000011921
46.8438542800 3.4268132545 -2.5000011921
46.7786224436 3.4425546442 -2.5000011921
47.0060775510 3.4083452899 -2.5000011921
46.9801192367 3.4157177038 -2.5000011921
46.8234948262 3.4567156825 -2.5000011921
47.1037312254 3.4044257702 -2.5000011921
47.0777943912 3.4123760046 -2.5000011921
47.0388020821 3.4240132893 -2.5000011921
47.1369096460 3.4193701011 -2.5000011921
46.9669128935 3.4695585691 -2.5000011921
47.2353756981 3.4125406437 -2.5000011921
47.3211907327 3.4081840753 -2.5000011921
47.2692107884 3.4265037728 -2.5000011921
47.2431404371 3.4354326535 -2.5000011921
47.3813887020 3.4119029418 -2.5000011921
47.3293605401 3.4309346693 -2.5000011921
47.4418939026 3.4148078243 -2.5000011921
47.4158897262 3.4247585610 -2.5000011921
47.4028656748 3.4296761921 -2.5000011921
47.5156812593 3.4116790976 -2.5000011921
47.5767716414 3.4127552372 -2.5000011921
47.5991139411 3.4296067695 -2.5000011921
47.8471111975 3.4243049707 -2.5000011921
47.8210437408 3.4366529428 -2.5000011921
47.9594871333 3.4230671704 -2.5000011921
48.0596929549 3.4259043412 -2.5000011921
48.0336123153 3.4395099904 -2.5000011921
48.0709368667 3.4473031666 -2.5000011921
48.1606893858 3.4265567353 -2.5000011921
48.1476567563 3.4336776105 -2.5000011921
48.1723113168 3.4477526312 -2.5000011921
48.2494017418 3.4324191602 -2.5000011921
48.3388103284 3.4366112335 -2.5000011921
48.8950640843 3.1197423070 -2.5000011921
48.8829358541 3.1290369379 -2.5000011921
48.8585971737 3.1475183642 -2.5000011921
48.8095939194 3.1840476172 -2.5000011921
48.7849310609 3.2020941652 -2.5000011921
48.7725597009 3.2110626424 -2.5000011921
48.6726448180 3.2814850402 -2.5000011921
48.6347512899 3.3072808820 -2.5000011921
48.1089704553 3.6182370215 -2.5000011921
48.0544499177 3.6458633897 -2.5000011921
47.9582662042 3.6926503030 -2.5000011921
48.9943104279 3.0725368091 -2.5000011921
48.8853988676 3.1575473858 -2.5000011921
48.8239262656 3.2035134625 -2.5000011921
48.7367368017 3.2663278465 -2.5000011921
47.9963231930 3.7012703957 -2.5000011921
47.8148528269 3.7842922505 -2.5000011921
47.8007634641 3.7903885135 -2.5000011921
47.7866561292 3.7964430709 -2.5000011921
48.7506630190 3.2860862815 -2.5000011921
47.7961568665 3.8186707850 -2.5000011921
47.7107463668 3.8542844909 -2.5000011921
47.6821373935 3.8658181575 -2.5000011921
47.6390972416 3.8828007913 -2.5000011921
47.6247172418 3.8883767064 -2.5000011921
49.4621922858 2.7168022802 -2.5000011921
47.6622998235 3.8996813595 -2.5000011921
47.5026754380 3.9594135360 -2.5000011921
47.4880694007 3.9645855556 -2.5000011921
49.6297144399 2.5761325005 -2.5000011921
49.5767597728 2.6331708895 -2.5000011921
49.2650686191 2.9376524860 -2.5000011921
47.7145273249 3.9049118203 -2.5000011921
47.4077468730 4.0176458347 -2.5000011921
47.0213933023 4.2046518051 -2.5000011921
49.9770323968 2.3143846689 -2.5000011921
47.4786911094 -0.3116245021 -2.5000011921
48.4528651673 -2.1008804680 -2.5000011921
48.4933913051 -0.5993974797 -2.5000011921
48.4360055604 -0.4138161283 -2.5000011921
48.4308244430 -0.3991614291 -2.5000011921
48.4476210425 -2.1899421170 -2.5000011921
48.4758346268 -2.1084130117 -2.5000011921
48.4318037442 -0.3321954644 -2.5000011921
48.4508276750 -2.2500736425 -2.5000011921
48.4648698796 -2.2130749286 -2.5000011921
48.4249235720 -0.2500710726 -2.5000011921
48.4187738778 -0.2354848039 -2.5000011921
48.4464739508 -2.3254735150 -2.5000011921
48.4556342586 -2.3033348458 -2.5000011921
48.4410202873 -0.2260279258 -2.5000011921
48.4251271462 -0.1893956646 -2.5000011921
48.4517784284 -2.4334423382 -2.5000011921
48.4618966900 -2.4112523431 -2.5000011921
48.4491415771 -2.4954422685 -2.5000011921
48.4527196253 -2.4880631205 -2.5000011921
48.4598101572 -2.4732732325 -2.5000011921
48.4633225788 -2.4658626219 -2.5000011921
48.4571393241 -0.0855531798 -2.5000011921
48.4487604250 -2.5504549245 -2.5000011921
48.4525012123 -2.5430766633 -2.5000011921
48.4635923887 -2.5208759366 -2.5000011921
48.4459169535 -0.0083964007 -2.5000011921
48.4289821765 0.1246879402 -2.5000011921
48.4206152111 0.1392916620 -2.5000011921
48.4457839465 0.1440129611 -2.5000011921
48.4287339228 0.1733681008 -2.5000011921
48.4560774613 -2.7863748510 -2.5000011921
48.4605161104 -2.7789739125 -2.5000011921
48.4494752719 -2.8433310734 -2.5000011921
48.4331911776 0.3489883909 -2.5000011921
48.4492435561 0.6973763015 -2.5000011921
47.3448077111 3.4164548460 -2.5000011921
47.3309021304 3.4205413076 -2.5000011921
47.2891137097 3.4325536326 -2.5000011921
47.0786633566 3.4870275344 -2.5000011921
47.4213429372 3.4184848616 -2.5000011921
47.3935063984 3.4270694044 -2.5000011921
47.4982403674 3.4192737730 -2.5000011921
47.4425022699 3.4371878488 -2.5000011921
47.5754799578 3.4188113335 -2.5000011921
47.5615663969 3.4235801551 -2.5000011921
47.6391326398 3.4220858895 -2.5000011921
47.6112709845 3.4319588862 -2.5000011921
47.8318637005 3.4267749722 -2.5000011921
47.8179254599 3.4323021884 -2.5000011921
48.0130841803 3.4297307144 -2.5000011921
48.0646851767 3.4333616236 -2.5000011921
48.1165118156 3.4364460345 -2.5000011921
48.1964518884 3.4258100158 -2.5000011921
48.1825149071 3.4324157540 -2.5000011921
48.1405875720 3.4519851971 -2.5000011921
48.2872549063 3.4355091378 -2.5000011921
48.3538769770 3.4291437792 -2.5000011921
48.6404786293 3.3000006140 -2.5000011921
48.6133217462 3.3158000466 -2.5000011921
48.5860718637 3.3314385334 -2.5000011921
