38.2038817033 -18.4334544653 -2.4893474579
38.2198337846 -18.4373646292 -2.4893474579
38.2517722992 -18.4450433044 -2.4893474579
40.6468802173 -18.4823089022 -2.4893474579
40.7752829404 -18.4544435548 -2.4893474579
40.8072777750 -18.4470030357 -2.4893474579
41.0615378152 -18.3806923175 -2.4893474579
41.1717338011 -18.3479121736 -2.4893474579
41.1874198473 -18.3430432685 -2.4893474579
41.2187483873 -18.3331663587 -2.4893474579
38.0862764234 -18.4281090166 -2.4893474579
38.1022132066 -18.4323671016 -2.4893474579
38.1181625162 -18.4365780240 -2.4893474579
38.1500981564 -18.4448582344 -2.4893474579
40.4896526996 -18.5366703102 -2.4893474579
41.0205531951 -18.4173389651 -2.4893474579
41.2574905926 -18.3460932865 -2.4893474579
38.0320613601 -18.4383401081 -2.4893474579
41.4529031646 -18.3042818453 -2.4893474579
41.5150240326 -18.2812042401 -2.4893474579
37.9137040262 -18.4292401384 -2.4893474579
37.9455998313 -18.4387301222 -2.4893474579
37.9615686492 -18.4434043075 -2.4893474579
41.3040530086 -18.3816905649 -2.4893474579
40.0050330976 -18.6720448203 -2.4893474579
37.7876427734 -18.4405419521 -2.4893474579
37.7481631756 -18.4530726260 -2.4893474579
37.7245229805 -18.4706998118 -2.4893474579
37.3867879698 -18.4503666446 -2.4893474579
37.4188179883 -18.4629736710 -2.4893474579
37.3297652563 -18.4534884007 -2.4893474579
37.2565156422 -18.4493096077 -2.4893474579
37.2725187710 -18.4560221823 -2.4893474579
37.1734115241 -18.4663168008 -2.4893474579
37.0254005557 -18.4528078335 -2.4893474579
36.9511367839 -18.4445588051 -2.4893474579
36.5426750639 -18.4516367707 -2.4893474579
36.3507234604 -18.4534385897 -2.4893474579
34.1027573104 -16.6050628624 -2.4893474579
35.9631708322 -18.4683319513 -2.4893474579
34.1252320830 -16.6825706347 -2.4893474579
34.1160078889 -16.7121091906 -2.4893474579
35.7348604671 -18.4593054656 -2.4893474579
34.1059090227 -16.9094071622 -2.4893474579
34.1314852018 -17.1878971206 -2.4893474579
35.1001665443 -18.4631940580 -2.4893474579
34.1301849758 -17.7215980648 -2.4893474579
33.7430414408 -18.0868630181 -2.4893474579
33.8182771439 -18.1719569024 -2.4893474579
33.8793667519 -18.2392250026 -2.4893474579
34.3789809284 -18.7351849958 -2.4893474579
34.4466956601 -18.7957791590 -2.4893474579
34.4979496372 -18.8406966487 -2.4893474579
34.5842522565 -18.9145426918 -2.4893474579
33.5776973624 -17.9287149759 -2.4893474579
33.5921765746 -17.9463124382 -2.4893474579
33.6067077799 -17.9638669914 -2.4893474579
33.6212908512 -17.9813784818 -2.4893474579
33.6506120808 -18.0162716619 -2.4893474579
33.7548512560 -18.1370189131 -2.4893474579
34.5339114631 -18.9035476904 -2.4893474579
34.6739937939 -19.0202172352 -2.4893474579
34.6916970705 -19.0345668786 -2.4893474579
33.3338093198 -17.6558765507 -2.4893474579
33.3888263410 -17.7289132281 -2.4893474579
33.4306541389 -17.7832607262 -2.4893474579
34.7659320183 -19.1245500756 -2.4893474579
34.8746213736 -19.2082107868 -2.4893474579
34.8928798912 -19.2219661150 -2.4893474579
33.1934354333 -17.5031067122 -2.4893474579
33.2199345346 -17.5405395991 -2.4893474579
33.2735948073 -17.6149317701 -2.4893474579
33.2871471226 -17.6334301957 -2.4893474579
33.3144156213 -17.6703063719 -2.4893474579
34.9335537810 -19.2823639400 -2.4893474579
35.1012820457 -19.4026101930 -2.4893474579
33.0695729418 -17.3652638214 -2.4893474579
33.1211697963 -17.4414474110 -2.4893474579
33.0112558611 -17.3209862304 -2.4893474579
35.4009611446 -19.6583798954 -2.4893474579
35.4669642005 -19.7274684260 -2.4893474579
35.7646426181 -19.9548372302 -2.4893474579
35.2774715508 -19.7233787779 -2.4893474579
35.7598144790 -20.0621788617 -2.4893474579
40.9372193790 -13.5230793018 -2.5027558543
40.9413202853 -13.5024061168 -2.5027558543
40.9391422508 -13.6215459208 -2.5027558572
40.9431146285 -13.6060246168 -2.5027558572
40.9464748385 -13.7649978544 -2.5027558629
40.9462906519 -13.9015723241 -2.5027558687
40.9457788755 -13.9631345468 -2.5027558716
40.9400184244 -14.1356835775 -2.5027558802
40.3479121166 -14.8557828279 -2.5027558860
40.5684103032 -14.9646523637 -2.5027559119
37.8689012909 -18.4338059254 -2.5027562894
37.9157006784 -18.4453417875 -2.5027562894
37.9313229968 -18.4490947249 -2.5027562894
40.6335875128 -18.4027108658 -2.5027562894
40.6800020796 -18.3897129131 -2.5027562894
37.7693142002 -18.4328269324 -2.5027562923
40.7021383541 -18.4085174580 -2.5027562923
40.7331273920 -18.3994922462 -2.5027562923
40.7486017518 -18.3949109264 -2.5027562923
40.7640624914 -18.3902838507 -2.5027562923
37.7317372143 -18.4476153201 -2.5027562952
40.7710274868 -18.4134317258 -2.5027562952
40.7865429162 -18.4087382297 -2.5027562952
40.8020443935 -18.4039988567 -2.5027562952
40.8175317830 -18.3992136483 -2.5027562952
37.6469959104 -18.4486380427 -2.5027562980
37.6782757853 -18.4576873774 -2.5027562980
37.6939356630 -18.4621426065 -2.5027562980
37.7096086516 -18.4665514914 -2.5027562980
40.8247019286 -18.4222988014 -2.5027562980
40.8712828015 -18.4076040441 -2.5027562980
40.8867805529 -18.4026140001 -2.5027562980
40.9022634750 -18.3975781329 -2.5027562980
37.5931857325 -18.4578571431 -2.5027563009
41.0490399319 -18.3729691761 -2.5027563009
41.0798125829 -18.3618922002 -2.5027563009
41.0951741980 -18.3562854874 -2.5027563009
41.1105191602 -18.3506333567 -2.5027563009
41.1717297968 -18.3275716503 -2.5027563009
41.2022317135 -18.3157695944 -2.5027563009
37.5077609960 -18.4566624283 -2.5027563038
40.4907256380 -18.5643470860 -2.5027563038
41.1957125013 -18.3442374528 -2.5027563038
41.2720789077 -18.3140379331 -2.5027563038
41.2872981199 -18.3078626712 -2.5027563038
41.3479902983 -18.2827122281 -2.5027563038
41.5876562708 -18.1749833973 -2.5027563038
37.4063885210 -18.4488338334 -2.5027563067
37.4533394859 -18.4644736451 -2.5027563067
40.3192984643 -18.6274109761 -2.5027563067
41.2351688435 -18.3547854855 -2.5027563067
41.7164529016 -18.1384503575 -2.5027563067
40.1288076086 -18.6878055436 -2.5027563096
37.2496979881 -18.4447947462 -2.5027563125
37.2809620781 -18.4561946960 -2.5027563125
37.3122930668 -18.4674094775 -2.5027563125
39.9848938157 -18.7347141900 -2.5027563125
42.2848660766 -17.8642901975 -2.5027563125
37.2100197036 -18.4558460111 -2.5027563153
37.2256761831 -18.4616864345 -2.5027563153
41.1524622867 -18.4639874753 -2.5027563153
37.1388191757 -18.4545559776 -2.5027563182
37.1544721506 -18.4606070306 -2.5027563182
39.6916571146 -18.8171705016 -2.5027563182
37.0517448013 -18.4460097795 -2.5027563211
37.0830195444 -18.4585808657 -2.5027563211
39.9784257278 -18.8088600056 -2.5027563211
36.9956932949 -18.4491274515 -2.5027563240
36.9707287732 -18.4648998861 -2.5027563269
36.8105884947 -18.4479589385 -2.5027563326
36.8262233904 -18.4549809861 -2.5027563326
36.6549060110 -18.4555092870 -2.5027563413
36.5974180183 -18.4544856744 -2.5027563441
36.4975500047 -18.4586130559 -2.5027563499
36.4126721378 -18.4691792191 -2.5027563557
36.2957908904 -18.4614284703 -2.5027563614
36.1506588150 -18.4632104800 -2.5027563701
36.0915479769 -18.4568655813 -2.5027563730
35.6945251295 -18.4659233238 -2.5027563989
35.6206434599 -18.4747877752 -2.5027564047
34.3388973769 -18.7061199777 -2.5027565199
34.4213661899 -18.7772958202 -2.5027565199
33.7868021157 -18.2398058004 -2.5027565257
40.3942532190 -14.6296994239 -2.5006575584
40.9434382587 -14.3568480041 -2.5006575584
40.9523469703 -14.3383554328 -2.5006575584
40.9435226914 -14.4107200647 -2.5006575584
37.5660436540 -18.4432223825 -2.5006575584
37.6113496431 -18.4545413780 -2.5006575584
37.6264737415 -18.4582249727 -2.5006575584
40.3495212152 -18.3918456240 -2.5006575584
40.3863220680 -18.4061183863 -2.5006575584
37.3873790855 -18.4447295547 -2.5006575584
37.4327054854 -18.4576340386 -2.5006575584
37.4933154328 -18.4742133391 -2.5006575584
40.4982545081 -18.3965149704 -2.5006575584
40.5281197062 -18.3867585207 -2.5006575584
37.3201289842 -18.4500372218 -2.5006575584
37.3958216939 -18.4723150784 -2.5006575584
37.2374361558 -18.4496746583 -2.5006575584
40.6781429919 -18.3861669202 -2.5006575584
37.1544178799 -18.4479780258 -2.5006575584
37.1695245621 -18.4530133360 -2.5006575584
40.7461315350 -18.3869971859 -2.5006575584
37.1315806358 -18.4657965678 -2.5006575584
40.8143925265 -18.3869213349 -2.5006575584
37.0327959911 -18.4569976010 -2.5006575584
40.9516838979 -18.3840261709 -2.5006575584
40.8254216458 -18.4603832714 -2.5006575584
40.9759006901 -18.4001345717 -2.5006575584
41.1540249140 -18.3220007836 -2.5006575584
41.1981138396 -18.3014832316 -2.5006575584
41.2711851899 -18.2664204425 -2.5006575584
41.2857367792 -18.2592784049 -2.5006575584
36.8105027860 -18.4500895936 -2.5006575584
40.5267505165 -18.5904440830 -2.5006575584
41.3546685115 -18.2518372485 -2.5006575584
41.3836627590 -18.2370164981 -2.5006575584
41.5415276330 -18.1524549458 -2.5006575584
40.2353839356 -18.6989756296 -2.5006575584
40.2670431933 -18.6907691170 -2.5006575584
41.3801788725 -18.2659723766 -2.5006575584
41.4092563017 -18.2510004510 -2.5006575584
41.7230065825 -18.0750920317 -2.5006575584
41.8891241237 -17.9706476577 -2.5006575584
36.6862481703 -18.4509441478 -2.5006575584
36.7165021062 -18.4637398553 -2.5006575584
40.1137184826 -18.7534772515 -2.5006575584
40.1457023195 -18.7459895987 -2.5006575584
36.6313314994 -18.4535661937 -2.5006575584
39.9902385500 -18.8052067531 -2.5006575584
36.5761975284 -18.4556140133 -2.5006575584
39.8160668386 -18.8627739351 -2.5006575584
36.5057362539 -18.4501297450 -2.5006575584
36.4501829915 -18.4508539077 -2.5006575584
36.4804405250 -18.4650462576 -2.5006575584
39.6592162774 -18.9363799652 -2.5006575584
36.3536069964 -18.4579910536 -2.5006575584
36.3687468028 -18.4653952634 -2.5006575584
36.2974756991 -18.4571142846 -2.5006575584
36.1846753442 -18.4535719082 -2.5006575584
36.0595951111 -18.4688285069 -2.5006575584
35.9721836227 -18.4478194173 -2.5006575584
35.8876634081 -18.4550216649 -2.5006575584
35.6436447502 -18.4483860936 -2.5006575584
35.5137770092 -18.4510608441 -2.5006575584
35.2217095955 -18.4562862017 -2.5006575584
40.3654824731 -14.6827226965 -2.4989764690
40.3910589570 -14.6402396474 -2.4989764690
40.3459569257 -14.8838790756 -2.4989764690
40.9404558509 -14.4323800998 -2.4989764690
40.9502134553 -14.4757003346 -2.4989764690
40.9450565384 -14.5545328313 -2.4989764690
40.9536050334 -14.5335343893 -2.4989764690
40.9424334263 -14.7907256290 -2.4989764690
40.9456235777 -14.8368352527 -2.4989764690
40.9784474687 -14.9279359897 -2.4989764690
40.9465277544 -15.1204419094 -2.4989764690
40.9493047453 -15.2032760853 -2.4989764690
37.3745420023 -18.4534709619 -2.4989764690
37.3889615889 -18.4570250890 -2.4989764690
37.4033916262 -18.4605365448 -2.4989764690
37.4322825476 -18.4674313201 -2.4989764690
39.9299504489 -18.4171284253 -2.4989764690
39.9728172865 -18.4049863767 -2.4989764690
37.2676038283 -18.4507364178 -2.4989764690
37.2964391454 -18.4584347307 -2.4989764690
37.3108737575 -18.4622198785 -2.4989764690
37.3253195036 -18.4659623095 -2.4989764690
40.0367676084 -18.4113538931 -2.4989764690
40.0653214602 -18.4026695925 -2.4989764690
40.0938234331 -18.3938165096 -2.4989764690
37.1890704708 -18.4539861437 -2.4989764690
40.1724239530 -18.3939015679 -2.4989764690
37.0957393727 -18.4515942120 -2.4989764690
37.1101546274 -18.4559730959 -2.4989764690
37.1534772293 -18.4688536238 -2.4989764690
40.2371139512 -18.3976231102 -2.4989764690
37.0164595276 -18.4520732872 -2.4989764690
37.0308765464 -18.4566866932 -2.4989764690
37.0886792005 -18.4747132356 -2.4989764690
40.2449641255 -18.4204859632 -2.4989764690
40.3163634637 -18.3953785357 -2.4989764690
36.9801293902 -18.4656865126 -2.4989764690
37.1837525120 -18.5278696882 -2.4989764690
40.3674110528 -18.4024788351 -2.4989764690
40.3816667005 -18.3971797374 -2.4989764690
40.3959066100 -18.3918384921 -2.4989764690
36.9001788635 -18.4642959457 -2.4989764690
36.9435835945 -18.4790395630 -2.4989764690
40.4187205023 -18.4090504959 -2.4989764690
36.7910747648 -18.4510864265 -2.4989764690
40.5131138989 -18.3981522885 -2.4989764690
36.7393753558 -18.4576014089 -2.4989764690
40.5934740040 -18.3913851889 -2.4989764690
40.6076958455 -18.3854174047 -2.4989764690
36.6585647404 -18.4522790101 -2.4989764690
36.6874198431 -18.4635805758 -2.4989764690
36.7018723423 -18.4691672903 -2.4989764690
40.6740540952 -18.3832899802 -2.4989764690
36.5919100120 -18.4515400681 -2.4989764690
40.6837033812 -18.4054536118 -2.4989764690
40.7122110025 -18.3929419251 -2.4989764690
40.7264369296 -18.3866228885 -2.4989764690
36.5538479594 -18.4619944767 -2.4989764690
40.7648084334 -18.3958771958 -2.4989764690
40.7932579779 -18.3828858320 -2.4989764690
36.4722659280 -18.4536266964 -2.4989764690
36.5155928261 -18.4721682210 -2.4989764690
40.8318660371 -18.3916252865 -2.4989764690
36.3950144112 -18.4724397159 -2.4989764690
40.9523706377 -18.3873981010 -2.4989764690
40.7173403351 -18.5226065467 -2.4989764690
41.1329185050 -18.3215758058 -2.4989764690
41.1469314774 -18.3140125526 -2.4989764690
41.2166573721 -18.2755763257 -2.4989764690
41.2858071533 -18.2361130302 -2.4989764690
41.3133023611 -18.2200420591 -2.4989764690
41.3407020064 -18.2038086985 -2.4989764690
41.3680051301 -18.1874135164 -2.4989764690
41.3952107766 -18.1708570868 -2.4989764690
40.3844814765 -18.6790556539 -2.4989764690
40.3995552137 -18.6737048487 -2.4989764690
40.4296548725 -18.6628695831 -2.4989764690
40.4746828473 -18.6462832612 -2.4989764690
40.4896592432 -18.6406657674 -2.4989764690
40.5344878087 -18.6235478147 -2.4989764690
40.5642883601 -18.6119151204 -2.4989764690
40.5940195670 -18.6001063196 -2.4989764690
41.2563377388 -18.2809261912 -2.4989764690
41.3393357093 -18.2327426472 -2.4989764690
41.4757234426 -18.1491878380 -2.4989764690
41.5295764611 -18.1146424137 -2.4989764690
41.5429755516 -18.1059066800 -2.4989764690
41.5696959140 -18.0883164931 -2.4989764690
41.5963117393 -18.0705685275 -2.4989764690
41.6095801592 -18.0616355716 -2.4989764690
41.6492260557 -18.0346017504 -2.4989764690
36.2197312601 -18.4708710774 -2.4989764690
40.3013596332 -18.7331535931 -2.4989764690
40.3773772778 -18.7071778535 -2.4989764690
41.7156526435 -18.0177590026 -2.4989764690
41.8068523355 -17.9519479046 -2.4989764690
41.8839248283 -17.8940455468 -2.4989764690
36.1657156959 -18.4713740704 -2.4989764690
40.0466728364 -18.8362948787 -2.4989764690
36.0970496768 -18.4639686364 -2.4989764690
39.8806371855 -18.9046112375 -2.4989764690
39.9592367751 -18.8848393908 -2.4989764690
39.9905932831 -18.8766055018 -2.4989764690
41.7302797010 -18.0665834791 -2.4989764690
42.0405601753 -17.8320395178 -2.4989764690
42.2136094407 -17.6852502474 -2.4989764690
42.2296246861 -17.7033567986 -2.4989764690
39.7326564862 -18.9879461790 -2.4989764690
40.3424395536 -14.8240877601 -2.5006785393
40.4029993869 -14.6860225024 -2.5006785393
40.4580196216 -14.6080959368 -2.5006785393
40.5253664903 -15.0502558212 -2.5006785393
40.4684536776 -15.2406167363 -2.5006785393
40.4925282227 -15.2026997644 -2.5006785393
40.9396273527 -14.7687188857 -2.5006785393
40.9513426803 -12.9962950457 -2.5006785393
40.9327900175 -12.9424998391 -2.5006785393
40.9542660239 -14.7998645356 -2.5006785393
40.9443613692 -12.9035497091 -2.5006785393
40.9509959313 -14.8777645783 -2.5006785393
40.9553702183 -12.8641977129 -2.5006785393
40.9371909580 -12.8180131720 -2.5006785393
40.9309493970 -12.8026909258 -2.5006785393
40.9643628871 -14.9098093921 -2.5006785393
40.9404444250 -12.7627090801 -2.5006785393
41.1048012044 -14.6465911325 -2.5006785393
40.9600310542 -15.1014395962 -2.5006785393
40.9693433646 -15.1924471300 -2.5006785393
41.1362615431 -14.7910985255 -2.5006785393
40.9332482418 -15.3117845208 -2.5006785393
40.9369134581 -15.3543562906 -2.5006785393
37.2184653075 -18.4596693962 -2.5006785393
37.2320611690 -18.4629796355 -2.5006785393
37.2456667633 -18.4662496414 -2.5006785393
37.2865407518 -18.4758179735 -2.5006785393
37.3001840859 -18.4789267628 -2.5006785393
39.6395792642 -18.4147891697 -2.5006785393
39.6799023010 -18.4031148978 -2.5006785393
37.1173386880 -18.4587279212 -2.5006785393
37.1445363435 -18.4659064820 -2.5006785393
37.2811354518 -18.4993789161 -2.5006785393
39.7136885930 -18.4182820674 -2.5006785393
39.7406015169 -18.4101004580 -2.5006785393
39.7540397090 -18.4059499792 -2.5006785393
39.5300070565 -18.4944927057 -2.5006785393
39.8151082661 -18.4119505831 -2.5006785393
36.9681613531 -18.4667476393 -2.5006785393
39.8765151699 -18.4171385279 -2.5006785393
39.9168497257 -18.4033614902 -2.5006785393
39.9786205905 -18.4071815903 -2.5006785393
40.0541379826 -18.4051338569 -2.5006785393
40.1030796075 -18.4123261981 -2.5006785393
40.1165227978 -18.4071034338 -2.5006785393
40.5098215720 -18.3945932106 -2.5006785393
40.5471363786 -18.4034482469 -2.5006785393
40.7148551448 -18.5360817911 -2.5006785393
41.1978975603 -18.2576434755 -2.5006785393
41.2367646528 -18.2321461910 -2.5006785393
41.2625496779 -18.2149568099 -2.5006785393
41.2754039407 -18.2063049870 -2.5006785393
40.4441752201 -18.6902449827 -2.5006785393
40.4584390520 -18.6840119799 -2.5006785393
40.5011190446 -18.6650601851 -2.5006785393
40.5153081262 -18.6586588423 -2.5006785393
40.5718732291 -18.6326345783 -2.5006785393
40.6000393147 -18.6193719089 -2.5006785393
41.1980012565 -18.2863753157 -2.5006785393
41.3658675828 -18.1733894720 -2.5006785393
41.3785984298 -18.1644321980 -2.5006785393
41.4292551779 -18.1282276809 -2.5006785393
41.4544220173 -18.1099012799 -2.5006785393
41.4919678791 -18.0821333027 -2.5006785393
41.5292658372 -18.0540332205 -2.5006785393
40.2221272034 -18.8067912527 -2.5006785393
40.2804656023 -18.7842256714 -2.5006785393
40.4107234431 -18.7309399967 -2.5006785393
41.5563310049 -18.0637919252 -2.5006785393
41.6180767764 -18.0158250946 -2.5006785393
41.7871122266 -17.8767216797 -2.5006785393
41.8225756494 -17.8460104458 -2.5006785393
40.2600503779 -18.8181399592 -2.5006785393
42.0010505666 -17.7161146261 -2.5006785393
40.0012432771 -18.9360595407 -2.5006785393
40.0312145137 -18.9261675993 -2.5006785393
42.1966057325 -17.5555095175 -2.5006785393
39.8877513681 -18.9969976294 -2.5006785393
39.9332314057 -18.9830980427 -2.5006785393
39.7261842592 -19.0678598981 -2.5006785393
42.6129207670 -17.2624894033 -2.5006785393
40.3997713551 -14.7855606642 -2.4996461868
40.4240398458 -14.6858466248 -2.4996461868
40.3487206998 -15.0219401415 -2.4996461868
40.4648834270 -15.1852506466 -2.4996461868
40.9421425166 -15.2295547170 -2.4996461868
40.9358567859 -15.3121948308 -2.4996461868
40.9285821891 -12.9858543378 -2.4996461868
40.9339468563 -15.4970505882 -2.4996461868
40.9543251388 -15.6719849038 -2.4996461868
40.9433779595 -15.8393299772 -2.4996461868
40.9545706524 -15.9596487052 -2.4996461868
39.5695638828 -18.4010962419 -2.4996461868
39.4455706643 -18.4908971299 -2.4996461868
39.9235527740 -18.3973307456 -2.4996461868
40.2580264387 -18.4039667911 -2.4996461868
40.8625497054 -18.3942871659 -2.4996461868
41.1370539391 -18.2948590530 -2.4996461868
41.2214346299 -18.2324417302 -2.4996461868
41.2809062976 -18.1867948343 -2.4996461868
41.3045048289 -18.1682906179 -2.4996461868
41.3630185903 -18.1214220987 -2.4996461868
40.3420284931 -15.0947399051 -2.5001611710
40.4040926025 -15.3914123002 -2.5001611710
40.4645195590 -15.2006203937 -2.5001611710
40.4917416737 -15.1925396707 -2.5001611710
40.5029404175 -15.1490440547 -2.5001611710
40.5065015590 -15.1345021918 -2.5001611710
40.5584286811 -15.0071718507 -2.5001611710
40.9331043128 -15.5632512857 -2.5001611710
40.9391085147 -15.5461571794 -2.5001611710
40.9420726638 -15.5375968799 -2.5001611710
40.9450114770 -15.5290278494 -2.5001611710
40.9536756454 -15.5032691218 -2.5001611710
40.9431674269 -13.5453089593 -2.5001611710
40.9339065159 -15.6313429307 -2.5001611710
40.9497341458 -15.5885224947 -2.5001611710
40.9539648541 -13.5029871026 -2.5001611710
40.9365357902 -15.6913596890 -2.5001611710
40.9432978644 -15.6742430388 -2.5001611710
40.9466408963 -15.6656697860 -2.5001611710
40.9377995421 -13.3915401580 -2.5001611710
40.9624116852 -15.6916881435 -2.5001611710
40.9392672970 -13.3310906242 -2.5001611710
40.9492775556 -15.7869629299 -2.5001611710
40.9529540072 -15.7783714950 -2.5001611710
40.9566050276 -15.7697692220 -2.5001611710
40.9469539495 -13.2873663930 -2.5001611710
40.9568853190 -15.9997581953 -2.5001611710
40.9608841949 -16.0451834778 -2.5001611710
40.9596114862 -16.0995296156 -2.5001611710
40.9398691730 -12.8944110624 -2.5001611710
40.9549982082 -16.2556394129 -2.5001611710
40.9466989598 -12.8100941655 -2.5001611710
40.9535140954 -12.6385853165 -2.5001611710
39.1965021849 -18.4016224527 -2.5001611710
39.2148867814 -18.4213522250 -2.5001611710
39.2721677601 -18.4036515737 -2.5001611710
39.2950057931 -18.3963344141 -2.5001611710
39.5130557264 -18.3965009809 -2.5001611710
39.3830398983 -18.4689947685 -2.5001611710
39.5674436947 -18.4013738213 -2.5001611710
39.9115720338 -18.4091207542 -2.5001611710
39.9794115497 -18.4027356371 -2.5001611710
40.5832534355 -18.4175760366 -2.5001611710
40.5947133180 -18.4100558572 -2.5001611710
40.5565866408 -18.6913321102 -2.5001611710
40.5688564599 -18.6838896181 -2.5001611710
40.5933297811 -18.6688959080 -2.5001611710
40.6298723659 -18.6461345146 -2.5001611710
40.7382680868 -18.5759172403 -2.5001611710
41.0853884610 -18.3214939668 -2.5001611710
41.1077086877 -18.3034506225 -2.5001611710
41.1959104268 -18.2299662483 -2.5001611710
41.2285340282 -18.2018745741 -2.5001611710
41.2716419271 -18.1639707565 -2.5001611710
41.2930269339 -18.1448282311 -2.5001611710
40.3815405205 -18.8197952760 -2.5001611710
40.4445870130 -18.7847957818 -2.5001611710
41.4253450355 -18.0547345615 -2.5001611710
41.4871954739 -17.9942183576 -2.5001611710
41.5379104239 -17.9429561039 -2.5001611710
41.5977592679 -17.8804596758 -2.5001611710
40.2389871846 -18.9215782070 -2.5001611710
40.1053772257 -19.0125379255 -2.5001611710
41.9278130757 -17.6089050471 -2.5001611710
40.3482699630 -15.1102198366 -2.4999349117
40.3919020591 -14.6517884364 -2.4999349117
40.3871911212 -15.3588816017 -2.4999349117
40.4106569667 -15.2095434146 -2.4999349117
40.4174348379 -15.3276020197 -2.4999349117
40.9529737992 -15.7905372224 -2.4999349117
40.9322819826 -13.9561709790 -2.4999349117
40.9385004568 -13.7578274755 -2.4999349117
38.9147798765 -18.4062544835 -2.4999349117
38.9417470092 -18.4240994504 -2.4999349117
39.1041534226 -18.4017161624 -2.4999349117
39.3713418016 -18.4614259050 -2.4999349117
39.5788419056 -18.4005551886 -2.4999349117
41.1760701475 -11.7391679420 -2.4999349117
41.1437702083 -18.2404166332 -2.4999349117
41.1634391196 -18.2217334984 -2.4999349117
40.4745262810 -18.8214091742 -2.4999349117
40.3472557071 -15.1671986752 -2.5000250340
40.3441320106 -14.9021748238 -2.5000250340
40.4943457070 -15.2264641515 -2.5000250340
40.9481367490 -16.2301642973 -2.5000250340
40.9810904919 -14.4308869519 -2.5000250340
40.9520089201 -14.3347588215 -2.5000250340
40.9444915017 -16.3160488102 -2.5000250340
40.9475539635 -16.3073713766 -2.5000250340
40.9635920652 -14.2923979026 -2.5000250340
40.9482150803 -16.3764014026 -2.5000250340
40.9514560596 -16.3677126899 -2.5000250340
40.9362721456 -14.1451581715 -2.5000250340
40.9575287918 -16.4198081739 -2.5000250340
40.9416325385 -14.0929845794 -2.5000250340
40.9710488940 -14.1014108315 -2.5000250340
40.9349994866 -14.0144230995 -2.5000250340
40.9341587449 -13.9527795207 -2.5000250340
40.9386457148 -16.6481540223 -2.5000250340
40.9646081741 -16.6496883356 -2.5000250340
40.9538814483 -13.8804059652 -2.5000250340
40.9363389954 -13.7373070920 -2.5000250340
40.9467348783 -16.8475813664 -2.5000250340
40.9391776217 -13.6913075635 -2.5000250340
40.9461473085 -13.6536976538 -2.5000250340
40.9637789313 -13.5864623455 -2.5000250340
40.9468869779 -17.0429563448 -2.5000250340
40.9331142078 -13.4872870397 -2.5000250340
40.9267555736 -13.4313567329 -2.5000250340
39.6439349926 -18.3974881033 -2.5000250340
40.9368209443 -13.3140244608 -2.5000250340
40.9251593351 -13.2967584943 -2.5000250340
40.9310377578 -17.2903587213 -2.5000250340
40.9290595376 -13.2174954279 -2.5000250340
39.7710118282 -18.4111215769 -2.5000250340
40.1054320394 -11.5810873529 -2.5000250340
40.1611710766 -11.5852169331 -2.5000250340
41.1496915408 -18.2103122163 -2.5000250340
41.1669942887 -18.1917011427 -2.5000250340
40.4828982987 -18.8197094390 -2.5000250340
40.6376390205 -18.7066464582 -2.5000250340
40.6880856647 -18.6674468117 -2.5000250340
40.7280220924 -18.6355525543 -2.5000250340
40.7577252216 -18.6113229713 -2.5000250340
41.2106385704 -18.1798420796 -2.5000250340
41.2362785200 -18.1513474914 -2.5000250340
41.2700698439 -18.1130028916 -2.5000250340
41.2784465963 -18.1033544759 -2.5000250340
41.2867947703 -18.0936813226 -2.5000250340
41.3034050912 -18.0742611415 -2.5000250340
41.3199002250 -18.0547430280 -2.5000250340
41.3281044161 -18.0449474600 -2.5000250340
40.4330934737 -18.8830654588 -2.5000250340
41.3874706439 -18.0108255562 -2.5000250340
41.5357469257 -17.8169246092 -2.5000250340
40.2943225686 -19.0007979173 -2.5000250340
41.6221033822 -17.7358494435 -2.5000250340
40.3533171614 -11.5889145334 -2.5000250340
40.0700311670 -19.1566204730 -2.5000250340
40.2176902667 -19.0746520859 -2.5000250340
40.3990849028 -11.5895387311 -2.5000250340
40.0117843915 -19.2140781083 -2.5000250340
40.0350456707 -19.2021817080 -2.5000250340
40.0698046042 -19.1840795889 -2.5000250340
40.1044015228 -19.1656697166 -2.5000250340
40.5620088108 -11.5821537688 -2.5000250340
40.6195070306 -11.5928456633 -2.5000250340
40.8950446822 -11.5869662787 -2.5000250340
41.3444929533 -11.9187168189 -2.5000250340
41.2641047852 -11.8408149880 -2.5000250340
41.2129346027 -11.7931006810 -2.5000250340
41.1085052376 -11.6999684765 -2.5000250340
40.7906786721 -11.4478622593 -2.5000250340
40.6064239710 -11.3207127457 -2.5000250340
40.5594361450 -11.2902990634 -2.5000250340
40.5358081016 -11.2753012507 -2.5000250340
40.5239609086 -11.2678548320 -2.5000250340
41.4501744034 -11.9919022156 -2.5000250340
41.1666429928 -11.7187619403 -2.5000250340
41.1136782593 -11.6725024816 -2.5000250340
40.4165194171 -11.1744748793 -2.5000250340
41.6568073917 -12.1852694627 -2.5000250340
41.6292313026 -12.1530514343 -2.5000250340
41.8525375434 -12.3916337822 -2.5000250340
41.8181341171 -12.3464005342 -2.5000250340
41.7655314802 -12.2793218330 -2.5000250340
40.4083415401 -15.2862393734 -2.5000011921
40.4028770637 -15.2521057126 -2.5000011921
40.3509868470 -14.8548868101 -2.5000011921
40.3367222363 -14.8150222094 -2.5000011921
40.9484572441 -16.6176614239 -2.5000011921
40.9683873940 -16.6340093953 -2.5000011921
40.9405158263 -16.7776980073 -2.5000011921
40.9394195344 -14.4967973796 -2.5000011921
40.9561118138 -16.8036200158 -2.5000011921
40.9425085805 -16.8974311641 -2.5000011921
40.9364542914 -14.3081992528 -2.5000011921
40.9691153854 -14.1556782181 -2.5000011921
40.9289296232 -13.8886060908 -2.5000011921
40.9364604019 -13.7656983804 -2.5000011921
40.7119559573 -18.6410203729 -2.5000011921
40.7208261816 -18.6332744095 -2.5000011921
41.1637733197 -18.1779369190 -2.5000011921
40.6097503481 -18.7581307285 -2.5000011921
40.6189674533 -18.7506865954 -2.5000011921
41.3350435338 -17.9969376889 -2.5000011921
41.6329747986 -17.6219540898 -2.5000011921
41.6774152953 -17.5915642455 -2.5000011921
39.3819886461 -11.5905757269 -2.5000011921
39.4613485134 -11.5910952247 -2.5000011921
39.5171325249 -11.5846961425 -2.5000011921
39.5492142087 -11.5703960624 -2.5000011921
39.6657233497 -11.5879289672 -2.5000011921
39.6417306990 -11.5787241389 -2.5000011921
39.7464928012 -11.5940079201 -2.5000011921
39.8610423185 -11.5898258420 -2.5000011921
40.0694038374 -11.5793194365 -2.5000011921
40.4249178136 -11.5759138690 -2.5000011921
41.3480302051 -11.8759562632 -2.5000011921
41.2920235366 -11.8282972733 -2.5000011921
41.2353180993 -11.7814718568 -2.5000011921
40.4921290752 -11.2810236846 -2.5000011921
41.5390634420 -12.0164187874 -2.5000011921
41.5175730945 -11.9961231508 -2.5000011921
41.7750037592 -12.2205815708 -2.5000011921
40.2778077632 -11.1162234228 -2.5000011921
40.2241441343 -11.0907464311 -2.5000011921
40.1295209893 -11.0476959865 -2.5000011921
41.8926762238 -12.3149094788 -2.5000011921
39.8714251677 -10.8903108638 -2.5000011921
39.5314960425 -10.5504543748 -2.5000011921
40.3968853930 -15.3448569189 -2.5000011921
40.4002764247 -15.2740576750 -2.5000011921
40.3597607065 -15.0951961669 -2.5000011921
40.3410805041 -15.0516387280 -2.5000011921
40.9413654858 -16.9610775682 -2.5000011921
40.9442692359 -16.9531028742 -2.5000011921
40.9500059008 -16.9371278912 -2.5000011921
40.9556479520 -16.9211192478 -2.5000011921
40.9611153536 -16.9774150221 -2.5000011921
40.9462761540 -14.9342534108 -2.5000011921
40.9396169142 -17.0982303265 -2.5000011921
40.9527131715 -17.0662915887 -2.5000011921
40.9559281139 -17.0582828658 -2.5000011921
41.0535411568 -15.1792162422 -2.5000011921
40.9625699357 -14.9094687207 -2.5000011921
40.9594045629 -14.9014402767 -2.5000011921
40.9343800578 -17.1714602161 -2.5000011921
40.9517749287 -17.1315822004 -2.5000011921
40.9585674059 -17.1155596876 -2.5000011921
40.9554876898 -14.8281279346 -2.5000011921
40.9420076021 -17.2132637493 -2.5000011921
40.9705426836 -17.1491447661 -2.5000011921
40.9673724887 -14.7945107317 -2.5000011921
40.9603377933 -14.7784368411 -2.5000011921
40.9567848143 -14.7704155735 -2.5000011921
40.9490190572 -17.2554138251 -2.5000011921
40.9527934736 -17.2474152026 -2.5000011921
40.9493587279 -14.6962884452 -2.5000011921
40.9417432317 -14.6803228491 -2.5000011921
40.9651920663 -17.3326835064 -2.5000011921
40.9691949896 -17.3246367031 -2.5000011921
40.9615276717 -14.6109870646 -2.5000011921
40.9536808261 -17.4079316471 -2.5000011921
40.9621082461 -17.3918930218 -2.5000011921
40.9434505133 -14.4244931261 -2.5000011921
40.9452959043 -17.5713049363 -2.5000011921
40.9690163248 -14.4204857444 -2.5000011921
40.9428015328 -17.6682788790 -2.5000011921
40.9382335539 -14.2754532001 -2.5000011921
40.9580281856 -17.7342780083 -2.5000011921
40.9481843848 -14.0727154408 -2.5000011921
40.9617536375 -17.9009518313 -2.5000011921
39.4218297478 -11.5933436684 -2.5000011921
39.3958829226 -11.5864697534 -2.5000011921
39.3828943728 -11.5830903925 -2.5000011921
39.5190554967 -11.5953947813 -2.5000011921
39.4411163771 -11.5735082599 -2.5000011921
39.5388173409 -11.5759830153 -2.5000011921
39.5257971441 -11.5721808744 -2.5000011921
39.6629020838 -11.5889263059 -2.5000011921
39.6369249048 -11.5806262034 -2.5000011921
39.6239180140 -11.5765338223 -2.5000011921
39.4669281523 -11.5304377354 -2.5000011921
39.6963909815 -11.5744199369 -2.5000011921
39.8212059915 -11.5918122292 -2.5000011921
39.7952431159 -11.5825754971 -2.5000011921
39.9419091614 -11.5851884802 -2.5000011921
39.6793485305 -11.4926521874 -2.5000011921
39.9897095609 -11.5779298647 -2.5000011921
40.0767869002 -11.5872410673 -2.5000011921
40.0507925070 -11.5764923126 -2.5000011921
40.0247349756 -11.5658975377 -2.5000011921
40.1251588531 -11.5814243726 -2.5000011921
40.1121521873 -11.5758877036 -2.5000011921
40.0991291999 -11.5703895350 -2.5000011921
40.1867831076 -11.5818413363 -2.5000011921
40.1607548427 -11.5704419017 -2.5000011921
40.2356568548 -11.5772024947 -2.5000011921
40.2226372164 -11.5713389712 -2.5000011921
40.3107753691 -11.5852198839 -2.5000011921
40.2977791189 -11.5791341112 -2.5000011921
40.3471264563 -11.5756913338 -2.5000011921
40.3341018598 -11.5694980696 -2.5000011921
40.4097102059 -11.5791583028 -2.5000011921
40.4464809656 -11.5704034362 -2.5000011921
40.5095036160 -11.5752391787 -2.5000011921
40.4964769716 -11.5685655755 -2.5000011921
40.5466779559 -11.5672698509 -2.5000011921
40.6607046446 -11.5734395693 -2.5000011921
41.3586124325 -11.8524779403 -2.5000011921
41.3341648356 -11.8341408333 -2.5000011921
41.2601771234 -11.7800018209 -2.5000011921
41.2353024563 -11.7622483587 -2.5000011921
41.1220846844 -11.6841916645 -2.5000011921
41.0454690525 -11.6338403073 -2.5000011921
41.0326134157 -11.6255809651 -2.5000011921
40.6631755470 -11.4100288296 -2.5000011921
40.5544651765 -11.3541329148 -2.5000011921
40.5270832770 -11.3405621349 -2.5000011921
40.4444625662 -11.3008250949 -2.5000011921
41.6591409568 -12.0653782150 -2.5000011921
41.6126357987 -12.0252780646 -2.5000011921
41.5774473282 -11.9955656050 -2.5000011921
41.5538424561 -11.9759312930 -2.5000011921
41.4943256867 -11.9274594954 -2.5000011921
41.4098116729 -11.8610890884 -2.5000011921
40.4824938887 -11.2920924605 -2.5000011921
40.4547461967 -11.2789485727 -2.5000011921
40.4269212267 -11.2659690795 -2.5000011921
40.3710433512 -11.2405050889 -2.5000011921
40.3429924016 -11.2280214828 -2.5000011921
40.3289393529 -11.2218419691 -2.5000011921
40.3007787229 -11.2096077910 -2.5000011921
40.2725462043 -11.1975404348 -2.5000011921
40.2584032954 -11.1915694470 -2.5000011921
41.8235322659 -12.1818662224 -2.5000011921
41.7783939396 -12.1398127628 -2.5000011921
40.2961721253 -11.1813255196 -2.5000011921
40.2819811465 -11.1752847131 -2.5000011921
40.1821526523 -11.1341781470 -2.5000011921
40.1678227019 -11.1284748370 -2.5000011921
40.1391125004 -11.1171955132 -2.5000011921
40.1247325005 -11.1116195981 -2.5000011921
40.1103360691 -11.1060862460 -2.5000011921
42.0164116841 -12.3385470639 -2.5000011921
41.9622075446 -12.2831940244 -2.5000011921
39.9734633863 -11.0302819593 -2.5000011921
41.9017481563 -12.1896681166 -2.5000011921
40.0400936247 -11.0283299893 -2.5000011921
39.8929842482 -10.9774595210 -2.5000011921
39.8040190049 -10.9490337769 -2.5000011921
42.3120091175 -12.5960920486 -2.5000011921
42.1895106735 -12.4539512289 -2.5000011921
39.9005455277 -10.9544995050 -2.5000011921
39.7662980831 -10.9122609934 -2.5000011921
43.1119415907 -13.8463694695 -2.5000011921
43.0799188943 -13.7746481878 -2.5000011921
43.0264864328 -13.6609020893 -2.5000011921
42.9987645320 -13.6045111757 -2.5000011921
42.4388849506 -12.7152924220 -2.5000011921
42.0136445336 -12.2320740312 -2.5000011921
39.7129541637 -10.8714048161 -2.5000011921
39.4346268673 -10.7499703138 -2.5000011921
39.1548300029 -10.6941690809 -2.5000011921
39.1746146878 -10.6730662603 -2.5000011921
40.9353673192 -17.1523966300 -2.5000011921
40.9429920920 -17.1303632399 -2.5000011921
40.9504210306 -17.1082630519 -2.5000011921
40.9552645700 -17.0934933426 -2.5000011921
40.9558488901 -15.4727350585 -2.5000011921
40.9485668021 -15.4505860488 -2.5000011921
40.9308129989 -15.3991627404 -2.5000011921
40.9428600460 -15.3615528465 -2.5000011921
40.9317923001 -15.3321967757 -2.5000011921
40.9261283609 -15.3175683643 -2.5000011921
40.9421287756 -17.2721730646 -2.5000011921
40.9508162309 -17.2500749538 -2.5000011921
40.9339745936 -15.2720193677 -2.5000011921
40.9251157021 -15.1893969759 -2.5000011921
40.9186070282 -15.1748105648 -2.5000011921
40.9206395816 -15.0121137394 -2.5000011921
40.9206037670 -14.8607096493 -2.5000011921
40.9346559111 -14.7430308071 -2.5000011921
40.9505888172 -14.7228920288 -2.5000011921
40.0476273457 -11.5716935144 -2.5000011921
40.1391211957 -11.5779154218 -2.5000011921
40.1891459398 -11.5703459032 -2.5000011921
40.2812444358 -11.5793045130 -2.5000011921
40.3966489904 -11.5733966753 -2.5000011921
40.4851593067 -11.5581853111 -2.5000011921
40.6304495639 -11.5699657835 -2.5000011921
40.6825034630 -11.5675855573 -2.5000011921
40.7347700149 -11.5657598274 -2.5000011921
40.8538655329 -11.5708575321 -2.5000011921
41.1404671852 -11.7000006973 -2.5000011921
41.1133103021 -11.6842012647 -2.5000011921
41.0724009014 -11.6608040605 -2.5000011921
40.6953369859 -11.4668194411 -2.5000011921
41.4070089564 -11.8378755728 -2.5000011921
41.3938488918 -11.8291666907 -2.5000011921
41.3143527487 -11.7777343686 -2.5000011921
41.2876527208 -11.7609048102 -2.5000011921
41.1390563507 -11.6711866677 -2.5000011921
40.2612411947 -11.2365034356 -2.5000011921
40.1714047565 -11.2052661889 -2.5000011921
40.0579793526 -11.1430276820 -2.5000011921
42.1954973371 -12.3762666140 -2.5000011921
42.1373178845 -12.3213917008 -2.5000011921
42.6657529858 -12.7739162399 -2.5000011921
39.5055316912 -10.9039333409 -2.5000011921
39.4621784309 -10.8710689901 -2.5000011921
38.9948411801 -10.8047941718 -2.5000011921
40.3826679728 -15.3938761626 -2.5000011921
40.3318610613 -15.0597603135 -2.5000011921
40.9353904612 -17.3555516463 -2.5000011921
40.9584416084 -17.2896150539 -2.5000011921
40.9457245293 -15.7600526923 -2.5000011921
40.9386849756 -15.7403148381 -2.5000011921
40.9482239134 -17.3903124846 -2.5000011921
40.9466643187 -15.6924069557 -2.5000011921
40.9482749940 -15.6307552670 -2.5000011921
40.9345325733 -15.5978703067 -2.5000011921
40.9335410599 -15.5356787949 -2.5000011921
40.9402472078 -15.4926890028 -2.5000011921
40.9445018281 -15.3922816504 -2.5000011921
40.9235532324 -15.1606671155 -2.5000011921
40.1608300398 -11.5835788408 -2.5000011921
40.1020420455 -11.5668552953 -2.5000011921
40.0578234402 -11.5547697722 -2.5000011921
37.4431579753 -11.5378345488 -2.5000011921
37.3840189668 -11.5532709642 -2.5000011921
37.3545189926 -11.5612513156 -2.5000011921
37.3103588488 -11.5735487389 -2.5000011921
37.2956632675 -11.5777349093 -2.5000011921
37.2809801339 -11.5819645335 -2.5000011921
40.2117462216 -11.5734271652 -2.5000011921
37.2890064297 -11.5544965403 -2.5000011921
37.2742545820 -11.5587459583 -2.5000011921
37.1713526455 -11.5897111150 -2.5000011921
40.2923897095 -11.5730172879 -2.5000011921
40.2776795084 -11.5683820739 -2.5000011921
40.2629556599 -11.5637903957 -2.5000011921
37.1494323875 -11.5712554950 -2.5000011921
40.3586625684 -11.5690359049 -2.5000011921
40.4399658112 -11.5710019258 -2.5000011921
40.5215680636 -11.5742897257 -2.5000011921
40.5887538045 -11.5733531475 -2.5000011921
40.5298148578 -11.5515669251 -2.5000011921
40.6562130212 -11.5733139459 -2.5000011921
40.7386249486 -11.5801337370 -2.5000011921
40.8065898586 -11.5821091732 -2.5000011921
40.7477392674 -11.5577448005 -2.5000011921
40.6162839079 -11.4545976327 -2.5000011921
41.6075708573 -11.9159610512 -2.5000011921
41.5663910841 -11.8905010571 -2.5000011921
41.4833618338 -11.8406823951 -2.5000011921
41.4554905369 -11.8244046273 -2.5000011921
41.4415188960 -11.8163276508 -2.5000011921
41.3430569856 -11.7609509753 -2.5000011921
41.3288981292 -11.7532068752 -2.5000011921
41.1572454599 -11.6635663181 -2.5000011921
40.5337126356 -11.3989152113 -2.5000011921
40.4268024830 -11.3624248938 -2.5000011921
40.4114687234 -11.3573929840 -2.5000011921
40.3653790728 -11.3425697210 -2.5000011921
43.0049181542 -13.1302131853 -2.5000011921
41.8236919936 -12.0287706156 -2.5000011921
41.8103232932 -12.0196035384 -2.5000011921
41.5928242783 -11.8783676385 -2.5000011921
41.2402796908 -11.6787154214 -2.5000011921
40.3107507760 -11.3003132207 -2.5000011921
39.0209230220 -11.0721362177 -2.5000011921
42.9205459912 -12.9893038988 -2.5000011921
42.7476833540 -12.7944537390 -2.5000011921
42.0094253461 -12.1321335522 -2.5000011921
40.0352294513 -11.1995105889 -2.5000011921
39.5725090714 -11.1063102260 -2.5000011921
39.5403264252 -11.1013505576 -2.5000011921
38.7781929578 -11.0399184497 -2.5000011921
42.3050261657 -12.3371255761 -2.5000011921
42.2171626756 -12.2637576246 -2.5000011921
41.6874765930 -11.8806165416 -2.5000011921
41.5060111919 -11.7699015327 -2.5000011921
41.4351042448 -11.7291897532 -2.5000011921
39.9774124439 -11.1607626379 -2.5000011921
39.9136343322 -11.1462389744 -2.5000011921
39.8816819476 -11.1392603955 -2.5000011921
39.8176561131 -11.1258709650 -2.5000011921
39.4953977399 -11.0703353952 -2.5000011921
39.2844002448 -11.0444981732 -2.5000011921
42.5690407428 -12.5102988297 -2.5000011921
42.0395561256 -12.0641649767 -2.5000011921
39.6326194318 -11.0425692640 -2.5000011921
39.2967814200 -10.9242688566 -2.5000011921
40.9465802011 -15.9833851588 -2.5000011921
40.9442951887 -15.9777000525 -2.5000011921
40.9396747614 -15.9663502428 -2.5000011921
40.9451431552 -15.9172037301 -2.5000011921
40.9383390566 -15.7888367098 -2.5000011921
40.9332878025 -15.7267649555 -2.5000011921
40.9344742516 -15.5832460258 -2.5000011921
40.6465716808 -14.4756824148 -2.5000011921
40.3708994080 -11.5913083829 -2.5000011921
37.7930098420 -11.5622545292 -2.5000011921
40.4382617299 -11.5842958816 -2.5000011921
40.3770044330 -11.5679189846 -2.5000011921
37.6490656642 -11.5734891915 -2.5000011921
37.6337498100 -11.5775780248 -2.5000011921
40.5212793156 -11.5825658067 -2.5000011921
40.5059777445 -11.5781580728 -2.5000011921
37.5813992435 -11.5668268459 -2.5000011921
41.8687135641 -12.1548903629 -2.5000011921
41.8277960685 -12.1298227914 -2.5000011921
40.6046560853 -11.5821657956 -2.5000011921
40.5587057571 -11.5683385783 -2.5000011921
42.0568925954 -12.2476232763 -2.5000011921
40.7036569171 -11.5880533364 -2.5000011921
40.6883707812 -11.5831060726 -2.5000011921
37.4450301444 -11.5561476463 -2.5000011921
37.4296638836 -11.5608401295 -2.5000011921
40.7571076260 -11.5802459106 -2.5000011921
39.6565801535 -11.3343522981 -2.5000011921
37.3609725404 -11.5570409544 -2.5000011921
37.3149269751 -11.5720005982 -2.5000011921
37.2996081794 -11.5770778807 -2.5000011921
37.2843044702 -11.5822004568 -2.5000011921
40.8567278085 -11.5890466882 -2.5000011921
37.2919691487 -11.5541436161 -2.5000011921
37.2305753358 -11.5749972255 -2.5000011921
41.1532753963 -11.6778877991 -2.5000011921
41.1232121781 -11.6653768462 -2.5000011921
40.0643593586 -11.3484576339 -2.5000011921
37.1612529789 -11.5738287369 -2.5000011921
37.1459402636 -11.5793606069 -2.5000011921
37.1153642605 -11.5905601188 -2.5000011921
41.5479728637 -11.8350226005 -2.5000011921
41.4602904730 -11.7909945106 -2.5000011921
41.3124611108 -11.7210946267 -2.5000011921
41.2677158258 -11.7009805660 -2.5000011921
40.5301912778 -11.4342477770 -2.5000011921
40.4513603881 -11.4125467407 -2.5000011921
40.3245884891 -11.3802570532 -2.5000011921
40.1170619367 -11.3342110437 -2.5000011921
39.7947413800 -11.2790375234 -2.5000011921
37.1223299519 -11.5622394636 -2.5000011921
37.0763399179 -11.5793167218 -2.5000011921
37.0610438085 -11.5850997559 -2.5000011921
41.8889584800 -11.9973164104 -2.5000011921
41.7898743019 -11.9390067305 -2.5000011921
39.7818462787 -11.2528337937 -2.5000011921
37.0371160387 -11.5683551771 -2.5000011921
36.9911836339 -11.5861884202 -2.5000011921
36.9759082248 -11.5922233319 -2.5000011921
41.1356190924 -11.5920715967 -2.5000011921
40.0294367565 -11.2681048024 -2.5000011921
37.0130721034 -11.5517071377 -2.5000011921
36.9210756774 -11.5882099043 -2.5000011921
36.8660113420 -11.5847650094 -2.5000011921
36.8107210068 -11.5818924386 -2.5000011921
36.7801658498 -11.5950751759 -2.5000011921
36.6282507917 -11.5838090194 -2.5000011921
36.6129699320 -11.5909175626 -2.5000011921
36.5568321970 -11.5907031585 -2.5000011921
36.5005016216 -11.5910803043 -2.5000011921
36.2314209101 -11.5936736639 -2.5000011921
36.2161709681 -11.6019560584 -2.5000011921
36.2046026595 -11.5807308489 -2.5000011921
36.1317809161 -11.5933619804 -2.5000011921
40.9403197055 -16.2471369703 -2.5000011921
40.9378253456 -16.0715563233 -2.5000011921
40.9331172705 -15.8733717712 -2.5000011921
40.8409071235 -11.6009477457 -2.5000011921
37.9920697823 -11.5719209748 -2.5000011921
37.9763071467 -11.5759977572 -2.5000011921
37.9448183997 -11.5842911185 -2.5000011921
37.9133792702 -11.5927706327 -2.5000011921
42.6583041822 -12.4645115084 -2.5000011921
42.4852426628 -12.3410723920 -2.5000011921
42.4446401326 -12.3135378588 -2.5000011921
42.3901263628 -12.2773877103 -2.5000011921
42.1819871130 -12.1476322664 -2.5000011921
42.0971538541 -12.0983373118 -2.5000011921
42.0258002136 -12.0584136080 -2.5000011921
40.9259941532 -11.6002106612 -2.5000011921
40.8788782918 -11.5865427580 -2.5000011921
40.8474011327 -11.5776633491 -2.5000011921
39.6719529819 -11.3831255486 -2.5000011921
37.8754891652 -11.5781537507 -2.5000011921
37.8282976857 -11.5915582366 -2.5000011921
42.8031055571 -12.5449685707 -2.5000011921
42.5663149644 -12.3680185395 -2.5000011921
42.3065303091 -12.1951917190 -2.5000011921
41.9941658617 -12.0136828219 -2.5000011921
41.9361356038 -11.9828838859 -2.5000011921
41.4139088457 -11.7432210921 -2.5000011921
41.2912504356 -11.6961185303 -2.5000011921
40.7428394540 -11.5246413109 -2.5000011921
40.5029311567 -11.4686975144 -2.5000011921
37.8058171327 -11.5729157093 -2.5000011921
37.7585819121 -11.5869387016 -2.5000011921
41.7106728526 -11.8446928149 -2.5000011921
41.6054446670 -11.7971526515 -2.5000011921
41.4534615314 -11.7330402774 -2.5000011921
41.4075036874 -11.7146861664 -2.5000011921
41.0814929993 -11.5977243100 -2.5000011921
37.7042855174 -11.5783005659 -2.5000011921
41.7358690436 -11.8297670261 -2.5000011921
40.0883139171 -11.3491824619 -2.5000011921
37.6339438642 -11.5752988660 -2.5000011921
37.5633000751 -11.5732195720 -2.5000011921
41.9809590914 -11.8972088051 -2.5000011921
37.4211542774 -11.5718549145 -2.5000011921
42.7048370269 -12.2887939095 -2.5000011921
37.3339187845 -11.5785596111 -2.5000011921
37.2464588397 -11.5866835846 -2.5000011921
37.2217371258 -11.5705332317 -2.5000011921
37.1745037624 -11.5897397003 -2.5000011921
37.1495265999 -11.5739103239 -2.5000011921
37.0299384224 -11.5987426269 -2.5000011921
36.9316352719 -11.5898566533 -2.5000011921
36.8743328481 -11.5897454743 -2.5000011921
36.7748789711 -11.5836502386 -2.5000011921
36.7591563585 -11.5913276402 -2.5000011921
36.7327534762 -11.5773771094 -2.5000011921
36.4565798135 -11.5847511553 -2.5000011921
36.2952897050 -11.5922022100 -2.5000011921
35.4761072108 -11.6082462365 -2.5000011921
34.9068267625 -11.6261369811 -2.5000011921
40.9351509709 -16.6856729867 -2.5000011921
40.9371370796 -16.6037051953 -2.5000011921
40.9416308753 -16.5419181137 -2.5000011921
41.3374303464 -16.6007755852 -2.5000011921
41.3609391899 -16.5951480140 -2.5000011921
41.3512008516 -16.5564927631 -2.5000011921
41.3545476110 -16.2733084169 -2.5000011921
41.4674532368 -11.6909331118 -2.5000011921
41.0553382530 -11.5725327016 -2.5000011921
38.5210071277 -11.5419955240 -2.5000011921
38.3924898873 -11.5719573149 -2.5000011921
38.3604741779 -11.5799223224 -2.5000011921
38.3444841346 -11.5839758225 -2.5000011921
38.3125403709 -11.5922246379 -2.5000011921
41.0289170737 -11.5412369846 -2.5000011921
38.2904046383 -11.5730507870 -2.5000011921
38.2743945744 -11.5773115955 -2.5000011921
38.2424126095 -11.5859752009 -2.5000011921
42.5720798467 -12.1377305804 -2.5000011921
38.3103743804 -11.5178608218 -2.5000011921
38.0691499773 -11.5858946460 -2.5000011921
39.5133550096 -11.2939489872 -2.5000011921
37.9746074006 -11.5649288910 -2.5000011921
37.9425574223 -11.5753663547 -2.5000011921
37.8945996407 -11.5913776263 -2.5000011921
44.1303426221 -13.3016007415 -2.5000011921
37.8148263282 -11.5677841618 -2.5000011921
37.6860248241 -11.5631905636 -2.5000011921
37.6699882364 -11.5692392800 -2.5000011921
37.5971916286 -11.5714056575 -2.5000011921
37.3774434105 -11.5837317106 -2.5000011921
37.2878278116 -11.5969809748 -2.5000011921
37.2778765517 -11.5749512742 -2.5000011921
37.1718616163 -11.5973461119 -2.5000011921
37.1559283165 -11.6049156667 -2.5000011921
37.1295477103 -11.5907442693 -2.5000011921
37.0976652543 -11.6061809381 -2.5000011921
36.9377365336 -11.6053991323 -2.5000011921
36.7051033984 -11.5933762526 -2.5000011921
36.6613171207 -11.5902981844 -2.5000011921
36.6453652057 -11.5993780529 -2.5000011921
36.5854968215 -11.6060169818 -2.5000011921
36.4972005518 -11.6020396085 -2.5000011921
36.1681940986 -11.6092553257 -2.5000011921
35.2148235888 -11.6287298358 -2.5000011921
34.7370264027 -11.6321077825 -2.5000011921
34.2405619815 -11.4045286357 -2.5000011921
34.4947390049 -11.1333710949 -2.5000011921
34.4774448966 -11.1488620926 -2.5000011921
34.4429945336 -11.1799972260 -2.5000011921
34.4258385802 -11.1956410892 -2.5000011921
34.3746494334 -11.2428762208 -2.5000011921
34.2902721668 -11.3226049533 -2.5000011921
33.8095936255 -11.8263723964 -2.5000011921
33.7640261320 -11.8790515190 -2.5000011921
33.7040000989 -11.9499154453 -2.5000011921
33.6301535739 -12.0394860021 -2.5000011921
33.6155437004 -12.0575306353 -2.5000011921
33.6009872700 -12.0756184081 -2.5000011921
33.5576399097 -12.1301389801 -2.5000011921
34.5836797836 -11.0231930380 -2.5000011921
34.5660593595 -11.0384214148 -2.5000011921
34.4439884871 -11.1464701507 -2.5000011921
34.3241810226 -11.2570232991 -2.5000011921
34.1224355305 -11.3513253572 -2.5000011921
40.9313977639 -16.5909990171 -2.5000011921
