29.6143681148 -18.4709666999 -2.5027563211
29.5269874641 -18.4620301027 -2.5027563240
29.4394186100 -18.4516643395 -2.5027563269
29.4550639033 -18.4583052681 -2.5027563269
29.3262233904 -18.4549809861 -2.5027563326
29.2693148186 -18.4557535050 -2.5027563355
29.0397492042 -18.4528565786 -2.5027563470
29.0132177869 -18.4665610814 -2.5027563499
28.9395301175 -18.4559348310 -2.5027563528
28.6939636777 -18.4600784764 -2.5027563672
28.5915479769 -18.4568655813 -2.5027563730
28.5479551799 -18.4592113932 -2.5027563758
28.4760472493 -18.4724445284 -2.5027563816
28.4320582689 -18.4739218578 -2.5027563845
28.3879396756 -18.4750636962 -2.5027563874
26.8717584986 -18.7347366278 -2.5027565199
26.9213661899 -18.7772958202 -2.5027565199
26.9379857776 -18.7913841786 -2.5027565199
26.3297858769 -18.3201603717 -2.5027565286
26.2187948578 -18.2732674196 -2.5027565343
33.4427836219 -14.1797375576 -2.5006575584
33.4497987954 -14.3983990170 -2.5006575584
33.4415355846 -14.6118218739 -2.5006575584
30.1472247107 -18.4383522106 -2.5006575584
30.1924842829 -18.4489509615 -2.5006575584
30.2227088156 -18.4557934731 -2.5006575584
30.2378361307 -18.4591476418 -2.5006575584
32.7383360543 -18.3981933037 -2.5006575584
30.0509642004 -18.4393600903 -2.5006575584
30.1113496431 -18.4545413780 -2.5006575584
32.7896859292 -18.4090680435 -2.5006575584
32.8196290458 -18.4005453360 -2.5006575584
32.8495212152 -18.3918456240 -2.5006575584
29.9844536188 -18.4468005624 -2.5006575584
29.9995553737 -18.4508595724 -2.5006575584
29.8873790855 -18.4447295547 -2.5006575584
32.9833003937 -18.4013268925 -2.5006575584
33.0281197062 -18.3867585207 -2.5006575584
29.7899455532 -18.4408130135 -2.5006575584
29.8503664605 -18.4590826934 -2.5006575584
33.0656367934 -18.3997360079 -2.5006575584
33.1104387454 -18.3844370094 -2.5006575584
29.7223390529 -18.4448402574 -2.5006575584
29.7525474937 -18.4544643780 -2.5006575584
33.1482786682 -18.3968109683 -2.5006575584
29.6393261592 -18.4428980493 -2.5006575584
33.2162611092 -18.3980434626 -2.5006575584
29.5176781210 -18.4515578055 -2.5006575584
33.3829140050 -18.3859330500 -2.5006575584
33.3978208331 -18.3799390658 -2.5006575584
29.4337804524 -18.4462985277 -2.5006575584
33.4516838979 -18.3840261709 -2.5006575584
33.4665847843 -18.3778287613 -2.5006575584
33.5949597445 -18.3487473541 -2.5006575584
33.6687414327 -18.3152050840 -2.5006575584
33.7127694708 -18.2945571989 -2.5006575584
33.7566125367 -18.2735194027 -2.5006575584
33.7857367792 -18.2592784049 -2.5006575584
33.8002671775 -18.2520933523 -2.5006575584
32.9177571835 -18.6237451300 -2.5006575584
33.6641266012 -18.3439619128 -2.5006575584
33.6936692239 -18.3302668600 -2.5006575584
33.8691765959 -18.2444483159 -2.5006575584
33.9987477266 -18.1760259710 -2.5006575584
34.0415276330 -18.1524549458 -2.5006575584
34.0840966751 -18.1285052011 -2.5006575584
34.1545673931 -18.0877524976 -2.5006575584
29.2409417069 -18.4477515781 -2.5006575584
34.3203597748 -18.0148823552 -2.5006575584
29.1862481703 -18.4509441478 -2.5006575584
29.2316573308 -18.4700705306 -2.5006575584
32.5816909060 -18.7607755461 -2.5006575584
32.6137184826 -18.7534772515 -2.5006575584
34.0074585321 -18.2263138655 -2.5006575584
34.4707523185 -17.9454355421 -2.5006575584
29.1464570011 -18.4601488636 -2.5006575584
34.1628482214 -18.1669025917 -2.5006575584
29.0761975284 -18.4556140133 -2.5006575584
32.3323889163 -18.8599337914 -2.5006575584
34.2463183881 -18.1457071844 -2.5006575584
28.9501829915 -18.4508539077 -2.5006575584
28.9653012623 -18.4579724595 -2.5006575584
32.1426688158 -18.9387074984 -2.5006575584
28.8687468028 -18.4653952634 -2.5006575584
28.4872950085 -18.4563519910 -2.5006575584
28.4299961744 -18.4515811735 -2.5006575584
28.3300716017 -18.4491863454 -2.5006575584
28.2874471238 -18.4518534883 -2.5006575584
28.2598165599 -18.4633997789 -2.5006575584
28.1587592498 -18.4578905422 -2.5006575584
27.9265850105 -18.4511681218 -2.5006575584
27.5884245985 -18.4491408551 -2.5006575584
32.9777499369 -14.6835282594 -2.4989764690
32.9120222349 -14.8750286282 -2.4989764690
33.4600690069 -14.7556993977 -2.4989764690
33.4707042074 -14.8411261996 -2.4989764690
33.4534158474 -14.9231034029 -2.4989764690
33.4306005942 -15.4712560072 -2.4989764690
29.8889596816 -18.4570250890 -2.4989764690
32.0251985759 -18.5119698299 -2.4989764690
32.4870801710 -18.4008545478 -2.4989764690
32.5013326778 -18.3966805391 -2.4989764690
29.7676019209 -18.4507364178 -2.4989764690
32.5510490494 -18.4070328597 -2.4989764690
29.6890685635 -18.4539861437 -2.4989764690
29.7179244815 -18.4621490295 -2.4989764690
29.7323704247 -18.4661664160 -2.4989764690
29.7612976474 -18.4740729003 -2.4989764690
32.6010602970 -18.4168802360 -2.4989764690
32.6581770109 -18.3985817021 -2.4989764690
32.6724220456 -18.3939015679 -2.4989764690
29.5957374653 -18.4515942120 -2.4989764690
29.5164576202 -18.4520732872 -2.4989764690
32.8163615563 -18.3953785357 -2.4989764690
29.4512547978 -18.4561166780 -2.4989764690
29.3713138974 -18.4542531213 -2.4989764690
29.3857379996 -18.4592958791 -2.4989764690
29.4435816872 -18.4790395630 -2.4989764690
32.9614944983 -18.3925712054 -2.4989764690
29.3199185854 -18.4616040393 -2.4989764690
29.3343646579 -18.4667988016 -2.4989764690
33.0934720967 -18.3913851889 -2.4989764690
33.1076939382 -18.3854174047 -2.4989764690
29.1729820264 -18.4579511327 -2.4989764690
33.1740521878 -18.3832899802 -2.4989764690
29.1352117736 -18.4690199007 -2.4989764690
29.0394154191 -18.4559699106 -2.4989764690
33.2790409060 -18.3894025537 -2.4989764690
28.9722640207 -18.4536266964 -2.4989764690
29.0011303573 -18.4660304449 -2.4989764690
33.3602873450 -18.3782372618 -2.4989764690
33.4133310574 -18.3795856297 -2.4989764690
28.8127062890 -18.4614579268 -2.4989764690
33.6469295701 -18.3140125526 -2.4989764690
33.6748880881 -18.2987618533 -2.4989764690
33.7720221068 -18.2440874436 -2.4989764690
33.8133004537 -18.2200420591 -2.4989764690
33.8407000990 -18.2038086985 -2.4989764690
33.8680032228 -18.1874135164 -2.4989764690
32.8995533063 -18.6737048487 -2.4989764690
32.9746809400 -18.6462832612 -2.4989764690
33.0195599474 -18.6292979944 -2.4989764690
33.1532678798 -18.5759620583 -2.4989764690
33.9350655839 -18.1746774086 -2.4989764690
34.0696940066 -18.0883164931 -2.4989764690
34.1095782519 -18.0616355716 -2.4989764690
34.1755207873 -18.0163841978 -2.4989764690
28.6908393022 -18.4568023814 -2.4989764690
32.7402721784 -18.7531228857 -2.4989764690
34.0696385304 -18.1173220903 -2.4989764690
34.1893452611 -18.0362139533 -2.4989764690
32.1385264806 -18.9332062279 -2.4989764690
32.3278233103 -18.8923800280 -2.4989764690
32.5777387011 -18.8275445382 -2.4989764690
28.5970477694 -18.4639686364 -2.4989764690
34.7739171133 -17.6311062175 -2.4989764690
32.2753588726 -18.9539333820 -2.4989764690
35.0819164486 -17.5020053979 -2.4989764690
32.7601463083 -15.0268072675 -2.5006785393
32.9624571404 -14.6664586104 -2.5006785393
32.9703591922 -14.7128778828 -2.5006785393
32.9802391169 -14.6876616590 -2.5006785393
33.0003302146 -14.7027284991 -2.5006785393
33.4449229644 -14.7533490381 -2.5006785393
33.4408737244 -12.9655087718 -2.5006785393
33.4327862028 -12.9425007928 -2.5006785393
33.4430214522 -14.8306827196 -2.5006785393
33.4651375355 -14.7689174105 -2.5006785393
33.4832854880 -14.7144564617 -2.5006785393
33.4443575545 -12.9035506628 -2.5006785393
33.4357200522 -12.8805142065 -2.5006785393
33.4298482883 -12.8651995463 -2.5006785393
33.4449564942 -14.8931700630 -2.5006785393
33.4509921166 -14.8777655320 -2.5006785393
33.4463792409 -12.8410660626 -2.5006785393
33.4356255171 -14.9791883574 -2.5006785393
33.4404406103 -12.7627100338 -2.5006785393
33.5883051387 -14.6156870248 -2.5006785393
33.4489543092 -15.1246052618 -2.5006785393
33.4563591100 -15.1091730279 -2.5006785393
33.4516489834 -15.1738343322 -2.5006785393
33.4555084134 -15.1661155047 -2.5006785393
33.4744621362 -15.1273519749 -2.5006785393
33.4614418387 -15.2079556568 -2.5006785393
33.4329261563 -15.4556973026 -2.5006785393
33.4422900893 -15.4403541020 -2.5006785393
33.4499348476 -15.5197246756 -2.5006785393
33.4294458033 -15.6385057858 -2.5006785393
33.4443116836 -16.2405290593 -2.5006785393
29.6777334946 -18.4494985222 -2.5006785393
29.6912994441 -18.4529292868 -2.5006785393
29.7592781566 -18.4694803388 -2.5006785393
29.8411646153 -18.4880117388 -2.5006785393
31.9228741614 -18.4709803842 -2.5006785393
32.1530279537 -18.4109384661 -2.5006785393
32.1798984863 -18.4031158514 -2.5006785393
29.6173348733 -18.4587288749 -2.5006785393
29.6445325288 -18.4659074356 -2.5006785393
29.7811316371 -18.4993798698 -2.5006785393
32.2136847783 -18.4182830210 -2.5006785393
32.2540358943 -18.4059509329 -2.5006785393
29.5021942342 -18.4516094887 -2.5006785393
29.5157671964 -18.4555595210 -2.5006785393
29.5429478786 -18.4633390456 -2.5006785393
29.6384327190 -18.4892981946 -2.5006785393
32.2881792777 -18.4205739207 -2.5006785393
32.3016482412 -18.4162826412 -2.5006785393
32.3419781411 -18.4031700054 -2.5006785393
29.4954052521 -18.4748095965 -2.5006785393
32.4034146637 -18.4079945555 -2.5006785393
32.4168459110 -18.4033624439 -2.5006785393
32.4382458863 -18.4215076130 -2.5006785393
32.4651739577 -18.4119973682 -2.5006785393
32.4786167758 -18.4071825439 -2.5006785393
32.4920452920 -18.4023279744 -2.5006785393
32.6433587202 -18.3965396713 -2.5006785393
32.6791885798 -18.4082301090 -2.5006785393
32.7060338802 -18.3972945987 -2.5006785393
32.6882416766 -18.4306438708 -2.5006785393
32.8053369155 -18.4079243399 -2.5006785393
32.8822175060 -18.4004716230 -2.5006785393
33.0336983022 -18.4099458137 -2.5006785393
33.0980677572 -18.4053732014 -2.5006785393
33.2005527892 -18.4075726811 -2.5006785393
33.2273850753 -18.3935526166 -2.5006785393
33.2655181904 -18.4006985469 -2.5006785393
33.3172448750 -18.4002553493 -2.5006785393
33.3306492300 -18.3929199965 -2.5006785393
33.3691534728 -18.3992495839 -2.5006785393
33.3825546254 -18.3917606805 -2.5006785393
33.4346343335 -18.3900350231 -2.5006785393
33.2148513301 -18.5360827448 -2.5006785393
33.6588019095 -18.2827957859 -2.5006785393
33.6978937456 -18.2576444292 -2.5006785393
32.9441714054 -18.6902459364 -2.5006785393
32.9584352373 -18.6840129336 -2.5006785393
32.9869072741 -18.6714204797 -2.5006785393
33.0153043115 -18.6586597960 -2.5006785393
33.0577570698 -18.6392043184 -2.5006785393
33.1561298100 -18.5923487701 -2.5006785393
33.7110632559 -18.2779150799 -2.5006785393
33.7630745031 -18.2436849272 -2.5006785393
33.7760137437 -18.2350314148 -2.5006785393
33.8275130246 -18.2000357400 -2.5006785393
33.9039765391 -18.1464058193 -2.5006785393
33.9292513632 -18.1282286346 -2.5006785393
33.9669608526 -18.1006832773 -2.5006785393
34.0292620226 -18.0540341741 -2.5006785393
32.7804617876 -18.7842266251 -2.5006785393
32.7950043477 -18.7784774937 -2.5006785393
32.8240381289 -18.7668502986 -2.5006785393
32.8385290960 -18.7609723365 -2.5006785393
32.8530026116 -18.7550515333 -2.5006785393
32.9681473171 -18.7061491208 -2.5006785393
33.7373334000 -18.2896468806 -2.5006785393
33.8024545322 -18.2463733867 -2.5006785393
33.9938787248 -18.1108412189 -2.5006785393
34.1057806735 -18.0254923929 -2.5006785393
34.2394025475 -17.9171790882 -2.5006785393
34.2513738406 -17.9071179399 -2.5006785393
34.3107809942 -17.8562834317 -2.5006785393
32.6275208107 -18.8673846893 -2.5006785393
32.6865827907 -18.8459342478 -2.5006785393
32.7160175663 -18.8349473304 -2.5006785393
34.0710153032 -18.0829916971 -2.5006785393
34.4089002459 -17.8015686328 -2.5006785393
34.4205288007 -17.7910065855 -2.5006785393
34.3780881262 -17.8615799713 -2.5006785393
34.5745046449 -17.6788898951 -2.5006785393
34.6637017989 -17.5895524518 -2.5006785393
34.6966019178 -17.5555104712 -2.5006785393
32.3573597734 -19.0060405087 -2.5006785393
31.4152832090 -19.2422039068 -2.5006785393
31.2418169844 -19.2820432247 -2.5006785393
32.0983593524 -19.1498439515 -2.5006785393
35.8937761757 -15.9304140511 -2.5006785393
32.9505774375 -14.6775273447 -2.4996461868
32.9042604034 -14.9384911959 -2.4996461868
32.9172121112 -14.8986317993 -2.4996461868
32.9464790669 -14.7980327373 -2.4996461868
32.9124052945 -15.1232848145 -2.4996461868
33.0146758528 -14.8236941454 -2.4996461868
33.0436167097 -14.7047823522 -2.4996461868
33.4460063995 -15.1473821440 -2.4996461868
33.4689876625 -13.2998269551 -2.4996461868
33.4297745728 -13.1844998963 -2.4996461868
33.4482490439 -15.2131064975 -2.4996461868
33.4405138207 -13.0771068439 -2.4996461868
33.4356493632 -13.0022251709 -2.4996461868
33.4285802818 -12.9858543378 -2.4996461868
33.4287828921 -12.9269564261 -2.4996461868
33.4439904589 -15.5320910356 -2.4996461868
33.4689567102 -12.8985757062 -2.4996461868
33.4495660542 -12.8572464664 -2.4996461868
33.4388304623 -12.7807871975 -2.4996461868
33.4304512239 -12.7644014194 -2.4996461868
33.4373215085 -15.6524416823 -2.4996461868
33.4433988909 -12.7368690633 -2.4996461868
33.4320822975 -15.7130766174 -2.4996461868
33.4321415923 -12.6152797950 -2.4996461868
33.4274745196 -12.6071012202 -2.4996461868
33.4463386335 -12.4964274506 -2.4996461868
33.4261181572 -12.4636368223 -2.4996461868
33.4630514901 -16.0355089212 -2.4996461868
33.4739278545 -16.0189228803 -2.4996461868
32.0695619754 -18.4010962419 -2.4996461868
32.1022400371 -18.4155994010 -2.4996461868
32.1272216325 -18.4070227221 -2.4996461868
32.2101769361 -18.4031037165 -2.4996461868
32.2435379280 -18.4165347386 -2.4996461868
32.2685225842 -18.4071220776 -2.4996461868
32.2809939198 -18.4023603565 -2.4996461868
32.3861338961 -18.4127704388 -2.4996461868
32.5049002815 -18.4151899319 -2.4996461868
32.5423340468 -18.3986961584 -2.4996461868
32.6021206001 -18.3981483780 -2.4996461868
33.0014398843 -18.4127424660 -2.4996461868
33.0632048704 -18.4058147440 -2.4996461868
33.2245805205 -18.3949898386 -2.4996461868
33.3625477981 -18.3942871659 -2.4996461868
33.0260779307 -18.6741179727 -2.4996461868
33.0657890139 -18.6529888437 -2.4996461868
33.1053110241 -18.6315081332 -2.4996461868
33.7094577345 -18.2414652733 -2.4996461868
33.7571967948 -18.2051591101 -2.4996461868
33.8045029216 -18.1682906179 -2.4996461868
33.8162610299 -18.1589862341 -2.4996461868
33.8862270101 -18.1024332225 -2.4996461868
32.8487163501 -18.7898620730 -2.4996461868
32.9030045531 -18.7637022106 -2.4996461868
32.9300316269 -18.7503818476 -2.4996461868
32.9435154925 -18.7436617611 -2.4996461868
33.0106333936 -18.7094646426 -2.4996461868
33.8194750550 -18.1872687764 -2.4996461868
33.8430757153 -18.1685363546 -2.4996461868
34.0728297422 -17.9736611349 -2.4996461868
34.0951621938 -17.9534335202 -2.4996461868
32.7352411625 -18.8684674932 -2.4996461868
33.8581598679 -18.1874256008 -2.4996461868
32.6472221019 -18.9326328109 -2.4996461868
34.4509141646 -17.6673239789 -2.4996461868
32.3356910346 -19.1021868941 -2.4996461868
31.6629323300 -19.3308578147 -2.4996461868
32.7571419835 -15.0328671579 -2.5001611710
33.4372326282 -13.5281906335 -2.5001611710
33.4371226826 -15.6227976469 -2.5001611710
33.4630520552 -13.5288271651 -2.5001611710
33.4539648541 -13.5029871026 -2.5001611710
33.4532508036 -15.6484938002 -2.5001611710
33.4520750598 -15.7175169788 -2.5001611710
33.4611912242 -15.9911433241 -2.5001611710
30.7514208648 -18.4186934812 -2.5001611710
31.6621859517 -18.4116731184 -2.5001611710
31.7079209414 -18.3982046040 -2.5001611710
31.7721677601 -18.4036515737 -2.5001611710
31.7950057931 -18.3963344141 -2.5001611710
32.1335793823 -18.4008193896 -2.5001611710
32.2439284888 -18.4064600548 -2.5001611710
32.3109729206 -18.4029249778 -2.5001611710
32.4679760140 -18.4084356747 -2.5001611710
33.1662115170 -18.6230497225 -2.5001611710
33.8142983127 -18.1255595197 -2.5001611710
33.8459907010 -18.0964213309 -2.5001611710
32.8688694875 -18.8266830590 -2.5001611710
32.9320192389 -18.7918702209 -2.5001611710
32.9946471875 -18.7561271815 -2.5001611710
34.0379104239 -17.9429561039 -2.5001611710
34.2600300031 -17.7732159791 -2.5001611710
34.4816717076 -17.5395411737 -2.5001611710
32.9171475939 -15.1523138128 -2.4999349117
32.9192328569 -15.1308155106 -2.4999349117
32.9460281246 -14.7118350595 -2.4999349117
32.9950182222 -15.3031011209 -2.4999349117
33.0460615609 -14.7569480753 -2.4999349117
33.0411740704 -14.6891102425 -2.4999349117
33.4529718918 -15.7905372224 -2.4999349117
33.4555738129 -15.7817853306 -2.4999349117
33.4706406364 -15.7291158333 -2.4999349117
33.4322800753 -13.9561709790 -2.4999349117
33.4542170677 -15.8677364599 -2.4999349117
33.4570473527 -15.8589805469 -2.4999349117
33.4653826260 -15.8326631096 -2.4999349117
33.4378119572 -13.8963518964 -2.4999349117
33.4317835272 -13.8789632969 -2.4999349117
33.4714244671 -15.8928278551 -2.4999349117
33.4545994004 -13.8709776091 -2.4999349117
33.4357530196 -13.8186263798 -2.4999349117
33.4452435422 -13.7752579235 -2.4999349117
33.4384985495 -13.7578274755 -2.4999349117
33.4316505505 -13.7404372383 -2.4999349117
33.4562873216 -16.0761959945 -2.4999349117
33.4597342585 -16.0674330452 -2.4999349117
33.4327946964 -13.6791930711 -2.4999349117
33.4573837072 -16.1378355564 -2.4999349117
33.4752702720 -16.0938970366 -2.4999349117
33.4586466141 -13.6165878447 -2.4999349117
33.4313007454 -13.5555150254 -2.4999349117
33.4597728793 -16.2535402504 -2.4999349117
33.4832118322 -16.2007219206 -2.4999349117
33.4572733538 -13.5541633511 -2.4999349117
33.4410634263 -13.5192158016 -2.4999349117
33.4328036756 -13.5018145658 -2.4999349117
33.4530433084 -16.3250784817 -2.4999349117
33.4461860590 -13.4739034861 -2.4999349117
33.4376581358 -13.4564727361 -2.4999349117
33.4453659484 -13.3648682859 -2.4999349117
33.4650693135 -16.4628055271 -2.4999349117
33.4485520209 -16.5443585495 -2.4999349117
33.4581898996 -16.5268600636 -2.4999349117
33.4357404206 -13.2459432422 -2.4999349117
33.4518272593 -13.2253026314 -2.4999349117
33.4468407576 -13.2165653497 -2.4999349117
33.4367903241 -13.1991352301 -2.4999349117
33.4317264803 -13.1904425448 -2.4999349117
33.4319381596 -13.1433780426 -2.4999349117
33.4401190674 -16.7029785151 -2.4999349117
33.4627540708 -13.1009031980 -2.4999349117
33.4374501522 -16.7982985339 -2.4999349117
33.4485906194 -16.7808612861 -2.4999349117
33.4339418128 -13.0094473418 -2.4999349117
31.3421176363 -18.4245336102 -2.4999349117
31.3733040369 -18.4168839598 -2.4999349117
31.3836842661 -18.4142726103 -2.4999349117
31.4044213230 -18.4089578489 -2.4999349117
31.4147779691 -18.4062544835 -2.4999349117
31.4561232251 -18.3951350125 -2.4999349117
33.4431057823 -17.0054721289 -2.4999349117
31.4104919728 -18.4323561927 -2.4999349117
31.4417451019 -18.4240994504 -2.4999349117
31.4832996199 -18.4126596425 -2.4999349117
31.5040253905 -18.4067555514 -2.4999349117
31.5247158678 -18.4007289431 -2.4999349117
31.5350476450 -18.3976697606 -2.4999349117
31.4794086980 -18.4388525946 -2.4999349117
31.5002895029 -18.4329710651 -2.4999349117
31.5211351454 -18.4269661007 -2.4999349117
31.5315445526 -18.4239173959 -2.4999349117
31.6041515152 -18.4017161624 -2.4999349117
31.6144858653 -18.3984219907 -2.4999349117
31.5801932132 -18.4345210813 -2.4999349117
31.6010466276 -18.4280433526 -2.4999349117
31.6840661124 -18.4009021455 -2.4999349117
31.6605887939 -18.4342642751 -2.4999349117
31.6814392819 -18.4273109037 -2.4999349117
31.7644189234 -18.3982675484 -2.4999349117
31.6891544427 -18.4502196700 -2.4999349117
31.7726740202 -18.4209873340 -2.4999349117
31.7830646405 -18.4171945579 -2.4999349117
31.7494886243 -18.4549731576 -2.4999349117
31.8953262042 -18.4000219499 -2.4999349117
31.9768129948 -18.3925416737 -2.4999349117
31.8713398943 -18.4614259050 -2.4999349117
33.4428333677 -12.4512734778 -2.4999349117
32.1095902373 -18.4130868048 -2.4999349117
32.1406448319 -18.3986267164 -2.4999349117
32.1820645227 -18.4056676868 -2.4999349117
32.2027366969 -18.3956295903 -2.4999349117
32.2444482735 -18.4019620464 -2.4999349117
32.2547805494 -18.3967737600 -2.4999349117
33.4336263685 -12.2924155264 -2.4999349117
32.4551724164 -18.3996406724 -2.4999349117
32.4981070077 -18.4030910322 -2.4999349117
32.5949649194 -18.4023278629 -2.4999349117
32.7600341686 -18.4134112454 -2.4999349117
32.8592202416 -18.4058390370 -2.4999349117
32.8695612964 -18.3988321269 -2.4999349117
33.1594271973 -11.5989903939 -2.4999349117
33.0285127721 -18.4054166035 -2.4999349117
33.6969280366 -11.8296148059 -2.4999349117
33.6602956723 -11.7919522797 -2.4999349117
33.6510681488 -11.7826045822 -2.4999349117
33.6325303475 -11.7639912816 -2.4999349117
33.2713964057 -18.4032214328 -2.4999349117
33.7687568425 -11.8704751867 -2.4999349117
33.7597611295 -11.8608062979 -2.4999349117
33.7416840935 -11.8415485644 -2.4999349117
33.6867738234 -11.7844217625 -2.4999349117
33.1734339669 -18.6287453498 -2.4999349117
33.1954085929 -18.6128380745 -2.4999349117
33.6338924804 -18.2497144808 -2.4999349117
33.6634372123 -18.2217334984 -2.4999349117
33.6829952436 -18.2029343227 -2.4999349117
33.6927324652 -18.1934914250 -2.4999349117
33.7121228943 -18.1745194231 -2.4999349117
32.9500616728 -18.8082633236 -2.4999349117
32.9845901406 -18.7863289612 -2.4999349117
33.0075003893 -18.7715361914 -2.4999349117
33.1207169028 -18.6955535762 -2.4999349117
33.2096410253 -18.6323770906 -2.4999349117
33.2644499227 -18.5918299185 -2.4999349117
33.2970452853 -18.5671140596 -2.4999349117
33.6899816002 -18.2297760411 -2.4999349117
33.7193471809 -18.2012980844 -2.4999349117
33.7290794032 -18.1917476583 -2.4999349117
33.7484588794 -18.1725606461 -2.4999349117
33.7964079759 -18.1240944461 -2.4999349117
33.8248315008 -18.0946761767 -2.4999349117
33.8623212992 -18.0550616450 -2.4999349117
33.8716203020 -18.0450889154 -2.4999349117
33.8808897630 -18.0350887213 -2.4999349117
32.7984303123 -18.9275102005 -2.4999349117
32.8340230004 -18.9069167856 -2.4999349117
32.8458464441 -18.8999822211 -2.4999349117
32.9280289465 -18.8504652312 -2.4999349117
33.8893243343 -18.0615480322 -2.4999349117
33.9811553387 -17.9597938639 -2.4999349117
34.0786438930 -17.8447820600 -2.4999349117
32.6777177899 -19.0216544780 -2.4999349117
32.7624556606 -18.9755926440 -2.4999349117
32.8462216166 -18.9277861183 -2.4999349117
34.2330426844 -17.6863993786 -2.4999349117
32.6152825810 -19.0812865391 -2.4999349117
32.6522471599 -19.0623124020 -2.4999349117
34.2107000018 -17.7560834832 -2.4999349117
34.2770879765 -17.6673774958 -2.4999349117
34.3334415502 -17.5884897376 -2.4999349117
32.3871335976 -19.2158962757 -2.4999349117
32.4253017466 -19.1989415321 -2.4999349117
32.4607044411 -19.2094391920 -2.4999349117
32.0749124810 -19.5956579885 -2.4999349117
32.8888845281 -15.0663759949 -2.5000250340
32.8992615472 -14.9438569299 -2.5000250340
32.9462530915 -15.2418353075 -2.5000250340
32.9179708348 -14.9049041950 -2.5000250340
33.0112002040 -14.8753536952 -2.5000250340
33.4509413183 -16.2214764562 -2.5000250340
33.4645970668 -16.1779147284 -2.5000250340
33.4348286320 -14.2827390764 -2.5000250340
33.4565833312 -16.2812852520 -2.5000250340
33.4635882505 -14.2923979026 -2.5000250340
33.4331910328 -14.2055471662 -2.5000250340
33.4416522696 -16.3937498757 -2.5000250340
33.4734174658 -16.3066285868 -2.5000250340
33.4402923045 -16.4632388436 -2.5000250340
33.4437901994 -16.4545731767 -2.5000250340
33.4472624444 -16.4458972003 -2.5000250340
33.4621719229 -14.1451549022 -2.5000250340
33.4416287238 -14.0929845794 -2.5000250340
33.4446847577 -16.5158214979 -2.5000250340
33.4424111641 -14.0317347232 -2.5000250340
33.4481573758 -16.5687916540 -2.5000250340
33.4519674806 -16.5601022589 -2.5000250340
33.4386419001 -16.6481540223 -2.5000250340
33.4426868147 -16.6394924286 -2.5000250340
33.4397671032 -16.7018637243 -2.5000250340
33.4620856857 -13.8978316465 -2.5000250340
33.4485008861 -13.7086495616 -2.5000250340
33.4443117059 -16.9025305810 -2.5000250340
31.8609490784 -18.3985273253 -2.5000250340
31.9076421668 -18.4044322107 -2.5000250340
33.4278049157 -13.4786556393 -2.5000250340
32.0390235685 -18.3963799624 -2.5000250340
33.4340143946 -17.1551205070 -2.5000250340
32.0867122945 -18.3996873798 -2.5000250340
33.4374422602 -17.1942267750 -2.5000250340
32.2014269076 -18.3942748218 -2.5000250340
32.3477968323 -18.3948747390 -2.5000250340
33.0979787259 -18.3983909250 -2.5000250340
32.5389435986 -11.5717467377 -2.5000250340
33.0038143005 -18.8050326726 -2.5000250340
33.1172951331 -18.7221166758 -2.5000250340
33.7447650358 -18.1417988688 -2.5000250340
33.7532270826 -18.1322251721 -2.5000250340
33.7867909556 -18.0936813226 -2.5000250340
33.8362757796 -18.0351276654 -2.5000250340
33.8767139814 -17.9856683079 -2.5000250340
32.7732148191 -11.5958949979 -2.5000250340
32.9650009402 -18.8614434551 -2.5000250340
33.9900995756 -17.8790528178 -2.5000250340
32.7858659518 -11.5752968396 -2.5000250340
32.7278591613 -19.0407066306 -2.5000250340
34.1365869663 -17.7144517266 -2.5000250340
34.1651807123 -17.6714010315 -2.5000250340
32.5470350163 -19.1687246567 -2.5000250340
33.5926808094 -11.7182453327 -2.5000250340
33.9035581762 -11.9783796524 -2.5000250340
33.7437176313 -11.8216384840 -2.5000250340
34.0174430895 -12.0637829086 -2.5000250340
33.9208866107 -11.9615255537 -2.5000250340
32.9165156024 -11.1744748793 -2.5000250340
32.8555827042 -11.1393695744 -2.5000250340
32.8310652789 -11.1255804461 -2.5000250340
33.8280042109 -11.8349871290 -2.5000250340
33.8075852737 -11.8154326540 -2.5000250340
33.0735382073 -11.2419651029 -2.5000250340
33.9456225229 -11.9176473277 -2.5000250340
33.9256905727 -11.8973955365 -2.5000250340
32.7677249901 -14.9902067886 -2.5000011921
32.9819131704 -15.0399983753 -2.5000011921
32.9541128586 -14.8578835844 -2.5000011921
33.0442751304 -14.6807054666 -2.5000011921
33.4471577014 -16.6932316129 -2.5000011921
33.4461213573 -14.5136286997 -2.5000011921
33.4421230116 -16.8373580534 -2.5000011921
33.4549867816 -14.4708603909 -2.5000011921
33.4374027404 -14.4287307684 -2.5000011921
33.4312214506 -16.9226258278 -2.5000011921
33.4493986986 -16.9410447713 -2.5000011921
33.4364504767 -14.3081992528 -2.5000011921
33.4395246334 -17.0187163551 -2.5000011921
33.4516366678 -14.2282902801 -2.5000011921
33.4390084626 -14.2030205419 -2.5000011921
33.4304652873 -14.1862367403 -2.5000011921
33.2648276518 -18.5941528687 -2.5000011921
33.2909513842 -18.5703690342 -2.5000011921
33.6712678679 -18.1688564244 -2.5000011921
33.6861838446 -18.1506290894 -2.5000011921
33.6936013279 -18.1414824085 -2.5000011921
33.0446158767 -18.8094716863 -2.5000011921
33.1281586823 -18.7432152290 -2.5000011921
33.1918995343 -18.6901586538 -2.5000011921
33.7855146913 -18.0634596251 -2.5000011921
33.8489357005 -17.9777444334 -2.5000011921
33.9033768526 -17.9001593991 -2.5000011921
33.9165823013 -17.9236363828 -2.5000011921
31.8030383411 -11.5915908967 -2.5000011921
31.9613446987 -11.5910952247 -2.5000011921
32.0972458348 -11.5878533913 -2.5000011921
32.0852563930 -11.5834357914 -2.5000011921
32.5813995231 -11.5851692388 -2.5000011921
32.8411647669 -11.5842434877 -2.5000011921
33.2537027212 -11.5790148999 -2.5000011921
33.5935286651 -11.7006793998 -2.5000011921
33.8480263904 -11.8759562632 -2.5000011921
33.8257083629 -11.8567933017 -2.5000011921
33.6663628626 -11.7263960842 -2.5000011921
33.0818394261 -11.3315322029 -2.5000011921
32.9533598125 -11.2599479116 -2.5000011921
34.1028049705 -12.0780635670 -2.5000011921
34.0710690673 -12.0470997484 -2.5000011921
32.9778171219 -11.2456806103 -2.5000011921
32.7938969070 -11.1509124315 -2.5000011921
32.7673077257 -11.1379987435 -2.5000011921
33.8002594047 -11.7722332366 -2.5000011921
32.6937399173 -11.0500683819 -2.5000011921
32.6256443079 -11.0195720738 -2.5000011921
32.9170752156 -15.1750582402 -2.5000011921
32.9148730118 -15.1021908392 -2.5000011921
32.9096683305 -15.0893803361 -2.5000011921
32.9900401219 -15.2374693108 -2.5000011921
32.9550949375 -15.1386990721 -2.5000011921
33.4416270228 -14.9906217063 -2.5000011921
33.4297849463 -14.9588067293 -2.5000011921
33.4459996532 -17.0174470960 -2.5000011921
33.4369294482 -14.9103390142 -2.5000011921
33.4494745518 -17.0742898125 -2.5000011921
33.4591193511 -17.0502637139 -2.5000011921
33.4530026380 -14.8854107019 -2.5000011921
33.4585674059 -17.1155587339 -2.5000011921
33.4655632505 -14.8522083552 -2.5000011921
33.4420076021 -17.2132627956 -2.5000011921
33.4490190572 -17.2554128714 -2.5000011921
33.4493587279 -14.6962874915 -2.5000011921
33.4417432317 -14.6803218954 -2.5000011921
33.4554073068 -17.2979007269 -2.5000011921
33.4478912855 -14.6377986191 -2.5000011921
33.4574793408 -14.6029620561 -2.5000011921
33.4445674912 -17.4754144898 -2.5000011921
33.4434505133 -14.4244921724 -2.5000011921
33.4565407144 -17.5996682558 -2.5000011921
33.4582156674 -17.6891605437 -2.5000011921
33.4339980992 -14.0945758167 -2.5000011921
31.9347877962 -11.5968372086 -2.5000011921
31.9218297478 -11.5933427147 -2.5000011921
31.8828943728 -11.5830894388 -2.5000011921
31.8698958830 -11.5797485152 -2.5000011921
31.8308419121 -11.5699566586 -2.5000011921
32.0060928098 -11.5916500609 -2.5000011921
31.8628010879 -11.5530075096 -2.5000011921
32.0388173409 -11.5759820616 -2.5000011921
32.1629020838 -11.5889253523 -2.5000011921
31.9669281523 -11.5304367817 -2.5000011921
32.2353909569 -11.5874547071 -2.5000011921
32.2224038381 -11.5830710157 -2.5000011921
32.3212059915 -11.5918112756 -2.5000011921
32.2952431159 -11.5825745434 -2.5000011921
32.3814039607 -11.5880924091 -2.5000011921
32.5507925070 -11.5764913590 -2.5000011921
32.6737774056 -11.5761214162 -2.5000011921
32.8575393357 -11.5538750822 -2.5000011921
32.9703647427 -11.5553331666 -2.5000011921
33.2114849219 -11.5739401977 -2.5000011921
33.1854007337 -11.5594365892 -2.5000011921
33.8829511129 -11.8709584129 -2.5000011921
33.8586124325 -11.8524769866 -2.5000011921
33.6726600768 -11.7185103106 -2.5000011921
33.5711067472 -11.6504719451 -2.5000011921
33.2571892018 -11.4610352745 -2.5000011921
32.9996215676 -11.3271526393 -2.5000011921
32.9720810093 -11.3139068047 -2.5000011921
33.8854141264 -11.8424479650 -2.5000011921
32.9408433106 -11.2724372945 -2.5000011921
34.1400379690 -12.0168968554 -2.5000011921
32.7677723599 -11.1692849588 -2.5000011921
32.6391125004 -11.1171945595 -2.5000011921
32.6103360691 -11.1060852923 -2.5000011921
32.7055041262 -11.1175031997 -2.5000011921
34.6297296987 -12.4238628504 -2.5000011921
34.5767750315 -12.3668244613 -2.5000011921
33.9909056306 -11.8322179775 -2.5000011921
34.9080211166 -12.5987296753 -2.5000011921
34.7959577960 -12.4651418052 -2.5000011921
32.7817114942 -15.0251213454 -2.5000011921
32.9474972772 -15.2032237283 -2.5000011921
32.9049221158 -14.9059919740 -2.5000011921
33.4529326208 -17.1751870155 -2.5000011921
33.4317884854 -15.3321948684 -2.5000011921
33.4479383921 -17.2574476390 -2.5000011921
33.4433616405 -17.3328343025 -2.5000011921
33.4464586920 -17.3254729190 -2.5000011921
33.4529107233 -17.3718571626 -2.5000011921
33.4561231697 -17.3644673603 -2.5000011921
33.4517631696 -17.4334417422 -2.5000011921
33.4633073200 -17.4658620259 -2.5000011921
33.4206357669 -15.0121118321 -2.5000011921
33.4525640898 -17.6468067329 -2.5000011921
32.4982251086 -11.5807256310 -2.5000011921
32.4843105176 -11.5761853002 -2.5000011921
32.5615511381 -11.5764192489 -2.5000011921
32.6530261822 -11.5829117844 -2.5000011921
32.6251938549 -11.5729564111 -2.5000011921
32.7030730995 -11.5754902812 -2.5000011921
32.9616991702 -11.5744423283 -2.5000011921
33.0646699179 -11.5666377803 -2.5000011921
33.1025284620 -11.5571841549 -2.5000011921
33.2208041094 -11.5590388330 -2.5000011921
33.2872396475 -11.5644902662 -2.5000011921
33.2592872325 -11.5507829954 -2.5000011921
35.3210477228 -13.2571779713 -2.5000011921
35.3120800301 -13.2442798854 -2.5000011921
33.1953331712 -11.4668175338 -2.5000011921
33.9983962122 -11.8999204985 -2.5000011921
33.9593860514 -11.8730973441 -2.5000011921
33.9070051417 -11.8378736655 -2.5000011921
33.8276614925 -11.7862064044 -2.5000011921
33.6390525360 -11.6711847604 -2.5000011921
33.1048819200 -11.3993656888 -2.5000011921
32.9887362170 -11.3498936084 -2.5000011921
32.9741366370 -11.3439032669 -2.5000011921
32.8861728500 -11.3088705292 -2.5000011921
32.8714523651 -11.3031837682 -2.5000011921
34.1918213404 -12.0103538161 -2.5000011921
34.1282850178 -11.9629684339 -2.5000011921
33.9860823812 -11.8620609663 -2.5000011921
32.7910579064 -11.2472676692 -2.5000011921
32.6714009418 -11.2052642816 -2.5000011921
34.5145919724 -12.2429454599 -2.5000011921
32.6035198600 -11.1574409461 -2.5000011921
32.5427658902 -11.1383106063 -2.5000011921
32.5275423607 -11.1336404516 -2.5000011921
34.5305704723 -12.2248064736 -2.5000011921
32.2059937963 -10.9717727959 -2.5000011921
33.4344084420 -16.5413736013 -2.5000011921
32.9313441377 -15.1374231315 -2.5000011921
33.4517312139 -17.3094691352 -2.5000011921
33.4562243890 -17.2962409598 -2.5000011921
33.4741951232 -15.8462781628 -2.5000011921
33.4345325733 -15.5978722141 -2.5000011921
33.0348037265 -14.9603168378 -2.5000011921
33.4464247201 -15.5058561243 -2.5000011921
32.5809069093 -11.5860934386 -2.5000011921
32.4927089248 -11.5626873638 -2.5000011921
29.9491245669 -11.5612615510 -2.5000011921
32.6314607784 -11.5751320223 -2.5000011921
29.8987865303 -11.5493481804 -2.5000011921
29.8250667492 -11.5694079664 -2.5000011921
32.7411241531 -11.5823528239 -2.5000011921
32.6970375859 -11.5690324148 -2.5000011921
29.7300753652 -11.5717576892 -2.5000011921
29.6788767629 -11.5620635146 -2.5000011921
32.9027427232 -11.5837925521 -2.5000011921
29.6126335638 -11.5576158405 -2.5000011921
32.9546675522 -11.5761191078 -2.5000011921
33.0445736979 -11.5569499820 -2.5000011921
33.3601123027 -11.5786449919 -2.5000011921
33.6751381410 -11.6996424003 -2.5000011921
33.6607986519 -11.6923953028 -2.5000011921
33.6320556728 -11.6780285224 -2.5000011921
33.6032281981 -11.6638320465 -2.5000011921
33.5598307648 -11.6428577391 -2.5000011921
33.5453238008 -11.6359519902 -2.5000011921
33.5307964719 -11.6290891856 -2.5000011921
34.1075708573 -11.9159629586 -2.5000011921
34.0663910841 -11.8905029645 -2.5000011921
34.0249869893 -11.8654094203 -2.5000011921
33.9554905369 -11.8244065346 -2.5000011921
33.9135042405 -11.8002997734 -2.5000011921
33.8430569856 -11.7609528826 -2.5000011921
33.7862849777 -11.7302282616 -2.5000011921
32.6393272986 -11.2512757426 -2.5000011921
33.4468198820 -15.8058667624 -2.5000011921
32.8941161760 -15.0421063209 -2.5000011921
32.8812018449 -14.9403798791 -2.5000011921
32.9118963961 -14.9332804535 -2.5000011921
32.9535454405 -11.5885032724 -2.5000011921
32.9382617299 -11.5842958816 -2.5000011921
30.2258226783 -11.5537256010 -2.5000011921
30.1797333239 -11.5654475351 -2.5000011921
33.0212793156 -11.5825658067 -2.5000011921
32.9446430817 -11.5609803582 -2.5000011921
30.1274802296 -11.5542321977 -2.5000011921
30.0967471307 -11.5625831972 -2.5000011921
33.1199453690 -11.5868654203 -2.5000011921
30.0287489037 -11.5565990648 -2.5000011921
33.2036569171 -11.5880533364 -2.5000011921
33.1883707812 -11.5831060726 -2.5000011921
29.9450301444 -11.5561476463 -2.5000011921
29.8609725404 -11.5570409544 -2.5000011921
29.8456092899 -11.5619820912 -2.5000011921
29.8302607233 -11.5669686537 -2.5000011921
33.3261441666 -11.5782917652 -2.5000011921
33.3108286182 -11.5729822047 -2.5000011921
29.8073558216 -11.5490438363 -2.5000011921
33.4107711006 -11.5828102376 -2.5000011921
33.3954685484 -11.5772503156 -2.5000011921
33.3801496159 -11.5717356856 -2.5000011921
34.1059876917 -11.8652362410 -2.5000011921
34.0625100239 -11.8425116204 -2.5000011921
33.8421913717 -11.7347242648 -2.5000011921
33.0301912778 -11.4342477770 -2.5000011921
32.9513603881 -11.4125467407 -2.5000011921
29.5763399179 -11.5793167218 -2.5000011921
34.4030140538 -12.0058134174 -2.5000011921
34.2756215969 -11.9308447036 -2.5000011921
32.9417303641 -11.3849753474 -2.5000011921
32.8302774333 -11.3567629859 -2.5000011921
32.7022194131 -11.3273541376 -2.5000011921
32.6861642758 -11.3238913573 -2.5000011921
34.5553059232 -12.0727674429 -2.5000011921
29.4363631988 -11.5820128055 -2.5000011921
29.3966259950 -11.5720903433 -2.5000011921
34.8687673035 -12.2311417202 -2.5000011921
32.2587706471 -11.1765471159 -2.5000011921
29.3260276993 -11.5753689184 -2.5000011921
32.1125829354 -11.1349118831 -2.5000011921
29.2552105087 -11.5795959254 -2.5000011921
34.9109966368 -12.2022755580 -2.5000011921
29.1129699320 -11.5909175626 -2.5000011921
29.0977101674 -11.5980712782 -2.5000011921
29.0005016216 -11.5910803043 -2.5000011921
31.6142392313 -10.9839709040 -2.5000011921
31.5117862042 -10.9590982273 -2.5000011921
28.8872863678 -11.5936227780 -2.5000011921
28.8720355932 -11.6014440945 -2.5000011921
28.8456816791 -11.5878503011 -2.5000011921
28.8304140106 -11.5957947171 -2.5000011921
28.7733734541 -11.5985714278 -2.5000011921
28.7466952863 -11.5854364176 -2.5000011921
28.6893145476 -11.5890926333 -2.5000011921
28.6740512383 -11.5974996062 -2.5000011921
33.4485407180 -16.2048726885 -2.5000011921
33.4556786178 -16.1619911561 -2.5000011921
33.4378253456 -16.0715563233 -2.5000011921
33.4414272487 -16.0273958572 -2.5000011921
33.4421877934 -15.8873522055 -2.5000011921
33.4379887786 -15.7529727924 -2.5000011921
32.9007779359 -15.0269785529 -2.5000011921
32.8504842319 -14.9999990029 -2.5000011921
33.4330986317 -15.4082399289 -2.5000011921
32.9009311522 -14.9172554035 -2.5000011921
33.2405027145 -11.5989366139 -2.5000011921
33.2091013034 -11.5908756645 -2.5000011921
33.1776527507 -11.5830006375 -2.5000011921
30.5609796327 -11.5795621166 -2.5000011921
30.5137933473 -11.5913204231 -2.5000011921
33.2780739274 -11.5838235968 -2.5000011921
33.2623343120 -11.5796588230 -2.5000011921
30.8256417162 -11.4971352168 -2.5000011921
30.6344565068 -11.5373331750 -2.5000011921
30.5078444089 -11.5678908390 -2.5000011921
30.4448183997 -11.5842911185 -2.5000011921
30.3976786559 -11.5970801046 -2.5000011921
33.3945970334 -11.5910522599 -2.5000011921
33.3788782918 -11.5865427580 -2.5000011921
33.3631462790 -11.5820797747 -2.5000011921
30.5336188653 -11.5365062777 -2.5000011921
30.4070154363 -11.5694503218 -2.5000011921
30.3754891652 -11.5781537507 -2.5000011921
30.3440149383 -11.5870435474 -2.5000011921
34.0051523896 -11.7804456268 -2.5000011921
33.6985439313 -11.6627036484 -2.5000011921
33.6364164230 -11.6413434514 -2.5000011921
33.6208453938 -11.6361183839 -2.5000011921
33.5740405203 -11.6207198712 -2.5000011921
33.5584087557 -11.6156794133 -2.5000011921
33.1631487678 -11.5048111937 -2.5000011921
30.3215896316 -11.5683346001 -2.5000011921
30.2743131351 -11.5822178007 -2.5000011921
30.2585819121 -11.5869387016 -2.5000011921
34.2852219761 -11.8799790408 -2.5000011921
34.2256243002 -11.8516617861 -2.5000011921
34.1506628726 -11.8172601303 -2.5000011921
34.1054446670 -11.7971526515 -2.5000011921
33.8459766320 -11.6908498214 -2.5000011921
33.8151084136 -11.6792050763 -2.5000011921
33.3285842655 -11.5223255053 -2.5000011921
30.2200425312 -11.5734190843 -2.5000011921
30.1970980370 -11.5552208041 -2.5000011921
30.1024569743 -11.5856177757 -2.5000011921
32.5088783997 -11.3150394297 -2.5000011921
32.4758101623 -11.3113119841 -2.5000011921
30.0790727362 -11.5679210521 -2.5000011921
34.1804222450 -11.7511284639 -2.5000011921
32.3454012813 -11.2742760104 -2.5000011921
30.0239351414 -11.5610993942 -2.5000011921
29.9923661680 -11.5720694010 -2.5000011921
35.3516050133 -12.4293887065 -2.5000011921
35.3117718141 -12.3985994352 -2.5000011921
29.9527257662 -11.5604635981 -2.5000011921
29.9369315974 -11.5661359077 -2.5000011921
35.7876134869 -12.7732484271 -2.5000011921
32.0635822779 -11.2087921169 -2.5000011921
29.8812450874 -11.5607683017 -2.5000011921
29.8654521328 -11.5666520628 -2.5000011921
29.8496766525 -11.5725825166 -2.5000011921
29.8339187845 -11.5785596111 -2.5000011921
29.8253123320 -11.5559705816 -2.5000011921
31.8613756758 -11.1568902145 -2.5000011921
29.6745037624 -11.5897397003 -2.5000011921
29.6495265999 -11.5739103239 -2.5000011921
29.6337735356 -11.5804794927 -2.5000011921
29.6023260498 -11.5937574874 -2.5000011921
29.5456379153 -11.5918662152 -2.5000011921
29.4159303330 -11.5970703143 -2.5000011921
29.3483111487 -11.5752676919 -2.5000011921
31.3197063194 -11.0126212791 -2.5000011921
29.2591563585 -11.5913276402 -2.5000011921
29.2012946542 -11.5930277277 -2.5000011921
29.1747051275 -11.5793441919 -2.5000011921
29.1432589593 -11.5953382093 -2.5000011921
28.9995574335 -11.5889337615 -2.5000011921
28.9408618503 -11.5933701385 -2.5000011921
28.8544395656 -11.5862320419 -2.5000011921
28.8110117601 -11.5831526031 -2.5000011921
28.7952897050 -11.5922022100 -2.5000011921
28.7360098678 -11.5988051807 -2.5000011921
28.6922882703 -11.5966429694 -2.5000011921
28.6641470645 -11.5853291332 -2.5000011921
28.3065144244 -11.6123824049 -2.5000011921
28.2616753529 -11.6135304013 -2.5000011921
28.0358746948 -11.6244884282 -2.5000011921
27.6394558038 -11.6226649110 -2.5000011921
27.4536074447 -11.6184300508 -2.5000011921
33.4435381249 -16.7216630579 -2.5000011921
33.4351471563 -16.6856710794 -2.5000011921
33.4529535460 -16.6579491783 -2.5000011921
33.4371332649 -16.6037032880 -2.5000011921
33.4433894492 -16.3647695455 -2.5000011921
33.4353837142 -16.2511937734 -2.5000011921
33.8561805568 -16.5757896730 -2.5000011921
33.8511970370 -16.5564908557 -2.5000011921
33.8405467158 -16.5180768698 -2.5000011921
33.8520407947 -16.4726446249 -2.5000011921
32.9463935135 -15.2806968280 -2.5000011921
32.8429236236 -14.9857603511 -2.5000011921
33.8973672004 -11.6937050415 -2.5000011921
33.8817004650 -11.6887743536 -2.5000011921
33.7873999960 -11.6601654069 -2.5000011921
33.7716345254 -11.6555601686 -2.5000011921
33.7242573412 -11.6420245566 -2.5000011921
33.6609044559 -11.6246321095 -2.5000011921
33.5973502101 -11.6079905008 -2.5000011921
33.5176377984 -11.5882478959 -2.5000011921
33.0665105756 -11.4996251578 -2.5000011921
31.0101796238 -11.5691619032 -2.5000011921
30.9941571000 -11.5727725833 -2.5000011921
30.9461545956 -11.5838887854 -2.5000011921
30.9142085487 -11.5915360631 -2.5000011921
34.3234903506 -11.8218008757 -2.5000011921
34.2314812732 -11.7853300097 -2.5000011921
34.2160841192 -11.7794105511 -2.5000011921
34.2006695216 -11.7735366659 -2.5000011921
31.1016729345 -11.5248150919 -2.5000011921
30.8924860726 -11.5719554075 -2.5000011921
30.8764723274 -11.5759142342 -2.5000011921
30.8444803200 -11.5839739151 -2.5000011921
30.8125365562 -11.5922227305 -2.5000011921
34.4547686245 -11.8507876009 -2.5000011921
32.6460135650 -11.4028079734 -2.5000011921
34.1241665954 -11.6937534222 -2.5000011921
34.0299163047 -11.6608403589 -2.5000011921
32.4817660946 -11.3685844836 -2.5000011921
30.7039513932 -11.5715508640 -2.5000011921
30.6559494747 -11.5852425271 -2.5000011921
30.6240165161 -11.5946067320 -2.5000011921
34.2263920799 -11.7057327756 -2.5000011921
33.8306749829 -11.5721250968 -2.5000011921
32.3158635306 -11.3392116414 -2.5000011921
32.2657362569 -11.3386076377 -2.5000011921
30.8103705657 -11.5178589145 -2.5000011921
30.6171457290 -11.5714307193 -2.5000011921
30.5851317343 -11.5810247419 -2.5000011921
30.5691461626 -11.5858927386 -2.5000011921
30.5531750612 -11.5908080022 -2.5000011921
32.2994820599 -11.3147900623 -2.5000011921
32.1652304475 -11.3145624825 -2.5000011921
30.5941923206 -11.5530484684 -2.5000011921
30.5139957917 -11.5777297394 -2.5000011921
30.4660561874 -11.5931069085 -2.5000011921
30.4501068780 -11.5983270994 -2.5000011921
30.4746035860 -11.5649269836 -2.5000011921
32.0293771091 -11.2691933616 -2.5000011921
30.3548116568 -11.5794376480 -2.5000011921
30.3388223980 -11.5849869800 -2.5000011921
30.3068934777 -11.5962274198 -2.5000011921
30.3148225135 -11.5677822545 -2.5000011921
32.0106859042 -11.2214769911 -2.5000011921
31.7721468203 -11.2352005933 -2.5000011921
30.1785488396 -11.5918423727 -2.5000011921
30.0811759166 -11.5777152153 -2.5000011921
30.0241562992 -11.5745374104 -2.5000011921
31.4539752294 -11.1714763476 -2.5000011921
29.9415413217 -11.5563573998 -2.5000011921
29.8037801918 -11.5897997300 -2.5000011921
29.7618727253 -11.5822054082 -2.5000011921
29.6775374246 -11.5679417086 -2.5000011921
29.5976614396 -11.6061790307 -2.5000011921
29.4965224105 -11.6024603743 -2.5000011921
29.4106511811 -11.5922234369 -2.5000011921
29.3355850624 -11.6045728821 -2.5000011921
29.3081857101 -11.5918688679 -2.5000011921
29.1613133060 -11.5902962770 -2.5000011921
29.0131414270 -11.5925195231 -2.5000011921
28.9243234434 -11.5896212846 -2.5000011921
28.9083705686 -11.5994022150 -2.5000011921
28.8637648459 -11.5985914219 -2.5000011921
28.8190339630 -11.5981205574 -2.5000011921
28.5935888692 -11.6009153039 -2.5000011921
28.5322461451 -11.6134074864 -2.5000011921
28.4112347117 -11.6094130490 -2.5000011921
28.0428837566 -11.6120348418 -2.5000011921
27.9962036013 -11.6178638881 -2.5000011921
27.7620535620 -11.6207410589 -2.5000011921
26.5209551994 -12.0993112955 -2.5000011921
26.7903180193 -11.3560952802 -2.5000011921
26.3583447313 -11.8074793254 -2.5000011921
26.9601928745 -11.1644022743 -2.5000011921
26.9429907189 -11.1799953186 -2.5000011921
26.9258347655 -11.1956391818 -2.5000011921
26.8916620659 -11.2270788168 -2.5000011921
26.8746456187 -11.2428743134 -2.5000011921
26.8576759718 -11.2587200787 -2.5000011921
26.8407532739 -11.2746159739 -2.5000011921
26.7568491860 -11.3548425153 -2.5000011921
26.2943487235 -11.8438852385 -2.5000011921
26.2640223173 -11.8790496116 -2.5000011921
26.2339044862 -11.9143927905 -2.5000011921
26.2189241159 -11.9321310457 -2.5000011921
26.2039962842 -11.9499135379 -2.5000011921
26.1891211216 -11.9677401116 -2.5000011921
26.1742987584 -11.9856106107 -2.5000011921
26.1009834553 -12.0756165008 -2.5000011921
26.0864805956 -12.0937472550 -2.5000011921
27.0309502267 -11.0690323008 -2.5000011921
26.9960266386 -11.0998522533 -2.5000011921
26.9267295356 -11.1621093129 -2.5000011921
26.8923584464 -11.1935442409 -2.5000011921
26.8072496315 -11.2730163898 -2.5000011921
26.1260934446 -12.0061884639 -2.5000011921
26.0821289607 -12.0604889328 -2.5000011921
27.1033809096 -10.9744854994 -2.5000011921
25.9962567755 -12.0518578172 -2.5000011921
30.9419601667 -11.5768444069 -2.5000011921
30.9259116521 -11.5817511415 -2.5000011921
30.4450345589 -11.5972242092 -2.5000011921
30.0996603316 -11.5874325884 -2.5000011921
29.9563564207 -11.5749772847 -2.5000011921
29.8814823396 -11.5849322533 -2.5000011921
26.5409030544 -13.5296145072 -2.5000011921
26.7822233602 -11.3401132410 -2.5000011921
27.1110341099 -10.9885912016 -2.5000011921
26.9009812733 -11.1869272701 -2.5000011921
27.3152126865 -10.7453272184 -2.5000011921
25.7462163122 -12.5151024036 -2.5000011921
27.7298115552 -10.3281135220 -2.5000011921
25.3698107170 -12.9980602772 -2.5000011921
32.9730161602 -15.0759356136 -2.2926230431
31.2300101428 -11.5554299282 -2.2926230431
32.2273092411 -11.3853266962 -2.2926230431
31.0953115573 -11.5644931143 -2.2926230431
31.0246110747 -11.5586293420 -2.2926230431
30.9924355007 -11.5676666852 -2.2926230431
30.9144872393 -11.5399651981 -2.2926230431
30.6580154435 -11.5715795219 -2.2926230431
30.6017978915 -11.5656854943 -2.2926230431
30.6098502266 -11.5371893771 -2.2926230431
30.4564288688 -11.5678258139 -2.2926230431
30.3261534557 -11.5672660015 -2.2926230431
30.2848028914 -11.5580974446 -2.2926230431
30.2687100844 -11.5647808096 -2.2926230431
30.1531771024 -11.5615940574 -2.2926230431
29.8769555816 -11.5563082292 -2.2926230431
29.8340507536 -11.5504772271 -2.2926230431
29.7426683657 -11.5695397064 -2.2926230431
29.5641865512 -11.5822398439 -2.2926230431
29.5043996675 -11.5877354605 -2.2926230431
29.3882949406 -11.5704238684 -2.2926230431
29.1620823987 -11.5936730973 -2.2926230431
29.0882697178 -11.5830390205 -2.2926230431
28.8159800155 -11.5892900240 -2.2926230431
26.5430140460 -14.3154817788 -2.2926230431
28.7403582876 -11.5829189997 -2.2926230431
28.6783766552 -11.5971419542 -2.2926230431
26.5474136269 -13.9694248633 -2.2926230431
26.5474729811 -13.8119852584 -2.2926230431
26.5416332350 -13.6709805804 -2.2926230431
26.5403820842 -13.6237088347 -2.2926230431
26.5616395373 -13.0779403122 -2.2926230431
26.5523506292 -12.9180195304 -2.2926230431
26.5455954348 -12.6752614982 -2.2926230431
26.9166415787 -11.1812302819 -2.2926230431
26.8994486676 -11.1978789262 -2.2926230431
26.8652109703 -11.2313284293 -2.2926230431
26.7636936235 -11.3328840778 -2.2926230431
26.7302570379 -11.3671343906 -2.2926230431
26.7136148803 -11.3843335807 -2.2926230431
