27.3019966018 -4.1526565312 -2.4893474579
27.3200910818 -4.1666269396 -2.4893474579
27.3564036266 -4.1944068712 -2.4893474579
27.3928798912 -4.2219714794 -2.4893474579
27.4111790197 -4.2356727354 -2.4893474579
27.4295185989 -4.2493197993 -2.4893474579
27.4847784343 -4.2899346467 -2.4893474579
25.6934354333 -2.5031120766 -2.4893474579
25.7066573006 -2.5218481174 -2.4893474579
25.7600972729 -2.5963986997 -2.4893474579
25.8144156213 -2.6703117364 -2.4893474579
25.8975234291 -2.7799632804 -2.4893474579
27.3783631010 -4.2413001649 -2.4893474579
27.4151164177 -4.2687340327 -2.4893474579
27.4705491107 -4.3094759269 -2.4893474579
27.4891067533 -4.3229470404 -2.4893474579
27.5450176427 -4.3630301770 -2.4893474579
27.5637333827 -4.3762807648 -2.4893474579
27.6012820457 -4.4026155574 -2.4893474579
25.5823875869 -2.3843722374 -2.4893474579
25.5952586862 -2.4034372974 -2.4893474579
25.6342095804 -2.4604028608 -2.4893474579
25.6473053653 -2.4793142892 -2.4893474579
25.7136202724 -2.5732857969 -2.4893474579
27.6632574679 -4.4746102709 -2.4893474579
27.7205074255 -4.5131419453 -2.4893474579
25.5494784039 -2.3787058828 -2.4893474579
27.8229729159 -4.6090220219 -2.4893474579
27.3719098742 -4.3269767330 -2.4893474579
27.4653637794 -4.3952385691 -2.4893474579
27.8294264126 -4.6418362616 -2.4893474579
27.9472078038 -4.7154144957 -2.4893474579
27.9867561844 -4.7394745894 -2.4893474579
27.1913625472 -4.2196752384 -2.4893474579
28.0941121955 -4.8311523851 -2.4893474579
28.1343427493 -4.8543413176 -2.4893474579
27.7057077580 -4.6193173429 -2.4893474579
28.2034513877 -4.9211224213 -2.4893474579
28.2851058975 -4.9659618122 -2.4893474579
28.3655224511 -5.0634970295 -2.4893474579
28.4279707941 -5.0957733067 -2.4893474579
28.4488502575 -5.1064087533 -2.4893474579
28.6490424697 -5.2312184813 -2.4893474579
28.8438438907 -5.3725124203 -2.4893474579
32.5246882365 0.5102727546 -2.5027558283
32.5808378855 0.5180264447 -2.5027558312
33.4361385397 1.6202319736 -2.5027558514
33.4391422508 1.3784583707 -2.5027558572
33.4304698290 1.2633437951 -2.5027558600
33.4354641255 1.2787926692 -2.5027558600
33.4410915301 1.2194615733 -2.5027558629
33.4366108402 1.1386292609 -2.5027558658
33.4550861206 1.0576750162 -2.5027558716
33.4437644082 0.9223514233 -2.5027558773
33.4490431080 0.7831550760 -2.5027558860
33.6428523502 0.7817993525 -2.5027559061
30.3533244727 -3.4298641087 -2.5027562894
30.3689012909 -3.4338016338 -2.5027562894
30.9522265751 -3.5468270471 -2.5027562894
33.1335875128 -3.4027065742 -2.5027562894
33.1800020796 -3.3897086215 -2.5027562894
30.3943388659 -3.4650173976 -2.5027562923
31.4147449142 -3.6145817632 -2.5027562923
33.1866239471 -3.4129569796 -2.5027562923
33.2021383541 -3.4085131665 -2.5027562923
33.2486017518 -3.3949066349 -2.5027562923
30.2317372143 -3.4476110286 -2.5027562952
30.2943319217 -3.4645218504 -2.5027562952
33.2865429162 -3.4087339382 -2.5027562952
30.1313761870 -3.4440397248 -2.5027562980
30.1469959104 -3.4486337512 -2.5027562980
30.1939356630 -3.4621383150 -2.5027562980
33.3712828015 -3.4075997526 -2.5027562980
33.3867805529 -3.4026097086 -2.5027562980
30.0619063424 -3.4483000926 -2.5027563009
33.6105191602 -3.3506290652 -2.5027563009
29.9764901694 -3.4465999973 -2.5027563038
29.9921181442 -3.4516521932 -2.5027563038
30.0390907826 -3.4665310915 -2.5027563038
33.5726215535 -3.3901935297 -2.5027563038
33.6650422733 -3.3559961490 -2.5027563038
29.8907692712 -3.4435237545 -2.5027563067
29.9063885210 -3.4488295418 -2.5027563067
29.9533394859 -3.4644693536 -2.5027563067
32.7869682253 -3.6339795566 -2.5027563067
32.8031382057 -3.6307170303 -2.5027563067
33.8421652870 -3.3113669192 -2.5027563067
29.8359949781 -3.4501362538 -2.5027563096
29.8516340286 -3.4556040445 -2.5027563096
32.6451374953 -3.6850063581 -2.5027563096
33.8055416475 -3.3526301881 -2.5027563096
29.7496979881 -3.4447904546 -2.5027563125
32.5013630964 -3.7323405222 -2.5027563125
29.6943805697 -3.4499550070 -2.5027563153
32.3059320818 -3.7815825556 -2.5027563153
29.5517448013 -3.4460054880 -2.5027563211
29.5830195444 -3.4585765741 -2.5027563211
29.5986846697 -3.4647926750 -2.5027563211
32.2776671343 -3.8332055583 -2.5027563211
29.4956932949 -3.4491231600 -2.5027563240
29.5740704788 -3.4810320747 -2.5027563240
29.4394186100 -3.4516600480 -2.5027563269
29.4864130826 -3.4714438442 -2.5027563269
29.3672955478 -3.4467581396 -2.5027563297
29.3575551571 -3.4688818841 -2.5027563326
31.7230565368 -3.9599804624 -2.5027563326
29.3006521517 -3.4699910797 -2.5027563355
29.1965697861 -3.4485671371 -2.5027563384
29.2122069925 -3.4559264700 -2.5027563384
29.0553997731 -3.4606755049 -2.5027563470
28.9819058027 -3.4506144256 -2.5027563499
28.8386445918 -3.4571914059 -2.5027563586
28.8114678839 -3.4699690319 -2.5027563614
28.7527876269 -3.4653343389 -2.5027563643
28.5915479769 -3.4568612898 -2.5027563730
28.5042265255 -3.4612215588 -2.5027563787
28.3722494770 -3.4652616562 -2.5027563874
27.8947859928 -3.4650664802 -2.5027564191
27.8194014311 -3.4702037197 -2.5027564248
27.7436288628 -3.4744172189 -2.5027564306
26.6006296375 -2.9736446594 -2.5027564767
27.0143215194 -3.4741099801 -2.5027564854
26.6029757521 -3.1158395534 -2.5027564882
26.3071651712 -3.1908066561 -2.5027565199
26.3369868578 -3.2225782313 -2.5027565199
26.3971915287 -3.2855893024 -2.5027565199
26.8388973769 -3.7061156861 -2.5027565199
26.8553067744 -3.7204483136 -2.5027565199
26.8717584986 -3.7347323363 -2.5027565199
26.9047883509 -3.7631540682 -2.5027565199
26.9379857776 -3.7913798870 -2.5027565199
33.4416417351 0.8843187534 -2.5006575584
33.4378013154 0.8079849132 -2.5006575584
33.4366071965 0.7433388494 -2.5006575584
33.4435226914 0.5892857766 -2.5006575584
33.2523210483 0.1983938140 -2.5006575584
33.4464572600 0.4436346943 -2.5006575584
33.6490267085 0.8908957004 -2.5006575584
32.8196290458 -3.4005394947 -2.5006575584
32.8345815644 -3.3962117454 -2.5006575584
29.9693639372 -3.4426910552 -2.5006575584
29.9844536188 -3.4467947212 -2.5006575584
32.8863220680 -3.4061125450 -2.5006575584
32.9162460421 -3.3970181572 -2.5006575584
32.9311877212 -3.3924046128 -2.5006575584
29.8722959551 -3.4403328925 -2.5006575584
29.8873790855 -3.4447237134 -2.5006575584
29.9327054854 -3.4576281974 -2.5006575584
29.8201289842 -3.4500313806 -2.5006575584
29.8655051349 -3.4635324624 -2.5006575584
33.0656367934 -3.3997301667 -2.5006575584
33.0805858414 -3.3946746855 -2.5006575584
29.7223390529 -3.4448344162 -2.5006575584
29.7374361558 -3.4496688170 -2.5006575584
29.7525474937 -3.4544585368 -2.5006575584
29.7676729343 -3.4592035335 -2.5006575584
33.2610421095 -3.3814019831 -2.5006575584
29.6164363045 -3.4606431154 -2.5006575584
29.6315806358 -3.4657907265 -2.5006575584
33.3829140050 -3.3859272087 -2.5006575584
29.4337804524 -3.4462926865 -2.5006575584
29.4403967214 -3.4746150908 -2.5006575584
33.2343019659 -3.4943808251 -2.5006575584
29.3105027860 -3.4500837524 -2.5006575584
29.3407494914 -3.4621443428 -2.5006575584
33.7671667813 -3.2952608188 -2.5006575584
32.7828544763 -3.6865898150 -2.5006575584
32.8459740762 -3.6694287998 -2.5006575584
33.9671428818 -3.2205359792 -2.5006575584
32.5816909060 -3.7607697048 -2.5006575584
29.0610857490 -3.4488176818 -2.5006575584
29.0913293291 -3.4623539293 -2.5006575584
28.9501829915 -3.4508480665 -2.5006575584
28.6166031543 -3.4722017509 -2.5006575584
28.3451876529 -3.4581334649 -2.5006575584
27.7659303982 -3.4579705604 -2.5006575584
33.4615436271 0.4221605740 -2.4989764690
33.4452436448 0.2689626371 -2.4989764690
29.8745381876 -3.4534752534 -2.4989764690
29.8889577742 -3.4570293805 -2.4989764690
29.9033878115 -3.4605408364 -2.4989764690
32.4442475320 -3.4131276426 -2.4989764690
32.4728134718 -3.4049906682 -2.4989764690
32.4870782637 -3.4008588393 -2.4989764690
29.7531995610 -3.4468276115 -2.4989764690
29.7676000136 -3.4507407093 -2.4989764690
32.5938196184 -3.3938208012 -2.4989764690
29.6746569338 -3.4498450074 -2.4989764690
29.6890666561 -3.4539904353 -2.4989764690
29.7034885783 -3.4580932185 -2.4989764690
29.6101508127 -3.4559773875 -2.4989764690
29.6390198674 -3.4646071311 -2.4989764690
32.6656862687 -3.4215624529 -2.4989764690
32.7085831347 -3.4073281728 -2.4989764690
32.7371101365 -3.3976274018 -2.4989764690
29.5308727317 -3.4566909847 -2.4989764690
32.8163596490 -3.3953828272 -2.4989764690
29.4368379062 -3.4512720362 -2.4989764690
29.4512528905 -3.4561209695 -2.4989764690
29.4801255756 -3.4656908041 -2.4989764690
32.8674072381 -3.4024831266 -2.4989764690
32.8816628858 -3.3971840289 -2.4989764690
29.4001750488 -3.4643002373 -2.4989764690
32.9187166876 -3.4090547874 -2.4989764690
29.2910709502 -3.4510907180 -2.4989764690
29.3199166780 -3.4616083308 -2.4989764690
29.2393715411 -3.4576057005 -2.4989764690
33.1076920308 -3.3854216962 -2.4989764690
33.1740502805 -3.3832942718 -2.4989764690
29.0919061973 -3.4515443596 -2.4989764690
29.1207580948 -3.4632402900 -2.4989764690
33.2648046187 -3.3958814874 -2.4989764690
33.1440115704 -3.5536349521 -2.4989764690
33.2173365204 -3.5226108383 -2.4989764690
33.6469276627 -3.3140168441 -2.4989764690
33.6748861808 -3.2987661448 -2.4989764690
33.7720201994 -3.2440917352 -2.4989764690
33.7995628278 -3.2281021702 -2.4989764690
33.8270103744 -3.2119499337 -2.4989764690
33.8952069619 -3.1708613783 -2.4989764690
28.7446582254 -3.4560502567 -2.4989764690
32.8995513990 -3.6737091402 -2.4989764690
32.9146092416 -3.6683137676 -2.4989764690
33.9350636765 -3.1746817001 -2.4989764690
34.0429717369 -3.1059109715 -2.4989764690
34.0696920993 -3.0883207847 -2.4989764690
34.0963079246 -3.0705728190 -2.4989764690
32.7096399579 -3.7628404229 -2.4989764690
32.7555637435 -3.7482026395 -2.4989764690
34.0022127590 -3.1610006752 -2.4989764690
34.1893433538 -3.0362182449 -2.4989764690
32.5311158578 -3.8406053742 -2.4989764690
32.5777367938 -3.8275488298 -2.4989764690
32.6242400243 -3.8140790648 -2.4989764690
32.6397143112 -3.8094974988 -2.4989764690
32.4592329604 -3.8848436823 -2.4989764690
34.4517893654 -2.9027197259 -2.4989764690
34.7296208714 -2.7033610901 -2.4989764690
32.2166522696 -3.9913270938 -2.4989764690
32.4827464919 0.4361344162 -2.5006785393
32.4908973531 0.4555705031 -2.5006785393
32.4810685196 0.3729988778 -2.5006785393
32.4757165180 0.2545955681 -2.5006785393
33.4396273527 0.2312787301 -2.5006785393
33.4735524888 1.9339930350 -2.5006785393
33.4614428000 1.9727936693 -2.5006785393
33.4513426803 2.0037025701 -2.5006785393
33.4430252669 0.1693158499 -2.5006785393
33.4486912271 0.1847078389 -2.5006785393
33.4443613692 2.0964479067 -2.5006785393
33.4298521030 2.1347990232 -2.5006785393
33.4309493970 2.1973066900 -2.5006785393
33.4454122935 0.0438509121 -2.5006785393
33.4469223659 2.2219094140 -2.5006785393
33.4578376212 0.0112641572 -2.5006785393
33.4417903350 -0.0834351529 -2.5006785393
33.4477705513 -0.1815431395 -2.5006785393
33.4494274056 -0.2311301585 -2.5006785393
33.4543589150 -0.2733367342 -2.5006785393
33.4671894720 -0.3003566960 -2.5006785393
33.4422939040 -0.4403555325 -2.5006785393
33.4403394060 -0.5790285398 -2.5006785393
29.7184653075 -3.4596717804 -2.5006785393
29.7320611690 -3.4629820197 -2.5006785393
29.7456667633 -3.4662520256 -2.5006785393
32.1530317684 -3.4109398966 -2.5006785393
32.1799023010 -3.4031172819 -2.5006785393
29.6581509789 -3.4694377735 -2.5006785393
29.5021980489 -3.4516109192 -2.5006785393
29.5157710111 -3.4555609515 -2.5006785393
29.5293555989 -3.4594708152 -2.5006785393
29.5565591754 -3.4671699005 -2.5006785393
29.5701779261 -3.4709590546 -2.5006785393
32.3151082661 -3.4119529673 -2.5006785393
32.3419819558 -3.4031714359 -2.5006785393
29.4681613531 -3.4667500234 -2.5006785393
32.3765151699 -3.4171409121 -2.5006785393
32.5003010185 -3.4250503476 -2.5006785393
32.5896210262 -3.4175115563 -2.5006785393
32.7060376949 -3.3972960292 -2.5006785393
32.8822213207 -3.4004730535 -2.5006785393
32.9459090836 -3.3979719541 -2.5006785393
33.1760418697 -3.3930340085 -2.5006785393
33.2789278974 -3.3935176395 -2.5006785393
33.6718611180 -3.2744519901 -2.5006785393
33.6848917681 -3.2660681800 -2.5006785393
33.6978975603 -3.2576458597 -2.5006785393
33.7496698777 -3.2235729539 -2.5006785393
32.9584390520 -3.6840143641 -2.5006785393
33.0011190446 -3.6650625693 -2.5006785393
33.0294782093 -3.6522179379 -2.5006785393
33.0859660803 -3.6260264580 -2.5006785393
33.1000393147 -3.6193742931 -2.5006785393
33.6058477566 -3.3445186568 -2.5006785393
33.6849104699 -3.2948002013 -2.5006785393
33.6980012565 -3.2863776999 -2.5006785393
33.7241077978 -3.2694167069 -2.5006785393
33.7501135352 -3.2523015557 -2.5006785393
33.8275168393 -3.2000371705 -2.5006785393
33.8403266758 -3.1911932283 -2.5006785393
33.9669646673 -3.1006847078 -2.5006785393
34.0539919669 -3.0351188055 -2.5006785393
34.0663129541 -3.0256056305 -2.5006785393
32.7659060989 -3.7899341423 -2.5006785393
32.7950081623 -3.7784789243 -2.5006785393
32.8095336518 -3.7726867985 -2.5006785393
32.8240419436 -3.7668517291 -2.5006785393
32.8674623638 -3.7490893712 -2.5006785393
32.9251078046 -3.7248081564 -2.5006785393
33.9938825395 -3.1108426494 -2.5006785393
34.2394063622 -2.9171805188 -2.5006785393
32.5830638364 -3.8830145065 -2.5006785393
32.5978994883 -3.8778488930 -2.5006785393
32.6423138513 -3.8620890517 -2.5006785393
32.6570873427 -3.8567482575 -2.5006785393
34.0226876363 -3.1496705714 -2.5006785393
34.6082049105 -2.6456374017 -2.5006785393
34.6193713164 -2.6344864687 -2.5006785393
34.6526719325 -2.6008361608 -2.5006785393
31.9572418014 -4.1813571481 -2.5006785393
32.4884727030 0.4773479978 -2.4996461868
32.4916359951 0.3751641991 -2.4996461868
32.5002715654 0.4130779389 -2.4996461868
32.4825139556 0.2501694749 -2.4996461868
32.4805128043 0.1673242865 -2.4996461868
32.4880035982 0.1888503669 -2.4996461868
32.4725286193 -0.1499312518 -2.4996461868
32.4760246747 -0.2430334923 -2.4996461868
32.4822298038 -0.2323009031 -2.4996461868
33.4395903968 -0.0903977336 -2.4996461868
33.4511131772 1.6764058590 -2.4996461868
33.4485413638 1.6846436545 -2.4996461868
33.4433246869 1.7010962415 -2.4996461868
33.4353173900 1.7257165332 -2.4996461868
33.4298579435 1.7420901639 -2.4996461868
33.4327957634 -0.2541516512 -2.4996461868
33.4482490439 -0.2130995834 -2.4996461868
33.4542600584 -0.1966155121 -2.4996461868
33.4671669990 1.7824232644 -2.4996461868
33.4464549790 1.8402344700 -2.4996461868
33.4358548785 -0.3121879167 -2.4996461868
33.4553554132 -0.2628348235 -2.4996461868
33.4405138207 1.9229000702 -2.4996461868
33.4480973998 -0.3460133732 -2.4996461868
33.4356493632 1.9977817432 -2.4996461868
33.4285802818 2.0141525764 -2.4996461868
33.4346903973 -0.4377585919 -2.4996461868
33.4528590882 -0.3966584180 -2.4996461868
33.4362004298 2.0566774253 -2.4996461868
33.4604382752 -0.4394316668 -2.4996461868
33.4355267596 2.1159633665 -2.4996461868
33.4400048105 -0.5402987553 -2.4996461868
33.4518887675 -0.5156196627 -2.4996461868
33.4371236347 -0.6003039483 -2.4996461868
33.4657543678 -0.5426039861 -2.4996461868
33.4388304623 2.2192197167 -2.4996461868
33.4604819397 2.2826100241 -2.4996461868
33.4395156960 -0.7494159674 -2.4996461868
33.4321415923 2.3847271191 -2.4996461868
33.4274745196 2.3929056939 -2.4996461868
33.4293987033 2.4377400710 -2.4996461868
33.4579135495 -0.8146022774 -2.4996461868
33.4404876918 2.4664484782 -2.4996461868
33.4362768959 2.5200046857 -2.4996461868
31.9386727165 -3.4677217047 -2.4996461868
31.9455687570 -3.4908902158 -2.4996461868
32.1476777885 -3.4254883713 -2.4996461868
32.2101769361 -3.4030968024 -2.4996461868
32.0035523920 -3.4985230367 -2.4996461868
32.2685225842 -3.4071151635 -2.4996461868
32.2809939198 -3.4023534423 -2.4996461868
32.4235508666 -3.3973238315 -2.4996461868
32.4923900141 -3.4206070383 -2.4996461868
32.5173944490 -3.4097220134 -2.4996461868
32.6372253018 -3.4085068982 -2.4996461868
32.9648342414 -3.4052626876 -2.4996461868
33.0632048704 -3.4058078299 -2.4996461868
33.0756688615 -3.3986953005 -2.4996461868
33.1053110241 -3.6315012190 -2.4996461868
33.1707524318 -3.5949233499 -2.4996461868
33.1837753903 -3.5874918479 -2.4996461868
33.7094577345 -3.2414583592 -2.4996461868
33.8045029216 -3.1682837037 -2.4996461868
33.8396944174 -3.1402664084 -2.4996461868
32.8487163501 -3.7898551588 -2.4996461868
32.8623173611 -3.7833754450 -2.4996461868
32.9030045531 -3.7636952965 -2.4996461868
32.9569794200 -3.7368949022 -2.4996461868
32.9838469890 -3.7232556748 -2.4996461868
32.9972503955 -3.7163765114 -2.4996461868
33.0106333936 -3.7094577285 -2.4996461868
33.9708689725 -3.0630289301 -2.4996461868
34.0051198400 -3.0335393741 -2.4996461868
34.0616187364 -2.9837183921 -2.4996461868
32.6936308438 -3.8866477961 -2.4996461868
32.7628909991 -3.8561309270 -2.4996461868
32.8042277704 -3.8373302667 -2.4996461868
33.2862108214 -3.5836186127 -2.4996461868
33.2991998332 -3.5758456134 -2.4996461868
32.5627167480 -3.9670580614 -2.4996461868
32.6191217198 -3.9442698740 -2.4996461868
32.6472221019 -3.9326258967 -2.4996461868
33.1801164515 -3.6729201179 -2.4996461868
34.3357409874 -2.7886449889 -2.4996461868
32.4144436521 -4.0490112912 -2.4996461868
32.4288131941 -4.0438151005 -2.4996461868
32.4431673018 -4.0385764249 -2.4996461868
34.1146504102 -3.0659880071 -2.4996461868
33.4479249286 -0.5204480468 -2.5001611710
33.4536756454 -0.5032670059 -2.5001611710
33.4575604334 1.4117463507 -2.5001611710
33.4547326753 1.4203526677 -2.5001611710
33.4490008440 1.4375400183 -2.5001611710
33.4371226826 -0.6227955309 -2.5001611710
33.4403135568 -0.6142407706 -2.5001611710
33.4466193160 -0.5971031195 -2.5001611710
33.4589261097 -0.5627173974 -2.5001611710
33.4570193966 1.4884106323 -2.5001611710
33.4351043109 1.5484481255 -2.5001611710
33.4365357902 -0.6913575730 -2.5001611710
33.4499585524 -0.6570845655 -2.5001611710
33.4532508036 -0.6484916842 -2.5001611710
33.4520750598 -0.7175148628 -2.5001611710
33.4704203635 1.5914848055 -2.5001611710
33.4568291020 1.6259989382 -2.5001611710
33.4463681699 1.6517776787 -2.5001611710
33.4651616120 1.6696046981 -2.5001611710
33.4653995856 1.7308590894 -2.5001611710
33.4578305074 1.7481041147 -2.5001611710
33.4462859210 1.7738869337 -2.5001611710
33.4453732902 1.8888984854 -2.5001611710
33.4654716262 -0.9825136370 -2.5001611710
33.4697391833 -1.0279144658 -2.5001611710
33.4520642199 2.0338221885 -2.5001611710
33.4532653165 -1.5709468410 -2.5001611710
33.4456882532 2.5848736098 -2.5001611710
33.4496748012 2.7784986782 -2.5001611710
31.5587210410 -3.4399903547 -2.5001611710
31.6392594943 -3.4182020868 -2.5001611710
31.6736345901 -3.4083546234 -2.5001611710
31.6965021849 -3.4016203367 -2.5001611710
31.7079209414 -3.3982024880 -2.5001611710
31.6573502688 -3.4382016162 -2.5001611710
31.7378305399 -3.4143715331 -2.5001611710
31.7721677601 -3.4036494578 -2.5001611710
31.6987309057 -3.4513812479 -2.5001611710
31.8139201135 -3.4155993858 -2.5001611710
31.8482652338 -3.4042020099 -2.5001611710
31.8789558488 -3.4192973138 -2.5001611710
31.9133312251 -3.4073226366 -2.5001611710
31.9902128916 -3.4051060782 -2.5001611710
31.8830398983 -3.4689926525 -2.5001611710
32.0560139900 -3.4058530735 -2.5001611710
32.0992530643 -3.4147467859 -2.5001611710
32.1107088890 -3.4101374698 -2.5001611710
32.1886056191 -3.4040199693 -2.5001611710
32.2095477678 -3.4213665154 -2.5001611710
32.4679760140 -3.4084335587 -2.5001611710
32.4794115497 -3.4027335211 -2.5001611710
32.5246233637 -3.4069523949 -2.5001611710
32.5700613961 -3.4106713440 -2.5001611710
32.5815031049 -3.4046693095 -2.5001611710
32.7191444243 -3.4123830002 -2.5001611710
33.0585989319 -3.4047914103 -2.5001611710
33.0196458387 -3.7134392381 -2.5001611710
33.1298723659 -3.6461323986 -2.5001611710
33.7930269339 -3.1448261151 -2.5001611710
33.8036768734 -3.1352074906 -2.5001611710
33.8142983127 -3.1255574038 -2.5001611710
33.8564972125 -3.0866441258 -2.5001611710
32.8815405205 -3.8197931600 -2.5001611710
32.9068211836 -3.8059052954 -2.5001611710
32.9194305924 -3.7989053353 -2.5001611710
32.9445870130 -3.7847936658 -2.5001611710
32.9571338046 -3.7776820799 -2.5001611710
33.8835189098 -3.0944625969 -2.5001611710
33.9666981275 -3.0145101693 -2.5001611710
34.0679735038 -2.9118385577 -2.5001611710
32.7130251116 -3.9344689690 -2.5001611710
32.8164093841 -3.8819790411 -2.5001611710
34.1054189680 -2.9075627661 -2.5001611710
34.1351653122 -2.8758496291 -2.5001611710
32.7628190583 -3.9366584593 -2.5001611710
34.3815971647 -2.6280619478 -2.5001611710
34.4178697528 -2.5824709540 -2.5001611710
32.4411494169 -4.1107051104 -2.5001611710
34.5168898458 -2.4927701326 -2.5001611710
32.3822611980 -4.1606885662 -2.5001611710
31.8840738236 -4.4540375903 -2.5001611710
33.4581536477 -0.7730180688 -2.4999349117
33.4632278947 -0.7554762987 -2.4999349117
33.4657260773 -0.7466942324 -2.4999349117
33.4706444511 -0.7291081220 -2.4999349117
33.4810377251 0.8773730835 -2.4999349117
33.4484826698 -0.8852152656 -2.4999349117
33.4542208824 -0.8677287485 -2.4999349117
33.4734878332 -0.8062650265 -2.4999349117
33.4718165906 0.9986030067 -2.4999349117
33.4437412195 1.0862318535 -2.4999349117
33.4317873419 1.1210444144 -2.4999349117
33.4539468378 -1.0149783056 -2.4999349117
33.4604526764 -0.9974571896 -2.4999349117
33.4471160921 1.2859761296 -2.4999349117
33.4327985111 1.3208146403 -2.4999349117
33.4514308784 1.3388843438 -2.4999349117
33.4533828085 -1.2086267775 -2.4999349117
33.4572215352 -1.1998718521 -2.4999349117
33.4610343464 -1.1911056093 -2.4999349117
33.4597766940 -1.2535325390 -2.4999349117
33.4755068730 -1.2183664412 -2.4999349117
33.4410672410 1.4807919097 -2.4999349117
33.4328074903 1.4981931455 -2.4999349117
33.4401950735 -1.4056201510 -2.4999349117
33.4533821988 -1.3794307759 -2.4999349117
33.4577261947 -1.3706751050 -2.4999349117
33.4636524135 1.5454492023 -2.4999349117
33.4464514540 -1.4978233450 -2.4999349117
33.4292136689 1.7162068647 -2.4999349117
33.4677278974 -1.5092971517 -2.4999349117
33.4455177553 1.7366413804 -2.4999349117
33.4518310740 1.7747050800 -2.4999349117
33.4339456275 1.9905603695 -2.4999349117
31.3525244458 -3.4220067708 -2.4999349117
31.3836880808 -3.4142648989 -2.4999349117
31.4044251377 -3.4089501375 -2.4999349117
31.4147817838 -3.4062467721 -2.4999349117
31.4417489166 -3.4240917391 -2.4999349117
31.4625430962 -3.4184332983 -2.4999349117
31.5350514597 -3.3976620493 -2.4999349117
31.5419487103 -3.4208302002 -2.4999349117
31.6041553299 -3.4017084511 -2.4999349117
31.6144896800 -3.3984142793 -2.4999349117
31.6840699271 -3.4008944341 -2.4999349117
31.8348507641 -3.3977628281 -2.4999349117
31.8849897071 -3.4041391798 -2.4999349117
31.9458226678 -3.4055403748 -2.4999349117
32.1820683374 -3.4056599755 -2.4999349117
32.5084453282 -3.3971446611 -2.4999349117
32.6488739453 -3.3978112649 -2.4999349117
33.1624152723 -3.6366424529 -2.4999349117
33.1844368588 -3.6208002521 -2.4999349117
33.6829990583 -3.2029266114 -2.4999349117
33.7121267090 -3.1745117117 -2.4999349117
32.9845939553 -3.7863212498 -2.4999349117
33.0643934292 -3.7339558243 -2.4999349117
33.0982580260 -3.7110097914 -2.4999349117
33.1319176562 -3.6877641327 -2.4999349117
33.6504403795 -3.2673314270 -2.4999349117
33.7868794042 -3.1338366270 -2.4999349117
33.7964117906 -3.1240867348 -2.4999349117
33.9449458529 -2.9643180262 -2.4999349117
32.8811967842 -3.8789613873 -2.4999349117
32.8929373472 -3.8718874078 -2.4999349117
32.9280327612 -3.8504575199 -2.4999349117
33.9901758169 -2.9494623072 -2.4999349117
34.0174389267 -2.9549322520 -2.4999349117
34.2248069834 -2.6974351191 -2.4999349117
32.3871374123 -4.2158885643 -2.4999349117
32.4253055613 -4.1989338208 -2.4999349117
34.0539929777 -2.9865730878 -2.4999349117
32.3067591039 -4.2764587712 -2.4999349117
33.4414818139 -1.1708544025 -2.5000250340
33.4441147784 -1.1621865074 -2.5000250340
33.4543898823 -1.1274381780 -2.5000250340
33.4618259919 -1.1012984739 -2.5000250340
33.4553476244 0.5711996717 -2.5000250340
33.4477092384 0.5972809852 -2.5000250340
33.4564847390 -1.2040757430 -2.5000250340
33.4492103348 0.6739324790 -2.5000250340
33.4444915017 -1.3160485122 -2.5000250340
33.4505907425 -1.2986846237 -2.5000250340
33.4595467179 -1.2725718914 -2.5000250340
33.4750293697 0.6726167176 -2.5000250340
33.4416560843 -1.3937495777 -2.5000250340
33.4514560596 -1.3677123919 -2.5000250340
33.4546713221 -1.3590141298 -2.5000250340
33.4526847510 0.8114770411 -2.5000250340
33.4429141429 0.8375252614 -2.5000250340
33.4520198859 0.8809761355 -2.5000250340
33.4485831185 0.8896662265 -2.5000250340
33.4410094900 -1.5244892451 -2.5000250340
33.4483419971 -1.5071423093 -2.5000250340
33.4519697321 -1.4984526491 -2.5000250340
33.4626984823 -1.4723198124 -2.5000250340
33.4404639501 -1.5861361431 -2.5000250340
33.4341587449 1.0472207773 -2.5000250340
33.4262762718 1.0644821726 -2.5000250340
33.4426906294 -1.6394921305 -2.5000250340
33.4507035028 -1.6221332358 -2.5000250340
33.4442258011 1.0832664914 -2.5000250340
33.4279316542 1.1178589392 -2.5000250340
33.4523053051 -1.6758308372 -2.5000250340
33.4329115382 1.1629434148 -2.5000250340
33.4443063567 -1.7472382772 -2.5000250340
33.4529566642 -1.7298679376 -2.5000250340
33.4363389954 1.2626932061 -2.5000250340
33.4531297239 1.2826591199 -2.5000250340
33.4391776217 1.3086927345 -2.5000250340
33.4297481048 1.3259792470 -2.5000250340
33.4461473085 1.3463026442 -2.5000250340
33.4267406610 1.3808994140 -2.5000250340
33.4359216095 -1.9664040040 -2.5000250340
31.8794004907 -3.3904954381 -2.5000250340
31.9639284865 -3.4053864242 -2.5000250340
33.4463402103 -2.0902635169 -2.5000250340
33.4431063768 -2.1855660427 -2.5000250340
32.1439349926 -3.3974878053 -2.5000250340
33.4388858512 -2.3214362237 -2.5000250340
33.4290595376 1.7825048701 -2.5000250340
32.2987609441 -3.3953934629 -2.5000250340
32.3970764263 -3.3936286694 -2.5000250340
33.4401945555 -2.5635691565 -2.5000250340
33.4428284530 2.3463673585 -2.5000250340
32.9450708955 -3.3972290356 -2.5000250340
33.0979825406 -3.3983906270 -2.5000250340
32.4174305358 3.4107349173 -2.5000250340
32.5717448786 3.4101255185 -2.5000250340
32.6720810425 3.4084115327 -2.5000250340
33.6322789864 -3.2288202973 -2.5000250340
32.9618920156 -3.8342618817 -2.5000250340
33.0038181152 -3.8050323746 -2.5000250340
33.1578872102 -3.6910558746 -2.5000250340
33.1780428082 -3.6753460667 -2.5000250340
33.7106385704 -3.1798417816 -2.5000250340
33.8116670926 -3.0645139856 -2.5000250340
33.8281044161 -3.0449471620 -2.5000250340
33.8606303371 -3.0055234841 -2.5000250340
33.8767177961 -2.9856680099 -2.5000250340
32.7623209641 3.4107763345 -2.5000250340
32.8794856383 -3.9184697891 -2.5000250340
32.9543889973 -3.8686819477 -2.5000250340
32.9650047549 -3.8614431571 -2.5000250340
32.9861717970 -3.8468715246 -2.5000250340
33.0387089966 -3.8098967985 -2.5000250340
33.8874706439 -3.0108252582 -2.5000250340
33.8955446236 -3.0008299968 -2.5000250340
32.7278629760 -4.0407063326 -2.5000250340
32.7832953221 -4.0075308914 -2.5000250340
32.8053298485 -3.9940317561 -2.5000250340
33.3281575228 -3.6155690512 -2.5000250340
34.3552735344 -2.4526162352 -2.5000250340
33.3218762190 3.4084338843 -2.5000250340
33.8839900897 3.0416246329 -2.5000250340
33.8643001808 3.0615124761 -2.5000250340
33.8045293200 3.1204722004 -2.5000250340
33.7437214460 3.1783618140 -2.5000250340
33.7334873199 3.1879047589 -2.5000250340
33.7129346027 3.2068996170 -2.5000250340
33.6818957147 3.2351630803 -2.5000250340
33.6610643043 3.2538518780 -2.5000250340
33.6296107839 3.2816531726 -2.5000250340
33.1414268758 3.6561135889 -2.5000250340
33.0712167887 3.7021499719 -2.5000250340
33.0594361450 3.7097012347 -2.5000250340
33.0358081016 3.7246990473 -2.5000250340
33.0239609086 3.7321454661 -2.5000250340
32.9882878892 3.7542739908 -2.5000250340
33.8714884490 3.0885211753 -2.5000250340
33.8515213031 3.1083342338 -2.5000250340
33.5923017595 3.3457814008 -2.5000250340
33.1314290219 3.6917730825 -2.5000250340
32.8678145312 3.8536818246 -2.5000250340
32.8433380039 3.8675434196 -2.5000250340
34.2110964122 2.7495669744 -2.5000250340
34.1840964780 2.7822693534 -2.5000250340
34.1568073917 2.8147308354 -2.5000250340
33.8280080256 3.1650131690 -2.5000250340
32.7434812639 3.9494959768 -2.5000250340
32.6807337207 3.9820284202 -2.5000250340
34.2387857717 2.7538650623 -2.5000250340
34.2298052177 2.7648743544 -2.5000250340
32.8173404875 3.9372470954 -2.5000250340
32.4970410003 -0.0155612385 -2.5000011921
32.4858813056 0.0877971598 -2.5000011921
32.4793604877 0.1045232924 -2.5000011921
32.4724389213 0.3507281661 -2.5000011921
33.4423828377 -1.5594680266 -2.5000011921
33.4450944511 -1.5510495152 -2.5000011921
33.4504429085 -1.5341886124 -2.5000011921
33.4796661593 0.1579325760 -2.5000011921
33.4495806908 0.2597066991 -2.5000011921
33.4442160278 0.2765624528 -2.5000011921
33.4455447568 -1.6260876730 -2.5000011921
33.4681142872 -1.5584266713 -2.5000011921
33.4699453465 0.2754697163 -2.5000011921
33.4408683610 -1.7100683885 -2.5000011921
33.4440254842 -1.7016536983 -2.5000011921
33.4533473084 -1.6763541074 -2.5000011921
33.4564046441 -1.6679026497 -2.5000011921
33.4594369655 -1.6594421848 -2.5000011921
33.4624442459 -1.6509727868 -2.5000011921
33.4492579912 0.4103143301 -2.5000011921
33.4430022886 0.4271655387 -2.5000011921
33.4472014666 -1.7608583416 -2.5000011921
33.4527272978 0.4695025094 -2.5000011921
33.4313728265 -1.8625497876 -2.5000011921
33.4561079991 -1.8036181085 -2.5000011921
33.4785535419 0.4697329364 -2.5000011921
33.4312214506 -1.9226239205 -2.5000011921
33.4425047658 -1.8974292567 -2.5000011921
33.4499025674 -1.8805776131 -2.5000011921
33.4560215829 0.5892069270 -2.5000011921
33.4455333955 -1.9494724017 -2.5000011921
33.4532390488 -1.9326019288 -2.5000011921
33.4364504767 0.6918026546 -2.5000011921
33.4435947934 -2.0103023820 -2.5000011921
33.4701237014 0.6766239876 -2.5000011921
33.4571424472 -2.0377393055 -2.5000011921
33.4653701140 -2.0207986048 -2.5000011921
33.4599306698 0.7548033046 -2.5000011921
33.4446892250 -2.1161421541 -2.5000011921
33.4490475711 -2.1077143843 -2.5000011921
33.4619727584 -2.0823542351 -2.5000011921
33.4562920758 0.8163451463 -2.5000011921
33.4344600390 0.8584626592 -2.5000011921
33.4513637873 0.8781933342 -2.5000011921
33.4468643183 0.8866277470 -2.5000011921
33.4636171935 0.9065210771 -2.5000011921
33.4404506186 0.9487370675 -2.5000011921
33.4424337109 0.9942948841 -2.5000011921
33.4453461525 -2.3146073668 -2.5000011921
33.4289258085 1.1113958165 -2.5000011921
33.4407181114 -2.4154378591 -2.5000011921
33.4442605945 1.1325339029 -2.5000011921
33.4505783671 -2.4451588836 -2.5000011921
33.4253261118 1.2510645769 -2.5000011921
33.1852045300 -3.6640984439 -2.5000011921
33.2296696385 -3.6255003329 -2.5000011921
33.2384938799 -3.6177020259 -2.5000011921
33.2648276518 -3.5941509614 -2.5000011921
33.6028223213 -3.2497723704 -2.5000011921
33.6105334588 -3.2408718542 -2.5000011921
33.6637695050 -3.1779350117 -2.5000011921
33.6712678679 -3.1688545170 -2.5000011921
33.6787393362 -3.1597518806 -2.5000011921
33.6861838446 -3.1506271820 -2.5000011921
33.7156909794 -3.1139093663 -2.5000011921
33.0633329159 -3.7949387157 -2.5000011921
33.1097465334 -3.7581288211 -2.5000011921
33.7565996357 -3.1010052520 -2.5000011921
33.8069083149 -3.0350739758 -2.5000011921
33.0404670289 -3.8431148462 -2.5000011921
33.1526584966 -3.7544075945 -2.5000011921
33.7311968826 -3.1718764778 -2.5000011921
33.9955887563 -2.8044124893 -2.5000011921
33.9021279612 -2.9864707328 -2.5000011921
34.1329709839 -2.6219521825 -2.5000011921
31.7790737032 3.4154701593 -2.5000011921
31.7670758275 3.4189465340 -2.5000011921
31.7430494873 3.4257927319 -2.5000011921
31.8819848314 3.4094261805 -2.5000011921
31.8580128058 3.4169523853 -2.5000011921
31.7616920371 3.4456350619 -2.5000011921
31.9613446987 3.4089066827 -2.5000011921
31.9253715523 3.4208470665 -2.5000011921
32.0171287102 3.4153057648 -2.5000011921
31.9810965789 3.4277409485 -2.5000011921
32.0852563930 3.4165661159 -2.5000011921
32.0492103940 3.4296058449 -2.5000011921
31.9282475718 3.4707520179 -2.5000011921
32.1657195350 3.4120729402 -2.5000011921
32.1417268843 3.4212777684 -2.5000011921
32.2796457788 3.4185001887 -2.5000011921
32.3610385038 3.4101760653 -2.5000011921
32.3490537426 3.4153740203 -2.5000011921
32.3706897719 3.4323388338 -2.5000011921
32.4647101607 3.4167172764 -2.5000011921
32.5229312195 3.4161815022 -2.5000011921
32.4868713987 3.4331053649 -2.5000011921
32.6401039462 3.4126648667 -2.5000011921
32.6870485084 3.4158701448 -2.5000011921
32.7462024260 3.4122222539 -2.5000011921
32.7101689493 3.4311276793 -2.5000011921
32.7695649070 3.4271715517 -2.5000011921
32.9249139989 3.4240880383 -2.5000011921
33.0214226814 3.4236666449 -2.5000011921
33.0819493977 3.4153174251 -2.5000011921
33.2537027212 3.4209870074 -2.5000011921
33.6629479837 3.2455353588 -2.5000011921
33.6399144214 3.2636012080 -2.5000011921
33.6283576595 3.2725829506 -2.5000011921
33.9470384863 3.0361922529 -2.5000011921
33.8480263904 3.1240456441 -2.5000011921
33.8257083629 3.1432086057 -2.5000011921
33.7580795212 3.1999005725 -2.5000011921
33.7467106803 3.2092321475 -2.5000011921
33.7353142846 3.2185300506 -2.5000011921
33.7124392282 3.2370245158 -2.5000011921
33.0945696838 3.6611029295 -2.5000011921
33.0435186800 3.6903436293 -2.5000011921
33.0178643236 3.7047369419 -2.5000011921
32.9921252605 3.7189782228 -2.5000011921
32.9792242454 3.7260416954 -2.5000011921
34.1238090392 2.9011398548 -2.5000011921
34.0710690673 2.9529021589 -2.5000011921
33.9633213807 3.0540584957 -2.5000011921
33.6110231769 3.3467314404 -2.5000011921
33.0425299766 3.7186409496 -2.5000011921
33.0037655369 3.7401640494 -2.5000011921
32.9125836195 3.7890406136 -2.5000011921
32.8994756952 3.7958684811 -2.5000011921
32.7938969070 3.8490894758 -2.5000011921
33.6137418933 3.3749526768 -2.5000011921
32.6430890503 3.9462759551 -2.5000011921
32.6023202070 3.9642452768 -2.5000011921
34.1999678598 2.8930185531 -2.5000011921
34.0939349881 2.9980135985 -2.5000011921
32.6256443079 3.9804298335 -2.5000011921
32.5019644027 4.0327723954 -2.5000011921
32.4881372723 4.0383845106 -2.5000011921
34.5831949908 2.4933524880 -2.5000011921
32.3939849213 4.1270437823 -2.5000011921
34.9673391937 2.1162633780 -2.5000011921
35.1062395130 1.9317039195 -2.5000011921
32.4732292705 -0.4468722851 -2.5000011921
32.4684700567 -0.4315739014 -2.5000011921
32.4865595372 -0.4088311300 -2.5000011921
32.4744533425 -0.3729338870 -2.5000011921
32.4690379187 -0.3576275519 -2.5000011921
32.4861662901 -0.3340045140 -2.5000011921
32.4904439619 -0.1565156733 -2.5000011921
32.4869875497 -0.0420318001 -2.5000011921
32.4854147795 0.0589542552 -2.5000011921
32.5061881330 0.0713156089 -2.5000011921
32.4811506122 0.2848609434 -2.5000011921
33.4383262518 -1.8972484780 -2.5000011921
33.4544936430 -0.1023730592 -2.5000011921
33.4330745663 -0.0385496963 -2.5000011921
33.4442692359 -1.9531062717 -2.5000011921
33.4556479520 -1.9211226453 -2.5000011921
33.4416270228 0.0093739425 -2.5000011921
33.4459996532 -2.0174514471 -2.5000011921
33.4521169755 -2.0014651002 -2.5000011921
33.4581396102 -1.9854428410 -2.5000011921
33.4613812268 0.0257061530 -2.5000011921
33.4462761540 0.0657431918 -2.5000011921
33.4431841701 0.0737235442 -2.5000011921
33.4527131715 -2.0662949862 -2.5000011921
33.4559281139 -2.0582862633 -2.5000011921
33.4399148596 0.1465271601 -2.5000011921
33.4652649697 -2.0995006660 -2.5000011921
33.4417219298 0.2038362752 -2.5000011921
33.4774387384 -2.1330143070 -2.5000011921
33.4567848143 0.2295810290 -2.5000011921
33.4423360841 0.2615599442 -2.5000011921
33.4527934736 -2.2474186000 -2.5000011921
33.4514835308 -2.3059112119 -2.5000011921
33.4554073068 -2.2979050781 -2.5000011921
33.4557582561 0.3461943155 -2.5000011921
33.4478912855 0.3621970298 -2.5000011921
33.4530407191 -2.3567557731 -2.5000011921
33.4691949896 -2.3246401005 -2.5000011921
33.4814123105 0.3487115633 -2.5000011921
33.4408621472 -2.4318987949 -2.5000011921
33.4540609839 0.4562247365 -2.5000011921
33.4455430661 0.4722154834 -2.5000011921
33.4445674912 -2.4754188410 -2.5000011921
33.4493886837 0.5157233586 -2.5000011921
33.4521719750 -2.5112332133 -2.5000011921
33.4656942569 -2.4871659705 -2.5000011921
33.4660954468 0.5354524706 -2.5000011921
33.4434505133 0.5755034765 -2.5000011921
33.4452959043 -2.5713083338 -2.5000011921
33.4593515900 -2.5472997466 -2.5000011921
33.4565407144 -2.5996726070 -2.5000011921
33.4613334676 -2.5916502277 -2.5000011921
33.4708476744 -2.5755631115 -2.5000011921
33.4569717704 0.6479615329 -2.5000011921
33.4626426464 -2.6362659500 -2.5000011921
33.4475751725 -2.7502898998 -2.5000011921
33.4528135181 -2.7422933833 -2.5000011921
33.4584949746 0.7825699321 -2.5000011921
33.4518009690 -2.7876407529 -2.5000011921
33.4677762274 -2.7635659181 -2.5000011921
33.4576286143 0.8279203302 -2.5000011921
33.4617536375 -2.9009552288 -2.5000011921
33.4329818524 1.3393000741 -2.5000011921
31.9218297478 3.4066529342 -2.5000011921
31.8828943728 3.4169062100 -2.5000011921
31.8438695388 3.4268135525 -2.5000011921
32.0190554967 3.4046018213 -2.5000011921
31.9801344955 3.4157180019 -2.5000011921
31.8235100849 3.4567159805 -2.5000011921
32.0778096499 3.4123763027 -2.5000011921
32.0388173409 3.4240135873 -2.5000011921
32.1629020838 3.4110702966 -2.5000011921
32.1369249048 3.4193703991 -2.5000011921
32.0129316691 3.4818111517 -2.5000011921
32.3212059915 3.4081843733 -2.5000011921
32.4548890587 3.4097751038 -2.5000011921
32.5156965181 3.4116793956 -2.5000011921
32.4897095609 3.4220667379 -2.5000011921
32.5767869002 3.4127555353 -2.5000011921
32.6121521873 3.4241088989 -2.5000011921
32.5991291999 3.4296070675 -2.5000011921
32.6867831076 3.4181552663 -2.5000011921
32.6737774056 3.4238742327 -2.5000011921
32.7356568548 3.4227941078 -2.5000011921
32.6965461885 3.4402690071 -2.5000011921
32.8107753691 3.4147767186 -2.5000011921
32.7717328945 3.4329185683 -2.5000011921
32.8471264563 3.4243052688 -2.5000011921
32.9097102059 3.4208382998 -2.5000011921
32.9595023921 3.4230674684 -2.5000011921
32.9964769716 3.4314310270 -2.5000011921
33.0597082137 3.4259046392 -2.5000011921
33.0466779559 3.4327267517 -2.5000011921
33.0336275741 3.4395102884 -2.5000011921
33.0970782189 3.4334768545 -2.5000011921
33.2114849219 3.4260554512 -2.5000011921
33.1592311938 3.4549080915 -2.5000011921
33.2494170006 3.4324194583 -2.5000011921
33.3005564761 3.4309533976 -2.5000011921
33.2744417511 3.4459838976 -2.5000011921
33.3388255872 3.4366115315 -2.5000011921
33.8829511129 3.1290372359 -2.5000011921
33.8586124325 3.1475186622 -2.5000011921
33.7725749597 3.2110629404 -2.5000011921
33.7353024563 3.2377482438 -2.5000011921
33.6977946036 3.2641017239 -2.5000011921
32.9996215676 3.6728430096 -2.5000011921
32.9582814629 3.6926506010 -2.5000011921
34.0774473282 3.0044309975 -2.5000011921
34.0538424561 3.0240653095 -2.5000011921
33.9943256867 3.0725371071 -2.5000011921
33.9823366646 3.0821255332 -2.5000011921
33.8976266849 3.1482456421 -2.5000011921
33.6863515282 3.3014071715 -2.5000011921
33.5971645990 3.3613516551 -2.5000011921
32.9269212267 3.7340275230 -2.5000011921
32.9129800667 3.7404554793 -2.5000011921
32.8990199527 3.7468421671 -2.5000011921
32.8850410067 3.7531875304 -2.5000011921
32.8570271086 3.7657540617 -2.5000011921
32.8429924016 3.7719751197 -2.5000011921
32.7442427852 3.8143562798 -2.5000011921
34.2097613764 2.9222552566 -2.5000011921
33.5716614975 3.4067924485 -2.5000011921
32.7250403981 3.8484545333 -2.5000011921
32.6678227019 3.8715217655 -2.5000011921
32.6391125004 3.8828010893 -2.5000011921
32.6247325005 3.8883770045 -2.5000011921
32.5814944153 3.9048491783 -2.5000011921
34.4292941679 2.7496274473 -2.5000011921
32.5754878764 3.9329068847 -2.5000011921
32.4880846595 3.9645858536 -2.5000011921
32.4441756444 3.9798423535 -2.5000011921
34.6297296987 2.5761327985 -2.5000011921
32.3781919610 4.0273842934 -2.5000011921
32.3485646934 4.0369473367 -2.5000011921
32.2662980831 4.0877356092 -2.5000011921
32.2513134812 4.0922077751 -2.5000011921
32.1069555810 4.1578510359 -2.5000011921
32.1892663821 4.1604482772 -2.5000011921
32.4675548923 -0.4341617031 -2.5000011921
32.4652016984 -0.3818480347 -2.5000011921
32.4805326559 -0.3604274749 -2.5000011921
32.4722923193 -0.3469382382 -2.5000011921
32.4786758506 -0.3116245021 -2.5000011921
33.4394520883 -2.2120141387 -2.5000011921
33.4476057837 -2.1899421170 -2.5000011921
33.5834514495 -0.9234781924 -2.5000011921
33.4317884854 -0.3321954644 -2.5000011921
33.4421249609 -2.2721717533 -2.5000011921
33.4508124162 -2.2500736425 -2.5000011921
33.4515096398 -0.3161489693 -2.5000011921
33.4556189998 -2.3033348458 -2.5000011921
33.4586287312 -2.2959373318 -2.5000011921
33.4675264427 -2.2736918234 -2.5000011921
33.4464203200 -2.3866086925 -2.5000011921
33.4472159926 -0.1796107879 -2.5000011921
33.4169814701 -0.1136955779 -2.5000011921
33.4422937603 -0.1106742477 -2.5000011921
33.4597948984 -2.4732732325 -2.5000011921
33.4411981949 -2.5651780878 -2.5000011921
33.4708616031 -2.5060211474 -2.5000011921
33.4510943453 -2.5984588902 -2.5000011921
33.4588380438 -2.5836765955 -2.5000011921
33.4525640898 -2.6468073289 -2.5000011921
33.4289669177 0.1246879402 -2.5000011921
33.4320067087 0.2150293732 -2.5000011921
33.4560622025 -2.7863748510 -2.5000011921
33.4346520964 0.2569705042 -2.5000011921
33.4586524863 -2.8285541623 -2.5000011921
33.4331759188 0.3489883909 -2.5000011921
33.4437325662 0.4199934112 -2.5000011921
33.4509061269 0.5355254795 -2.5000011921
32.3447924523 3.4164548460 -2.5000011921
32.3308868716 3.4205413076 -2.5000011921
32.3030397490 3.4285907361 -2.5000011921
32.2890984509 3.4325536326 -2.5000011921
32.4213276784 3.4184848616 -2.5000011921
32.4074157576 3.4227977194 -2.5000011921
32.3516423204 3.4396370501 -2.5000011921
32.4982251086 3.4192737730 -2.5000011921
32.4703825565 3.4283132529 -2.5000011921
32.5615511381 3.4235801551 -2.5000011921
32.6391173810 3.4220858895 -2.5000011921
32.6251938549 3.4270429929 -2.5000011921
32.5833361460 3.4416668713 -2.5000011921
32.7169887892 3.4193216496 -2.5000011921
32.6891421251 3.4296554081 -2.5000011921
32.6472587143 3.4448466886 -2.5000011921
32.8318484417 3.4267749722 -2.5000011921
32.8179102011 3.4323021884 -2.5000011921
32.8966451757 3.4266046360 -2.5000011921
32.8827071555 3.4323235334 -2.5000011921
32.8407924442 3.4492324899 -2.5000011921
33.0130689215 3.4297307144 -2.5000011921
32.9851554921 3.4418160002 -2.5000011921
33.0786102128 3.4271044429 -2.5000011921
33.1964366296 3.4258100158 -2.5000011921
33.2487083537 3.4274811238 -2.5000011921
33.2347662002 3.4342414839 -2.5000011921
33.3011853213 3.4285935462 -2.5000011921
33.3538617182 3.4291437792 -2.5000011921
33.3399141862 3.4362151947 -2.5000011921
33.6944943393 3.2679211293 -2.5000011921
33.6404633705 3.3000006140 -2.5000011921
33.1953331712 3.5331818702 -2.5000011921
34.0242700769 3.0820049282 -2.5000011921
33.9854192936 3.1090584103 -2.5000011921
33.8276614925 3.2137929995 -2.5000011921
33.7742616704 3.2474519691 -2.5000011921
33.7069579660 3.2886332825 -2.5000011921
33.6934245446 3.2967498354 -2.5000011921
33.6798671721 3.3048263184 -2.5000011921
33.6662859673 3.3128626609 -2.5000011921
33.6526810489 3.3208587926 -2.5000011921
33.1048819200 3.6006337152 -2.5000011921
32.9448846350 3.6679471246 -2.5000011921
32.9008764481 3.6853985929 -2.5000011921
32.8861728500 3.6911288748 -2.5000011921
32.8714523651 3.6968156357 -2.5000011921
34.2044441112 2.9800560309 -2.5000011921
34.1918213404 2.9896455879 -2.5000011921
34.1282850178 3.0370309701 -2.5000011921
32.7910579064 3.7527317347 -2.5000011921
32.7463033611 3.7688147383 -2.5000011921
32.7313536794 3.7740874001 -2.5000011921
32.7163884655 3.7793158150 -2.5000011921
32.6714009418 3.7947351224 -2.5000011921
34.4058036373 2.8503425378 -2.5000011921
34.3070480019 2.9308087757 -2.5000011921
34.2569630207 2.9701598798 -2.5000011921
34.2443692946 2.9799048405 -2.5000011921
34.2064159251 3.0089156003 -2.5000011921
33.5803590147 3.4179133462 -2.5000011921
32.6186726508 3.8376636521 -2.5000011921
32.6035198600 3.8425584579 -2.5000011921
32.5579755379 3.8569736293 -2.5000011921
34.4701689338 2.8276120007 -2.5000011921
33.9471154802 3.2225424438 -2.5000011921
32.6565349206 3.8506867501 -2.5000011921
32.5039726047 3.8987258979 -2.5000011921
32.4117766375 3.9253758632 -2.5000011921
32.3500561569 3.9422316103 -2.5000011921
34.7926415058 2.5625890144 -2.5000011921
34.7237990440 2.6300691421 -2.5000011921
33.8661499502 3.3039126360 -2.5000011921
33.8389659724 3.3210472377 -2.5000011921
32.2629270905 3.9896062200 -2.5000011921
34.8664129862 2.5222870605 -2.5000011921
34.7289251282 2.6586584551 -2.5000011921
34.6747908983 2.7427484046 -2.5000011921
31.8377012640 4.1750801539 -2.5000011921
31.9225265110 4.1852531773 -2.5000011921
33.4343031017 -1.5216910986 -2.5000011921
33.4556519024 -2.3704758546 -2.5000011921
33.4590071788 -0.7254486106 -2.5000011921
33.4536355194 -0.6439531621 -2.5000011921
33.4433457002 -0.4992546435 -2.5000011921
33.2933983763 -0.1815960069 -2.5000011921
33.6764199228 -1.0548971880 -2.5000011921
33.4307253131 -0.3660063063 -2.5000011921
33.4166758696 0.0234480924 -2.5000011921
32.5515539126 3.4218967843 -2.5000011921
32.5221542414 3.4296989003 -2.5000011921
29.9786228360 3.4461733874 -2.5000011921
29.8250667492 3.4306063387 -2.5000011921
33.8353373394 2.9378778221 -2.5000011921
32.6823160084 3.4353350180 -2.5000011921
29.7300753652 3.4282566159 -2.5000011921
29.7153748312 3.4238329446 -2.5000011921
32.9027427232 3.4162217530 -2.5000011921
32.8733704810 3.4261017192 -2.5000011921
32.8586625684 3.4309764929 -2.5000011921
32.8439402997 3.4358077365 -2.5000011921
35.0562940418 2.0915731371 -2.5000011921
33.1415021058 3.4324099223 -2.5000011921
33.1944991143 3.4376140230 -2.5000011921
33.3065898586 3.4179032245 -2.5000011921
33.7037524911 3.2857506123 -2.5000011921
33.5743172368 3.3502079330 -2.5000011921
33.1162839079 3.5454147651 -2.5000011921
33.9554905369 3.1756077705 -2.5000011921
33.8853952377 3.2155782917 -2.5000011921
33.8005120011 3.2621679003 -2.5000011921
34.0790116688 3.1301282299 -2.5000011921
32.8417428086 3.6901849016 -2.5000011921
32.7018467892 3.7315517480 -2.5000011921
32.6549761686 3.7445112320 -2.5000011921
32.6393272986 3.7487385625 -2.5000011921
34.5871990080 2.8087694210 -2.5000011921
32.6927125126 3.7592070705 -2.5000011921
33.9635392217 3.2546638224 -2.5000011921
33.8922737726 3.2947447394 -2.5000011921
32.4774124439 3.8392497598 -2.5000011921
34.4191392771 3.0226782721 -2.5000011921
33.4596739872 -0.9514446904 -2.5000011921
33.4467605272 -0.8618104239 -2.5000011921
33.4387761220 -0.8447786953 -2.5000011921
32.8556243570 3.4126488162 -2.5000011921
32.8250394202 3.4204390131 -2.5000011921
32.8097298021 3.4242662206 -2.5000011921
30.6799018771 3.5144775792 -2.5000011921
30.4316257549 3.4686596123 -2.5000011921
30.2163716248 3.4189708153 -2.5000011921
32.9382617299 3.4156983964 -2.5000011921
30.1797333239 3.4345467429 -2.5000011921
33.0365677808 3.4129754919 -2.5000011921
33.0212793156 3.4174284713 -2.5000011921
33.1046560853 3.4178284823 -2.5000011921
30.0749227289 3.4564567009 -2.5000011921
33.2036569171 3.4119409415 -2.5000011921
33.1883707812 3.4168882053 -2.5000011921
29.9450301444 3.4438466316 -2.5000011921
29.8836493289 3.4248042514 -2.5000011921
33.2876809148 3.4094019220 -2.5000011921
33.2571076260 3.4197483674 -2.5000011921
29.8763503404 3.4478489915 -2.5000011921
29.8149269751 3.4279936797 -2.5000011921
33.3719956344 3.4055023214 -2.5000011921
33.3567278085 3.4109475898 -2.5000011921
33.3261441666 3.4217025127 -2.5000011921
29.7612413977 3.4355146645 -2.5000011921
29.7152657737 3.4196702557 -2.5000011921
29.6999720362 3.4142981937 -2.5000011921
33.3801496159 3.4282585924 -2.5000011921
29.6765819916 3.4316520890 -2.5000011921
29.6612529789 3.4261655410 -2.5000011921
33.1086925780 3.5428818991 -2.5000011921
34.1751853658 3.1250982708 -2.5000011921
34.1172799925 3.1561313667 -2.5000011921
33.7625089784 3.3277505843 -2.5000011921
33.5807792822 3.4040097440 -2.5000011921
32.6700989652 3.6795181918 -2.5000011921
29.4759082248 3.4077709460 -2.5000011921
34.1867297753 3.1463364886 -2.5000011921
32.6912257795 3.6997401045 -2.5000011921
32.6104501499 3.7164130533 -2.5000011921
32.5618695124 3.7258427124 -2.5000011921
34.4985928141 2.9920353012 -2.5000011921
34.3569452134 3.0779517672 -2.5000011921
