15.6879507954 -25.9294952220 -2.4893474579
15.7198433214 -25.9373627218 -2.4893474579
18.1468897540 -25.9823069948 -2.4893474579
18.2752924772 -25.9544416474 -2.4893474579
18.5931008395 -25.8715576018 -2.4893474579
20.3479801478 -24.9973149734 -2.4893474579
15.6660937442 -25.9489255425 -2.4893474579
18.5681993951 -25.9039301520 -2.4893474579
18.8980632482 -25.7983229406 -2.4893474579
18.9291235326 -25.7872006328 -2.4893474579
15.5320708968 -25.9383382007 -2.4893474579
15.8051874867 -26.0069998160 -2.4893474579
18.7964540167 -25.8587442557 -2.4893474579
18.8435598376 -25.8428912769 -2.4893474579
19.0922935257 -25.7513243324 -2.4893474579
15.4137135629 -25.9292382310 -2.4893474579
15.4615781859 -25.9434024002 -2.4893474579
17.5858752808 -26.1403992560 -2.4893474579
19.0856959197 -25.7798982403 -2.4893474579
19.1011789628 -25.7738050862 -2.4893474579
15.3428576870 -25.9327577366 -2.4893474579
15.3588092927 -25.9377359061 -2.4893474579
15.3747755548 -25.9426668660 -2.4893474579
15.3907563338 -25.9475505733 -2.4893474579
19.7157165123 -25.5144308661 -2.4893474579
19.8760423137 -25.4245408001 -2.4893474579
20.0049871374 -25.3471455782 -2.4893474579
15.2716927206 -25.9353513677 -2.4893474579
15.2161955076 -25.9424123822 -2.4893474579
15.1284837471 -25.9377339238 -2.4893474579
15.1764349966 -25.9544290131 -2.4893474579
17.1392962715 -26.2632877327 -2.4893474579
17.4098289066 -26.2518843069 -2.4893474579
15.1044162432 -25.9548439294 -2.4893474579
15.0321287707 -25.9543090202 -2.4893474579
14.9348703646 -25.9692041589 -2.4893474579
14.8297747931 -25.9534864934 -2.4893474579
14.7725283078 -25.9560202750 -2.4893474579
14.6830671962 -25.9441498905 -2.4893474579
14.6990553887 -25.9510797897 -2.4893474579
14.7150640112 -25.9579623626 -2.4893474579
14.6253841389 -25.9451553697 -2.4893474579
14.5414245810 -25.9602021657 -2.4893474579
14.4671367319 -25.9521728591 -2.4893474579
14.2482393745 -25.9517716885 -2.4893474579
14.2371721777 -25.9732624408 -2.4893474579
14.1183396616 -25.9653560977 -2.4893474579
13.7459294586 -25.9470709513 -2.4893474579
13.7619303926 -25.9567730606 -2.4893474579
11.6239369049 -24.1371297057 -2.4893474579
12.9430131846 -25.9560682314 -2.4893474579
11.6303984547 -24.7654427332 -2.4893474579
11.3031389820 -25.6550253918 -2.4893474579
11.3793762886 -25.7392230953 -2.4893474579
11.4412575673 -25.8057636457 -2.4893474579
11.4568505726 -25.8222840096 -2.4893474579
11.8119974521 -26.1737919351 -2.4893474579
11.8789904651 -26.2351830885 -2.4893474579
11.8958518555 -26.2504066804 -2.4893474579
11.9467051968 -26.2957772516 -2.4893474579
11.9637455395 -26.3108002660 -2.4893474579
11.9808302484 -26.3257728063 -2.4893474579
12.0151321664 -26.3555659407 -2.4893474579
12.0669140400 -26.3998738250 -2.4893474579
11.0060951536 -25.3400875230 -2.4893474579
11.0632798067 -25.4110728511 -2.4893474579
11.0777068991 -25.4287130686 -2.4893474579
11.1359351976 -25.4988448489 -2.4893474579
11.1653595192 -25.5336511388 -2.4893474579
11.2248233575 -25.6027384263 -2.4893474579
12.1036170311 -26.4622949497 -2.4893474579
12.1211492767 -26.4768530620 -2.4893474579
12.1740033307 -26.5202153278 -2.4893474579
12.2272401191 -26.5631068360 -2.4893474579
12.2450700436 -26.5772988077 -2.4893474579
12.2808554493 -26.6055242086 -2.4893474579
10.8612193388 -25.1924743575 -2.4893474579
10.8750006614 -25.2107132628 -2.4893474579
10.8888358777 -25.2289113207 -2.4893474579
10.9306636756 -25.2832588189 -2.4893474579
10.9588161105 -25.3192833371 -2.4893474579
10.9729721300 -25.3372329787 -2.4893474579
10.9871811858 -25.3551406657 -2.4893474579
11.0157579086 -25.3908295493 -2.4893474579
12.3382363464 -26.6805364885 -2.4893474579
12.3928894280 -26.7219642076 -2.4893474579
12.4295281357 -26.7493125275 -2.4893474579
12.4479080051 -26.7629052799 -2.4893474579
10.5695824786 -24.8652619141 -2.4893474579
10.5952682229 -24.9034300256 -2.4893474579
10.6081956637 -24.9224569271 -2.4893474579
12.6063612484 -26.9355647807 -2.4893474579
12.6823123013 -26.9875033239 -2.4893474579
12.7013956762 -27.0003472528 -2.4893474579
10.5366902017 -24.8594982330 -2.4893474579
12.4841846829 -26.9087173747 -2.4893474579
12.9274967038 -27.2032895390 -2.4893474579
13.1831306453 -27.4097545793 -2.4893474579
13.2442218576 -27.4436556199 -2.4893474579
13.2646521548 -27.4548353229 -2.4893474579
13.2941646416 -27.4983041200 -2.4893474579
13.3147563805 -27.5093358441 -2.4893474579
18.4294514296 -21.0591353952 -2.5027558543
18.4372155643 -21.0230793018 -2.5027558543
18.4431108138 -21.1060246168 -2.5027558572
18.4481927549 -21.0852758699 -2.5027558572
18.4304660143 -21.2366604965 -2.5027558600
18.4447108466 -21.3406853635 -2.5027558658
18.4386334278 -21.4786654320 -2.5027558716
18.4380236712 -21.5356455123 -2.5027558744
18.4535938911 -22.0507443155 -2.5027559090
17.9137363857 -22.6869709629 -2.5027559234
18.1655378317 -22.7532088261 -2.5027559465
15.3377555558 -25.9258848132 -2.5027562894
15.3688974762 -25.9338059254 -2.5027562894
18.1180867680 -25.9069519185 -2.5027562894
18.1645395820 -25.8940913253 -2.5027562894
15.2693103855 -25.9328269324 -2.5027562923
15.3943350512 -25.9650216891 -2.5027562923
18.1710926477 -25.9173591704 -2.5027562923
18.2331235773 -25.8994922462 -2.5027562923
18.2485979371 -25.8949109264 -2.5027562923
18.2640586767 -25.8902838507 -2.5027562923
15.2161163308 -25.9432719783 -2.5027562952
15.2473632484 -25.9519124447 -2.5027562952
18.3020405788 -25.9039988567 -2.5027562952
15.1313723723 -25.9440440164 -2.5027562980
15.1469920957 -25.9486380427 -2.5027562980
18.3557665418 -25.9125482211 -2.5027562980
18.3712789868 -25.9076040441 -2.5027562980
18.3867767382 -25.9026140001 -2.5027562980
15.0462841637 -25.9434586489 -2.5027563009
15.1245172777 -25.9672246755 -2.5027563009
18.4097704599 -25.9205547116 -2.5027563009
18.5490361172 -25.8729691761 -2.5027563009
18.5798087682 -25.8618922002 -2.5027563009
18.5951703833 -25.8562854874 -2.5027563009
18.6717259821 -25.8275716503 -2.5027563009
18.6869856686 -25.8216931799 -2.5027563009
14.9764863547 -25.9466042888 -2.5027563038
15.0390869679 -25.9665353830 -2.5027563038
18.6189039708 -25.8733041805 -2.5027563038
18.7263087840 -25.8322932155 -2.5027563038
18.9834274032 -25.7235100034 -2.5027563038
19.0282181973 -25.7029772212 -2.5027563038
19.0876524561 -25.6749833973 -2.5027563038
14.8907654565 -25.9435280460 -2.5027563067
14.9220195833 -25.9540933930 -2.5027563067
14.9690166081 -25.9695942468 -2.5027563067
17.7707848498 -26.1371985264 -2.5027563067
17.8192946496 -26.1274109761 -2.5027563067
19.0831899191 -25.7038858852 -2.5027563067
19.1574380874 -25.6679707205 -2.5027563067
19.2164490869 -25.6384503575 -2.5027563067
14.8359911634 -25.9501405454 -2.5027563096
14.8516302139 -25.9556083361 -2.5027563096
14.8829564967 -25.9664050088 -2.5027563096
17.6451336806 -26.1850106496 -2.5027563096
19.2421532269 -25.6524833330 -2.5027563096
19.5752514246 -25.4675838143 -2.5027563096
14.7496941734 -25.9447947462 -2.5027563125
14.7809582634 -25.9561946960 -2.5027563125
17.4354411138 -26.2415298611 -2.5027563125
17.5671641532 -26.2223804349 -2.5027563125
14.7100158890 -25.9558460111 -2.5027563153
17.4220683930 -26.2676745850 -2.5027563153
14.6388153610 -25.9545559776 -2.5027563182
14.6544683359 -25.9606070306 -2.5027563182
17.2250777516 -26.3141164840 -2.5027563182
14.5673690612 -25.9523184517 -2.5027563211
15.9995598057 -26.3211179381 -2.5027563211
14.4956894802 -25.9491274515 -2.5027563240
14.5583536074 -25.9747473811 -2.5027563240
20.3542409843 -25.0620073191 -2.5027563240
14.3985741573 -25.9604247678 -2.5027563297
16.7741249619 -26.4353119385 -2.5027563297
14.3418751755 -25.9619567522 -2.5027563326
14.2122031778 -25.9559307616 -2.5027563384
14.2278620861 -25.9632438046 -2.5027563384
14.1705601085 -25.9629918386 -2.5027563413
14.0397453895 -25.9528565786 -2.5027563470
13.9975461900 -25.9586130559 -2.5027563499
13.9551864162 -25.9640545015 -2.5027563528
13.7999266751 -25.9912153530 -2.5027563643
12.7279395683 -25.9627177769 -2.5027564306
12.6517800995 -25.9657757939 -2.5027564364
12.6214079352 -25.9729804163 -2.5027564392
11.3519642454 -25.7384020081 -2.5027565199
11.8717546839 -26.2347366278 -2.5027565199
11.9213623752 -26.2772958202 -2.5027565199
11.4237766302 -25.8819015533 -2.5027565257
11.3584530883 -25.8844504952 -2.5027565315
18.4391872479 -21.8095764193 -2.5006575584
18.6646188940 -21.8979892967 -2.5006575584
18.4511238733 -22.3587227122 -2.5006575584
15.1113610872 -25.9545337486 -2.5006575584
15.1416201147 -25.9618561821 -2.5006575584
17.7896973733 -25.9090604141 -2.5006575584
17.8345930085 -25.8962099573 -2.5006575584
17.8495326593 -25.8918379946 -2.5006575584
14.9693753813 -25.9426892671 -2.5006575584
14.9844650629 -25.9467929330 -2.5006575584
14.9995668178 -25.9508519430 -2.5006575584
15.0752520641 -25.9704759240 -2.5006575584
17.8263267678 -25.9237676220 -2.5006575584
14.8873905296 -25.9447219253 -2.5006575584
14.9175954270 -25.9533696156 -2.5006575584
14.9327169295 -25.9576264093 -2.5006575584
14.9478509583 -25.9618384522 -2.5006575584
14.9781560646 -25.9701281387 -2.5006575584
17.9383650040 -25.9154893150 -2.5006575584
14.7899569973 -25.9408053841 -2.5006575584
18.0805972855 -25.8946728974 -2.5006575584
14.7223504970 -25.9448326280 -2.5006575584
14.7828237893 -25.9639019775 -2.5006575584
18.1482901123 -25.8968033389 -2.5006575584
18.1781544360 -25.8861592908 -2.5006575584
14.7149444988 -25.9678432011 -2.5006575584
14.7301097035 -25.9726994095 -2.5006575584
18.2461429791 -25.8869895565 -2.5006575584
18.3144039706 -25.8869137055 -2.5006575584
18.3293140221 -25.8811224159 -2.5006575584
14.5025878530 -25.9460656830 -2.5006575584
14.5479413310 -25.9623850219 -2.5006575584
14.5630911202 -25.9677352798 -2.5006575584
18.3530589252 -25.8977809669 -2.5006575584
18.3680009549 -25.8918752814 -2.5006575584
14.4640140151 -25.9576222030 -2.5006575584
14.4943026446 -25.9687745051 -2.5006575584
18.4516953420 -25.8840185415 -2.5006575584
14.3798321029 -25.9514915826 -2.5006575584
14.3949504029 -25.9573391857 -2.5006575584
18.3254330899 -25.9603756420 -2.5006575584
18.6540363581 -25.8219931542 -2.5006575584
18.7274159935 -25.7875802130 -2.5006575584
14.3105142301 -25.9500819642 -2.5006575584
18.0112340441 -26.0953318236 -2.5006575584
18.1504501292 -26.0496243096 -2.5006575584
18.7964309473 -25.7809552098 -2.5006575584
18.8981383181 -25.7295342307 -2.5006575584
18.9987591707 -25.6760183416 -2.5006575584
19.0273023716 -25.6603464970 -2.5006575584
19.0699420751 -25.6365227841 -2.5006575584
14.2409531510 -25.9477439487 -2.5006575584
17.7670546374 -26.1907614876 -2.5006575584
17.8144511032 -26.1781008793 -2.5006575584
17.9088976444 -26.1515203374 -2.5006575584
17.9402731491 -26.1422881576 -2.5006575584
19.0389990940 -25.6815012121 -2.5006575584
19.2090093806 -25.5835207690 -2.5006575584
19.3203712189 -25.5148747258 -2.5006575584
14.1862596144 -25.9509365184 -2.5006575584
14.2013771193 -25.9573567464 -2.5006575584
14.2316687749 -25.9700629012 -2.5006575584
17.5977215358 -26.2571424553 -2.5006575584
19.0074699762 -25.7263062361 -2.5006575584
14.1313429435 -25.9535585643 -2.5006575584
17.4902499941 -26.3051991237 -2.5006575584
19.6463517617 -25.3518146738 -2.5006575584
17.2507080992 -26.3736436774 -2.5006575584
19.5662806384 -25.4679668441 -2.5006575584
17.0929975777 -26.4453886259 -2.5006575584
17.1095650431 -26.4432080337 -2.5006575584
13.9095623178 -25.9582683482 -2.5006575584
13.8385006033 -25.9505344604 -2.5006575584
13.8536184405 -25.9579834242 -2.5006575584
13.8687582469 -25.9653876340 -2.5006575584
13.7823721453 -25.9494916488 -2.5006575584
13.7974871432 -25.9571066552 -2.5006575584
13.8126246016 -25.9646769154 -2.5006575584
13.6846867883 -25.9535642788 -2.5006575584
13.6998142612 -25.9614682383 -2.5006575584
13.4721950668 -25.9478117879 -2.5006575584
13.4873064526 -25.9563443616 -2.5006575584
13.3300830458 -25.9491787160 -2.5006575584
13.3177336143 -25.9699591593 -2.5006575584
13.2446967650 -25.9541866226 -2.5006575584
13.2598280040 -25.9633921495 -2.5006575584
13.0723239849 -25.9602555558 -2.5006575584
13.0874739312 -25.9699709660 -2.5006575584
13.0137884533 -25.9510532147 -2.5006575584
12.9853759990 -25.9612927913 -2.5006575584
17.8906838691 -22.0417954296 -2.4989764690
18.4392522518 -22.0684997794 -2.4989764690
18.4615455345 -22.0778456249 -2.4989764690
18.4454327345 -22.4371133681 -2.4989764690
18.6106066360 -22.0966505585 -2.4989764690
18.4573762451 -22.5584149067 -2.4989764690
18.4348492368 -22.7660112867 -2.4989764690
14.8601310851 -25.9498846850 -2.4989764690
14.8889596816 -25.9570355794 -2.4989764690
14.9033897189 -25.9605470353 -2.4989764690
14.9178300806 -25.9640157891 -2.4989764690
14.9467412716 -25.9708250696 -2.4989764690
17.4442494394 -25.9131338415 -2.4989764690
17.4728153791 -25.9049968671 -2.4989764690
17.4870801710 -25.9008650382 -2.4989764690
14.7964372380 -25.9584452211 -2.4989764690
14.8108718501 -25.9622303689 -2.4989764690
17.5367657011 -25.9113643836 -2.4989764690
17.5510490494 -25.9070433501 -2.4989764690
14.7034904856 -25.9580994174 -2.4989764690
14.7179244815 -25.9621595200 -2.4989764690
14.7757786738 -25.9779724193 -2.4989764690
17.6153597119 -25.9123794738 -2.4989764690
17.6724220456 -25.8939120583 -2.4989764690
14.6101527201 -25.9559835864 -2.4989764690
14.6245808653 -25.9603198082 -2.4989764690
14.6390217747 -25.9646133300 -2.4989764690
14.6679413806 -25.9730721236 -2.4989764690
17.7085850420 -25.9073343717 -2.4989764690
17.7371120438 -25.8976336007 -2.4989764690
14.5308746391 -25.9566971836 -2.4989764690
14.5597493031 -25.9657959505 -2.4989764690
14.6176575966 -25.9834801975 -2.4989764690
17.8163615563 -25.8953890261 -2.4989764690
14.4512547978 -25.9561271684 -2.4989764690
17.8245490224 -25.9181332711 -2.4989764690
17.8388511351 -25.9129608930 -2.4989764690
17.8816647931 -25.8971902278 -2.4989764690
14.3713138974 -25.9542636117 -2.4989764690
14.4290989265 -25.9741783213 -2.4989764690
14.3633025878 -25.9770705010 -2.4989764690
14.2393734485 -25.9576118994 -2.4989764690
14.2538080328 -25.9630449462 -2.4989764690
14.2682586260 -25.9684352692 -2.4989764690
14.2827251015 -25.9737828212 -2.4989764690
18.0934720967 -25.8913956793 -2.4989764690
14.2163393974 -25.9747217177 -2.4989764690
14.1207600021 -25.9632464889 -2.4989764690
14.1352117736 -25.9690303912 -2.4989764690
14.1641663298 -25.9804698166 -2.4989764690
18.2122090952 -25.8929524155 -2.4989764690
18.2648065260 -25.8958876863 -2.4989764690
18.2932560706 -25.8828963224 -2.4989764690
13.9722640207 -25.9536371868 -2.4989764690
13.9866880159 -25.9598604090 -2.4989764690
14.0011303573 -25.9660409353 -2.4989764690
14.0300695735 -25.9782736838 -2.4989764690
14.0445661950 -25.9843257989 -2.4989764690
18.3033622040 -25.9048554060 -2.4989764690
18.3318641298 -25.8916357769 -2.4989764690
18.3602873450 -25.8782477522 -2.4989764690
13.9337315353 -25.9631867719 -2.4989764690
18.3848989364 -25.8932979457 -2.4989764690
18.4133310574 -25.8795961201 -2.4989764690
13.8516879447 -25.9528386052 -2.4989764690
13.8805516669 -25.9659557362 -2.4989764690
18.4523687303 -25.8874085914 -2.4989764690
18.4665772070 -25.8803791434 -2.4989764690
18.2173384278 -26.0226170372 -2.4989764690
18.2901964986 -25.9905118126 -2.4989764690
18.6329165976 -25.8215862962 -2.4989764690
18.6469295701 -25.8140230430 -2.4989764690
18.7443853609 -25.7599242677 -2.4989764690
18.7582154382 -25.7520315396 -2.4989764690
18.7858052460 -25.7361235206 -2.4989764690
18.8133004537 -25.7200525496 -2.4989764690
18.8407000990 -25.7038191889 -2.4989764690
18.8543637859 -25.6956417898 -2.4989764690
20.1842541726 -24.5675604936 -2.4989764690
13.7446601327 -25.9560564556 -2.4989764690
17.8542849387 -26.1896338656 -2.4989764690
18.2269221075 -26.0448091160 -2.4989764690
19.0830150447 -25.5794726844 -2.4989764690
19.0963098319 -25.5705790179 -2.4989764690
19.1755207873 -25.5163946882 -2.4989764690
13.6908393022 -25.9568128718 -2.4989764690
13.7052739230 -25.9638685854 -2.4989764690
17.6789546213 -26.2723784782 -2.4989764690
17.8622027111 -26.2124733963 -2.4989764690
17.8773753705 -26.2071883439 -2.4989764690
19.2939056210 -25.4614753977 -2.4989764690
19.3455151398 -25.4231782133 -2.4989764690
19.3839229209 -25.3940560372 -2.4989764690
19.3966678955 -25.3842730421 -2.4989764690
19.4220707466 -25.3645941604 -2.4989764690
13.6368217075 -25.9569962817 -2.4989764690
13.6512571072 -25.9642117883 -2.4989764690
17.5777387011 -26.3275550286 -2.4989764690
17.6087541595 -26.3186210339 -2.4989764690
17.6242419317 -26.3140852637 -2.4989764690
17.6397162185 -26.3095036977 -2.4989764690
19.5751464068 -25.2722710548 -2.4989764690
17.3806352782 -26.4046217279 -2.4989764690
17.4435384830 -26.3888972211 -2.4989764690
19.4261623012 -25.4225799757 -2.4989764690
17.2912484130 -26.4503937536 -2.4989764690
19.8736389291 -25.0713558935 -2.4989764690
17.1685940198 -26.5011789651 -2.4989764690
17.9054096016 -22.1799278716 -2.5006785393
17.9248300920 -22.2596271885 -2.5006785393
17.9300847442 -22.2473022090 -2.5006785393
17.8989447591 -22.3737327170 -2.5006785393
17.9019188581 -22.3676501875 -2.5006785393
18.0146097463 -22.0921024704 -2.5006785393
17.9056706225 -22.5170286462 -2.5006785393
17.9366250656 -22.6085395643 -2.5006785393
18.4397151644 -22.1919720072 -2.5006785393
18.4469490979 -22.1689062817 -2.5006785393
18.4618490080 -20.6116672426 -2.5006785393
18.4359439907 -20.5269049266 -2.5006785393
18.4602695599 -22.2070503792 -2.5006785393
18.4840215599 -22.1293071080 -2.5006785393
18.5094732760 -22.0351387748 -2.5006785393
18.4408689561 -20.4655068644 -2.5006785393
18.4430166839 -22.3306808123 -2.5006785393
18.4527855126 -20.4266609575 -2.5006785393
18.4499973980 -20.4189485861 -2.5006785393
18.4493929993 -20.3487661501 -2.5006785393
18.4454037104 -22.4561457500 -2.5006785393
18.4369048750 -22.8543553369 -2.5006785393
18.4456691765 -22.8389903423 -2.5006785393
18.4331474600 -23.3395033236 -2.5006785393
14.5901753961 -25.9513876220 -2.5006785393
14.6445277604 -25.9659055283 -2.5006785393
17.2002055138 -25.9223121727 -2.5006785393
17.2540311260 -25.9059490255 -2.5006785393
14.5157624281 -25.9555576136 -2.5006785393
14.5837992431 -25.9747045676 -2.5006785393
17.3419733727 -25.9031680980 -2.5006785393
14.4545469168 -25.9626557664 -2.5006785393
17.4034098953 -25.9079926482 -2.5006785393
17.5541293995 -25.9051329032 -2.5006785393
17.6165142148 -25.9071024801 -2.5006785393
17.6433539518 -25.8965377639 -2.5006785393
17.7060291118 -25.8972926914 -2.5006785393
17.7689727454 -25.8971957114 -2.5006785393
17.8187614281 -25.9021013625 -2.5006785393
18.1248840557 -25.8919576039 -2.5006785393
18.2139745324 -25.9005805852 -2.5006785393
18.2655134220 -25.9006966395 -2.5006785393
18.4346295652 -25.8900331157 -2.5006785393
18.6587971411 -25.7827938786 -2.5006785393
18.6978889772 -25.7576425218 -2.5006785393
18.7108697977 -25.7491817648 -2.5006785393
18.7238255330 -25.7406826452 -2.5006785393
18.0436205870 -26.1457294219 -2.5006785393
18.0859574972 -26.1260231201 -2.5006785393
18.8146723138 -25.7088398424 -2.5006785393
18.8658589997 -25.6733885184 -2.5006785393
18.9669560842 -25.6006813699 -2.5006785393
18.9919592961 -25.5821323490 -2.5006785393
19.0539833839 -25.5351154677 -2.5006785393
17.7804570192 -26.2842247178 -2.5006785393
17.7949995793 -26.2784755864 -2.5006785393
17.8385243276 -26.2609704292 -2.5006785393
17.8529978432 -26.2550496259 -2.5006785393
18.6715745909 -25.8319505670 -2.5006785393
19.2871036435 -25.3767207260 -2.5006785393
19.3107762259 -25.3562815243 -2.5006785393
17.6275160423 -26.3673827820 -2.5006785393
17.6570787596 -26.3567449196 -2.5006785393
19.0710105348 -25.5829897897 -2.5006785393
17.4561694186 -26.4505635933 -2.5006785393
17.5012346941 -26.4360585871 -2.5006785393
19.6871778198 -25.1346868104 -2.5006785393
17.0927730145 -26.6263222363 -2.5006785393
19.8898845154 -24.9527841396 -2.5006785393
19.9632987088 -24.8682471524 -2.5006785393
17.8995788732 -22.0570298773 -2.4996461868
17.9100028561 -22.2457793129 -2.4996461868
17.9133813411 -22.4861682412 -2.4996461868
17.9466643173 -22.5361655564 -2.4996461868
17.9402645247 -22.6190952244 -2.4996461868
17.9768285746 -22.5240985876 -2.4996461868
17.9030736874 -22.7624529735 -2.4996461868
17.8842724563 -22.9544301114 -2.4996461868
18.4356636111 -20.7008485694 -2.4996461868
18.4297698045 -20.6844741470 -2.4996461868
18.4572241988 -22.6883413773 -2.4996461868
18.4372080167 -20.6351041027 -2.4996461868
18.4746952996 -22.7798152898 -2.4996461868
18.4528924820 -20.5433069700 -2.4996461868
18.4528543198 -22.8966395829 -2.4996461868
18.4339401806 -22.9970248390 -2.4996461868
18.4416313540 -22.9806204261 -2.4996461868
18.4431932979 -20.4004315111 -2.4996461868
18.4400000421 -23.0402799203 -2.4996461868
18.4336099617 -20.3243666410 -2.4996461868
18.4373167402 -23.1524159331 -2.4996461868
18.4641260774 -20.1728856140 -2.4996461868
18.4459925952 -20.1398721050 -2.4996461868
18.4701687945 -23.4347981035 -2.4996461868
18.4695855280 -23.9751041766 -2.4996461868
17.0695572070 -25.9010704927 -2.4996461868
17.1272168641 -25.9069969729 -2.4996461868
17.1396885240 -25.9026532460 -2.4996461868
17.2101721677 -25.9030779673 -2.4996461868
17.2226318715 -25.8984888607 -2.4996461868
17.2809891514 -25.9023346073 -2.4996461868
17.4828023491 -25.8983957862 -2.4996461868
17.8187540976 -25.9004035234 -2.4996461868
17.8672409501 -25.9025487149 -2.4996461868
17.8796962134 -25.8960158823 -2.4996461868
18.2496340560 -25.9079871648 -2.4996461868
18.4511490197 -25.8942084770 -2.4996461868
18.1053062557 -26.1314823840 -2.4996461868
18.6491805167 -25.7860237163 -2.4996461868
18.7214279542 -25.7324159810 -2.4996461868
18.7452975888 -25.7142628200 -2.4996461868
18.7571920264 -25.7051333609 -2.4996461868
18.7927125723 -25.6775344291 -2.4996461868
18.8044981532 -25.6682648687 -2.4996461868
18.8396896490 -25.6402475733 -2.4996461868
17.9569746516 -26.2368760672 -2.4996461868
19.0278030090 -25.5136924708 -2.4996461868
17.8042230020 -26.3373114317 -2.4996461868
17.5344093643 -26.4781826389 -2.4996461868
17.6050410496 -26.4500106321 -2.4996461868
17.2920175526 -26.6167933751 -2.4996461868
19.7733008113 -24.8596674106 -2.4996461868
17.2409000318 -26.6587415612 -2.4996461868
17.6938155075 -26.5441283253 -2.4996461868
17.9448897618 -22.2760362846 -2.5001611710
17.9498069775 -22.2192240339 -2.5001611710
17.8983181811 -22.6675988356 -2.5001611710
17.9355548313 -22.5062781713 -2.5001611710
17.9528175915 -22.4069781389 -2.5001611710
17.9778754812 -22.1563487443 -2.5001611710
17.9372853632 -22.7084001679 -2.5001611710
17.9469118563 -22.6729711714 -2.5001611710
17.9503168238 -22.7505371585 -2.5001611710
17.9664607633 -22.6934636187 -2.5001611710
18.0135647965 -22.4837401173 -2.5001611710
17.9030940055 -22.9626755281 -2.5001611710
17.9085124548 -22.9487188841 -2.5001611710
17.8970062874 -23.0414416124 -2.5001611710
18.4390957929 -22.9700317458 -2.5001611710
18.4418347549 -22.9614718086 -2.5001611710
18.4525370283 -22.9271521608 -2.5001611710
18.4687437101 -21.2074889728 -2.5001611710
18.4450086160 -23.0290259420 -2.5001611710
18.4631366498 -21.1054913985 -2.5001611710
18.4547298142 -21.0796475409 -2.5001611710
18.4431645659 -21.0453070519 -2.5001611710
18.4372297672 -21.0281887262 -2.5001611710
18.4371198216 -23.1227957396 -2.5001611710
18.4434762495 -23.1056768171 -2.5001611710
18.4508820106 -20.9943898878 -2.5001611710
18.4414896940 -20.9686591583 -2.5001611710
18.4351014499 -20.9515520831 -2.5001611710
18.4399266249 -23.1828044574 -2.5001611710
18.4499556914 -23.1570847741 -2.5001611710
18.4532479425 -23.1484918928 -2.5001611710
18.4485757697 -23.2261041726 -2.5001611710
18.4579520785 -20.8131508211 -2.5001611710
18.4469510885 -20.7873644857 -2.5001611710
18.4564104156 -23.3310218681 -2.5001611710
18.4602171759 -23.3224091316 -2.5001611710
18.4802281402 -20.8037640027 -2.5001611710
18.4540048800 -20.7432904497 -2.5001611710
18.4384597491 -20.7089820855 -2.5001611710
18.4509395028 -23.4012508349 -2.5001611710
18.4484034082 -20.6730717757 -2.5001611710
18.4361596712 -20.6473756955 -2.5001611710
18.4646605767 -23.4287984382 -2.5001611710
18.4620732423 -20.6454987101 -2.5001611710
18.4611883632 -23.4911414167 -2.5001611710
18.4654687652 -23.4825138456 -2.5001611710
18.4697236265 -23.4738736500 -2.5001611710
18.4410449724 -20.5488121281 -2.5001611710
18.4697363223 -23.5279146744 -2.5001611710
18.4490886494 -20.5119252829 -2.5001611710
18.4736774760 -23.6745530158 -2.5001611710
18.4758149716 -23.7679207674 -2.5001611710
18.4588611263 -23.8882068908 -2.5001611710
18.4393008699 -20.0737051678 -2.5001611710
18.4512363974 -24.0314037642 -2.5001611710
16.7607297483 -25.9072575449 -2.5001611710
16.7950029321 -25.8963325068 -2.5001611710
16.8368252546 -25.9080352047 -2.5001611710
16.8482623728 -25.9042022185 -2.5001611710
16.8711023431 -25.8964348310 -2.5001611710
16.9361856583 -25.8991704508 -2.5001611710
16.9902100306 -25.9051062869 -2.5001611710
16.8830370373 -25.9689928611 -2.5001611710
17.0560111290 -25.9058532821 -2.5001611710
17.2324801050 -25.9114615673 -2.5001611710
17.2439256278 -25.9064581475 -2.5001611710
17.6386012951 -25.9015788228 -2.5001611710
17.7420146932 -25.8994632644 -2.5001611710
17.8233803498 -25.9082395683 -2.5001611710
17.9639837013 -25.9077635536 -2.5001611710
18.0585960708 -25.9047916189 -2.5001611710
18.1194998236 -25.9226509634 -2.5001611710
18.2636004630 -25.9121543984 -2.5001611710
18.0196429777 -26.2134394467 -2.5001611710
18.1055302081 -26.1613429139 -2.5001611710
18.1177111052 -26.1537557606 -2.5001611710
18.1541183863 -26.1307785674 -2.5001611710
18.1903203241 -26.1074791847 -2.5001611710
18.7285311672 -25.7018726668 -2.5001611710
18.7501411801 -25.6829845187 -2.5001611710
18.7716390661 -25.6639688492 -2.5001611710
18.7823457263 -25.6544134017 -2.5001611710
18.8036740124 -25.6352076992 -2.5001611710
17.8307320526 -26.3471191812 -2.5001611710
17.8688666265 -26.3266811517 -2.5001611710
17.8815376595 -26.3197933686 -2.5001611710
17.8941882617 -26.3128681326 -2.5001611710
17.9068183226 -26.3059055040 -2.5001611710
17.9696566429 -26.2705336181 -2.5001611710
17.9821611403 -26.2633479257 -2.5001611710
18.0319649258 -26.2342361983 -2.5001611710
19.0977564069 -25.3804577684 -2.5001611710
17.7519366418 -26.4150723168 -2.5001611710
17.7906773645 -26.3953308764 -2.5001611710
17.8292413674 -26.3752464113 -2.5001611710
19.0954382614 -25.4180752029 -2.5001611710
19.1351624512 -25.3758498377 -2.5001611710
19.1646261878 -25.3438739673 -2.5001611710
19.2322628840 -25.2682560471 -2.5001611710
17.4950983097 -26.5879708104 -2.5001611710
17.3137137229 -26.6873301360 -2.5001611710
16.8729375751 -26.8568365792 -2.5001611710
17.9186658415 -22.8204363746 -2.4999349117
17.9327853559 -22.7269763012 -2.4999349117
17.9509368140 -22.5242500851 -2.4999349117
17.9699041570 -22.6060079303 -2.4999349117
17.9682804223 -22.1879686888 -2.4999349117
17.9849338542 -22.8621311739 -2.4999349117
18.4581479257 -23.2730257802 -2.4999349117
18.4706387290 -23.2291158333 -2.4999349117
18.4810320031 -21.6226346279 -2.4999349117
18.4591046084 -21.5434423979 -2.4999349117
18.4322781679 -21.4561709790 -2.4999349117
18.4495577555 -21.4312345713 -2.4999349117
18.4317816198 -21.3789632969 -2.4999349117
18.4503638561 -23.4542303760 -2.4999349117
18.4636715028 -21.3972765997 -2.4999349117
18.4357511123 -21.3186263798 -2.4999349117
18.4610110730 -23.6290690941 -2.4999349117
18.4587420567 -21.1786319974 -2.4999349117
18.4402559014 -21.1349423558 -2.4999349117
18.4326808420 -21.1175438609 -2.4999349117
18.4572158131 -23.6998795634 -2.4999349117
18.4312988381 -21.0555150254 -2.4999349117
18.4557734961 -23.7623024996 -2.4999349117
18.4572714464 -21.0541633511 -2.4999349117
18.4530414010 -23.8250784817 -2.4999349117
18.4376562285 -20.9564727361 -2.4999349117
18.4533764768 -23.8794384873 -2.4999349117
18.4577204726 -23.8706828164 -2.4999349117
18.4374082045 -20.9021122637 -2.4999349117
18.4666294741 -20.7516024466 -2.4999349117
18.4319362523 -20.6433780426 -2.4999349117
18.4401171600 -24.2029785151 -2.4999349117
18.4430313741 -24.2895881489 -2.4999349117
18.4356967843 -24.4740925031 -2.4999349117
16.3421157290 -25.9245336102 -2.4999349117
16.4044194156 -25.9089578489 -2.4999349117
16.4147760618 -25.9062544835 -2.4999349117
16.4000562245 -25.9350467651 -2.4999349117
16.4625373741 -25.9184410096 -2.4999349117
16.5247139604 -25.9007289431 -2.4999349117
16.5834518996 -25.9082127215 -2.4999349117
18.4442655605 -24.5861904831 -2.4999349117
16.5278932973 -25.9501746526 -2.4999349117
16.6943957974 -25.8973715754 -2.4999349117
18.4441170676 -24.6268124093 -2.4999349117
16.7747404633 -25.8944992917 -2.4999349117
16.8642669807 -25.9123049181 -2.4999349117
16.8102208287 -25.9587121572 -2.4999349117
18.4244326236 -24.8082927020 -2.4999349117
16.8713379870 -25.9614259050 -2.4999349117
17.0788380909 -25.9005551886 -2.4999349117
17.1406429245 -25.8986267164 -2.4999349117
17.2967533658 -25.9025148227 -2.4999349117
17.3814164177 -25.9125776965 -2.4999349117
17.4448288756 -25.9054217417 -2.4999349117
17.4551705091 -25.8996406724 -2.4999349117
17.7365963538 -25.8997477089 -2.4999349117
18.6969261292 -19.3296148059 -2.4999349117
18.6786656536 -19.3107293600 -2.4999349117
18.6510662415 -19.2826045822 -2.4999349117
18.6232183245 -19.2547258413 -2.4999349117
18.5951240960 -19.2270953328 -2.4999349117
18.7416821861 -19.3415485644 -2.4999349117
18.6867719160 -19.2844217625 -2.4999349117
18.7409686754 -19.3056982758 -2.4999349117
18.0846040144 -26.1910660749 -2.4999349117
18.1402946214 -26.1523618007 -2.4999349117
18.1624095502 -26.1366501642 -2.4999349117
18.1734320595 -26.1287453498 -2.4999349117
18.1844311367 -26.1208079634 -2.4999349117
18.1954066856 -26.1128380745 -2.4999349117
18.2063586100 -26.1048357528 -2.4999349117
18.6338905730 -25.7497144808 -2.4999349117
18.6437663936 -25.7404166332 -2.4999349117
18.6634353049 -25.7217334984 -2.4999349117
18.6829933363 -25.7029343227 -2.4999349117
18.7121209869 -25.6745194231 -2.4999349117
17.9269332320 -26.3227156238 -2.4999349117
17.9731003894 -26.2936744519 -2.4999349117
17.9845882333 -26.2863289612 -2.4999349117
18.2535343103 -26.1000041361 -2.4999349117
18.6104479264 -25.8044316907 -2.4999349117
18.9176686632 -25.4948150537 -2.4999349117
18.9267892035 -25.4846788545 -2.4999349117
17.8576474150 -26.3930127111 -2.4999349117
19.0524261361 -25.3764626125 -2.4999349117
17.7141488017 -26.5021286117 -2.4999349117
17.7624537532 -26.4755926440 -2.4999349117
18.9902421758 -25.4860729844 -2.4999349117
19.0885808914 -25.3707515730 -2.4999349117
17.5533035320 -26.6121787366 -2.4999349117
19.2524367711 -25.2008261142 -2.4999349117
19.2689026309 -25.1785513247 -2.4999349117
19.3570888289 -25.0543266878 -2.4999349117
17.4885742377 -26.6699330682 -2.4999349117
17.5263304944 -26.6520798890 -2.4999349117
17.2769581493 -26.8147786325 -2.4999349117
16.8109892225 -27.0760411276 -2.4999349117
17.9109946592 -22.3622613374 -2.5000250340
18.4618193162 -23.6012873279 -2.5000250340
18.4477025626 -21.9027078687 -2.5000250340
18.4564780633 -23.7040645970 -2.5000250340
18.4592092369 -23.6953521752 -2.5000250340
18.4475472878 -23.8073599325 -2.5000250340
18.4565804702 -23.7812738079 -2.5000250340
18.4595400421 -23.7725607453 -2.5000250340
18.4345727591 -21.5756650687 -2.5000250340
18.4274750271 -21.4971442071 -2.5000250340
18.4588638260 -21.3350673035 -2.5000250340
18.4364971098 -24.5132090235 -2.5000250340
18.4435688144 -21.0516502129 -2.5000250340
17.2407275343 -25.9003059918 -2.5000250340
17.2987542684 -25.8953823168 -2.5000250340
17.6720743668 -19.0915773212 -2.5000250340
18.5971202240 -25.7655152377 -2.5000250340
18.7447621748 -25.6417874247 -2.5000250340
17.7623142883 -19.0892125194 -2.5000250340
18.9746380442 -25.3995695411 -2.5000250340
19.0130563232 -25.3480785366 -2.5000250340
17.8163103900 -26.4872222149 -2.5000250340
18.5926779484 -19.2182338886 -2.5000250340
18.1530419631 -18.8516688367 -2.5000250340
17.8922019445 -18.6603131930 -2.5000250340
19.1659290739 -19.6960515880 -2.5000250340
19.3779808788 -19.9258126891 -2.5000250340
19.4641426069 -20.0041939873 -2.5000250340
17.9041355396 -22.6315363415 -2.5000011921
17.9378520506 -22.6746965165 -2.5000011921
17.9027280704 -22.5235018573 -2.5000011921
17.9087180736 -22.4555114785 -2.5000011921
17.9418488385 -22.4832550440 -2.5000011921
17.9149193338 -22.3936219671 -2.5000011921
17.9104711664 -22.3799267435 -2.5000011921
17.9801281123 -22.5329477111 -2.5000011921
17.9591621231 -22.4557642396 -2.5000011921
17.9218515415 -22.3379317234 -2.5000011921
18.4376825447 -24.2184746562 -2.5000011921
18.4674215847 -22.1404581791 -2.5000011921
18.4302875248 -24.3028787477 -2.5000011921
18.4385606496 -24.3457655684 -2.5000011921
18.4491615925 -24.3205087661 -2.5000011921
18.4526453792 -24.3120690485 -2.5000011921
18.4445073034 -21.9455504166 -2.5000011921
18.4312176359 -24.4226248742 -2.5000011921
18.4498987527 -24.3805785668 -2.5000011921
18.4375452231 -21.8686556692 -2.5000011921
18.4442681614 -21.8250153766 -2.5000011921
18.4422710856 -21.7641872879 -2.5000011921
18.4390046479 -21.7030195883 -2.5000011921
18.4304614726 -21.6862357866 -2.5000011921
18.4403021524 -24.6245579479 -2.5000011921
18.4287200522 -21.4346917256 -2.5000011921
18.4407142967 -24.9154388128 -2.5000011921
18.4337282710 -21.3506580485 -2.5000011921
18.4284187954 -21.2103091368 -2.5000011921
18.2296658238 -26.1255012866 -2.5000011921
18.6787355215 -25.6597528343 -2.5000011921
18.0163761281 -26.3310590622 -2.5000011921
18.0446120620 -26.3094707326 -2.5000011921
18.7123952905 -25.6566794431 -2.5000011921
18.8695623378 -25.4488002873 -2.5000011921
17.9349139230 -26.4208864578 -2.5000011921
17.9542920549 -26.4070024556 -2.5000011921
17.9735877053 -26.3930040489 -2.5000011921
18.0023750512 -26.3717930033 -2.5000011921
18.2166220680 -26.2008422844 -2.5000011921
18.7609484830 -25.6346255130 -2.5000011921
19.2768772229 -24.9523763035 -2.5000011921
16.7670720128 -19.0810544197 -2.5000011921
16.8819810167 -19.0905747732 -2.5000011921
16.8460063852 -19.0793386841 -2.5000011921
16.9373705429 -19.0830985375 -2.5000011921
16.9253677376 -19.0791538871 -2.5000011921
17.0410843944 -19.0931627479 -2.5000011921
17.0051264645 -19.0805146037 -2.5000011921
17.3130041201 -19.0692461039 -2.5000011921
17.5813957084 -19.0851682852 -2.5000011921
17.6870446937 -19.0841308089 -2.5000011921
17.7461986114 -19.0877786997 -2.5000011921
18.8480225757 -19.3759553095 -2.5000011921
18.8257045482 -19.3567923480 -2.5000011921
18.7807303264 -19.3188642200 -2.5000011921
18.1830597166 -18.8915153301 -2.5000011921
17.9533559978 -18.7599469579 -2.5000011921
19.0067753567 -19.4860221468 -2.5000011921
18.9959554179 -19.4759540597 -2.5000011921
18.8301416660 -19.3288275870 -2.5000011921
18.0425261619 -18.7813600041 -2.5000011921
18.8683723958 -19.3296772554 -2.5000011921
18.7542825959 -19.2346111986 -2.5000011921
19.4024841089 -19.8261486784 -2.5000011921
17.6256404932 -18.5195711201 -2.5000011921
17.8898877562 -22.6048872090 -2.5000011921
17.9031427902 -22.4548566844 -2.5000011921
18.4383291128 -24.3972508026 -2.5000011921
18.4413683469 -24.4610832903 -2.5000011921
18.4297878073 -22.4588134051 -2.5000011921
18.4460025142 -24.5174537717 -2.5000011921
18.4431870312 -22.4262787804 -2.5000011921
18.4639773854 -24.7233585551 -2.5000011921
18.4554101678 -24.7979074027 -2.5000011921
18.4670391549 -24.7738198487 -2.5000011921
18.4750131333 -22.1940159686 -2.5000011921
18.4712103409 -22.1859516666 -2.5000011921
18.4399326362 -22.1218494042 -2.5000011921
18.4579092585 -24.8999242890 -2.5000011921
18.4445703523 -24.9754211655 -2.5000011921
18.4528163791 -25.2422957078 -2.5000011921
16.8958857836 -19.0864754754 -2.5000011921
17.0778125110 -19.0876260219 -2.5000011921
17.0127686178 -19.0684229883 -2.5000011921
17.1963938425 -19.0744256590 -2.5000011921
17.3212088525 -19.0918179513 -2.5000011921
17.4548919197 -19.0902272208 -2.5000011921
17.4419120224 -19.0851942022 -2.5000011921
17.4897124219 -19.0779355867 -2.5000011921
17.5507953680 -19.0764980347 -2.5000011921
17.5247378366 -19.0659032598 -2.5000011921
17.6251617142 -19.0814300946 -2.5000011921
17.6121550483 -19.0758934257 -2.5000011921
17.5860928659 -19.0649356368 -2.5000011921
17.7486619519 -19.0831102291 -2.5000011921
17.7977819799 -19.0791398332 -2.5000011921
18.7353053173 -19.2622540807 -2.5000011921
18.5454719135 -19.1338460294 -2.5000011921
18.0817691684 -18.8678711798 -2.5000011921
19.1126386597 -19.5252837866 -2.5000011921
17.8429952626 -18.7280272048 -2.5000011921
17.8289422140 -18.7218476912 -2.5000011921
17.8007815840 -18.7096135131 -2.5000011921
19.3235351269 -19.6818719444 -2.5000011921
17.7393047221 -18.6574202607 -2.5000011921
17.2306797303 -18.4773153937 -2.5000011921
19.5164145452 -19.8385527860 -2.5000011921
17.5318594136 -18.5510620380 -2.5000011921
19.6297325597 -19.9238695261 -2.5000011921
19.5874362256 -19.8781760549 -2.5000011921
17.3188842272 -18.4536673969 -2.5000011921
17.1912476082 -18.3903497383 -2.5000011921
20.0248787708 -20.2883511055 -2.5000011921
17.8775581025 -22.7775971085 -2.5000011921
17.9831037298 -22.8270826901 -2.5000011921
17.9745476918 -22.8091347640 -2.5000011921
17.9628925181 -22.7853236520 -2.5000011921
17.9785437744 -22.7625865950 -2.5000011921
17.9599498936 -22.6264449910 -2.5000011921
17.9320396677 -22.5793589308 -2.5000011921
18.4534433713 -22.9653429781 -2.5000011921
18.4359941163 -22.9138155323 -2.5000011921
18.4308129989 -22.8991608331 -2.5000011921
18.4476095984 -24.6899415210 -2.5000011921
18.4529364355 -24.6751870155 -2.5000011921
18.4607627853 -24.6529968119 -2.5000011921
18.4658708149 -24.6381651343 -2.5000011921
18.4455726467 -22.8689102589 -2.5000011921
18.4428600460 -22.8615509391 -2.5000011921
18.4593072357 -24.7278987095 -2.5000011921
18.4457542337 -22.8014035658 -2.5000011921
18.4339745936 -22.7720174603 -2.5000011921
18.4433654552 -24.8328343025 -2.5000011921
18.4556228145 -24.8033342498 -2.5000011921
18.4586325459 -24.7959367358 -2.5000011921
18.4251157021 -22.6893950686 -2.5000011921
18.4365251804 -24.9086618533 -2.5000011921
18.4600919260 -22.7091594899 -2.5000011921
18.4373367574 -22.6575493031 -2.5000011921
18.4238555561 -22.6282728678 -2.5000011921
18.4449122459 -24.9481848089 -2.5000011921
18.4527081812 -24.9880625245 -2.5000011921
18.4633111347 -24.9658620259 -2.5000011921
18.4500042789 -22.5707785952 -2.5000011921
18.4588418585 -25.0836759994 -2.5000011921
18.4724777622 -25.1097387149 -2.5000011921
18.4206037670 -22.3607077419 -2.5000011921
18.4531485757 -25.1954840632 -2.5000011921
18.4570404074 -25.4211174254 -2.5000011921
17.3586896983 -19.0876721370 -2.5000011921
17.3447962670 -19.0835445580 -2.5000011921
17.4352305947 -19.0858685352 -2.5000011921
17.3934949543 -19.0729299996 -2.5000011921
17.4982289233 -19.0807256310 -2.5000011921
17.4843143323 -19.0761853002 -2.5000011921
17.6251976696 -19.0729564111 -2.5000011921
17.7169926039 -19.0806777544 -2.5000011921
17.8966489904 -19.0733947679 -2.5000011921
17.8827109702 -19.0676758706 -2.5000011921
17.9991249591 -19.0642054034 -2.5000011921
18.1304495639 -19.0699638762 -2.5000011921
18.1025322767 -19.0571841549 -2.5000011921
18.1825034630 -19.0675836500 -2.5000011921
18.2347700149 -19.0657579201 -2.5000011921
18.3011891360 -19.0714058578 -2.5000011921
18.6675301183 -19.2159586153 -2.5000011921
18.5587184914 -19.1530838769 -2.5000011921
18.5450133091 -19.1454061095 -2.5000011921
18.5312854746 -19.1377689181 -2.5000011921
18.1953369859 -18.9668175338 -2.5000011921
18.9984000269 -19.3999204985 -2.5000011921
18.9593898660 -19.3730973441 -2.5000011921
18.9201432009 -19.3466214393 -2.5000011921
18.8409527400 -19.2947196915 -2.5000011921
18.8010151810 -19.2692979361 -2.5000011921
18.7474171557 -19.2359554869 -2.5000011921
18.7339562971 -19.2277191521 -2.5000011921
18.1048857347 -18.8993656888 -2.5000011921
18.0178857109 -18.8620037244 -2.5000011921
17.9155668453 -18.8203745639 -2.5000011921
19.2044479259 -19.5199433731 -2.5000011921
17.6714047565 -18.7052642816 -2.5000011921
17.3809451432 -18.5661043766 -2.5000011921
19.7238028587 -19.8699302619 -2.5000011921
19.8551452970 -19.9661625599 -2.5000011921
17.1588212423 -18.4608927566 -2.5000011921
17.0214370255 -18.4070583801 -2.5000011921
16.9022165994 -18.3357288769 -2.5000011921
20.3848696420 -20.4332578579 -2.5000011921
17.8745660781 -22.8405813325 -2.5000011921
17.9490729248 -22.7786418704 -2.5000011921
18.4482296354 -24.8902876891 -2.5000011921
18.4415962329 -23.1792122634 -2.5000011921
18.4631473018 -24.9188274022 -2.5000011921
18.4400936198 -23.1109750748 -2.5000011921
18.4525299565 -23.0190309534 -2.5000011921
18.4464304421 -23.0058294214 -2.5000011921
18.4308408890 -22.9729854896 -2.5000011921
18.4263976228 -22.9098865785 -2.5000011921
18.4612896160 -22.9253117523 -2.5000011921
18.4237264837 -22.8529240247 -2.5000011921
18.4378486772 -22.8282885774 -2.5000011921
18.4231007797 -22.7059490920 -2.5000011921
18.5976873915 -22.7681049608 -2.5000011921
17.5515596346 -19.0780908179 -2.5000011921
17.5368655691 -19.0741680175 -2.5000011921
17.5221599634 -19.0702887020 -2.5000011921
17.1660994141 -18.9903131400 -2.5000011921
15.0525617853 -19.0360272854 -2.5000011921
15.0229569887 -19.0430108162 -2.5000011921
14.9786285581 -19.0538142149 -2.5000011921
14.9638739356 -19.0575027161 -2.5000011921
14.9491302890 -19.0612348481 -2.5000011921
17.6608357618 -19.0835540452 -2.5000011921
17.6314665004 -19.0751053194 -2.5000011921
17.6020477675 -19.0668304998 -2.5000011921
14.8840246889 -19.0532461686 -2.5000011921
14.8545247147 -19.0612265201 -2.5000011921
14.8397925622 -19.0652821105 -2.5000011921
14.7809858560 -19.0819397379 -2.5000011921
17.7117519437 -19.0734023697 -2.5000011921
17.6823217304 -19.0646525842 -2.5000011921
14.7890121517 -19.0544717447 -2.5000011921
14.7742603040 -19.0587211627 -2.5000011921
14.7300810872 -19.0717309864 -2.5000011921
14.7153805533 -19.0761546576 -2.5000011921
14.7006931697 -19.0806217963 -2.5000011921
17.7923954315 -19.0729924923 -2.5000011921
17.7776852305 -19.0683572784 -2.5000011921
17.7187092408 -19.0502521796 -2.5000011921
14.7083807392 -19.0530172877 -2.5000011921
14.6788824850 -19.0620368117 -2.5000011921
14.6494381095 -19.0712306995 -2.5000011921
14.6053748232 -19.0853477574 -2.5000011921
17.9027484452 -19.0837658493 -2.5000011921
17.8292095257 -19.0593921944 -2.5000011921
14.6126392858 -19.0575891376 -2.5000011921
17.9546732743 -19.0760924050 -2.5000011921
17.9399715332 -19.0709771302 -2.5000011921
17.9252547246 -19.0659053683 -2.5000011921
18.0215737857 -19.0742649302 -2.5000011921
17.9921432532 -19.0636821196 -2.5000011921
17.9626506244 -19.0532736152 -2.5000011921
18.1034536612 -19.0788837582 -2.5000011921
18.0887595266 -19.0733283519 -2.5000011921
18.0593222771 -19.0623480644 -2.5000011921
18.0445794200 -19.0569232791 -2.5000011921
18.1855895657 -19.0848425185 -2.5000011921
18.1562187433 -19.0732891504 -2.5000011921
18.2239395689 -19.0741536518 -2.5000011921
18.2092309145 -19.0682418471 -2.5000011921
18.3065955806 -19.0820843777 -2.5000011921
18.2919100251 -19.0759280269 -2.5000011921
18.2477449894 -19.0577200050 -2.5000011921
18.3601180247 -19.0786182891 -2.5000011921
18.3454219817 -19.0723036244 -2.5000011921
18.7749112569 -19.2515286204 -2.5000011921
18.7322855580 -19.2290273186 -2.5000011921
18.7180328237 -19.2216110569 -2.5000011921
18.7037582132 -19.2142369899 -2.5000011921
18.6894618513 -19.2069051820 -2.5000011921
18.6608043739 -19.1923685999 -2.5000011921
18.6320613949 -19.1780018195 -2.5000011921
19.0801484824 -19.3989223081 -2.5000011921
19.0663968062 -19.3904762616 -2.5000011921
18.9833675559 -19.3406575996 -2.5000011921
18.8430627076 -19.2609261797 -2.5000011921
18.8147221484 -19.2454798979 -2.5000011921
18.7720412028 -19.2226255349 -2.5000011921
18.7434752871 -19.2076001105 -2.5000011921
18.7291591183 -19.2001508414 -2.5000011921
18.7004609853 -19.1853795151 -2.5000011921
17.9574307330 -18.8725998876 -2.5000011921
17.9421270123 -18.8674773462 -2.5000011921
19.3236977157 -19.5287458200 -2.5000011921
19.2565847932 -19.4833071026 -2.5000011921
19.2159970307 -19.4565220912 -2.5000011921
19.0928300003 -19.3783428430 -2.5000011921
19.0374298358 -19.3446546394 -2.5000011921
19.0235178129 -19.3363351999 -2.5000011921
17.7797087183 -18.7909576755 -2.5000011921
17.7641642627 -18.7863612251 -2.5000011921
17.7486062780 -18.7818107782 -2.5000011921
17.6862417727 -18.7640698151 -2.5000011921
17.6706181869 -18.7597499746 -2.5000011921
19.3775164688 -19.5366901604 -2.5000011921
19.2835243859 -19.4722386692 -2.5000011921
18.6496968303 -19.1058242811 -2.5000011921
17.7240644018 -18.7495974946 -2.5000011921
17.6141294036 -18.7195508218 -2.5000011921
17.5194211970 -18.6956129402 -2.5000011921
19.8050318877 -19.8371007806 -2.5000011921
19.7171683977 -19.7637328291 -2.5000011921
19.6020018678 -19.6721032656 -2.5000011921
18.9635449438 -19.2453237798 -2.5000011921
18.8348451704 -19.1739397841 -2.5000011921
17.4774181660 -18.6607378424 -2.5000011921
17.3656961342 -18.6358172318 -2.5000011921
17.3496945567 -18.6324461843 -2.5000011921
19.9683841960 -19.9492274675 -2.5000011921
19.2419099840 -19.3868530791 -2.5000011921
17.2418712738 -18.5864177057 -2.5000011921
19.9234822852 -19.8761428996 -2.5000011921
17.1000643427 -18.5372302825 -2.5000011921
17.3320860718 -18.5547760707 -2.5000011921
16.9891939675 -18.4962067384 -2.5000011921
16.8604743072 -18.4554992537 -2.5000011921
20.3080263511 -20.0771693135 -2.5000011921
16.5342864733 -18.3307504906 -2.5000011921
16.6902033076 -18.2930072699 -2.5000011921
14.9543391991 -18.1415539050 -2.5000011921
17.9655545577 -22.7660883991 -2.5000011921
18.2082562194 -22.2369782337 -2.5000011921
17.9535492552 -19.0885185311 -2.5000011921
17.9382655446 -19.0843111404 -2.5000011921
17.9229694546 -19.0801489800 -2.5000011921
15.1797371386 -19.0654627939 -2.5000011921
18.0365715955 -19.0870340448 -2.5000011921
18.0212831303 -19.0825810654 -2.5000011921
17.9753396353 -19.0694937544 -2.5000011921
15.0967509454 -19.0625984559 -2.5000011921
15.0814030582 -19.0668421047 -2.5000011921
18.1199491837 -19.0868806791 -2.5000011921
18.1046598999 -19.0821810544 -2.5000011921
15.0441310916 -19.0522149704 -2.5000011921
15.0133874266 -19.0610591495 -2.5000011921
14.8989771562 -19.0703766201 -2.5000011921
18.2876847295 -19.0906076147 -2.5000011921
18.2264774739 -19.0700957869 -2.5000011921
14.8456131045 -19.0619973500 -2.5000011921
14.8149307898 -19.0720158570 -2.5000011921
18.3719994491 -19.0945072153 -2.5000011921
18.3261479813 -19.0783070240 -2.5000011921
14.7919729634 -19.0541588749 -2.5000011921
14.7612452124 -19.0644948722 -2.5000011921
14.7152695884 -19.0803392811 -2.5000011921
20.2004572034 -20.1575248533 -2.5000011921
18.4107749152 -19.0828254964 -2.5000011921
14.6612567936 -19.0738439957 -2.5000011921
19.1059915064 -19.3652514998 -2.5000011921
18.9749620745 -19.2982396016 -2.5000011921
18.9602942877 -19.2910097694 -2.5000011921
18.9014111968 -19.2625252834 -2.5000011921
18.8421951864 -19.2347395236 -2.5000011921
18.7527650957 -19.1943794786 -2.5000011921
18.5718266149 -19.1184523364 -2.5000011921
18.1868509298 -18.9811508030 -2.5000011921
18.0301950925 -18.9342630358 -2.5000011921
17.9513642028 -18.9125619995 -2.5000011921
14.6684735406 -19.0455862723 -2.5000011921
14.5610476232 -19.0851150147 -2.5000011921
19.4030178685 -19.5058286762 -2.5000011921
19.1751891805 -19.3749112659 -2.5000011921
17.7343024207 -18.8344373628 -2.5000011921
17.7022232278 -18.8273693964 -2.5000011921
14.4759120395 -19.0922385907 -2.5000011921
19.6242002626 -19.6181344950 -2.5000011921
19.5553097379 -19.5727827016 -2.5000011921
14.4976984114 -19.0576927091 -2.5000011921
14.3813131097 -19.0784202942 -2.5000011921
18.7765199170 -19.0992103404 -2.5000011921
14.3107248215 -19.0819076974 -2.5000011921
14.2954374938 -19.0884764691 -2.5000011921
17.1125867501 -18.6349271419 -2.5000011921
14.2399204450 -19.0863441760 -2.5000011921
14.1841908346 -19.0847922464 -2.5000011921
13.9439881138 -19.0920676573 -2.5000011921
13.7886369729 -19.0904735221 -2.5000011921
13.7733772687 -19.0985866866 -2.5000011921
18.4403044467 -23.7471312483 -2.5000011921
18.4467905128 -23.6431839549 -2.5000011921
17.9498093072 -22.7833790817 -2.5000011921
18.1933675922 -19.0869091713 -2.5000011921
