35.8326135327 -12.6532849992 -2.4002625942
35.7358135049 -12.6241345504 -2.4002625942
32.4548514354 -9.0191072131 -2.4002625942
36.6850365518 -13.2709481444 -2.4002625942
40.9468533828 -6.0185697985 -2.4893474579
40.9579226529 -6.0601286621 -2.4893474579
40.3290585365 -7.0277553637 -2.4893474579
40.1334272294 -7.1428219907 -2.4893474579
38.2038817033 -10.9334549421 -2.4893474579
38.2517722992 -10.9450437812 -2.4893474579
38.4765354810 -10.9934856769 -2.4893474579
41.1560334204 -10.8527351320 -2.4893474579
38.1022132066 -10.9323675784 -2.4893474579
38.1181625162 -10.9365785009 -2.4893474579
38.0001663492 -10.9293621433 -2.4893474579
38.0161072146 -10.9338749520 -2.4893474579
38.1280572855 -10.9641415333 -2.4893474579
38.2244960103 -10.9882346648 -2.4893474579
40.2481010836 -11.0976444957 -2.4893474579
41.5922839890 -10.7513267166 -2.4893474579
41.7606469801 -10.6815938710 -2.4893474579
42.0458017387 -10.5483766849 -2.4893474579
38.0416162975 -10.9660660207 -2.4893474579
37.8428481503 -10.9327601208 -2.4893474579
37.8587997559 -10.9377382902 -2.4893474579
41.4145572353 -10.8950405196 -2.4893474579
39.6054410842 -11.2638148732 -2.4893474579
37.5001384841 -10.9423748577 -2.4893474579
37.4595754742 -10.9528203823 -2.4893474579
37.4916187332 -10.9649967305 -2.4893474579
37.4509220337 -10.9753914533 -2.4893474579
37.3137693723 -10.9469456595 -2.4893474579
37.2885416869 -10.9626878643 -2.4893474579
37.1253746022 -10.9451577539 -2.4893474579
37.1413660215 -10.9522582856 -2.4893474579
37.0254005557 -10.9528083103 -2.4893474579
36.7211108491 -10.9649684947 -2.4893474579
36.6183301249 -10.9653584819 -2.4893474579
36.4549906867 -10.9578960034 -2.4893474579
36.4269759985 -10.9697437023 -2.4893474579
36.1886329785 -10.9686810250 -2.4893474579
34.1226703167 -9.3494106464 -2.4893474579
34.1255973446 -9.3953824738 -2.4893474579
34.1246359770 -9.7186318477 -2.4893474579
34.1209665453 -10.1738329027 -2.4893474579
34.1393768298 -10.8029351660 -2.4893474579
33.7281457944 -10.5697117032 -2.4893474579
33.7579877601 -10.6039711476 -2.4893474579
33.8334748571 -10.6888420988 -2.4893474579
33.8793667519 -10.7392254795 -2.4893474579
33.9102089713 -10.7725872831 -2.4893474579
34.4127486696 -11.2655827109 -2.4893474579
34.4296998328 -11.2807062788 -2.4893474579
34.4637360027 -11.3108026502 -2.4893474579
34.4808207116 -11.3257751905 -2.4893474579
34.4979496372 -11.3406971256 -2.4893474579
34.5496002136 -11.3851579962 -2.4893474579
34.5669045033 -11.3998762092 -2.4893474579
33.5488954237 -10.3933924171 -2.4893474579
33.6212908512 -10.4813789587 -2.4893474579
33.6359256609 -10.4988472331 -2.4893474579
33.6506120808 -10.5162721387 -2.4893474579
33.6949797148 -10.5682851195 -2.4893474579
33.7398071878 -10.6199023143 -2.4893474579
33.7548512560 -10.6370193899 -2.4893474579
34.3290620705 -11.2224107647 -2.4893474579
34.6387149743 -11.4913616311 -2.4893474579
34.6563330437 -11.5058157619 -2.4893474579
34.7094427184 -11.5488645665 -2.4893474579
34.7808459125 -11.6055265928 -2.4893474579
33.3474824938 -10.1741971486 -2.4893474579
33.3888263410 -10.2289137049 -2.4893474579
33.5157483719 -10.3908319335 -2.4893474579
34.8019966018 -11.6526516436 -2.4893474579
33.2735948073 -10.1149322469 -2.4893474579
35.0077041648 -11.8363583105 -2.4893474579
33.1869275758 -10.0358100921 -2.4893474579
33.0112558611 -9.8209867073 -2.4893474579
33.1274524694 -9.9931006237 -2.4893474579
35.3424151281 -12.1214444038 -2.4893474579
35.3618940173 -12.1338141054 -2.4893474579
35.5264462205 -12.2632953930 -2.4893474579
33.3781705183 -10.4122209921 -2.4893474579
35.6343427493 -12.3543364300 -2.4893474579
35.8863067086 -12.5743124633 -2.4893474579
35.9588850485 -12.6385656219 -2.4893474579
43.4012081955 -14.7647203909 -2.4893474579
40.9305957675 -5.9209771010 -2.5027558514
40.9451762897 -5.9816825174 -2.5027558543
40.9391422508 -6.1215425830 -2.5027558572
40.9431146285 -6.1060212790 -2.5027558572
40.9410915301 -6.2805393803 -2.5027558629
37.8689012909 -10.9338025875 -2.5027562894
37.8844896889 -10.9376940164 -2.5027562894
38.3092528981 -11.0252233959 -2.5027562894
40.6800020796 -10.8897095752 -2.5027562894
37.7693142002 -10.9328235946 -2.5027562923
37.8161088213 -10.9452432748 -2.5027562923
37.8317312939 -10.9492908233 -2.5027562923
40.7486017518 -10.8949075885 -2.5027562923
37.7161201455 -10.9432686405 -2.5027562952
40.7865429162 -10.9087348918 -2.5027562952
40.8330049493 -10.8943793084 -2.5027562952
37.6626291555 -10.9531825051 -2.5027562980
40.8712828015 -10.9076007062 -2.5027562980
40.8867805529 -10.9026106623 -2.5027562980
40.9022634750 -10.8975747950 -2.5027562980
37.5931857325 -10.9578538053 -2.5027563009
41.1258473352 -10.8449325198 -2.5027563009
41.1411585890 -10.8391897021 -2.5027563009
41.2022317135 -10.8157662565 -2.5027563009
37.4764901694 -10.9466009509 -2.5027563038
37.5547774434 -10.9713989700 -2.5027563038
40.4907256380 -11.0643437481 -2.5027563038
37.4847164388 -10.9746651012 -2.5027563067
40.2384013681 -11.1434808889 -2.5027563067
40.2707886645 -11.1371951885 -2.5027563067
40.3354488595 -11.1240495021 -2.5027563067
41.5980857351 -10.6967874334 -2.5027563067
41.7311507497 -10.6309579873 -2.5027563067
40.1614590428 -11.1821641232 -2.5027563096
37.2809620781 -10.9561913582 -2.5027563125
42.0734218431 -10.4968488088 -2.5027563125
37.1943805697 -10.9499559607 -2.5027563153
37.2100197036 -10.9558426732 -2.5027563153
39.9386392661 -11.2654875643 -2.5027563153
37.1231841695 -10.9484553088 -2.5027563182
37.0517448013 -10.9460064417 -2.5027563211
37.0830195444 -10.9585775278 -2.5027563211
36.9394186100 -10.9516610016 -2.5027563269
36.8829266559 -10.9536133964 -2.5027563297
36.8575551571 -10.9688828378 -2.5027563326
36.7693148186 -10.9557501672 -2.5027563355
36.6965697861 -10.9485680908 -2.5027563384
36.7435463739 -10.9705071559 -2.5027563384
36.4819058027 -10.9506153792 -2.5027563499
36.3386445918 -10.9571923596 -2.5027563586
36.2957908904 -10.9614251324 -2.5027563614
36.2371246004 -10.9566168729 -2.5027563643
36.2253366685 -10.9777208996 -2.5027563672
36.0915479769 -10.9568622435 -2.5027563730
34.4213661899 -11.2772924824 -2.5027565199
34.4546469685 -11.3054199737 -2.5027565199
40.9335358651 -5.9311050010 -2.5006575584
40.9344246080 -5.9066127369 -2.5006575584
40.9352141956 -5.8698589101 -2.5006575584
40.9353781287 -5.8453510748 -2.5006575584
40.9346866982 -5.7902128539 -2.5006575584
40.9331342452 -5.7473518049 -2.5006575584
40.9461723578 -6.6033737490 -2.5006575584
40.9572932984 -6.6427050159 -2.5006575584
37.6472247107 -10.9383436275 -2.5006575584
37.6924842829 -10.9489423785 -2.5006575584
37.7681201967 -10.9657130751 -2.5006575584
38.1956407464 -11.0388310520 -2.5006575584
40.1183468140 -10.9292875729 -2.5006575584
40.2682157310 -10.8899660065 -2.5006575584
37.6264737415 -10.9582163896 -2.5006575584
40.2746955931 -10.9132543441 -2.5006575584
40.3495212152 -10.8918370410 -2.5006575584
37.5449317567 -10.9627597303 -2.5006575584
40.4012907808 -10.9015847395 -2.5006575584
40.4311877212 -10.8924018710 -2.5006575584
37.3873790855 -10.9447209716 -2.5006575584
37.4175839829 -10.9533686619 -2.5006575584
37.3201289842 -10.9500286387 -2.5006575584
37.3352410328 -10.9545737366 -2.5006575584
37.3958216939 -10.9723064953 -2.5006575584
40.6482786682 -10.8968023852 -2.5006575584
37.1695245621 -10.9530047530 -2.5006575584
40.6713342404 -10.9142724563 -2.5006575584
37.1013072671 -10.9554479853 -2.5006575584
40.8293025780 -10.8811214622 -2.5006575584
37.0479298869 -10.9623840682 -2.5006575584
36.9640025710 -10.9576212493 -2.5006575584
40.9367647437 -10.8901708907 -2.5006575584
36.8949389588 -10.9573382320 -2.5006575584
36.9403967214 -10.9746123490 -2.5006575584
40.7343019659 -10.9943780833 -2.5006575584
40.8254216458 -10.9603746883 -2.5006575584
41.1392883568 -10.8287443362 -2.5006575584
41.1540249140 -10.8219922005 -2.5006575584
41.2127694708 -10.7945486158 -2.5006575584
41.2711851899 -10.7664118595 -2.5006575584
41.3002671775 -10.7520847692 -2.5006575584
36.8105027860 -10.9500810106 -2.5006575584
41.4987477266 -10.6760173879 -2.5006575584
36.7409417069 -10.9477429950 -2.5006575584
36.7560495283 -10.9540014435 -2.5006575584
36.8014831481 -10.9725082577 -2.5006575584
40.3774566240 -11.1605657740 -2.5006575584
41.4382446430 -10.7358481725 -2.5006575584
36.7013656752 -10.9573557927 -2.5006575584
41.5074585321 -10.7263052824 -2.5006575584
42.1188200181 -10.3419192192 -2.5006575584
42.0658134271 -10.4093568716 -2.5006575584
36.5761975284 -10.9556054303 -2.5006575584
41.9149274290 -10.5403823862 -2.5006575584
42.2271729128 -10.3221050415 -2.5006575584
39.6393372391 -11.4147565704 -2.5006575584
36.4501829915 -10.9508453247 -2.5006575584
39.5432460488 -11.4516352597 -2.5006575584
36.3687468028 -10.9653866804 -2.5006575584
36.3126131575 -10.9646759618 -2.5006575584
36.1998028171 -10.9614672847 -2.5006575584
36.1280186467 -10.9508912214 -2.5006575584
36.0711992486 -10.9476142813 -2.5006575584
36.0863096197 -10.9558539497 -2.5006575584
35.7017885670 -10.9561985243 -2.5006575584
35.1773833344 -10.9542424939 -2.5006575584
40.1136986645 -7.3283675031 -2.4989764690
40.9448773853 -6.9896939272 -2.4989764690
40.9392541591 -7.0684945342 -2.4989764690
40.9450565384 -7.0545380766 -2.4989764690
40.9465404736 -7.1129079049 -2.4989764690
40.9556069097 -7.0918939952 -2.4989764690
41.0188588108 -6.9282650777 -2.4989764690
40.9456235777 -7.3368404979 -2.4989764690
37.3601329925 -10.9498794398 -2.4989764690
37.3745420023 -10.9534762071 -2.4989764690
37.4178319879 -10.9640105439 -2.4989764690
37.4322825476 -10.9674365653 -2.4989764690
39.9728172865 -10.9049916219 -2.4989764690
39.9870820784 -10.9008597930 -2.4989764690
37.2676038283 -10.9507416630 -2.4989764690
37.2964391454 -10.9584399759 -2.4989764690
37.3108737575 -10.9622251237 -2.4989764690
37.3397762572 -10.9696672363 -2.4989764690
37.3542438920 -10.9733241359 -2.4989764690
40.0653214602 -10.9026748377 -2.4989764690
40.0938234331 -10.8938217548 -2.4989764690
37.1746607485 -10.9498459610 -2.4989764690
37.2179263888 -10.9621542747 -2.4989764690
40.1153616193 -10.9123742286 -2.4989764690
40.1296476266 -10.9078206954 -2.4989764690
40.1581789183 -10.8985869473 -2.4989764690
40.1724239530 -10.8939068131 -2.4989764690
37.1101546274 -10.9559783412 -2.4989764690
37.1245827726 -10.9603145630 -2.4989764690
37.1390236821 -10.9646080848 -2.4989764690
37.0164595276 -10.9520785324 -2.4989764690
37.0453071495 -10.9612626760 -2.4989764690
37.0597512104 -10.9657907053 -2.4989764690
40.2735683619 -10.9105749874 -2.4989764690
40.3163634637 -10.8953837809 -2.4989764690
36.9368417209 -10.9512729898 -2.4989764690
36.9512567052 -10.9561219232 -2.4989764690
40.3816667005 -10.8971849826 -2.4989764690
40.3959066100 -10.8918437373 -2.4989764690
36.8713158047 -10.9542583665 -2.4989764690
36.9146325479 -10.9692585226 -2.4989764690
36.9580807034 -10.9838736763 -2.4989764690
36.7910747648 -10.9510916717 -2.4989764690
36.8199204927 -10.9616092845 -2.4989764690
40.5273561103 -10.8924274395 -2.4989764690
36.7538099402 -10.9630397010 -2.4989764690
36.7972092400 -10.9790823100 -2.4989764690
40.5649776709 -10.9031996601 -2.4989764690
40.5934740040 -10.8913904341 -2.4989764690
36.6874198431 -10.9635858210 -2.4989764690
40.6027944259 -10.9136943580 -2.4989764690
36.6207619095 -10.9632412437 -2.4989764690
36.6352136810 -10.9690251460 -2.4989764690
36.4722659280 -10.9536319416 -2.4989764690
36.4866899232 -10.9598551638 -2.4989764690
40.8602892524 -10.8782425070 -2.4989764690
40.8849008438 -10.8932927005 -2.4989764690
36.3661120124 -10.9594132716 -2.4989764690
36.3805535743 -10.9659504910 -2.4989764690
40.7173403351 -11.0226117920 -2.4989764690
41.1469314774 -10.8140177978 -2.4989764690
41.1748899955 -10.7987670985 -2.4989764690
41.2305339034 -10.7677708043 -2.4989764690
41.2720240141 -10.7440926888 -2.4989764690
41.3270141891 -10.7119508873 -2.4989764690
36.2590941878 -10.9629477155 -2.4989764690
40.3844814765 -11.1790608991 -2.4989764690
40.4446805307 -11.1573904629 -2.4989764690
40.5791626967 -11.1060379528 -2.4989764690
41.3393357093 -10.7327478924 -2.4989764690
41.3668100400 -10.7163602874 -2.4989764690
41.4078385449 -10.6914748222 -2.4989764690
41.4214654366 -10.6830988751 -2.4989764690
41.5295764611 -10.6146476589 -2.4989764690
41.5563487416 -10.5971365927 -2.4989764690
41.6095801592 -10.5616408168 -2.4989764690
41.6360374332 -10.5436573495 -2.4989764690
41.6492260557 -10.5346069956 -2.4989764690
36.1908412096 -10.9568076266 -2.4989764690
40.1789565286 -11.2723732330 -2.4989764690
40.2555675582 -11.2482035932 -2.4989764690
40.2861104656 -11.2382189032 -2.4989764690
40.3165937656 -11.2280536858 -2.4989764690
40.3318127294 -11.2229034904 -2.4989764690
40.3925342366 -11.2018531859 -2.4989764690
41.4341541251 -10.7036739198 -2.4989764690
41.7287643212 -10.5084784910 -2.4989764690
41.7679337385 -10.4803890706 -2.4989764690
41.9220726539 -10.3645889152 -2.4989764690
36.1368236149 -10.9569910365 -2.4989764690
36.1512590146 -10.9642065431 -2.4989764690
40.0777406084 -11.3275497834 -2.4989764690
40.1860587204 -11.2954793827 -2.4989764690
41.6899193546 -10.5652587950 -2.4989764690
41.9749863967 -10.3537229129 -2.4989764690
42.0378137764 -10.3030897825 -2.4989764690
39.8806371855 -11.4046164827 -2.4989764690
39.8963803615 -11.4007551531 -2.4989764690
39.9592367751 -11.3848446360 -2.4989764690
39.9749211185 -11.3807508811 -2.4989764690
39.9905932831 -11.3766107470 -2.4989764690
41.8615818129 -10.4715434510 -2.4989764690
42.4322482149 -10.0148521515 -2.4989764690
39.6365080983 -11.5075003844 -2.4989764690
42.4021286087 -10.0775978236 -2.4989764690
40.0150815940 -7.3714898782 -2.5006785393
40.0689659539 -7.2760417658 -2.5006785393
40.2142949003 -7.3107263983 -2.5006785393
40.5000556949 -6.9754400197 -2.5006785393
40.9396273527 -7.2687212699 -2.5006785393
40.9577766841 -7.2147886516 -2.5006785393
40.9735524888 -5.5660069650 -2.5006785393
40.9555593836 -5.4343848806 -2.5006785393
40.9500059811 -5.4189519240 -2.5006785393
40.9443613692 -5.4035520933 -2.5006785393
40.9371909580 -5.3180155562 -2.5006785393
40.9469223659 -5.2780905860 -2.5006785393
40.9404444250 -5.2627114643 -2.5006785393
40.9511453499 -7.5041789093 -2.5006785393
40.9698876800 -7.5216282924 -2.5006785393
40.9438655218 -7.6892389982 -2.5006785393
40.9494274056 -7.7311301585 -2.5006785393
40.9585126750 -7.7656094662 -2.5006785393
40.9308220939 -7.9125479940 -2.5006785393
40.9343759534 -7.9991142145 -2.5006785393
40.9403394060 -8.0790285398 -2.5006785393
40.9294496180 -8.1385072163 -2.5006785393
37.1913032588 -10.9529307174 -2.5006785393
37.2184653075 -10.9596717804 -2.5006785393
37.2320611690 -10.9629820197 -2.5006785393
37.2865407518 -10.9758203577 -2.5006785393
39.4228779761 -10.9709818147 -2.5006785393
39.6261154249 -10.9186033993 -2.5006785393
39.6395792642 -10.9147915539 -2.5006785393
37.1173386880 -10.9587303054 -2.5006785393
37.1309322069 -10.9623396997 -2.5006785393
37.1581509789 -10.9694377735 -2.5006785393
39.7136885930 -10.9182844516 -2.5006785393
39.7540397090 -10.9059523634 -2.5006785393
39.7808789659 -10.8975322391 -2.5006785393
37.0157710111 -10.9555609515 -2.5006785393
37.0293555989 -10.9594708152 -2.5006785393
37.0565591754 -10.9671699005 -2.5006785393
37.0701779261 -10.9709590546 -2.5006785393
37.1111005974 -10.9820845664 -2.5006785393
39.8016520559 -10.9162840717 -2.5006785393
39.8419819558 -10.9031714359 -2.5006785393
36.9681613531 -10.9667500234 -2.5006785393
36.9954090668 -10.9748110270 -2.5006785393
39.8630433441 -10.9216536465 -2.5006785393
39.8765151699 -10.9171409121 -2.5006785393
39.9034184784 -10.9079959860 -2.5006785393
39.9168497257 -10.9033638744 -2.5006785393
39.9786205905 -10.9071839745 -2.5006785393
39.9920491067 -10.9023294049 -2.5006785393
40.0272489554 -10.9151729244 -2.5006785393
40.1030796075 -10.9123285823 -2.5006785393
40.1165227978 -10.9071058180 -2.5006785393
40.2421355003 -10.9085069569 -2.5006785393
40.2689813285 -10.8971990493 -2.5006785393
40.2918942882 -10.9137070887 -2.5006785393
40.3822213207 -10.9004730535 -2.5006785393
40.4324914717 -10.9041691426 -2.5006785393
40.4459090836 -10.8979719541 -2.5006785393
40.5471363786 -10.9034506310 -2.5006785393
40.6626378582 -10.8999119929 -2.5006785393
40.6760418697 -10.8930340085 -2.5006785393
40.7139831154 -10.9005839231 -2.5006785393
40.7273888900 -10.8935540471 -2.5006785393
40.8172486897 -10.9002567798 -2.5006785393
40.8306530447 -10.8929214270 -2.5006785393
40.9212418726 -10.8976794258 -2.5006785393
40.7973793830 -10.9932749529 -2.5006785393
41.1588057242 -10.7827972164 -2.5006785393
41.1718611180 -10.7744519901 -2.5006785393
41.1848917681 -10.7660681800 -2.5006785393
41.1978975603 -10.7576458597 -2.5006785393
40.5153081262 -11.1586612265 -2.5006785393
40.5294782093 -11.1522179379 -2.5006785393
40.5859660803 -11.1260264580 -2.5006785393
41.3146808969 -10.7088431802 -2.5006785393
41.3658675828 -10.6733918562 -2.5006785393
41.4669646673 -10.6006847078 -2.5006785393
41.5168609111 -10.5634390632 -2.5006785393
41.5292658372 -10.5540356047 -2.5006785393
41.5663129541 -10.5256056305 -2.5006785393
41.5786057458 -10.5160560494 -2.5006785393
40.2513297795 -11.2955971344 -2.5006785393
40.3385329107 -11.2609737670 -2.5006785393
40.4107234431 -11.2309423809 -2.5006785393
40.4394739570 -11.2186314073 -2.5006785393
40.4681511318 -11.2061505514 -2.5006785393
40.4824619033 -11.1998465539 -2.5006785393
41.7153747499 -10.4371963558 -2.5006785393
41.7752306919 -10.3868910545 -2.5006785393
41.7871122266 -10.3767240639 -2.5006785393
41.8225756494 -10.3460128300 -2.5006785393
40.0830638364 -11.3830145065 -2.5006785393
40.1275246254 -11.3673861198 -2.5006785393
40.1718449705 -11.3513637840 -2.5006785393
41.5334625339 -10.6114626064 -2.5006785393
41.8855534721 -10.3225907291 -2.5006785393
39.9260637378 -11.4600145044 -2.5006785393
39.9862358434 -11.4409413571 -2.5006785393
40.0760603252 -11.4110000311 -2.5006785393
42.0632108924 -10.1899093519 -2.5006785393
42.1082049105 -10.1456374017 -2.5006785393
42.1193713164 -10.1344864687 -2.5006785393
39.8573635881 -11.5060419392 -2.5006785393
39.8725641650 -11.5015434496 -2.5006785393
42.3113707167 -9.9679040119 -2.5006785393
39.6645285715 -11.5838494931 -2.5006785393
42.3106119629 -10.0757265356 -2.5006785393
40.0120161025 -7.3872284138 -2.4996461868
40.0241198656 -7.3543387468 -2.4996461868
40.1212731964 -7.3695931015 -2.4996461868
40.1906240370 -7.4616201050 -2.4996461868
40.9373925442 -7.6720182897 -2.4996461868
40.9679111320 -7.5813027520 -2.4996461868
40.9689895698 -5.7998217098 -2.4996461868
40.9663473502 -5.7915311425 -2.4996461868
40.9636806171 -5.7832484276 -2.4996461868
40.9471667581 -5.7337210933 -2.4996461868
40.9414671138 -5.7172780790 -2.4996461868
40.9356702869 -5.7008690734 -2.4996461868
40.9524966970 -5.6762407409 -2.4996461868
40.9372146924 -5.6351246067 -2.4996461868
40.9470447201 -5.5935414376 -2.4996461868
40.9405157280 -5.5771015987 -2.4996461868
40.9338895866 -5.5607006752 -2.4996461868
40.9528991577 -5.5433274740 -2.4996461868
40.9285821891 -5.4858490926 -2.4996461868
40.9383746439 -7.9295617966 -2.4996461868
40.9420327145 -7.9213524752 -2.4996461868
40.9528609955 -7.8966600869 -2.4996461868
40.9435228764 -5.4597409044 -2.4996461868
40.9469991774 -5.4086758195 -2.4996461868
40.9412887092 -8.0920992439 -2.4996461868
40.9347616453 -5.2204517803 -2.4996461868
40.9410534935 -8.1966741986 -2.4996461868
40.9455017192 -8.1884557840 -2.4996461868
40.9499256139 -8.1802242466 -2.4996461868
40.9395176034 -8.2494176363 -2.4996461868
40.9577885579 -8.2164800108 -2.4996461868
40.9274764269 -5.1070959750 -2.4996461868
40.9306476433 -5.0171619348 -2.4996461868
40.9492937773 -8.3764454363 -2.4996461868
40.9542737628 -8.3682018588 -2.4996461868
40.9649243972 -8.3972652472 -2.4996461868
40.9362886026 -4.9343960270 -2.4996461868
39.5772100437 -10.9240228850 -2.4996461868
39.6396951997 -10.9026737500 -2.4996461868
39.6852189823 -10.9121660102 -2.4996461868
39.7226385472 -10.8985093647 -2.4996461868
39.7310267333 -10.9211803510 -2.4996461868
39.7685244916 -10.9071168324 -2.4996461868
39.7809958271 -10.9023551113 -2.4996461868
39.8396609808 -10.9054060780 -2.4996461868
39.8986233333 -10.9076555322 -2.4996461868
39.9578720935 -10.9090968828 -2.4996461868
40.0771851042 -10.9095296287 -2.4996461868
40.1725220060 -10.9186051913 -2.4996461868
40.1850255586 -10.9126483222 -2.4996461868
40.4034617655 -10.9108238232 -2.4996461868
40.4159412888 -10.9041838266 -2.4996461868
40.4772989577 -10.8984428277 -2.4996461868
40.5263907470 -10.8988406236 -2.4996461868
40.5756707689 -10.8986969695 -2.4996461868
40.8122527099 -10.8975927210 -2.4996461868
40.8500975196 -10.9022431091 -2.4996461868
40.9129953937 -10.8904082703 -2.4996461868
40.5525747475 -11.1600657888 -2.4996461868
40.5921601286 -11.1387020856 -2.4996461868
40.6967782154 -11.0800235232 -2.4996461868
40.7743145098 -11.0343989184 -2.4996461868
41.1733752528 -10.7683175611 -2.4996461868
41.1854298482 -10.7594006447 -2.4996461868
41.2333828723 -10.7233775572 -2.4996461868
41.2571987021 -10.7051538649 -2.4996461868
41.2927192480 -10.6775549331 -2.4996461868
41.3162629372 -10.6589809889 -2.4996461868
40.3623192685 -11.2833771139 -2.4996461868
40.4030064604 -11.2636969654 -2.4996461868
40.4569813273 -11.2368965712 -2.4996461868
40.5106353009 -11.2094593974 -2.4996461868
40.5506606741 -11.1884659381 -2.4996461868
40.6433171413 -11.1381059807 -2.4996461868
40.7088520543 -11.1009652923 -2.4996461868
41.1634186043 -10.8055839797 -2.4996461868
41.2480158198 -10.7426184546 -2.4996461868
41.3665670426 -10.6496593860 -2.4996461868
41.4015907993 -10.6210920568 -2.4996461868
41.5164803798 -10.5236437877 -2.4996461868
41.5278096847 -10.5137129748 -2.4996461868
41.5391095628 -10.5037486912 -2.4996461868
41.5616206438 -10.4837200610 -2.4996461868
41.5951641011 -10.4534282750 -2.4996461868
41.6284374150 -10.4228400024 -2.4996461868
41.6614379648 -10.3919576524 -2.4996461868
40.1797269798 -11.3926297218 -2.4996461868
40.2213909176 -11.3745656753 -2.4996461868
40.3042296778 -11.3373319357 -2.4996461868
40.3863945588 -11.2986338237 -2.4996461868
41.4052510029 -10.6493584628 -2.4996461868
41.4518865680 -10.6107420529 -2.4996461868
41.6670114134 -10.4199098163 -2.4996461868
41.8501361422 -10.2391582245 -2.4996461868
40.0202401330 -11.4837120073 -2.4996461868
40.1050477253 -11.4500311361 -2.4996461868
41.8569761682 -10.2668668099 -2.4996461868
40.2082785964 -11.4592917254 -2.4996461868
42.4044244192 -9.7651840254 -2.4996461868
45.3541224790 -6.3740185094 -2.4996461868
45.6407197993 -6.2949690926 -2.4996461868
46.7210617831 -6.1364553558 -2.4996461868
46.7176437972 -6.0858449909 -2.4996461868
47.9857545665 -5.6156682393 -2.4996461868
48.1555084336 -6.2513307314 -2.4996461868
40.0474747163 -7.3390761116 -2.5001611710
40.0532412991 -7.2975868861 -2.5001611710
40.9331043128 -8.0632503320 -2.5001611710
40.9420726638 -8.0375959262 -2.5001611710
40.9547326753 -6.0796484946 -2.5001611710
40.9371226826 -8.1227966932 -2.5001611710
40.9497341458 -8.0885215411 -2.5001611710
40.9589261097 -8.0627185597 -2.5001611710
40.9619391665 -8.0540995637 -2.5001611710
40.9630520552 -6.0288262114 -2.5001611710
40.9508848716 -5.9943908415 -2.5001611710
40.9414925550 -5.9686601120 -2.5001611710
40.9565176210 -8.1398902638 -2.5001611710
40.9445428010 -5.9086632757 -2.5001611710
40.9377995421 -5.8915392044 -2.5001611710
40.9450568088 -8.2346838468 -2.5001611710
40.9492775556 -8.2869619763 -2.5001611710
40.9543133752 -5.8045454945 -2.5001611710
40.9469539495 -5.7873654394 -2.5001611710
40.9602200369 -8.3224100852 -2.5001611710
40.9509423639 -8.4012517886 -2.5001611710
40.9629095857 -8.3754257700 -2.5001611710
40.9668476696 -8.3667936220 -2.5001611710
40.9522224858 -8.4546388731 -2.5001611710
40.9848872134 -8.3854915122 -2.5001611710
40.9568853190 -8.4997572416 -2.5001611710
40.9781594396 -8.4565566416 -2.5001611710
40.9713007045 -5.6090599832 -2.5001611710
40.9627844236 -5.5917828466 -2.5001611710
40.9535987183 -5.5205183499 -2.5001611710
40.9659153584 -5.4920233079 -2.5001611710
40.9600610645 -8.7470280508 -2.5001611710
40.9619354831 -5.3358960787 -2.5001611710
40.9364143216 -5.2929668598 -2.5001611710
40.9622927933 -5.2890776568 -2.5001611710
40.9393037309 -5.0737061214 -2.5001611710
40.9558902015 -9.1506044045 -2.5001611710
40.9453063191 -4.6395112279 -2.5001611710
38.2743657556 -10.9174141861 -2.5001611710
39.0587210410 -10.9399915170 -2.5001611710
39.1965021849 -10.9016214990 -2.5001611710
39.2079209414 -10.8982036503 -2.5001611710
39.2378305399 -10.9143726954 -2.5001611710
39.2721677601 -10.9036506201 -2.5001611710
39.3139201135 -10.9156005481 -2.5001611710
39.2636288115 -10.9570023172 -2.5001611710
39.2983433297 -10.9460496180 -2.5001611710
39.3904260986 -10.9153408192 -2.5001611710
39.3405388549 -10.9577432616 -2.5001611710
39.4787724779 -10.9093601297 -2.5001611710
39.3830398983 -10.9689938148 -2.5001611710
39.5560139900 -10.9058542358 -2.5001611710
39.6335793823 -10.9008184359 -2.5001611710
39.6886056191 -10.9040211316 -2.5001611710
39.7439284888 -10.9064591011 -2.5001611710
39.7880868653 -10.9132937032 -2.5001611710
39.8109729206 -10.9029240242 -2.5001611710
39.8886475615 -10.9200845493 -2.5001611710
40.0815031049 -10.9046704718 -2.5001611710
40.3233832108 -10.9082405220 -2.5001611710
40.4054833496 -10.9154452076 -2.5001611710
40.4997597495 -10.9138192752 -2.5001611710
40.5356887369 -10.9195854255 -2.5001611710
40.5442948592 -11.1987373197 -2.5001611710
40.5565866408 -11.1913311565 -2.5001611710
40.5688564599 -11.1838886644 -2.5001611710
40.6055330691 -11.1613438676 -2.5001611710
40.6662115170 -11.1230487689 -2.5001611710
41.0629618745 -10.8394039877 -2.5001611710
41.1409878950 -10.7761378419 -2.5001611710
41.1740234147 -10.7485317562 -2.5001611710
41.2716419271 -10.6639698028 -2.5001611710
41.3142983127 -10.6255585661 -2.5001611710
41.3774232563 -10.5670020836 -2.5001611710
40.4068211836 -11.3059064577 -2.5001611710
40.4320192389 -11.2918692672 -2.5001611710
40.4571338046 -11.2776832422 -2.5001611710
41.4357278827 -10.5447239566 -2.5001611710
41.4564045192 -10.5246127305 -2.5001611710
41.4871954739 -10.4942174039 -2.5001611710
41.4733100523 -10.5418909894 -2.5001611710
40.0656036702 -11.5306293366 -2.5001611710
40.1581558979 -11.4878661159 -2.5001611710
41.8815971647 -10.1280631101 -2.5001611710
41.8907158471 -10.1167056495 -2.5001611710
41.9278130757 -10.1089040934 -2.5001611710
42.0968717381 -9.9239567611 -2.5001611710
39.5074520592 -11.8935513515 -2.5001611710
46.4491601739 -6.8455979123 -2.5001611710
40.0167017238 -7.3179631518 -2.4999349117
40.9497448527 -8.2139214156 -2.4999349117
40.9666517192 -6.6638580044 -2.4999349117
40.9576555345 -6.6287568247 -2.4999349117
40.9333536421 -6.5414910449 -2.4999349117
40.9581517404 -8.2730081372 -2.4999349117
40.9433222684 -6.4909663674 -2.4999349117
40.9542189750 -8.3677188169 -2.4999349117
40.9570492600 -8.3589629039 -2.4999349117
40.9378138645 -6.3963342535 -2.4999349117
40.9503676708 -8.4542127331 -2.4999349117
40.9636753175 -6.3972589567 -2.4999349117
40.9385004568 -6.2578098326 -2.4999349117
40.9562892290 -8.5761783515 -2.4999349117
40.9711744489 -6.2753801646 -2.4999349117
40.9610148877 -8.6290514511 -2.4999349117
40.9326846567 -6.1175262179 -2.4999349117
40.9284595086 -5.8847170486 -2.4999349117
40.9511437994 -8.9890777268 -2.4999349117
40.9292117616 -5.7837832037 -2.4999349117
40.9357423280 -5.7459255992 -2.4999349117
38.8525225384 -10.9219968392 -2.4999349117
38.8791687079 -10.9403176128 -2.4999349117
38.9000600392 -10.9350291221 -2.4999349117
39.0350495524 -10.8976521177 -2.4999349117
39.0002914103 -10.9329534221 -2.4999349117
39.1144877726 -10.8984043477 -2.4999349117
39.2747442780 -10.8944816488 -2.4999349117
39.3245154696 -10.9016989390 -2.4999349117
39.4561649511 -10.9012255409 -2.4999349117
39.9021297996 -10.9013423920 -2.4999349117
40.6149769655 -4.0944250788 -2.4999349117
41.2150783674 -4.3485903135 -2.4999349117
41.1786694683 -4.3107117170 -2.4999349117
40.6180909390 -11.1679246798 -2.4999349117
40.6954105002 -11.1128204315 -2.4999349117
41.1634391196 -10.7217158555 -2.4999349117
40.4500635801 -11.3082456806 -2.4999349117
40.5075022966 -11.2715185484 -2.4999349117
40.5757023306 -11.2263306188 -2.4999349117
40.5869905624 -11.2186819189 -2.4999349117
40.6094989007 -11.2032845087 -2.4999349117
40.6430896187 -11.1799393805 -2.4999349117
41.3059133860 -10.6142987550 -2.4999349117
47.9722281268 -8.0919537476 -2.4999349117
47.9937119143 -7.2050495585 -2.4999349117
40.9424429422 -8.7475158200 -2.5000250340
40.9537278044 -8.7127812991 -2.5000250340
40.9564847390 -8.7040769947 -2.5000250340
40.9492103348 -6.8260687727 -2.5000250340
40.9348324467 -6.7827400301 -2.5000250340
40.9734212805 -8.8066295405 -2.5000250340
40.9590698986 -6.7059374193 -2.5000250340
40.9519697321 -8.9984539008 -2.5000250340
40.9262762718 -6.4355190791 -2.5000250340
40.9546713914 -9.1134373385 -2.5000250340
40.9355415105 -9.2105173618 -2.5000250340
40.9564320339 -9.1671299664 -2.5000250340
40.9538814483 -6.3804069189 -2.5000250340
40.9413764250 -6.3543602118 -2.5000250340
40.9486443566 -9.2385607564 -2.5000250340
40.9372296387 -6.2916617873 -2.5000250340
40.9363389954 -6.2373080456 -2.5000250340
40.9461473085 -6.1536986075 -2.5000250340
40.9458687218 -9.4490806872 -2.5000250340
40.9378254306 -6.0898154616 -2.5000250340
39.4639284865 -10.9053876759 -2.5000250340
39.5205421788 -10.9053568085 -2.5000250340
39.4277279202 -10.9748643785 -2.5000250340
39.5867161091 -10.8996883335 -2.5000250340
39.6439349926 -10.8974890570 -2.5000250340
39.7314857156 -10.9054166745 -2.5000250340
39.7407342100 -10.9003183895 -2.5000250340
39.7987609441 -10.8953947146 -2.5000250340
40.9464676705 -9.8526781483 -2.5000250340
39.9722737534 -4.0907187462 -2.5000250340
40.0608302815 -4.0838007210 -2.5000250340
41.1669942887 -10.6917020964 -2.5000250340
41.1586051189 -10.7361439970 -2.5000250340
40.3902490051 -11.4114536100 -2.5000250340
40.7131341040 -11.1784516993 -2.5000250340
41.1407734915 -10.7899319987 -2.5000250340
40.2055536629 -11.5537475826 -2.5000250340
40.3491573798 -11.4666448321 -2.5000250340
40.4679779933 -11.3886750595 -2.5000250340
40.0117843915 -11.7140790620 -2.5000250340
40.4341110451 -4.0835081404 -2.5000250340
41.2944661758 -4.3698059724 -2.5000250340
41.2843743130 -4.3601127046 -2.5000250340
41.2026161913 -4.2836498877 -2.5000250340
40.6297821089 -3.8361285045 -2.5000250340
40.5002006985 -3.7530682492 -2.5000250340
41.5552154435 -4.6054790245 -2.5000250340
41.5363928450 -4.5845755800 -2.5000250340
40.3310690936 -3.6255813997 -2.5000250340
41.7466428604 -4.7944077237 -2.5000250340
41.4056429697 -4.3772629777 -2.5000250340
41.9393914686 -4.9692483107 -2.5000250340
45.4494432476 -7.8906605484 -2.5000250340
45.4497485297 -7.8686607018 -2.5000250340
45.7595293552 -8.0559507343 -2.5000250340
46.0301155619 -7.8521356713 -2.5000250340
46.5583948105 -8.0341566348 -2.5000250340
46.6007657587 -8.1881018988 -2.5000250340
46.6030508548 -8.1372845824 -2.5000250340
47.3790277667 -8.0866378678 -2.5000250340
47.3806989467 -8.0312178678 -2.5000250340
47.3830575217 -7.9203530560 -2.5000250340
48.0061593271 -8.1370039589 -2.5000250340
47.9711573045 -6.8663237220 -2.5000250340
47.8862398050 -6.1913934035 -2.5000250340
40.0420816399 -7.6748176213 -2.5000011921
40.0710112825 -7.6925238903 -2.5000011921
40.0669748384 -7.6750312719 -2.5000011921
40.0627833160 -7.6575751635 -2.5000011921
40.0343968772 -7.5536819968 -2.5000011921
40.1208614508 -7.5923079207 -2.5000011921
40.1159336832 -7.5743768564 -2.5000011921
40.9336649461 -9.1597093349 -2.5000011921
40.9396564942 -9.1429141736 -2.5000011921
40.9455485715 -9.1260838583 -2.5000011921
40.9541997299 -9.1007737604 -2.5000011921
40.9753069089 -7.2415344269 -2.5000011921
40.9589322638 -7.1906071352 -2.5000011921
40.9416563313 -7.1399784853 -2.5000011921
40.9502687999 -9.1847926693 -2.5000011921
40.9624480606 -9.1509689721 -2.5000011921
40.9430061033 -7.0728306466 -2.5000011921
40.9405158263 -9.2776922852 -2.5000011921
40.9537950013 -9.2439774863 -2.5000011921
40.9634920747 -9.2185895635 -2.5000011921
40.9656429808 -7.0643508437 -2.5000011921
40.9624525864 -7.0558722654 -2.5000011921
40.9421268263 -9.3373523314 -2.5000011921
40.9561118138 -9.3036142938 -2.5000011921
40.9652412439 -6.9962556585 -2.5000011921
40.9445149328 -6.9455456482 -2.5000011921
40.9374065551 -6.9287250463 -2.5000011921
40.9425085805 -9.3974254420 -2.5000011921
40.9876976872 -6.9873089585 -2.5000011921
40.9450166465 -6.8854734197 -2.5000011921
40.9416469878 -9.4578866536 -2.5000011921
40.9455372102 -9.4494685870 -2.5000011921
40.9494025133 -9.4410390492 -2.5000011921
40.9532428635 -9.4325981141 -2.5000011921
40.9570582270 -9.4241458555 -2.5000011921
40.9596196222 -6.8587821138 -2.5000011921
40.9364542914 -6.8081935307 -2.5000011921
40.9313135642 -9.5354984597 -2.5000011921
40.9516641859 -9.4934384993 -2.5000011921
40.9556595332 -9.4849906444 -2.5000011921
40.9361398710 -9.5798716879 -2.5000011921
40.9653739287 -9.5207947901 -2.5000011921
40.9533847820 -9.5992699439 -2.5000011921
40.9432714045 -6.6583417443 -2.5000011921
40.9572907337 -9.6442174494 -2.5000011921
40.9286213457 -6.5797649947 -2.5000011921
40.9636210082 -6.5934751082 -2.5000011921
40.9451376609 -6.5596748295 -2.5000011921
40.9391710962 -9.7771916531 -2.5000011921
40.9536007222 -9.7519125120 -2.5000011921
40.9453499672 -9.8146035521 -2.5000011921
40.9546932859 -6.3843332807 -2.5000011921
40.1417494429 -10.8868622414 -2.5000011921
40.9472556795 -10.0389782503 -2.5000011921
40.9368651799 -6.1798639937 -2.5000011921
40.9310584393 -6.1714744153 -2.5000011921
40.9638218309 -10.2264888411 -2.5000011921
40.9178188416 -5.9493566731 -2.5000011921
40.4095046214 -10.8907740346 -2.5000011921
40.9424020821 -10.4523274897 -2.5000011921
40.9589903706 -10.5083183646 -2.5000011921
40.9213087932 -5.7241250935 -2.5000011921
40.9569914194 -10.8387466271 -2.5000011921
40.7030628577 -11.1487343406 -2.5000011921
41.1637733197 -10.6779311970 -2.5000011921
41.1787431509 -10.6597480659 -2.5000011921
41.1936051426 -10.6414766865 -2.5000011921
41.2009955359 -10.6323081034 -2.5000011921
41.2083587745 -10.6231176983 -2.5000011921
41.2156947941 -10.6139055516 -2.5000011921
40.5163837575 -11.3310542938 -2.5000011921
40.5446196914 -11.3094659642 -2.5000011921
40.5633367306 -11.2949349010 -2.5000011921
40.6281624970 -11.2432095069 -2.5000011921
41.2419798214 -10.6196462443 -2.5000011921
41.2926776916 -10.5540137650 -2.5000011921
41.3420057188 -10.4873456158 -2.5000011921
41.3558448623 -10.4681113376 -2.5000011921
41.3831805529 -10.4293988360 -2.5000011921
40.3959205599 -11.4483045402 -2.5000011921
40.4446208862 -11.4139540194 -2.5000011921
40.4542996843 -11.4069976873 -2.5000011921
40.5309806568 -11.3503225530 -2.5000011921
40.8845180290 -11.0488927792 -2.5000011921
40.9357313623 -10.9989771228 -2.5000011921
41.3824267378 -10.4724652484 -2.5000011921
41.4165861160 -10.4236306608 -2.5000011921
41.4367337255 -10.3940892733 -2.5000011921
41.4955925710 -10.3044086746 -2.5000011921
41.5911502394 -10.1947196062 -2.5000011921
41.6092595176 -10.1636380743 -2.5000011921
41.6152345592 -10.1532420012 -2.5000011921
41.6540564900 -10.1337761981 -2.5000011921
41.7170853259 -10.0170232131 -2.5000011921
41.6986354633 -10.1031360774 -2.5000011921
39.3030421558 -4.0915851746 -2.5000011921
39.2790775179 -4.0845260260 -2.5000011921
39.2430533020 -4.0742034534 -2.5000011921
39.3580166205 -4.0830438000 -2.5000011921
39.3460140146 -4.0793339157 -2.5000011921
39.4373781723 -4.0830937691 -2.5000011921
39.4253753670 -4.0791491188 -2.5000011921
39.4811003936 -4.0722552368 -2.5000011921
39.3844898670 -4.0406630162 -2.5000011921
39.5972496495 -4.0878476693 -2.5000011921
39.5852602077 -4.0834300694 -2.5000011921
39.6417306990 -4.0787184169 -2.5000011921
39.4723163190 -4.0182811050 -2.5000011921
39.7464928012 -4.0940021981 -2.5000011921
39.7225347021 -4.0843194042 -2.5000011921
39.8036233972 -4.0915167508 -2.5000011921
39.7796495935 -4.0814959966 -2.5000011921
39.5980279813 -4.0108903943 -2.5000011921
39.5613377306 -3.9977402149 -2.5000011921
39.8610423185 -4.0898201200 -2.5000011921
39.8250421677 -4.0743327278 -2.5000011921
39.9187388599 -4.0889187651 -2.5000011921
39.9067511799 -4.0835501373 -2.5000011921
39.9647139754 -4.0832789089 -2.5000011921
39.9527094105 -4.0777743031 -2.5000011921
40.0694038374 -4.0793137145 -2.5000011921
40.0453531848 -4.0677207275 -2.5000011921
40.2462062407 -4.0877739314 -2.5000011921
40.2695687217 -4.0728246336 -2.5000011921
40.3769441669 -4.0764989153 -2.5000011921
40.3649177419 -4.0697748876 -2.5000011921
40.4850884688 -4.0828945547 -2.5000011921
40.5579253308 -4.0700532652 -2.5000011921
40.6066251280 -4.0714708429 -2.5000011921
40.6554925094 -4.0734339797 -2.5000011921
40.7045216131 -4.0759457527 -2.5000011921
40.8405219970 -4.0786718273 -2.5000011921
41.4252423107 -4.4440536445 -2.5000011921
41.4033258526 -4.4244326783 -2.5000011921
41.3923241877 -4.4146709056 -2.5000011921
41.3257121776 -4.3567875796 -2.5000011921
41.3032811661 -4.3377569944 -2.5000011921
41.2580833359 -4.3000956128 -2.5000011921
41.2238942487 -4.2722019849 -2.5000011921
41.2124430429 -4.2629716695 -2.5000011921
41.1547802042 -4.2173304241 -2.5000011921
41.1198606903 -4.1903568128 -2.5000011921
40.6452749389 -3.8687359677 -2.5000011921
40.6199683590 -3.8537396194 -2.5000011921
40.6072819083 -3.8462976569 -2.5000011921
40.5690912464 -3.8241973965 -2.5000011921
40.5435224947 -3.8096525560 -2.5000011921
40.5178681383 -3.7952592434 -2.5000011921
40.4921290752 -3.7810179625 -2.5000011921
41.5922606985 -4.5677052936 -2.5000011921
41.5390634420 -4.5164130654 -2.5000011921
41.5067829861 -4.4860173784 -2.5000011921
41.3750021669 -4.3673349071 -2.5000011921
41.3301492954 -4.3288228187 -2.5000011921
40.6194820373 -3.8254292085 -2.5000011921
40.4648154329 -3.7386538963 -2.5000011921
40.4387424020 -3.7247274837 -2.5000011921
40.4256751031 -3.7178221849 -2.5000011921
40.3204130360 -3.6639774820 -2.5000011921
40.2806156813 -3.6444302015 -2.5000011921
41.7445258426 -4.6880782842 -2.5000011921
41.7343025962 -4.6773060267 -2.5000011921
41.7137607284 -4.6558524737 -2.5000011921
41.3908577281 -4.3490883605 -2.5000011921
41.1610249404 -4.1610092749 -2.5000011921
40.3178555986 -3.6357411736 -2.5000011921
40.2911762735 -3.6226860259 -2.5000011921
40.2644201768 -3.6097889505 -2.5000011921
40.2375882450 -3.5970503989 -2.5000011921
40.1972002115 -3.5782407774 -2.5000011921
40.1701828065 -3.5659004738 -2.5000011921
40.1295209893 -3.5476902644 -2.5000011921
41.9414200081 -4.8713934047 -2.5000011921
41.4515369111 -4.3702597018 -2.5000011921
40.0019682174 -3.4672237899 -2.5000011921
42.0739164514 -4.9948681901 -2.5000011921
42.0269844139 -4.9364053624 -2.5000011921
41.9888194058 -4.8901388788 -2.5000011921
41.4676072639 -4.3522020429 -2.5000011921
39.9693624329 -3.4280452432 -2.5000011921
39.9274851358 -3.4116226305 -2.5000011921
39.8433015739 -3.3798955219 -2.5000011921
40.0341592872 -3.4281610748 -2.5000011921
39.8657620827 -3.3624095933 -2.5000011921
39.7379906834 -3.3170410279 -2.5000011921
42.3353663372 -5.2701361232 -2.5000011921
39.6739436666 -3.2703130600 -2.5000011921
42.4344401587 -5.3322244806 -2.5000011921
46.4092621734 -8.7256631637 -2.5000011921
40.0366781438 -7.6412519012 -2.5000011921
40.9442692359 -9.4531076426 -2.5000011921
40.9416270228 -7.4906274284 -2.5000011921
40.9611153536 -9.4774197904 -2.5000011921
40.9396169142 -9.5982350949 -2.5000011921
40.9429263945 -9.5902649733 -2.5000011921
40.9494745518 -9.5742955346 -2.5000011921
40.9594045629 -7.4014450451 -2.5000011921
40.9414087712 -9.6555446876 -2.5000011921
40.9448877758 -9.6475690147 -2.5000011921
40.9420076021 -9.7132685177 -2.5000011921
40.9528860027 -9.6893032115 -2.5000011921
40.9532081224 -7.2624096198 -2.5000011921
40.9676540331 -9.7153148782 -2.5000011921
40.9489428625 -9.8647560196 -2.5000011921
40.9735299980 -7.1351353594 -2.5000011921
40.9577722402 -9.9514218649 -2.5000011921
40.9644044237 -6.9124451387 -2.5000011921
40.9569717704 -6.8520398380 -2.5000011921
40.9577179061 -10.1442933777 -2.5000011921
40.9415175669 -6.6480968645 -2.5000011921
39.4218297478 -4.0933484367 -2.5000011921
39.3698958830 -4.0797542372 -2.5000011921
39.5060928098 -4.0916557830 -2.5000011921
39.3235100849 -4.0432853904 -2.5000011921
39.2841343001 -4.0339066178 -2.5000011921
39.6037464842 -4.0955753027 -2.5000011921
39.5778096499 -4.0876250682 -2.5000011921
39.5388173409 -4.0759877836 -2.5000011921
39.5257971441 -4.0721856428 -2.5000011921
39.6703273918 -4.0659267251 -2.5000011921
39.5129316691 -4.0181902192 -2.5000011921
39.4733257196 -4.0071314245 -2.5000011921
39.8212059915 -4.0918169976 -2.5000011921
39.7822412988 -4.0780195419 -2.5000011921
39.8293757989 -4.0690664036 -2.5000011921
39.9419091614 -4.0851932485 -2.5000011921
40.0156965181 -4.0883219753 -2.5000011921
39.9897095609 -4.0779346331 -2.5000011921
40.0247349756 -4.0659023061 -2.5000011921
40.1867831076 -4.0818461046 -2.5000011921
40.4097102059 -4.0791630711 -2.5000011921
40.6607046446 -4.0734443376 -2.5000011921
40.8388255872 -4.0633898394 -2.5000011921
41.3586124325 -4.3524827087 -2.5000011921
41.2972910952 -4.3069119424 -2.5000011921
41.2353024563 -4.2622531271 -2.5000011921
41.2228258432 -4.2534316614 -2.5000011921
41.1474231426 -4.2012814268 -2.5000011921
41.0583002004 -4.1421424112 -2.5000011921
41.0454690525 -4.1338450757 -2.5000011921
40.6766704424 -3.9172010193 -2.5000011921
41.5774473282 -4.4955703734 -2.5000011921
41.5419965619 -4.4661713618 -2.5000011921
41.5301218339 -4.4564417473 -2.5000011921
41.2367520605 -4.2336732264 -2.5000011921
40.4686297632 -3.7855047642 -2.5000011921
40.4269212267 -3.7659738479 -2.5000011921
40.3148680857 -3.7157088223 -2.5000011921
40.2866713880 -3.7035580020 -2.5000011921
40.2584032954 -3.6915742154 -2.5000011921
40.1247325005 -3.6116243664 -2.5000011921
40.0959233319 -3.6006002737 -2.5000011921
40.0609599330 -3.5617070035 -2.5000011921
39.9734633863 -3.5302867277 -2.5000011921
39.9667270452 -3.5023555426 -2.5000011921
39.8929842482 -3.4774642893 -2.5000011921
42.2513906304 -5.0244828332 -2.5000011921
42.2411643847 -5.0126522599 -2.5000011921
42.5899512682 -5.3776100813 -2.5000011921
40.0627237230 -7.6759385066 -2.5000011921
40.0068398805 -7.5207942891 -2.5000011921
40.9421287756 -9.7721663889 -2.5000011921
40.9479422068 -9.7574428706 -2.5000011921
40.9238555561 -7.6282680994 -2.5000011921
40.9527081812 -9.9880577561 -2.5000011921
40.9618776469 -10.4137082465 -2.5000011921
39.9352305947 -4.0858637668 -2.5000011921
39.9074195723 -4.0771969161 -2.5000011921
39.9982289233 -4.0807208626 -2.5000011921
40.0615549528 -4.0764144805 -2.5000011921
40.0476273457 -4.0716868386 -2.5000011921
40.1251976696 -4.0729516427 -2.5000011921
40.1112595404 -4.0680357493 -2.5000011921
40.1891459398 -4.0703392275 -2.5000011921
40.2812444358 -4.0792978373 -2.5000011921
40.3966489904 -4.0733899996 -2.5000011921
40.4617029849 -4.0744375600 -2.5000011921
40.5130727362 -4.0702639212 -2.5000011921
40.5786140275 -4.0728901927 -2.5000011921
40.6304495639 -4.0699591078 -2.5000011921
40.7347700149 -4.0657531517 -2.5000011921
40.8788187430 -4.0564519196 -2.5000011921
41.3409527400 -4.2947149231 -2.5000011921
41.3143527487 -4.2777276929 -2.5000011921
41.2069617807 -4.2113613531 -2.5000011921
40.4448884497 -3.8320475110 -2.5000011921
41.4467405378 -4.3353438128 -2.5000011921
41.1785691091 -4.1663100293 -2.5000011921
40.2761594200 -3.7418577767 -2.5000011921
40.2463071758 -3.7311798972 -2.5000011921
40.2313574941 -3.7259072355 -2.5000011921
40.2014116653 -3.7154946984 -2.5000011921
40.1864157803 -3.7103549143 -2.5000011921
40.1714047565 -3.7052595132 -2.5000011921
41.8443080692 -4.5990865972 -2.5000011921
41.4997527084 -4.3421172482 -2.5000011921
41.4071645831 -4.2800547981 -2.5000011921
41.1357932041 -4.1134578460 -2.5000011921
41.0803628294 -4.0820812894 -2.5000011921
40.0883564704 -3.6525862180 -2.5000011921
41.1200322672 -4.0766509795 -2.5000011921
41.6061133315 -4.3574434330 -2.5000011921
42.5815565292 -5.1752857270 -2.5000011921
39.6376937714 -3.4066479830 -2.5000011921
40.9302597371 -9.1789553908 -2.5000011921
40.9343392339 -9.0610286077 -2.5000011921
40.9343031017 -9.0216920523 -2.5000011921
40.9335688229 -8.9823623342 -2.5000011921
40.9329399423 -8.9627039110 -2.5000011921
40.9425104725 -9.8358312285 -2.5000011921
40.9448449066 -9.8292476249 -2.5000011921
40.9494552975 -9.8160598448 -2.5000011921
40.9517312139 -9.8094557837 -2.5000011921
40.9628172140 -9.7763360809 -2.5000011921
40.9548376011 -8.2864540875 -2.5000011921
40.9386849756 -8.2403033940 -2.5000011921
40.9457088575 -9.8968943727 -2.5000011921
40.9556519024 -9.8704768083 -2.5000011921
40.9516601202 -8.2055951961 -2.5000011921
40.9631415798 -9.9188407536 -2.5000011921
40.9562864498 -8.1505710974 -2.5000011921
40.9263919008 -7.9098999299 -2.5000011921
40.9235532324 -7.6606556714 -2.5000011921
40.0221542414 -4.0703020534 -2.5000011921
39.9927089248 -4.0626740123 -2.5000011921
37.4638682136 -4.0575160676 -2.5000011921
37.4343920251 -4.0650239295 -2.5000011921
40.1608300398 -4.0835673967 -2.5000011921
40.1314607784 -4.0751186708 -2.5000011921
40.1167575316 -4.0709595045 -2.5000011921
37.4283561639 -4.0416165875 -2.5000011921
37.3545189926 -4.0612398715 -2.5000011921
37.3397868401 -4.0652954619 -2.5000011921
37.3250667492 -4.0693946150 -2.5000011921
37.2516517239 -4.0905425509 -2.5000011921
40.2411241531 -4.0823394724 -2.5000011921
40.2117462216 -4.0734157211 -2.5000011921
40.1970375859 -4.0690190634 -2.5000011921
37.2447889208 -4.0673641727 -2.5000011921
37.2153748312 -4.0761680090 -2.5000011921
37.2006874477 -4.0806351478 -2.5000011921
41.6347552349 -4.7217812428 -2.5000011921
40.3217686546 -4.0824067162 -2.5000011921
37.1788767629 -4.0620501632 -2.5000011921
37.1641477759 -4.0666253316 -2.5000011921
41.9732149219 -4.9397240656 -2.5000011921
41.9121639737 -4.8920288933 -2.5000011921
40.4027427232 -4.0837792007 -2.5000011921
40.3586625684 -4.0690244608 -2.5000011921
37.1126335638 -4.0576024890 -2.5000011921
42.1561206315 -5.0597122334 -2.5000011921
41.9760274650 -4.9111300278 -2.5000011921
40.4840253170 -4.0864666648 -2.5000011921
40.4399658112 -4.0709904817 -2.5000011921
42.2772250521 -5.1347718879 -2.5000011921
40.5362597217 -4.0796349362 -2.5000011921
40.5215680636 -4.0742782816 -2.5000011921
40.5068606239 -4.0689651111 -2.5000011921
40.6034479392 -4.0788971096 -2.5000011921
40.5593165551 -4.0623614158 -2.5000011921
40.6562130212 -4.0733025018 -2.5000011921
40.7386249486 -4.0801222929 -2.5000011921
40.7239338468 -4.0741670032 -2.5000011921
40.7092251924 -4.0682551986 -2.5000011921
40.6944991143 -4.0623869307 -2.5000011921
40.8065898586 -4.0820977291 -2.5000011921
40.7919043031 -4.0759413784 -2.5000011921
40.8601123027 -4.0786316405 -2.5000011921
40.8454162597 -4.0723169758 -2.5000011921
40.8159684556 -4.0598182049 -2.5000011921
41.2607191770 -4.2439995172 -2.5000011921
41.1320556728 -4.1780151709 -2.5000011921
40.8844311636 -4.0628227585 -2.5000011921
40.6162839079 -3.9545861886 -2.5000011921
41.5249869893 -4.3653960689 -2.5000011921
41.4972612460 -4.3488715999 -2.5000011921
41.3853952377 -4.2844226619 -2.5000011921
41.3430569856 -4.2609395312 -2.5000011921
41.2577636349 -4.2151050484 -2.5000011921
40.4574250110 -3.8726132390 -2.5000011921
40.4268024830 -3.8624134498 -2.5000011921
40.3807568839 -3.8474539101 -2.5000011921
40.3653790728 -3.8425582769 -2.5000011921
40.3345803405 -3.8329035884 -2.5000011921
41.8768938653 -4.5658217420 -2.5000011921
41.8103232932 -4.5195920943 -2.5000011921
41.7700553048 -4.4923287048 -2.5000011921
41.7295469548 -4.4654237446 -2.5000011921
41.1098852289 -4.1132868808 -2.5000011921
40.2952337867 -3.7956134405 -2.5000011921
40.2018467892 -3.7684492056 -2.5000011921
40.1393272986 -3.7512623911 -2.5000011921
41.9963615992 -4.6224051458 -2.5000011921
41.9041185584 -4.5554743772 -2.5000011921
41.5777335651 -4.3407760174 -2.5000011921
40.0510319017 -3.7034187616 -2.5000011921
40.0352294513 -3.6994991448 -2.5000011921
40.0194154750 -3.6956262916 -2.5000011921
39.9877534987 -3.6880210114 -2.5000011921
42.3050261657 -4.8371141321 -2.5000011921
39.9455448700 -3.6533950281 -2.5000011921
