41.7273954793 -25.6600048298 -2.5027563096
37.2966192786 -25.9618252575 -2.5027563125
37.1943805697 -25.9499592986 -2.5027563153
37.1544721506 -25.9606070306 -2.5027563182
37.0986846697 -25.9647969665 -2.5027563211
39.6769953438 -26.3427086822 -2.5027563211
36.9394186100 -25.9516643395 -2.5027563269
36.9550639033 -25.9583052681 -2.5027563269
36.7536778866 -25.9485631082 -2.5027563355
36.7693148186 -25.9557535050 -2.5027563355
36.5974180183 -25.9544856744 -2.5027563441
36.5710734160 -25.9684566828 -2.5027563470
36.4819058027 -25.9506187171 -2.5027563499
36.4551902309 -25.9640545015 -2.5027563528
35.9320582689 -25.9739218578 -2.5027563845
35.2436288628 -25.9744215105 -2.5027564306
33.8369868578 -25.7225825228 -2.5027565199
33.8820705273 -25.7699076815 -2.5027565199
33.9123588658 -25.8012347071 -2.5027565199
34.3388973769 -26.2061199777 -2.5027565199
34.4213661899 -26.2772958202 -2.5027565199
40.3589473390 -22.2423361890 -2.5006575584
40.3996600197 -22.1975113340 -2.5006575584
40.9523469703 -21.8383478034 -2.5006575584
41.0075029546 -21.7131331250 -2.5006575584
37.5811344671 -25.9470324206 -2.5006575584
37.5962365075 -25.9508054301 -2.5006575584
37.4693639372 -25.9426892671 -2.5006575584
37.5146690699 -25.9548662615 -2.5006575584
40.3863220680 -25.9061107569 -2.5006575584
40.4012907808 -25.9015856932 -2.5006575584
40.4311877212 -25.8924028246 -2.5006575584
40.4610298094 -25.8830432365 -2.5006575584
40.5805858414 -25.8946728974 -2.5006575584
37.2374361558 -25.9496670289 -2.5006575584
40.6333230218 -25.9020590584 -2.5006575584
40.6482786682 -25.8968033389 -2.5006575584
40.8143925265 -25.8869137055 -2.5006575584
41.8497089771 -25.3518919902 -2.5006575584
37.0327959911 -25.9569899716 -2.5006575584
37.0782452260 -25.9730406985 -2.5006575584
40.8530474811 -25.8977809669 -2.5006575584
40.8679895108 -25.8918752814 -2.5006575584
36.9337804524 -25.9462908984 -2.5006575584
36.8798206589 -25.9514915826 -2.5006575584
36.9100744909 -25.9631420405 -2.5006575584
40.8254216458 -25.9603756420 -2.5006575584
41.2127694708 -25.7945495695 -2.5006575584
41.3002671775 -25.7520857229 -2.5006575584
41.3292638923 -25.7375868246 -2.5006575584
36.8407494914 -25.9621425546 -2.5006575584
40.4645529141 -26.1097420295 -2.5006575584
40.4956802701 -26.1001812378 -2.5006575584
40.5112226000 -26.0953318236 -2.5006575584
40.5732464270 -26.0754750392 -2.5006575584
40.6504386851 -26.0496243096 -2.5006575584
41.1196620395 -25.8641685449 -2.5006575584
41.3110140012 -25.7737384609 -2.5006575584
41.4269884539 -25.7144567563 -2.5006575584
41.4844414810 -25.6837908684 -2.5006575584
41.5415276330 -25.6524473164 -2.5006575584
41.6123572333 -25.6123216058 -2.5006575584
40.2036766796 -26.2069870624 -2.5006575584
40.2353839356 -26.1989680002 -2.5006575584
40.2986533444 -26.1823678118 -2.5006575584
40.3931781024 -26.1560667762 -2.5006575584
40.0816909060 -26.2607679167 -2.5006575584
40.0977100917 -26.2571424553 -2.5006575584
41.6485682464 -25.6751529680 -2.5006575584
42.2258332381 -25.2928513804 -2.5006575584
41.8029354930 -25.6112600204 -2.5006575584
42.2271729128 -25.3221059952 -2.5006575584
36.4804405250 -25.9650386282 -2.5006575584
36.1280186467 -25.9508921751 -2.5006575584
36.0863096197 -25.9558549034 -2.5006575584
35.8025712514 -25.9609248989 -2.5006575584
35.7446853209 -25.9541866226 -2.5006575584
35.7598165599 -25.9633921495 -2.5006575584
35.2217095955 -25.9562785723 -2.5006575584
40.3827378017 -22.2007735661 -2.4989764690
40.9551988911 -21.8904195642 -2.4989764690
40.9518039681 -22.3763108757 -2.4989764690
39.9870820784 -25.9008650382 -2.4989764690
37.2676038283 -25.9507469082 -2.4989764690
37.3108737575 -25.9622303689 -2.4989764690
40.0510509568 -25.9070433501 -2.4989764690
40.0653214602 -25.9026800829 -2.4989764690
37.1890704708 -25.9539966341 -2.4989764690
37.2034923930 -25.9580994174 -2.4989764690
37.2179263888 -25.9621595200 -2.4989764690
37.2323723320 -25.9661769064 -2.4989764690
40.1581789183 -25.8985921925 -2.4989764690
37.1245827726 -25.9603198082 -2.4989764690
37.1969124327 -25.9813596711 -2.4989764690
40.2371139512 -25.8976336007 -2.4989764690
40.2513558048 -25.8927199666 -2.4989764690
37.0308765464 -25.9566971836 -2.4989764690
40.3021134300 -25.9004949529 -2.4989764690
40.3163634637 -25.8953890261 -2.4989764690
37.0090581884 -25.9750958497 -2.4989764690
36.8713158047 -25.9542636117 -2.4989764690
36.9291008338 -25.9741783213 -2.4989764690
40.4614964057 -25.8925816958 -2.4989764690
36.7910747648 -25.9510969169 -2.4989764690
40.5131138989 -25.8981627789 -2.4989764690
36.7538099402 -25.9630449462 -2.4989764690
36.6729839337 -25.9579616231 -2.4989764690
40.6456042458 -25.8955865772 -2.4989764690
36.5538479594 -25.9620049671 -2.4989764690
40.7932579779 -25.8828963224 -2.4989764690
36.4722659280 -25.9536371868 -2.4989764690
36.4866899232 -25.9598604090 -2.4989764690
36.4192998392 -25.9568068803 -2.4989764690
36.4337334427 -25.9631867719 -2.4989764690
40.8991270374 -25.8864680598 -2.4989764690
40.9665791143 -25.8803791434 -2.4989764690
40.7173403351 -26.0226170372 -2.4989764690
41.2443872682 -25.7599242677 -2.4989764690
41.3407020064 -25.7038191889 -2.4989764690
41.3680051301 -25.6874240068 -2.4989764690
41.3952107766 -25.6708675772 -2.4989764690
36.2735466734 -25.9698067428 -2.4989764690
40.4296548725 -26.1628800736 -2.4989764690
40.5344878087 -26.1235583051 -2.4989764690
41.2145213225 -25.8044741395 -2.4989764690
41.4621966129 -25.6577349289 -2.4989764690
40.2096437726 -26.2628466218 -2.4989764690
41.7025135543 -25.5270164225 -2.4989764690
40.0622131937 -26.3319531750 -2.4989764690
39.7753607800 -26.4539438724 -2.4989764690
39.8071292894 -26.4467966463 -2.4989764690
39.8388549573 -26.4394615920 -2.4989764690
40.2399727300 -22.3663387081 -2.5006785393
40.4102488987 -22.0981814807 -2.5006785393
40.4995696781 -22.2691738935 -2.5006785393
40.9651413502 -22.2689155032 -2.5006785393
40.9298521030 -20.3651976389 -2.5006785393
40.9765384252 -22.3787331921 -2.5006785393
40.9672986110 -22.5859413029 -2.5006785393
40.9693433646 -22.6924461764 -2.5006785393
40.9487730022 -22.9760608258 -2.5006785393
39.7002140969 -25.9223121727 -2.5006785393
39.7808789659 -25.8975289012 -2.5006785393
39.8419819558 -25.9031680980 -2.5006785393
39.9168497257 -25.9033605365 -2.5006785393
40.0272489554 -25.9151695866 -2.5006785393
40.1433625348 -25.8965377639 -2.5006785393
40.1657455999 -25.9136363490 -2.5006785393
40.2060376949 -25.8972926914 -2.5006785393
40.2689813285 -25.8971957114 -2.5006785393
40.5471363786 -25.9034472932 -2.5006785393
40.7005566039 -25.9075707738 -2.5006785393
40.7139831154 -25.9005805852 -2.5006785393
41.1588057242 -25.7827938786 -2.5006785393
41.1848917681 -25.7660648422 -2.5006785393
41.2238341161 -25.7406826452 -2.5006785393
41.2496698777 -25.7235696160 -2.5006785393
40.4441752201 -26.1902440291 -2.5006785393
41.3146808969 -25.7088398424 -2.5006785393
41.3658675828 -25.6733885184 -2.5006785393
41.3913027239 -25.6554363493 -2.5006785393
41.4166312088 -25.6373340115 -2.5006785393
40.2950081623 -26.2784755864 -2.5006785393
41.3283263895 -25.7287931833 -2.5006785393
40.0978994883 -26.3778455552 -2.5006785393
39.8269228449 -26.5149005844 -2.5006785393
39.8725641650 -26.5015401117 -2.5006785393
42.2250108483 -25.0607664206 -2.5006785393
40.4133880168 -22.4861682412 -2.4996461868
40.4803949595 -22.2632409598 -2.4996461868
40.3845743543 -22.6271260875 -2.4996461868
40.4063914207 -22.9148441095 -2.4996461868
40.4749622510 -22.7801723740 -2.4996461868
40.4014884273 -22.9730265775 -2.4996461868
40.4968186608 -22.7904986819 -2.4996461868
40.6081333172 -22.5147613150 -2.4996461868
40.9571551812 -22.6143841148 -2.4996461868
40.9471667581 -20.7337005893 -2.4996461868
40.9414671138 -20.7172575750 -2.4996461868
40.9572308745 -22.6883413773 -2.4996461868
40.9688619167 -22.6552334375 -2.4996461868
40.9554800271 -20.6844703360 -2.4996461868
40.9464568863 -20.6597466949 -2.4996461868
40.9372146924 -20.6351041027 -2.4996461868
40.9309318924 -20.6187216938 -2.4996461868
40.9338895866 -20.5606801712 -2.4996461868
40.9515101889 -22.8377568149 -2.4996461868
40.9548966870 -22.8295090378 -2.4996461868
40.9662585282 -20.5763738787 -2.4996461868
40.9596277521 -20.5598206645 -2.4996461868
40.9420327145 -22.9213319712 -2.4996461868
40.9543212539 -20.4844258806 -2.4996461868
40.9507461611 -20.4761800846 -2.4996461868
40.9339468563 -22.9970248390 -2.4996461868
40.9492320145 -22.9641707967 -2.4996461868
40.9529924780 -22.9559292057 -2.4996461868
40.9567285449 -22.9476765267 -2.4996461868
40.9479536968 -23.0238388982 -2.4996461868
40.9336166375 -20.3243666410 -2.4996461868
40.9287264711 -23.1166607344 -2.4996461868
40.9512190922 -20.3054323500 -2.4996461868
40.9373234159 -23.1524159331 -2.4996461868
40.9434007982 -20.2368433141 -2.4996461868
40.9260255445 -20.2040706379 -2.4996461868
40.9604838470 -20.2173711409 -2.4996461868
40.9384144133 -20.1761870642 -2.4996461868
40.9395176034 -23.2493971323 -2.4996461868
40.9487017986 -23.2329553441 -2.4996461868
40.9321434997 -20.1152540458 -2.4996461868
40.9274764269 -20.1070754710 -2.4996461868
40.9550702729 -20.0582280309 -2.4996461868
40.9592293405 -23.3599230817 -2.4996461868
40.9261200645 -19.9636110731 -2.4996461868
40.9258600732 -19.9180108570 -2.4996461868
40.9597967296 -23.4513634046 -2.4996461868
39.5446183595 -25.9093061414 -2.4996461868
39.5820182633 -25.8968973594 -2.4996461868
39.6396951997 -25.9026532460 -2.4996461868
39.6852189823 -25.9121455062 -2.4996461868
39.7809958271 -25.9023346073 -2.4996461868
39.8396609808 -25.9053855740 -2.4996461868
39.9328724088 -25.9196092491 -2.4996461868
39.9578720935 -25.9090763788 -2.4996461868
39.9828090248 -25.8983957862 -2.4996461868
40.0423359542 -25.8986704092 -2.4996461868
40.1021225075 -25.8981226288 -2.4996461868
40.1621575207 -25.8967463558 -2.4996461868
40.2455482638 -25.9101138988 -2.4996461868
40.3187607733 -25.9004035234 -2.4996461868
40.3672476259 -25.9025487149 -2.4996461868
40.3909626544 -25.9174063701 -2.4996461868
40.4159412888 -25.9041633226 -2.4996461868
40.4523532151 -25.9120284843 -2.4996461868
40.5263907470 -25.8988201196 -2.4996461868
40.5632067777 -25.9057889948 -2.4996461868
40.6251332650 -25.8979880601 -2.4996461868
40.7245824278 -25.8949640894 -2.4996461868
40.8246913046 -25.8897230007 -2.4996461868
40.8625497054 -25.8942614167 -2.4996461868
40.9129953937 -25.8903877663 -2.4996461868
40.5789860867 -26.1458418393 -2.4996461868
40.6577094539 -26.1022974600 -2.4996461868
41.1004985614 -25.8210461743 -2.4996461868
41.1854298482 -25.7593801407 -2.4996461868
41.2094596419 -25.7414395241 -2.4996461868
41.2571987021 -25.7051333609 -2.4996461868
41.2690660811 -25.6959687559 -2.4996461868
41.2809062976 -25.6867690851 -2.4996461868
41.2927192480 -25.6775344291 -2.4996461868
41.3162629372 -25.6589604849 -2.4996461868
41.3396963247 -25.6402475733 -2.4996461868
40.3350981377 -26.2962757750 -2.4996461868
40.4569813273 -26.2368760672 -2.4996461868
40.5106353009 -26.2094388934 -2.4996461868
40.5373396034 -26.1954827112 -2.4996461868
40.5506606741 -26.1884454342 -2.4996461868
40.5772400717 -26.1742528158 -2.4996461868
40.7867581252 -26.0551025963 -2.4996461868
41.3899444000 -25.6306285177 -2.4996461868
41.4363596578 -25.5921945324 -2.4996461868
41.4708708799 -25.5630100950 -2.4996461868
41.6284374150 -25.4228194984 -2.4996461868
40.2766903488 -26.3498859750 -2.4996461868
40.3863945588 -26.2986133197 -2.4996461868
41.6999844405 -25.3886647551 -2.4996461868
41.7109137107 -25.3781916945 -2.4996461868
41.7758343941 -25.3146785745 -2.4996461868
41.8501361422 -25.2391377205 -2.4996461868
40.1331824294 -26.4384498318 -2.4996461868
40.1472240092 -26.4326070617 -2.4996461868
41.6164683089 -25.4993708071 -2.4996461868
39.8856606763 -26.5592572009 -2.4996461868
39.9000607092 -26.5541461163 -2.4996461868
40.0574313978 -26.4951243054 -2.4996461868
42.0503498533 -25.0926682803 -2.4996461868
42.2826693789 -24.8475006713 -2.4996461868
40.3135690609 -22.6091999838 -2.5001611710
40.3674810000 -22.3170428510 -2.5001611710
40.4256052415 -22.9714945763 -2.5001611710
40.4354049925 -23.0745494128 -2.5001611710
40.9450114770 -23.0290297567 -2.5001611710
40.9593246126 -22.9860562657 -2.5001611710
40.9431674269 -21.0453108666 -2.5001611710
40.9372326282 -21.0281925409 -2.5001611710
40.9403135568 -23.1142447939 -2.5001611710
40.9528235727 -23.0799324847 -2.5001611710
40.9414925550 -20.9686629730 -2.5001611710
40.9673439307 -20.9689082566 -2.5001611710
40.9529540072 -23.2783734023 -2.5001611710
40.9564418635 -20.6902662383 -2.5001611710
40.9361625323 -20.6473795102 -2.5001611710
40.9605419391 -23.4374276683 -2.5001611710
40.9510245962 -20.3652505408 -2.5001611710
40.9551655649 -23.8024608064 -2.5001611710
40.9599698029 -23.8409130009 -2.5001611710
40.9566162872 -20.2334012153 -2.5001611710
40.9545040814 -23.9834683578 -2.5001611710
38.2514208648 -25.9186953885 -2.5001611710
39.0932926668 -25.9308607902 -2.5001611710
39.1965021849 -25.9016243600 -2.5001611710
39.2607326094 -25.9072613596 -2.5001611710
39.2721677601 -25.9036534811 -2.5001611710
39.3024494301 -25.9193347464 -2.5001611710
39.3482652338 -25.9042060332 -2.5001611710
39.2983433297 -25.9460524790 -2.5001611710
39.4361885193 -25.8991742655 -2.5001611710
39.6107088890 -25.9101414931 -2.5001611710
39.7439284888 -25.9064619622 -2.5001611710
39.8668600391 -25.9036505551 -2.5001611710
39.9115720338 -25.9091226615 -2.5001611710
39.9450546078 -25.9197360477 -2.5001611710
40.3233832108 -25.9082433830 -2.5001611710
40.4700889927 -26.2424106457 -2.5001611710
40.6177139662 -26.1537595753 -2.5001611710
40.6298723659 -26.1461364219 -2.5001611710
40.6782788648 -26.1152851464 -2.5001611710
41.2609070471 -25.6734963973 -2.5001611710
40.4821640013 -26.2633517404 -2.5001611710
41.4460810741 -25.5346864959 -2.5001611710
40.1185992040 -26.5064306944 -2.5001611710
39.9951011707 -26.5879746251 -2.5001611710
39.5644653705 -26.8253359418 -2.5001611710
40.4908108786 -22.9553784041 -2.4999349117
40.5238549670 -22.9157819069 -2.4999349117
40.5950298859 -22.5465712501 -2.4999349117
40.9581517404 -23.2730238728 -2.4999349117
40.9607018368 -23.2642567404 -2.4999349117
40.9706425437 -23.2291139260 -2.4999349117
40.9730626920 -23.2203100356 -2.4999349117
40.9715506431 -21.5873642286 -2.4999349117
40.9641632613 -21.5609878634 -2.4999349117
40.9591084231 -21.5434404906 -2.4999349117
40.9513317327 -21.5171762728 -2.4999349117
40.9433222684 -21.4909821030 -2.4999349117
40.9378536173 -21.4735592577 -2.4999349117
40.9542189750 -23.3677345525 -2.4999349117
40.9626320636 -23.3414418877 -2.4999349117
40.9681110161 -23.3238724130 -2.4999349117
40.9495615702 -21.4312326639 -2.4999349117
40.9437393122 -21.4137739505 -2.4999349117
40.9317854345 -21.3789613896 -2.4999349117
40.9503676708 -23.4542284687 -2.4999349117
40.9565141213 -23.4367295803 -2.4999349117
40.9625569349 -23.4191946338 -2.4999349117
40.9684959001 -23.4016242428 -2.4999349117
40.9714263745 -23.3928259478 -2.4999349117
40.9772091784 -23.3752035437 -2.4999349117
40.9636753175 -21.3972746924 -2.4999349117
40.9576519057 -21.3797330716 -2.4999349117
40.9484224612 -21.3534882262 -2.4999349117
40.9421402609 -21.3360376128 -2.4999349117
40.9914189151 -23.4092969650 -2.4999349117
40.9972988172 -23.3915559900 -2.4999349117
40.9518871997 -21.2927260646 -2.4999349117
40.9699212324 -23.5410816473 -2.4999349117
40.9575812973 -21.2402684013 -2.4999349117
40.9327966038 -21.1791911637 -2.4999349117
40.9573856146 -23.6378336490 -2.4999349117
40.9646182121 -23.6202900267 -2.4999349117
40.9662287826 -21.1341380599 -2.4999349117
40.9586485214 -21.1165859374 -2.4999349117
40.9470837544 -21.0903426099 -2.4999349117
40.9557773108 -23.7623005923 -2.4999349117
40.9597747866 -23.7535383430 -2.4999349117
40.9652248706 -21.0717065342 -2.4999349117
40.9721892997 -20.9721411535 -2.4999349117
40.9418496808 -20.9108189287 -2.4999349117
40.9464495467 -23.9978291490 -2.4999349117
40.9551861160 -20.7808450308 -2.4999349117
40.9401209747 -24.2029766078 -2.4999349117
40.9473979322 -20.6221921002 -2.4999349117
40.9485925267 -24.2808593787 -2.4999349117
40.9521363516 -24.3201252505 -2.4999349117
38.8525225384 -25.9220125748 -2.4999349117
38.8733059442 -25.9168820525 -2.4999349117
38.8836861734 -25.9142707029 -2.4999349117
38.9147798765 -25.9062525761 -2.4999349117
38.8791687079 -25.9403333485 -2.4999349117
39.0040272978 -25.9067536441 -2.4999349117
39.0247177751 -25.9007270357 -2.4999349117
40.9502456947 -24.5370093714 -2.4999349117
39.0627199325 -25.9145848049 -2.4999349117
39.0834557143 -25.9082108141 -2.4999349117
40.9337512072 -20.2128405949 -2.4999349117
39.0801951206 -25.9345191739 -2.4999349117
39.1943996121 -25.8973696681 -2.4999349117
40.9325723357 -20.1314335932 -2.4999349117
39.2830665479 -25.9171926506 -2.4999349117
39.3245154696 -25.9017146747 -2.4999349117
39.2704619844 -25.9474915551 -2.4999349117
39.3849877997 -25.9041449838 -2.4999349117
39.2786498359 -25.9702356614 -2.4999349117
39.3312171544 -25.9508711658 -2.4999349117
39.4561649511 -25.9012412765 -2.4999349117
39.5173420603 -25.9014222786 -2.4999349117
39.5788419056 -25.9005532813 -2.4999349117
39.6820664300 -25.9056657795 -2.4999349117
39.7547824567 -25.8967718526 -2.4999349117
39.7967571805 -25.9025129154 -2.4999349117
39.8596534163 -25.8968157218 -2.4999349117
39.9551743238 -25.8996387650 -2.4999349117
40.1385349459 -25.9041711390 -2.4999349117
40.1926410305 -25.8990331867 -2.4999349117
40.4038901540 -25.9046357473 -2.4999349117
41.2416860008 -19.3415466570 -2.4999349117
41.1775258148 -19.2749938635 -2.4999349117
41.1589425342 -19.2562241748 -2.4999349117
41.1496093321 -19.2468806421 -2.4999349117
41.2584496341 -19.2889965266 -2.4999349117
40.6844349514 -26.1208060561 -2.4999349117
40.6954105002 -26.1128361672 -2.4999349117
40.7715725066 -26.0561427679 -2.4999349117
41.1829971510 -25.7029324154 -2.4999349117
41.1927343726 -25.6934895177 -2.4999349117
41.2024436178 -25.6840178568 -2.4999349117
41.2314026466 -25.6554311255 -2.4999349117
40.4731042041 -26.2936725445 -2.4999349117
40.4960581123 -26.2789476121 -2.4999349117
40.5075022966 -26.2715342840 -2.4999349117
40.5643915218 -26.2339616283 -2.4999349117
40.6986095216 -26.1403870888 -2.4999349117
41.1603663573 -25.7579903659 -2.4999349117
41.3993416428 -25.5150043825 -2.4999349117
41.4176724779 -25.4948131464 -2.4999349117
41.4449439456 -25.4643238302 -2.4999349117
40.2984322197 -26.4275082932 -2.4999349117
40.3458483514 -26.3999803138 -2.4999349117
40.4976442522 -26.3066734355 -2.4999349117
41.5524299508 -25.3764607052 -2.4999349117
41.5959663936 -25.3235310721 -2.4999349117
41.6045794705 -25.3128681967 -2.4999349117
39.4168827537 -26.8422552834 -2.4999349117
40.3936395747 -26.3996907233 -2.4999349117
40.0283896915 -26.6242764674 -2.4999349117
39.9633198361 -26.6816468280 -2.4999349117
40.0011810573 -26.6640173399 -2.4999349117
40.2126577102 -26.5578256874 -2.4999349117
39.0994844711 -27.1801420342 -2.4999349117
40.9424429422 -23.7475034223 -2.5000250340
40.9619213013 -23.6866317122 -2.5000250340
40.9656155372 -21.8783244765 -2.5000250340
40.9536018120 -23.7899780774 -2.5000250340
40.9565871459 -23.7812738079 -2.5000250340
40.9595467179 -23.7725607453 -2.5000250340
40.9394796171 -21.7228333240 -2.5000250340
40.9331948475 -21.7055357221 -2.5000250340
40.9514560596 -23.8677012458 -2.5000250340
40.9546713221 -23.8590029838 -2.5000250340
40.9653519121 -21.7233757021 -2.5000250340
40.9494535716 -21.6798194509 -2.5000250340
40.9362721456 -21.6451467274 -2.5000250340
40.9437940141 -23.9545617326 -2.5000250340
40.9588162252 -21.6364232099 -2.5000250340
40.9520198859 -21.6190127184 -2.5000250340
40.9274817029 -21.4971442071 -2.5000250340
40.9341587449 -21.4527680766 -2.5000250340
40.9507035028 -24.1221220898 -2.5000250340
40.9646081741 -24.1496768915 -2.5000250340
40.9620895004 -21.3978202024 -2.5000250340
40.9572432416 -24.2211525058 -2.5000250340
40.9436760069 -24.3015845146 -2.5000250340
40.9467348783 -24.3475699223 -2.5000250340
40.9651432323 -21.1885101860 -2.5000250340
40.9458687218 -24.4490682895 -2.5000250340
39.3424581008 -25.9064381876 -2.5000250340
39.3609528931 -25.8985158812 -2.5000250340
40.9365037855 -24.5132090235 -2.5000250340
40.9467278677 -24.4958801914 -2.5000250340
40.9537286843 -21.0690206743 -2.5000250340
39.4076459815 -25.9044207666 -2.5000250340
39.4824148643 -25.8967343307 -2.5000250340
40.9409618164 -24.5989227884 -2.5000250340
40.9430150828 -20.9572789012 -2.5000250340
39.5205421788 -25.9053444107 -2.5000250340
40.9431063768 -24.6855548966 -2.5000250340
40.9461849210 -24.7248599846 -2.5000250340
40.9510348801 -20.7918416121 -2.5000250340
39.8878470335 -25.8991783261 -2.5000250340
40.0686960099 -25.8996254769 -2.5000250340
40.9294081634 -20.1027998141 -2.5000250340
40.1054320394 -19.0810759088 -2.5000250340
40.6830761138 -26.1405729794 -2.5000250340
41.1927411995 -25.6635819619 -2.5000250340
40.5246507329 -26.2902209504 -2.5000250340
40.5866181164 -26.2450842475 -2.5000250340
40.6172989478 -26.2221052318 -2.5000250340
40.6274804251 -26.2143851654 -2.5000250340
41.2277599800 -25.6608595121 -2.5000250340
41.3606303371 -25.5055123381 -2.5000250340
40.3687015598 -26.4254442030 -2.5000250340
40.4009915659 -26.4043919722 -2.5000250340
40.4224138939 -26.3901983114 -2.5000250340
40.4437518725 -26.3758781572 -2.5000250340
40.7928801511 -26.1135846639 -2.5000250340
41.3874706439 -25.5108141121 -2.5000250340
40.3186260032 -19.0956045949 -2.5000250340
40.2611813159 -26.5208882807 -2.5000250340
40.2943225686 -26.5007864732 -2.5000250340
40.1271951879 -26.6257553021 -2.5000250340
40.1499319676 -26.6131776383 -2.5000250340
40.2176902667 -26.5746406418 -2.5000250340
41.7066262384 -25.1519561026 -2.5000250340
41.3839900897 -19.4583642210 -2.5000250340
41.3245691006 -19.3990519041 -2.5000250340
41.3045293200 -19.3795166535 -2.5000250340
40.7906786721 -18.9478508152 -2.5000250340
40.7451824393 -18.9152480444 -2.5000250340
40.6297821089 -18.8361161068 -2.5000250340
41.5645802833 -19.6159600179 -2.5000250340
41.5174469042 -19.5637714645 -2.5000250340
41.4983782842 -19.5430922012 -2.5000250340
41.4695467919 -19.5122857406 -2.5000250340
41.4501744034 -19.4918907715 -2.5000250340
41.4208904254 -19.4615141096 -2.5000250340
40.5605876185 -18.7623624489 -2.5000250340
41.7110964122 -19.7504218795 -2.5000250340
41.6840964780 -19.7177195005 -2.5000250340
41.5256988458 -19.5370308969 -2.5000250340
40.5735420220 -18.7419536588 -2.5000250340
40.3920582888 -18.6323287349 -2.5000250340
41.7919816230 -19.8127330325 -2.5000250340
41.1452112153 -19.1358438846 -2.5000250340
40.2402627162 -22.6742086152 -2.5000011921
40.2360570271 -22.6552147066 -2.5000011921
40.2567056742 -22.6371031929 -2.5000011921
40.2445677965 -22.4971270323 -2.5000011921
40.2551753708 -22.3738764175 -2.5000011921
40.5811216548 -22.5384629017 -2.5000011921
40.5020319953 -22.2054396305 -2.5000011921
40.4879670321 -22.1699837815 -2.5000011921
40.3891345826 -21.9032310148 -2.5000011921
40.9749069143 -22.3250328470 -2.5000011921
40.9548493503 -22.2571814524 -2.5000011921
40.9484572441 -24.1176604702 -2.5000011921
40.9475147884 -22.1568253014 -2.5000011921
40.9376901741 -24.2184746562 -2.5000011921
40.9440292989 -24.2016546520 -2.5000011921
40.9842573881 -22.1154218936 -2.5000011921
40.9461251720 -22.0136277460 -2.5000011921
40.9313766412 -24.3625507413 -2.5000011921
40.9313135642 -24.5355032281 -2.5000011921
40.9488185122 -24.5546319858 -2.5000011921
40.1030271208 -25.8853724408 -2.5000011921
40.9584490399 -25.0220920613 -2.5000011921
40.9178188416 -20.9493614415 -2.5000011921
40.7384976946 -26.1177029795 -2.5000011921
40.7648314665 -26.0941519150 -2.5000011921
41.1712716826 -25.6688554707 -2.5000011921
41.1787431509 -25.6597528343 -2.5000011921
41.1861876593 -25.6506281357 -2.5000011921
41.2156947941 -25.6139103200 -2.5000011921
40.5539889574 -26.3022190431 -2.5000011921
40.6189674533 -26.2506856417 -2.5000011921
40.6373353989 -26.2357157410 -2.5000011921
41.2638738350 -25.5916514393 -2.5000011921
41.3069121296 -25.5350749295 -2.5000011921
41.3695699672 -25.4488002873 -2.5000011921
40.4446208862 -26.4139587878 -2.5000011921
40.4735953347 -26.3930040489 -2.5000011921
40.4832120181 -26.3859620968 -2.5000011921
41.1626534664 -25.7543895555 -2.5000011921
41.4165861160 -25.4236354291 -2.5000011921
41.5911502394 -25.1947243746 -2.5000011921
39.3030421558 -19.0915899430 -2.5000011921
39.2790775179 -19.0845307944 -2.5000011921
39.3460140146 -19.0793386841 -2.5000011921
39.4613485134 -19.0910942710 -2.5000011921
39.5492142087 -19.0703951087 -2.5000011921
39.6657233497 -19.0879280135 -2.5000011921
39.7225347021 -19.0843241726 -2.5000011921
39.8036233972 -19.0915215191 -2.5000011921
39.9067511799 -19.0835549057 -2.5000011921
40.1870523231 -19.0841308089 -2.5000011921
40.2222025473 -19.0751395424 -2.5000011921
41.1629517984 -19.2544655949 -2.5000011921
41.1399182361 -19.2363997456 -2.5000011921
41.0935324798 -19.2006784461 -2.5000011921
41.4142985923 -19.4342317215 -2.5000011921
41.3480302051 -19.3759553095 -2.5000011921
41.2124430429 -19.2629764378 -2.5000011921
41.1894589674 -19.2446176328 -2.5000011921
40.5563176272 -18.8169108353 -2.5000011921
41.5710728820 -19.5470987947 -2.5000011921
41.4959630473 -19.4759540597 -2.5000011921
40.3732033540 -18.6905932135 -2.5000011921
40.2272856793 -18.6189227785 -2.5000011921
41.8051920780 -19.7533473764 -2.5000011921
40.2911762735 -18.6226907942 -2.5000011921
40.1430928650 -18.5537249986 -2.5000011921
41.4067132892 -19.3308465823 -2.5000011921
39.7102997047 -18.2567739264 -2.5000011921
40.3956267908 -23.0409708520 -2.5000011921
40.4788791373 -22.7043814773 -2.5000011921
40.9471493826 -24.4451253473 -2.5000011921
40.9556479520 -24.4211249698 -2.5000011921
40.9611951919 -24.4050832263 -2.5000011921
40.9459996532 -24.5174537717 -2.5000011921
40.9551401421 -24.4934607492 -2.5000011921
40.9414087712 -24.6555456413 -2.5000011921
40.9517749287 -24.6315879225 -2.5000011921
40.9554876898 -22.3281336566 -2.5000011921
40.9486520930 -22.3121294921 -2.5000011921
40.9478912855 -22.1378052948 -2.5000011921
40.9448213617 -24.8727436916 -2.5000011921
40.9571148957 -24.8487471350 -2.5000011921
40.9691949896 -24.8246424251 -2.5000011921
40.9655522484 -22.1190287820 -2.5000011921
40.9577722402 -24.9514228186 -2.5000011921
40.9728572886 -21.8315473076 -2.5000011921
40.9581608067 -21.8074217060 -2.5000011921
40.9433622349 -21.7385519670 -2.5000011921
40.9427863524 -21.6934387421 -2.5000011921
40.9316103790 -21.3100206166 -2.5000011921
39.4218297478 -19.0933493904 -2.5000011921
39.5190554967 -19.0954005033 -2.5000011921
39.4801344955 -19.0842843227 -2.5000011921
39.3628010879 -19.0530141853 -2.5000011921
39.5778096499 -19.0876260219 -2.5000011921
39.3687146086 -19.0295756368 -2.5000011921
39.6239180140 -19.0765395443 -2.5000011921
39.6108990742 -19.0724856579 -2.5000011921
39.7353909569 -19.0874613828 -2.5000011921
39.5129316691 -19.0181911729 -2.5000011921
39.4733257196 -19.0071323782 -2.5000011921
39.6191209569 -18.9991353332 -2.5000011921
39.9419091614 -19.0851942022 -2.5000011921
39.9766931503 -19.0727996166 -2.5000011921
40.1867831076 -19.0818470583 -2.5000011921
40.4097102059 -19.0791640248 -2.5000011921
40.7494170006 -19.0675828663 -2.5000011921
40.8648837353 -19.0788020454 -2.5000011921
41.3829511129 -19.3709650886 -2.5000011921
41.3586124325 -19.3524836623 -2.5000011921
41.2353024563 -19.2622540807 -2.5000011921
40.5817663074 -18.8678711798 -2.5000011921
40.4996215676 -18.8271593150 -2.5000011921
41.3854141264 -19.3424546408 -2.5000011921
40.2725462043 -18.6975461568 -2.5000011921
41.8235322659 -19.6818719444 -2.5000011921
41.7327611772 -19.5983020669 -2.5000011921
41.1489942215 -19.1440325021 -2.5000011921
40.0959233319 -18.6006012274 -2.5000011921
40.0814944153 -18.5951531463 -2.5000011921
41.3401151953 -19.2483884226 -2.5000011921
42.1402190701 -19.9353708439 -2.5000011921
42.0229825370 -19.8105822070 -2.5000011921
40.4104981204 -23.0256227890 -2.5000011921
40.9504210306 -24.6082611446 -2.5000011921
40.9308129989 -22.8991608331 -2.5000011921
40.9228789838 -22.8772369000 -2.5000011921
40.9476095984 -24.6899415210 -2.5000011921
40.9317923001 -22.8321948684 -2.5000011921
40.9421287756 -24.7721711573 -2.5000011921
40.9479422068 -24.7574476390 -2.5000011921
40.9593072357 -24.7278987095 -2.5000011921
40.9599884684 -22.8383288268 -2.5000011921
40.9556228145 -24.8033342498 -2.5000011921
40.9353228581 -22.5959869645 -2.5000011921
40.9527081812 -24.9880625245 -2.5000011921
40.9575716595 -22.4268089337 -2.5000011921
40.9320105234 -22.2849700308 -2.5000011921
40.9346559111 -22.2430288998 -2.5000011921
39.8934949543 -19.0729299996 -2.5000011921
39.9843143323 -19.0761853002 -2.5000011921
40.2812444358 -19.0793026056 -2.5000011921
40.5130727362 -19.0702686896 -2.5000011921
40.8011891360 -19.0714058578 -2.5000011921
41.1944981540 -19.2320782747 -2.5000011921
41.4593898660 -19.3730973441 -2.5000011921
41.4332515105 -19.3554080284 -2.5000011921
41.3674517635 -19.3118639989 -2.5000011921
41.1934283593 -19.2032495686 -2.5000011921
40.5178857109 -18.8620037244 -2.5000011921
40.3861766647 -18.8088705292 -2.5000011921
40.3419650647 -18.7919410080 -2.5000011921
41.7044479259 -19.5199433731 -2.5000011921
41.6664947868 -19.4912869329 -2.5000011921
41.5898330718 -19.4349901065 -2.5000011921
40.3059479678 -18.7527168535 -2.5000011921
40.2910617211 -18.7472676692 -2.5000011921
40.2313574941 -18.7259120038 -2.5000011921
40.1864157803 -18.7103596827 -2.5000011921
41.9544642790 -19.6907607336 -2.5000011921
41.9058074520 -19.6496568661 -2.5000011921
40.0579793526 -18.6430257746 -2.5000011921
39.9886434973 -18.5967182709 -2.5000011921
39.8252180438 -18.5262212960 -2.5000011921
39.7629309052 -18.5103931840 -2.5000011921
39.5949206015 -18.3727266110 -2.5000011921
39.0866764552 -18.2172766975 -2.5000011921
40.3915618881 -22.7822754821 -2.5000011921
40.9343031017 -24.0216787009 -2.5000011921
40.9482239134 -24.8902876891 -2.5000011921
40.9590071788 -23.2254362128 -2.5000011921
40.9466643187 -23.1923821601 -2.5000011921
40.9441371546 -23.1857934595 -2.5000011921
40.9338339265 -23.1595142787 -2.5000011921
40.9370274224 -22.3814799653 -2.5000011921
39.9927089248 -19.0626606609 -2.5000011921
37.4786228360 -19.0538142149 -2.5000011921
37.4638682136 -19.0575027161 -2.5000011921
37.4491245669 -19.0612348481 -2.5000011921
37.4343920251 -19.0650105781 -2.5000011921
40.1608300398 -19.0835540452 -2.5000011921
40.1167575316 -19.0709461531 -2.5000011921
37.4431579753 -19.0378097533 -2.5000011921
37.3987865303 -19.0493214775 -2.5000011921
37.3545189926 -19.0612265201 -2.5000011921
37.3397868401 -19.0652821105 -2.5000011921
37.3250667492 -19.0693812636 -2.5000011921
37.3103588488 -19.0735239434 -2.5000011921
37.2956632675 -19.0777101137 -2.5000011921
40.2117462216 -19.0734023697 -2.5000011921
40.1970375859 -19.0690057119 -2.5000011921
40.1675816180 -19.0603430247 -2.5000011921
37.2300753652 -19.0717309864 -2.5000011921
37.2006874477 -19.0806217963 -2.5000011921
37.1713526455 -19.0896863195 -2.5000011921
37.1567054836 -19.0942836246 -2.5000011921
40.3217686546 -19.0823933648 -2.5000011921
40.2776795084 -19.0683572784 -2.5000011921
37.1053691011 -19.0853477574 -2.5000011921
40.4027427232 -19.0837658493 -2.5000011921
40.3586625684 -19.0690111094 -2.5000011921
40.4105172552 -19.0608771635 -2.5000011921
40.6034479392 -19.0788837582 -2.5000011921
40.5593165551 -19.0623480644 -2.5000011921
40.6562130212 -19.0732891504 -2.5000011921
40.6415021058 -19.0675776799 -2.5000011921
40.7386249486 -19.0801089414 -2.5000011921
40.7239338468 -19.0741536518 -2.5000011921
40.8454162597 -19.0723036244 -2.5000011921
40.8159684556 -19.0598048534 -2.5000011921
40.7063020343 -18.9890632575 -2.5000011921
41.6485230658 -19.4417606946 -2.5000011921
41.6075708573 -19.4159362557 -2.5000011921
41.5249869893 -19.3653827175 -2.5000011921
41.4554905369 -19.3243798318 -2.5000011921
41.2577636349 -19.2150916969 -2.5000011921
41.0556814464 -19.1140837109 -2.5000011921
40.4574250110 -18.8725998876 -2.5000011921
41.8768938653 -19.5658083906 -2.5000011921
41.8103232932 -19.5195787428 -2.5000011921
41.7159913087 -19.4565220912 -2.5000011921
40.2952337867 -18.7956000890 -2.5000011921
40.2641585406 -18.7863612251 -2.5000011921
40.2018467892 -18.7684358542 -2.5000011921
40.1706124649 -18.7597499746 -2.5000011921
42.0743097773 -19.6812708918 -2.5000011921
42.0613911770 -19.6713617745 -2.5000011921
41.9963615992 -19.6223917944 -2.5000011921
41.0469336317 -19.0565352623 -2.5000011921
40.0510319017 -18.7034054102 -2.5000011921
42.3050261657 -19.8371007806 -2.5000011921
42.2171626756 -19.7637328291 -2.5000011921
41.6181873142 -19.3371839127 -2.5000011921
39.8816819476 -18.6392356000 -2.5000011921
39.7418655517 -18.5864177057 -2.5000011921
42.6805014693 -20.0854453178 -2.5000011921
39.5875190659 -18.5107654609 -2.5000011921
39.3466253361 -18.4296005915 -2.5000011921
39.2157292091 -18.3922202848 -2.5000011921
40.9510997233 -23.4947907841 -2.5000011921
40.9465802011 -23.4834004176 -2.5000011921
40.9524845273 -23.4343043691 -2.5000011921
40.9325715280 -23.3888902914 -2.5000011921
40.3481264046 -22.6292770067 -2.5000011921
40.9545934709 -23.3789218757 -2.5000011921
40.9537333620 -23.1636969810 -2.5000011921
40.9505025777 -23.1579921133 -2.5000011921
40.9373923694 -23.0422027317 -2.5000011921
40.9292580661 -22.9421191080 -2.5000011921
40.5742130219 -22.4085008303 -2.5000011921
40.7362546292 -22.4230440690 -2.5000011921
40.4535454405 -19.0885185311 -2.5000011921
40.4382617299 -19.0843111404 -2.5000011921
40.4229656399 -19.0801489800 -2.5000011921
40.3923368575 -19.0719604957 -2.5000011921
40.3309366370 -19.0561278678 -2.5000011921
37.7104480240 -19.0576027184 -2.5000011921
37.6950848611 -19.0615100412 -2.5000011921
37.6797333239 -19.0654627939 -2.5000011921
37.6643935469 -19.0694609419 -2.5000011921
37.6490656642 -19.0735044502 -2.5000011921
40.5365677808 -19.0870340448 -2.5000011921
40.5212793156 -19.0825810654 -2.5000011921
40.5059777445 -19.0781733316 -2.5000011921
37.6890919583 -19.0380916638 -2.5000011921
37.6736711715 -19.0420622471 -2.5000011921
37.6274802296 -19.0542474564 -2.5000011921
37.5967471307 -19.0625984559 -2.5000011921
37.5813992435 -19.0668421047 -2.5000011921
40.6199453690 -19.0868806791 -2.5000011921
40.6046560853 -19.0821810544 -2.5000011921
40.5893529661 -19.0775266788 -2.5000011921
37.5595185968 -19.0478611285 -2.5000011921
37.5133836119 -19.0610591495 -2.5000011921
41.7851873208 -19.5761662294 -2.5000011921
40.6883707812 -19.0831213314 -2.5000011921
40.6730700772 -19.0782193084 -2.5000011921
40.6424255009 -19.0685511561 -2.5000011921
37.3989733415 -19.0703766201 -2.5000011921
40.7111342566 -19.0650811057 -2.5000011921
40.6957800868 -19.0601118231 -2.5000011921
37.4380043430 -19.0330334132 -2.5000011921
37.3302607233 -19.0669839125 -2.5000011921
37.3149269751 -19.0720158570 -2.5000011921
37.2996081794 -19.0770931395 -2.5000011921
40.8567278085 -19.0890619470 -2.5000011921
40.8261441666 -19.0783070240 -2.5000011921
40.8108286182 -19.0729974635 -2.5000011921
40.7647886721 -19.0573409422 -2.5000011921
37.2612413977 -19.0644948722 -2.5000011921
37.1999720362 -19.0857113430 -2.5000011921
40.9107711006 -19.0828254964 -2.5000011921
40.8954685484 -19.0772655744 -2.5000011921
40.8340958778 -19.0554792871 -2.5000011921
37.1459402636 -19.0793758657 -2.5000011921
41.5625100239 -19.3425268792 -2.5000011921
41.4749582598 -19.2982396016 -2.5000011921
41.4602904730 -19.2910097694 -2.5000011921
41.4161596889 -19.2695810534 -2.5000011921
41.3866342676 -19.2555131842 -2.5000011921
41.2826507328 -19.2076563802 -2.5000011921
41.2527612810 -19.1943794786 -2.5000011921
41.2227938017 -19.1812796454 -2.5000011921
41.2077811295 -19.1747962730 -2.5000011921
40.6086925780 -18.9571276376 -2.5000011921
40.5301912778 -18.9342630358 -2.5000011921
40.4513603881 -18.9125619995 -2.5000011921
40.3880699586 -18.8960421366 -2.5000011921
37.1223299519 -19.0622547223 -2.5000011921
37.0763399179 -19.0793319806 -2.5000011921
37.0610438085 -19.0851150147 -2.5000011921
41.8324866763 -19.4637605404 -2.5000011921
41.6027465901 -19.3362271247 -2.5000011921
41.1416552259 -19.1207021160 -2.5000011921
41.0502327656 -19.0839191846 -2.5000011921
40.3781143713 -18.8685866204 -2.5000011921
40.3462346998 -18.8606671940 -2.5000011921
40.2663354210 -18.8416949968 -2.5000011921
40.2503223809 -18.8380424871 -2.5000011921
40.2342986060 -18.8344373628 -2.5000011921
40.2182642366 -18.8308796555 -2.5000011921
40.2022194131 -18.8273693964 -2.5000011921
40.1861642758 -18.8239066161 -2.5000011921
38.8480657924 -18.7036077101 -2.5000011921
37.0986019868 -19.0452281912 -2.5000011921
37.0524617863 -19.0625166923 -2.5000011921
37.0371160387 -19.0683704359 -2.5000011921
36.9911836339 -19.0862036790 -2.5000011921
36.9759082248 -19.0922385907 -2.5000011921
41.3474839257 -19.1839548490 -2.5000011921
41.1356190924 -19.0920868555 -2.5000011921
41.0897357641 -19.0735472492 -2.5000011921
41.0744049822 -19.0674579579 -2.5000011921
41.0436897141 -19.0554155618 -2.5000011921
40.0618695124 -18.7741668243 -2.5000011921
40.0294367565 -18.7681200612 -2.5000011921
36.9823348186 -19.0637084850 -2.5000011921
36.9516689854 -19.0758762159 -2.5000011921
36.9210756774 -19.0882251631 -2.5000011921
41.1754033759 -19.0823548771 -2.5000011921
40.0011882068 -18.7384633577 -2.5000011921
39.9358692761 -18.7272823292 -2.5000011921
39.9195192285 -18.7246078987 -2.5000011921
39.8212593173 -18.7095780453 -2.5000011921
36.8813092950 -19.0784202942 -2.5000011921
36.8660113420 -19.0847802682 -2.5000011921
39.8082294050 -18.6833060449 -2.5000011921
39.7917498261 -18.6810093887 -2.5000011921
39.7422713356 -18.6744120559 -2.5000011921
36.8107210068 -19.0819076974 -2.5000011921
36.7954336791 -19.0884764691 -2.5000011921
39.6624169393 -18.6403751177 -2.5000011921
36.7552105087 -19.0796111841 -2.5000011921
39.5817123244 -18.6074851760 -2.5000011921
36.6689087788 -19.0917353158 -2.5000011921
36.6588752619 -19.0697429576 -2.5000011921
36.6129699320 -19.0909328214 -2.5000011921
42.7568214905 -19.9174088051 -2.5000011921
36.5721139367 -19.0834438095 -2.5000011921
36.5568321970 -19.0907184173 -2.5000011921
39.3359728851 -18.4917356712 -2.5000011921
36.3720355932 -19.1014593533 -2.5000011921
36.3456816791 -19.0878655599 -2.5000011921
36.2886331582 -19.0904735221 -2.5000011921
36.2733734541 -19.0985866866 -2.5000011921
36.2314209101 -19.0936889227 -2.5000011921
36.1893145476 -19.0891078921 -2.5000011921
36.1740512383 -19.0975148650 -2.5000011921
36.1588128651 -19.1059669527 -2.5000011921
40.9414272487 -23.5273901351 -2.5000011921
40.8252178894 -19.0965913029 -2.5000011921
38.3256417162 -18.9971294947 -2.5000011921
37.9133792702 -19.0927649106 -2.5000011921
40.9259941532 -19.1002049392 -2.5000011921
40.8945970334 -19.0910465378 -2.5000011921
37.8440149383 -19.0870378253 -2.5000011921
41.1985439313 -19.1626979263 -2.5000011921
41.1519719275 -19.1466088358 -2.5000011921
41.1052589759 -19.1309336793 -2.5000011921
40.7428394540 -19.0246355889 -2.5000011921
37.6728151555 -19.0881975362 -2.5000011921
40.2358871713 -18.8704709881 -2.5000011921
41.8062281664 -19.3364293055 -2.5000011921
42.2866421812 -19.5694278509 -2.5000011921
39.8786909184 -18.7772268394 -2.5000011921
41.3174961520 -19.0769693020 -2.5000011921
37.4211542774 -19.0718491925 -2.5000011921
37.3339187845 -19.0785538891 -2.5000011921
37.2937164910 -19.0681100753 -2.5000011921
37.2464588397 -19.0866778625 -2.5000011921
37.2307431369 -19.0929602323 -2.5000011921
39.6671675263 -18.6649772219 -2.5000011921
37.2217371258 -19.0705275097 -2.5000011921
37.1745037624 -19.0897339782 -2.5000011921
37.0770975827 -19.0782471455 -2.5000011921
37.0299384224 -19.0987369049 -2.5000011921
36.9730358890 -19.0976037547 -2.5000011921
36.9473614813 -19.0826837599 -2.5000011921
36.9316352719 -19.0898509312 -2.5000011921
36.8168378242 -19.0902289471 -2.5000011921
36.4408618503 -19.0933644165 -2.5000011921
36.2360098678 -19.0987994587 -2.5000011921
35.4604630403 -19.1197598103 -2.5000011921
40.9349101657 -24.0239466525 -2.5000011921
40.9368891701 -23.9645982433 -2.5000011921
40.9359944952 -23.9043077241 -2.5000011921
41.3459893281 -24.0372618935 -2.5000011921
41.3692836343 -24.0308035207 -2.5000011921
40.2435120637 -22.7334751636 -2.5000011921
41.9602579355 -19.3795640726 -2.5000011921
41.8540182201 -19.3343295608 -2.5000011921
41.1033388072 -19.0845795836 -2.5000011921
38.5210071277 -19.0420031534 -2.5000011921
38.4406004071 -19.0603729341 -2.5000011921
38.3604741779 -19.0799299518 -2.5000011921
40.9966734705 -19.0336121705 -2.5000011921
38.2904046383 -19.0730584164 -2.5000011921
38.2743945744 -19.0773192249 -2.5000011921
39.7991588740 -18.8389704152 -2.5000011921
38.1171495437 -19.0714402560 -2.5000011921
38.0531788759 -19.0908175390 -2.5000011921
39.6987970828 -18.8143310548 -2.5000011921
38.0139996064 -19.0777392761 -2.5000011921
37.8945996407 -19.0913852557 -2.5000011921
37.8548154715 -19.0794471847 -2.5000011921
37.8068972924 -19.0962369565 -2.5000011921
37.7827960391 -19.0791745234 -2.5000011921
37.7668062887 -19.0849369032 -2.5000011921
37.6945223349 -19.0858284292 -2.5000011921
37.6785526543 -19.0918519095 -2.5000011921
37.5811797313 -19.0777247520 -2.5000011921
37.4509064276 -19.0786537378 -2.5000011921
37.3774434105 -19.0837393400 -2.5000011921
37.2618765400 -19.0822149450 -2.5000011921
37.1135950661 -19.0984466545 -2.5000011921
37.0976652543 -19.1061885675 -2.5000011921
36.5854968215 -19.1060246112 -2.5000011921
36.5414161321 -19.1038689456 -2.5000011921
36.2451676066 -19.0879030087 -2.5000011921
36.0776746660 -19.1116840943 -2.5000011921
35.9410832871 -19.1179342852 -2.5000011921
35.4184842901 -19.1178709460 -2.5000011921
35.2620573767 -19.1207505956 -2.5000011921
34.4774448966 -18.6488697220 -2.5000011921
34.4087289793 -18.7113432637 -2.5000011921
34.3070531312 -18.8065671340 -2.5000011921
34.2902721668 -18.8226125827 -2.5000011921
34.2735387412 -18.8387076023 -2.5000011921
34.1414002152 -18.9692353205 -2.5000011921
33.7339083009 -19.4144023272 -2.5000011921
33.6595331388 -19.5035344156 -2.5000011921
33.6155437004 -19.5575382647 -2.5000011921
33.5576399097 -19.6301466095 -2.5000011921
34.6013451788 -18.5080244815 -2.5000011921
34.5836797836 -18.5232006674 -2.5000011921
34.4612898176 -18.6308878227 -2.5000011921
33.6073777558 -19.4909037053 -2.5000011921
41.3339601260 -23.9242149037 -2.5000011921
40.4303937447 -23.1764679470 -2.5000011921
41.3487843816 -23.8990734856 -2.5000011921
41.1937999388 -19.0378853841 -2.5000011921
38.8365569793 -19.0713872012 -2.5000011921
38.8044353426 -19.0789136516 -2.5000011921
39.0581111328 -19.0002837938 -2.5000011921
38.7988510985 -19.0553944786 -2.5000011921
38.7827375696 -19.0592455591 -2.5000011921
38.7666355034 -19.0631442896 -2.5000011921
38.7183994896 -19.0751260370 -2.5000011921
42.5403081984 -19.4402344803 -2.5000011921
38.6963438952 -19.0557986633 -2.5000011921
38.6319710781 -19.0727016325 -2.5000011921
38.5998607986 -19.0814384588 -2.5000011921
38.5451716866 -19.0716512020 -2.5000011921
38.4259116521 -19.0817511415 -2.5000011921
38.3938585190 -19.0917069262 -2.5000011921
38.3384477172 -19.0839970865 -2.5000011921
43.8115315701 -20.1565529172 -2.5000011921
38.2506872230 -19.0876490109 -2.5000011921
38.3883668435 -19.0174500071 -2.5000011921
38.1786699295 -19.0870306037 -2.5000011921
38.2674733662 -19.0309828650 -2.5000011921
38.1063812342 -19.0873612590 -2.5000011921
38.0903652987 -19.0932606507 -2.5000011921
38.0338335510 -19.0886472991 -2.5000011921
37.9200592007 -19.0811614281 -2.5000011921
37.8880114319 -19.0941100162 -2.5000011921
37.8053762246 -19.0760221803 -2.5000011921
37.6996123620 -19.0953655959 -2.5000011921
37.6577418370 -19.0875701734 -2.5000011921
37.5574196073 -19.0803776486 -2.5000011921
37.4989545435 -19.0812825228 -2.5000011921
37.2040136578 -19.0950554729 -2.5000011921
37.1445469177 -19.0996820425 -2.5000011921
37.1285716377 -19.1084266602 -2.5000011921
37.0411551744 -19.1017809813 -2.5000011921
36.9371857755 -19.1057651569 -2.5000011921
36.6540087321 -19.1087624291 -2.5000011921
36.6090346202 -19.1088928849 -2.5000011921
36.4734121347 -19.1113538975 -2.5000011921
36.3367923241 -19.1169482721 -2.5000011921
34.0430589167 -21.3791433607 -2.5000011921
34.0246746347 -21.4149893659 -2.5000011921
34.0473246453 -21.2671869240 -2.5000011921
34.0377747884 -21.2850842017 -2.5000011921
34.0338755266 -21.1904655959 -2.5000011921
34.0197839275 -20.9695502601 -2.5000011921
34.0499862066 -20.4650142907 -2.5000011921
34.0412691576 -20.2218019476 -2.5000011921
34.0342741984 -20.1898971055 -2.5000011921
34.0274152175 -20.1579135248 -2.5000011921
34.2654927527 -18.8573262652 -2.5000011921
33.7728437912 -19.4146762775 -2.5000011921
34.5051275962 -18.5868271486 -2.5000011921
34.4528323473 -18.6366461448 -2.5000011921
34.4354991008 -18.6533553670 -2.5000011921
34.4182153590 -18.6701157910 -2.5000011921
34.3837969943 -18.7037896572 -2.5000011921
34.2986279494 -18.7888600323 -2.5000011921
34.2147264443 -18.8751807852 -2.5000011921
33.7389437149 -19.4182870997 -2.5000011921
33.6349934309 -19.5509358157 -2.5000011921
33.5624359121 -19.6469886210 -2.5000011921
33.5195861234 -19.7051317294 -2.5000011921
34.8123569878 -18.2794005933 -2.5000011921
34.7573214024 -18.3265052069 -2.5000011921
34.7208641871 -18.3581788217 -2.5000011921
34.6305465547 -18.4383016469 -2.5000011921
34.5769282864 -18.4870134689 -2.5000011921
34.4885319124 -18.5692510694 -2.5000011921
33.4435687392 -19.7692204904 -2.5000011921
33.4018083706 -19.8284136649 -2.5000011921
33.3742606739 -19.8680806640 -2.5000011921
33.3469481426 -19.9079099504 -2.5000011921
34.8896425784 -18.1833205120 -2.5000011921
34.8709664014 -18.1987395541 -2.5000011921
33.2728964199 -19.9746752779 -2.5000011921
33.2462163122 -20.0151024036 -2.5000011921
33.2329660681 -20.0353749830 -2.5000011921
33.2197758519 -20.0556866703 -2.5000011921
33.2066457791 -20.0760372878 -2.5000011921
33.1805665225 -20.1168546005 -2.5000011921
35.0257608665 -18.0429487653 -2.5000011921
34.9686185001 -18.0881688504 -2.5000011921
34.8930572009 -18.1492477382 -2.5000011921
34.6707831311 -18.3377883758 -2.5000011921
33.1085743066 -20.1862361952 -2.5000011921
33.0831487402 -20.2276318030 -2.5000011921
33.0372591069 -20.2567089487 -2.5000011921
33.0122517292 -20.2985252478 -2.5000011921
35.2495825409 -17.8137576304 -2.5000011921
35.0926158044 -17.9302335170 -2.5000011921
32.9177214146 -20.4128769659 -2.5000011921
32.8345409864 -20.5623165316 -2.5000011921
35.3955548022 -17.6811173762 -2.5000011921
35.3552680857 -17.7090262832 -2.5000011921
35.4631498964 -17.6059449258 -2.5000011921
35.8210244138 -17.2943815527 -2.5000011921
36.0345827286 -17.1168506963 -2.5000011921
36.6882733568 -16.5565211793 -2.5000011921
48.4955321752 -20.9345426915 -2.5000011921
48.5071555021 -20.9001832356 -2.5000011921
48.4860257321 -20.7910909718 -2.5000011921
48.4261011178 -20.4885013932 -2.5000011921
48.4478774770 -20.4780073252 -2.5000011921
48.4359300756 -20.4533086161 -2.5000011921
48.4429515550 -20.3579240530 -2.5000011921
48.4306489472 -20.3332404410 -2.5000011921
40.4121605422 -22.6123301386 -2.2926230431
40.4168807611 -22.5886224433 -2.2926230431
38.6978120452 -19.0631815457 -2.2926230431
38.6817304918 -19.0671640420 -2.2926230431
41.3779708918 -19.0392021483 -2.2926230431
41.1832657866 -18.9950169640 -2.2926230431
38.7405588820 -19.0279965948 -2.2926230431
38.6436189406 -19.0518510451 -2.2926230431
38.5953115573 -19.0644225424 -2.2926230431
39.7927432692 -18.8578457242 -2.2926230431
38.6479162982 -19.0008794390 -2.2926230431
38.4696936599 -19.0489527558 -2.2926230431
38.4374622147 -19.0583151771 -2.2926230431
38.4052867248 -19.0678681265 -2.2926230431
38.3178098262 -19.0695343803 -2.2926230431
38.3017487284 -19.0746409641 -2.2926230431
38.4400851242 -19.0071830695 -2.2926230431
38.2943902172 -19.0516151612 -2.2926230431
38.2300270572 -19.0726046173 -2.2926230431
38.1901737207 -19.0604929969 -2.2926230431
38.1580154435 -19.0715089500 -2.2926230431
38.0292412141 -19.0662055124 -2.2926230431
38.0131715315 -19.0721657489 -2.2926230431
45.2640407176 -21.9484538903 -2.2926230431
37.9564288688 -19.0677552420 -2.2926230431
37.9403640892 -19.0739308638 -2.2926230431
