27.5717127328 -17.6925713548 -2.5027563153
22.1231841695 -18.4484586466 -2.5027563182
24.7083715990 -18.8156682118 -2.5027563182
22.1300697425 -18.4770900118 -2.5027563211
27.5735681849 -17.7513965106 -2.5027563211
21.9956932949 -18.4491274515 -2.5027563240
22.0113308374 -18.4556019206 -2.5027563240
22.0269874641 -18.4620301027 -2.5027563240
24.4257038406 -18.8827799490 -2.5027563240
21.9394186100 -18.4516643395 -2.5027563269
21.8985779720 -18.4604247678 -2.5027563297
21.6392703020 -18.4479804493 -2.5027563413
21.5974180183 -18.4544856744 -2.5027563441
21.5397492042 -18.4528565786 -2.5027563470
21.4819058027 -18.4506187171 -2.5027563499
21.3969970506 -18.4609337499 -2.5027563557
21.3386445918 -18.4571956974 -2.5027563586
21.3271700860 -18.4784717638 -2.5027563614
21.2527876269 -18.4653386304 -2.5027563643
21.1506588150 -18.4632104800 -2.5027563701
21.0915479769 -18.4568655813 -2.5027563730
21.0479551799 -18.4592113932 -2.5027563758
21.0636266992 -18.4684893989 -2.5027563758
20.8280015175 -18.4659399252 -2.5027563903
20.7836298281 -18.4662751027 -2.5027563931
20.5600021242 -18.4628192761 -2.5027564075
20.2737188300 -18.4666406784 -2.5027564277
19.9211631940 -18.4692993592 -2.5027564537
19.7345284513 -18.4722702131 -2.5027564681
19.1076242367 -17.9104589429 -2.5027564709
18.8369868578 -18.2225825228 -2.5027565199
18.9123588658 -18.3012347071 -2.5027565199
19.3062061361 -18.6773094109 -2.5027565199
19.3553067744 -18.7204526051 -2.5027565199
19.3717584986 -18.7347366278 -2.5027565199
19.3882524056 -18.7489719209 -2.5027565199
19.4213661899 -18.7772958202 -2.5027565199
19.4379857776 -18.7913841786 -2.5027565199
18.9102935300 -18.3337357869 -2.5027565228
25.9434382587 -14.3568480041 -2.5006575584
25.9436320598 -15.1770981263 -2.5006575584
22.6113496431 -18.4545413780 -2.5006575584
25.3495212152 -18.3918456240 -2.5006575584
22.4995553737 -18.4508595724 -2.5006575584
22.5146690699 -18.4548738909 -2.5006575584
22.3873790855 -18.4447295547 -2.5006575584
22.4327054854 -18.4576340386 -2.5006575584
25.4982545081 -18.3965149704 -2.5006575584
22.3655051349 -18.4635383037 -2.5006575584
25.5805858414 -18.3946805267 -2.5006575584
25.6104387454 -18.3844370094 -2.5006575584
22.2374361558 -18.4496746583 -2.5006575584
22.2525474937 -18.4544643780 -2.5006575584
25.6482786682 -18.3968109683 -2.5006575584
25.6781429919 -18.3861669202 -2.5006575584
22.1393261592 -18.4428980493 -2.5006575584
22.1544178799 -18.4479780258 -2.5006575584
25.7610421095 -18.3814078244 -2.5006575584
25.8293025780 -18.3811300453 -2.5006575584
22.0176781210 -18.4515578055 -2.5006575584
22.0630796761 -18.4677429092 -2.5006575584
25.8679895108 -18.3918829108 -2.5006575584
25.8829140050 -18.3859330500 -2.5006575584
27.0087935467 -17.7720885799 -2.5006575584
27.0609714478 -17.7345694729 -2.5006575584
25.9367647437 -18.3901794738 -2.5006575584
25.9665847843 -18.3778287613 -2.5006575584
27.0096175421 -17.8011221225 -2.5006575584
21.8798206589 -18.4514992120 -2.5006575584
21.9403967214 -18.4746209321 -2.5006575584
25.8254216458 -18.4603832714 -2.5006575584
26.1540249140 -18.3220007836 -2.5006575584
26.1687414327 -18.3152050840 -2.5006575584
26.2127694708 -18.2945571989 -2.5006575584
26.3147762575 -18.2448653476 -2.5006575584
26.3437299551 -18.2302807352 -2.5006575584
21.8105027860 -18.4500895936 -2.5006575584
25.3864918245 -18.6328444902 -2.5006575584
25.4333695380 -18.6191261233 -2.5006575584
26.3981268740 -18.2295418601 -2.5006575584
26.4701123054 -18.1915286701 -2.5006575584
26.5415276330 -18.1524549458 -2.5006575584
25.2036766796 -18.7069946918 -2.5006575584
25.2195362381 -18.7030086097 -2.5006575584
25.2512196335 -18.6948957868 -2.5006575584
26.2777210260 -18.3170139174 -2.5006575584
26.8341648662 -18.0061168604 -2.5006575584
21.6862481703 -18.4509441478 -2.5006575584
21.7013656752 -18.4573643758 -2.5006575584
21.7165021062 -18.4637398553 -2.5006575584
25.1457023195 -18.7459895987 -2.5006575584
26.1244831216 -18.4149847132 -2.5006575584
27.1188200181 -17.8419278022 -2.5006575584
21.6464570011 -18.4601488636 -2.5006575584
26.1944316628 -18.4098453006 -2.5006575584
21.5610857490 -18.4488235231 -2.5006575584
21.5913293291 -18.4623597705 -2.5006575584
21.6064810189 -18.4690607356 -2.5006575584
24.7670511960 -18.8710044923 -2.5006575584
21.3687468028 -18.4653952634 -2.5006575584
26.3733600909 -18.5929183112 -2.5006575584
20.9451188727 -18.4602385288 -2.5006575584
20.9602671149 -18.4688511106 -2.5006575584
20.6739017991 -18.4673502377 -2.5006575584
20.6004814581 -18.4496109329 -2.5006575584
20.5723125408 -18.4602631852 -2.5006575584
20.5005179499 -18.4712730342 -2.5006575584
25.5033904931 -14.5871825312 -2.4989764690
25.9479185828 -14.4114272965 -2.4989764690
25.9502115479 -14.4757003346 -2.4989764690
25.9536031261 -14.5335343893 -2.4989764690
25.9403908255 -14.6268668752 -2.4989764690
25.9424315190 -14.7907256290 -2.4989764690
22.3745400949 -18.4534709619 -2.4989764690
22.4322806403 -18.4674313201 -2.4989764690
24.9299485415 -18.4171284253 -2.4989764690
24.9870801710 -18.4008545478 -2.4989764690
22.2676019209 -18.4507364178 -2.4989764690
22.2964372380 -18.4584347307 -2.4989764690
22.3253175962 -18.4659623095 -2.4989764690
24.5882970817 -18.5241668585 -2.4989764690
25.0367657011 -18.4113538931 -2.4989764690
25.0510490494 -18.4070328597 -2.4989764690
25.0938215258 -18.3938165096 -2.4989764690
22.1746588412 -18.4498407158 -2.4989764690
22.1890685635 -18.4539861437 -2.4989764690
25.1724220456 -18.3939015679 -2.4989764690
22.0957374653 -18.4515942120 -2.4989764690
22.1101527201 -18.4559730959 -2.4989764690
22.1245808653 -18.4603093178 -2.4989764690
25.2371120438 -18.3976231102 -2.4989764690
25.2735664546 -18.4105697422 -2.4989764690
25.3021115227 -18.4004844625 -2.4989764690
25.3163615563 -18.3953785357 -2.4989764690
21.9368398136 -18.4512677446 -2.4989764690
21.9512547978 -18.4561166780 -2.4989764690
21.9801274829 -18.4656865126 -2.4989764690
22.0090562810 -18.4750853592 -2.4989764690
21.9001769561 -18.4642959457 -2.4989764690
21.9580787960 -18.4838684311 -2.4989764690
25.4614944983 -18.3925712054 -2.4989764690
21.7910728575 -18.4510864265 -2.4989764690
21.8054879432 -18.4563665657 -2.4989764690
25.4845770285 -18.4094859586 -2.4989764690
21.7393734485 -18.4576014089 -2.4989764690
21.7972073327 -18.4790770648 -2.4989764690
25.5934720967 -18.3913851889 -2.4989764690
21.6874179358 -18.4635805758 -2.4989764690
25.6456023385 -18.3955760868 -2.4989764690
21.5919081046 -18.4515400681 -2.4989764690
21.6063254037 -18.4574093706 -2.4989764690
25.7122090952 -18.3929419251 -2.4989764690
21.5394154191 -18.4559699106 -2.4989764690
25.7932560706 -18.3828858320 -2.4989764690
21.4866880159 -18.4598499186 -2.4989764690
25.8991251300 -18.3864575694 -2.4989764690
21.3950125039 -18.4724397159 -2.4989764690
21.3271541485 -18.4681531154 -2.4989764690
25.7173384278 -18.5226065467 -2.4989764690
26.1329165976 -18.3215758058 -2.4989764690
26.1888333891 -18.2910745406 -2.4989764690
26.2443853609 -18.2599137773 -2.4989764690
26.2720221068 -18.2440874436 -2.4989764690
26.2858052460 -18.2361130302 -2.4989764690
26.2995647351 -18.2280978787 -2.4989764690
25.4446786233 -18.6573852177 -2.4989764690
25.5195599474 -18.6292979944 -2.4989764690
26.2145194151 -18.3044636491 -2.4989764690
26.6755207873 -18.0163841978 -2.4989764690
26.7147625064 -17.9887669555 -2.4989764690
25.1943052925 -18.7676247542 -2.4989764690
26.6761516939 -18.0453829858 -2.4989764690
26.7549030757 -17.9897855754 -2.4989764690
26.8068504282 -17.9519479046 -2.4989764690
25.0311177651 -18.8406010827 -2.4989764690
25.1551768845 -18.8048658856 -2.4989764690
24.9121101387 -18.8968420240 -2.4989764690
27.4438671449 -17.5034435306 -2.4989764690
24.6365061909 -19.0074951392 -2.4989764690
28.3275630285 -16.4179858462 -2.4989764690
24.3397889487 -19.1299502566 -2.4989764690
28.5436853472 -16.1806516494 -2.4989764690
25.9396235380 -14.7687188857 -2.5006785393
25.9449229644 -14.7533480844 -2.5006785393
25.9430214522 -14.8306817659 -2.5006785393
25.9298482883 -12.8651985926 -2.5006785393
25.9449564942 -14.8931691093 -2.5006785393
25.9417865203 -15.0834327687 -2.5006785393
25.9412973806 -15.2465168410 -2.5006785393
22.2184614928 -18.4596693962 -2.5006785393
22.0901801645 -18.4513885757 -2.5006785393
22.1173348733 -18.4587279212 -2.5006785393
22.1445325288 -18.4659064820 -2.5006785393
24.4830851060 -18.4813637947 -2.5006785393
24.7405977022 -18.4101004580 -2.5006785393
24.7808751512 -18.3975298549 -2.5006785393
24.7612035622 -18.4290359017 -2.5006785393
24.7881792777 -18.4205729671 -2.5006785393
24.8419781411 -18.4031690517 -2.5006785393
21.9545516851 -18.4626567200 -2.5006785393
22.0363650518 -18.4865975346 -2.5006785393
24.8765113552 -18.4171385279 -2.5006785393
25.0406970769 -18.4101720843 -2.5006785393
25.2152194259 -18.4196534535 -2.5006785393
25.2689775138 -18.3971966651 -2.5006785393
25.3687927740 -18.4064794469 -2.5006785393
26.1718573033 -18.2744496059 -2.5006785393
26.1978937456 -18.2576434755 -2.5006785393
26.2882287389 -18.1976151767 -2.5006785393
25.5859622656 -18.6260240738 -2.5006785393
26.4039765391 -18.1464048657 -2.5006785393
26.4544182026 -18.1099012799 -2.5006785393
26.5663091395 -18.0256032463 -2.5006785393
25.2367329571 -18.8012145981 -2.5006785393
25.2659022842 -18.7899317581 -2.5006785393
25.3818967819 -18.7430806572 -2.5006785393
26.5563271902 -18.0637919252 -2.5006785393
25.1127159799 -18.8726370314 -2.5006785393
25.0012394625 -18.9360595407 -2.5006785393
25.5035932641 -14.6599982944 -2.4996461868
25.5076821723 -14.6392267746 -2.4996461868
25.4178942719 -15.1099725469 -2.4996461868
25.9395903968 -15.0904046478 -2.4996461868
26.0179075925 -14.7988270470 -2.4996461868
25.9731597610 -13.3980732748 -2.4996461868
25.9433246869 -13.2989106726 -2.4996461868
25.9298579435 -13.2579167502 -2.4996461868
25.9315254529 -15.1884082315 -2.4996461868
25.9571532739 -15.1144098640 -2.4996461868
25.9731401308 -15.0647099165 -2.4996461868
25.9689876625 -13.2998269551 -2.4996461868
25.9471648507 -13.2337263385 -2.4996461868
25.9356683795 -13.2008743186 -2.4996461868
25.9297745728 -13.1844998963 -2.4996461868
25.9327957634 -15.2541585654 -2.4996461868
25.9482490439 -15.2131064975 -2.4996461868
25.9572289672 -15.1883671265 -2.4996461868
25.9717064943 -15.1469608786 -2.4996461868
25.9464549790 -13.1597724441 -2.4996461868
25.9338876793 -13.0607059204 -2.4996461868
25.9342106373 -15.3788691999 -2.4996461868
25.9346903973 -15.4377655060 -2.4996461868
25.9416361224 -15.4806461753 -2.4996461868
25.9545226121 -12.9251622096 -2.4996461868
25.9355267596 -12.8840435476 -2.4996461868
25.9277584782 -12.8676755082 -2.4996461868
25.9319607000 -15.5566993869 -2.4996461868
25.9412868019 -15.5921044891 -2.4996461868
25.9429836909 -12.7889986053 -2.4996461868
25.9373215085 -15.6524416823 -2.4996461868
25.9499237065 -15.6802294918 -2.4996461868
25.9294145776 -12.6598313383 -2.4996461868
25.9486998912 -15.7329810933 -2.4996461868
25.9445119009 -15.9302798965 -2.4996461868
25.9496511439 -15.9220502235 -2.4996461868
25.9536743237 -16.0057270562 -2.4996461868
25.9697075138 -16.1122196897 -2.4996461868
24.5446164522 -18.4093318906 -2.4996461868
24.5695619754 -18.4010962419 -2.4996461868
24.5820163560 -18.3969231086 -2.4996461868
24.4386727165 -18.4677286188 -2.4996461868
24.6396932924 -18.4026789952 -2.4996461868
24.7101769361 -18.4031037165 -2.4996461868
24.7226366399 -18.3985146099 -2.4996461868
24.7809939198 -18.4023603565 -2.4996461868
24.8645762375 -18.3954301719 -2.4996461868
24.8736313056 -18.4178431374 -2.4996461868
24.9828071174 -18.3984215354 -2.4996461868
25.0049002815 -18.4151899319 -2.4996461868
25.0771831968 -18.4095348739 -2.4996461868
25.1021206001 -18.3981483780 -2.4996461868
25.1850236512 -18.4126535674 -2.4996461868
25.1975095276 -18.4066597366 -2.4996461868
25.2580245314 -18.4039667911 -2.4996461868
25.2938041766 -18.4130974334 -2.4996461868
25.3797009817 -18.3960416316 -2.4996461868
25.4648342414 -18.4052696018 -2.4996461868
25.4772970504 -18.3984480729 -2.4996461868
25.5263888396 -18.3988458688 -2.4996461868
25.5507198936 -18.4128903715 -2.4996461868
25.8625477981 -18.3942871659 -2.4996461868
25.9511537880 -18.3942342262 -2.4996461868
25.5657890139 -18.6529888437 -2.4996461868
25.6053110241 -18.6315081332 -2.4996461868
25.6184424729 -18.6242700587 -2.4996461868
25.6446408487 -18.6096775328 -2.4996461868
25.6967763081 -18.5800287684 -2.4996461868
25.7743126024 -18.5344041636 -2.4996461868
26.1370520318 -18.2948590530 -2.4996461868
26.1612924250 -18.2772040241 -2.4996461868
26.1854279408 -18.2594058899 -2.4996461868
26.2094577345 -18.2414652733 -2.4996461868
26.2214327226 -18.2324417302 -2.4996461868
26.2690641737 -18.1959945051 -2.4996461868
26.2809043902 -18.1867948343 -2.4996461868
26.2927173406 -18.1775601783 -2.4996461868
26.3162610299 -18.1589862341 -2.4996461868
26.3396944174 -18.1402733225 -2.4996461868
26.4093245864 -18.0833073585 -2.4996461868
25.3487163501 -18.7898620730 -2.4996461868
25.3894615814 -18.7703023707 -2.4996461868
25.4165279410 -18.7570620169 -2.4996461868
25.5106333936 -18.7094646426 -2.4996461868
25.5239958660 -18.7025063006 -2.4996461868
26.1267650568 -18.3320356445 -2.4996461868
26.3782678730 -18.1401767377 -2.4996461868
26.4478902521 -18.0825261802 -2.4996461868
26.5051198400 -18.0335462883 -2.4996461868
26.5616187364 -17.9837253062 -2.4996461868
26.6284355076 -17.9228452476 -2.4996461868
25.1797250725 -18.8926349670 -2.4996461868
25.1936308438 -18.8866547102 -2.4996461868
25.2075188635 -18.8806333438 -2.4996461868
25.2766884414 -18.8499117242 -2.4996461868
25.3042277704 -18.8373371809 -2.4996461868
25.3863926514 -18.7986390689 -2.4996461868
25.4000194616 -18.7920478633 -2.4996461868
26.2505846533 -18.2710099304 -2.4996461868
26.5095312129 -18.0617052404 -2.4996461868
26.6999825331 -17.8886905043 -2.4996461868
26.7109118033 -17.8782174437 -2.4996461868
26.8184822635 -17.7717264272 -2.4996461868
25.1612463362 -18.9267485287 -2.4996461868
25.1752531025 -18.9208227861 -2.4996461868
26.8569742608 -17.7668720551 -2.4996461868
26.9816344077 -17.6335898738 -2.4996461868
24.9575058499 -19.0333022244 -2.4996461868
27.0804019746 -17.5580804442 -2.4996461868
27.1971231759 -17.4560192755 -2.4996461868
27.2827052421 -17.4652618883 -2.4996461868
24.4337126351 -19.3953171105 -2.4996461868
25.4104563043 -15.0086407357 -2.5001611710
25.4131883967 -14.9946484972 -2.5001611710
25.4208873226 -14.9525782287 -2.5001611710
25.4310327366 -14.8892332002 -2.5001611710
25.5605379343 -15.4563418462 -2.5001611710
25.9331043128 -15.5632503320 -2.5001611710
25.9536756454 -15.5032681681 -2.5001611710
25.9565128601 -15.4946649641 -2.5001611710
25.9686165075 -13.6227625988 -2.5001611710
25.9518794705 -13.5710505803 -2.5001611710
25.9372326282 -13.5281896799 -2.5001611710
25.9371226826 -15.6227966932 -2.5001611710
25.9434791105 -15.6056777707 -2.5001611710
25.9466193160 -15.5971042818 -2.5001611710
25.9497341458 -15.5885215411 -2.5001611710
25.9528235727 -15.5799296237 -2.5001611710
25.9477794761 -13.4858046827 -2.5001611710
25.9365357902 -15.6913587353 -2.5001611710
25.9693299855 -15.6053844251 -2.5001611710
25.9377995421 -13.3915392044 -2.5001611710
25.9485786307 -15.7261051263 -2.5001611710
25.9520750598 -15.7175160251 -2.5001611710
25.9589916173 -15.7003069816 -2.5001611710
25.9636757825 -13.3912391877 -2.5001611710
25.9533675492 -13.3653990080 -2.5001611710
25.9463681699 -13.3482234836 -2.5001611710
25.9392672970 -13.3310896705 -2.5001611710
25.9492775556 -15.7869619763 -2.5001611710
25.9469539495 -13.2873654394 -2.5001611710
25.9394930097 -13.2702292257 -2.5001611710
25.9525810549 -15.8396242595 -2.5001611710
25.9564132766 -15.8310228218 -2.5001611710
25.9640013025 -15.8137861253 -2.5001611710
25.9629095857 -15.8754257700 -2.5001611710
25.9668476696 -15.8667936220 -2.5001611710
25.9707602007 -15.8581498621 -2.5001611710
25.9484062692 -13.1730727294 -2.5001611710
25.9443503675 -13.1644953087 -2.5001611710
25.9361625323 -13.1473766492 -2.5001611710
25.9620761033 -13.1454996637 -2.5001611710
25.9453732902 -13.1111026769 -2.5001611710
25.9525539483 -16.0083593374 -2.5001611710
25.9519272047 -16.0623967289 -2.5001611710
25.9564184305 -16.0537962507 -2.5001611710
25.9608841949 -16.0451825242 -2.5001611710
25.9653244588 -16.0365556248 -2.5001611710
25.9828297355 -16.0019178105 -2.5001611710
25.9535987183 -13.0205183499 -2.5001611710
25.9400009423 -12.9947821970 -2.5001611710
25.9596114862 -16.0995286620 -2.5001611710
25.9573640160 -16.1541639712 -2.5001611710
25.9543577002 -12.9201490448 -2.5001611710
25.9650984276 -16.2384027033 -2.5001611710
25.9568820927 -12.8272801114 -2.5001611710
25.9652848865 -16.3322846516 -2.5001611710
25.9588639874 -16.3882078445 -2.5001611710
25.9514228362 -16.4443303924 -2.5001611710
25.9570438931 -16.4357297351 -2.5001611710
25.9813167633 -12.6817833808 -2.5001611710
25.9730795822 -16.5847946693 -2.5001611710
25.9501072959 -16.6993047109 -2.5001611710
25.9443628603 -12.2536904847 -2.5001611710
23.2973026817 -18.4160001173 -2.5001611710
24.1162947981 -18.4245985785 -2.5001611710
24.1392594943 -18.4182032491 -2.5001611710
24.1965021849 -18.4016214990 -2.5001611710
24.2079209414 -18.3982036503 -2.5001611710
24.2148867814 -18.4213512713 -2.5001611710
24.2378305399 -18.4143726954 -2.5001611710
24.2607326094 -18.4072584986 -2.5001611710
24.2721677601 -18.4036506201 -2.5001611710
24.2679718551 -18.4303220760 -2.5001611710
24.3368281156 -18.4080361584 -2.5001611710
24.2636288115 -18.4570023172 -2.5001611710
24.4361885193 -18.3991714045 -2.5001611710
24.4902128916 -18.4051072405 -2.5001611710
24.5130557264 -18.3965000272 -2.5001611710
24.3481184280 -18.4806972450 -2.5001611710
24.3830398983 -18.4689938148 -2.5001611710
24.5674436947 -18.4013728677 -2.5001611710
24.5992530643 -18.4147479482 -2.5001611710
24.6542487122 -18.4184388447 -2.5001611710
24.6657152146 -18.4136668254 -2.5001611710
24.6886056191 -18.4040211316 -2.5001611710
24.7324829660 -18.4114625210 -2.5001611710
24.7667748812 -18.3963507974 -2.5001611710
24.8109729206 -18.4029240242 -2.5001611710
24.8439687242 -18.4143480074 -2.5001611710
24.9115720338 -18.4091198005 -2.5001611710
24.9230098429 -18.4035866131 -2.5001611710
24.9220667571 -18.4308958439 -2.5001611710
25.0815031049 -18.4046704718 -2.5001611710
25.1271713403 -18.4077507396 -2.5001611710
25.1844938155 -18.4040164500 -2.5001611710
25.2768888538 -18.4073502693 -2.5001611710
25.3815023273 -18.4017190047 -2.5001611710
25.4997597495 -18.4138192752 -2.5001611710
25.5585989319 -18.4047925726 -2.5001611710
25.6080054295 -18.4302453728 -2.5001611710
25.6424295552 -18.4073631390 -2.5001611710
25.5196458387 -18.7134404004 -2.5001611710
25.5688564599 -18.6838886644 -2.5001611710
25.6055330691 -18.6613438676 -2.5001611710
25.6298723659 -18.6461335609 -2.5001611710
25.6662115170 -18.6230487689 -2.5001611710
25.6782788648 -18.6152822853 -2.5001611710
26.0853884610 -18.3214930131 -2.5001611710
26.1188286718 -18.2943785552 -2.5001611710
26.1520269402 -18.2669684018 -2.5001611710
26.2068126449 -18.2206335858 -2.5001611710
26.2176872104 -18.2112696671 -2.5001611710
26.2393530033 -18.1924455280 -2.5001611710
26.2609070471 -18.1734935363 -2.5001611710
26.2716419271 -18.1639698028 -2.5001611710
26.2823485873 -18.1544143553 -2.5001611710
26.2930269339 -18.1448272774 -2.5001611710
26.3142983127 -18.1255585661 -2.5001611710
26.3354553191 -18.1061643434 -2.5001611710
26.3564972125 -18.0866452881 -2.5001611710
25.3052117483 -18.8605571263 -2.5001611710
25.3688694875 -18.8266821053 -2.5001611710
25.3815405205 -18.8197943223 -2.5001611710
25.3941911228 -18.8128690862 -2.5001611710
25.4445870130 -18.7847948281 -2.5001611710
25.5319677868 -18.7342371520 -2.5001611710
26.1452846977 -18.3039378078 -2.5001611710
26.3624302868 -18.1141425470 -2.5001611710
26.4564045192 -18.0246127305 -2.5001611710
26.4871954739 -17.9942174039 -2.5001611710
26.5075723959 -17.9738025622 -2.5001611710
26.5177154746 -17.9635500218 -2.5001611710
25.3292442284 -18.8752473649 -2.5001611710
25.4058299402 -18.8340557143 -2.5001611710
26.4939692703 -18.0215574642 -2.5001611710
26.5753923587 -17.9390118345 -2.5001611710
26.6054189680 -17.9075639284 -2.5001611710
26.7322657450 -17.7682570008 -2.5001611710
25.1449886555 -18.9940923514 -2.5001611710
25.4556719961 -18.8340342788 -2.5001611710
25.7906079945 -18.6281519957 -2.5001611710
26.2318924922 -18.2945665811 -2.5001611710
26.8815971647 -17.6280631101 -2.5001611710
27.6775990328 -16.2127038238 -2.5001611710
24.9140736058 -19.1218337323 -2.5001611710
24.9411494169 -19.1107062727 -2.5001611710
27.0168898458 -17.4927712948 -2.5001611710
24.8137165839 -19.1873310897 -2.5001611710
27.1474212630 -17.3516215355 -2.5001611710
24.3921888590 -19.4267554544 -2.5001611710
25.4755464656 -14.7978614167 -2.4999349117
25.4910116511 -14.6710725915 -2.4999349117
25.4847397029 -14.6120922694 -2.4999349117
25.4781081662 -14.5606186550 -2.4999349117
25.4849357616 -15.3621311739 -2.4999349117
25.4999392596 -14.5424597735 -2.4999349117
25.5001559057 -15.4110109563 -2.4999349117
25.5483158210 -14.8022351945 -2.4999349117
25.5472891674 -14.7795866335 -2.4999349117
25.5412901411 -15.4507148852 -2.4999349117
25.9570473527 -15.8589805469 -2.4999349117
25.9626301562 -15.8414437950 -2.4999349117
25.9653826260 -15.8326631096 -2.4999349117
25.9681091088 -15.8238743203 -2.4999349117
25.9734840185 -15.8062727378 -2.4999349117
25.9889826278 -15.7532815100 -2.4999349117
25.9823150677 -14.0366823387 -2.4999349117
25.9437374048 -13.9137758579 -2.4999349117
25.9503657634 -15.9542303760 -2.4999349117
25.9684939927 -15.9016261501 -2.4999349117
25.9743289017 -15.8840209297 -2.4999349117
25.9636734101 -13.8972765997 -2.4999349117
25.9484205538 -13.8534901335 -2.4999349117
25.9421383536 -13.8360395201 -2.4999349117
25.9357530196 -13.8186263798 -2.4999349117
25.9668509257 -15.9799056009 -2.4999349117
25.9316505505 -13.7404372383 -2.4999349117
25.9493157562 -16.0936911115 -2.4999349117
25.9528144774 -16.0849487088 -2.4999349117
25.9665502901 -16.0498767485 -2.4999349117
25.9400050165 -13.6965911493 -2.4999349117
25.9327946964 -13.6791930711 -2.4999349117
25.9573837072 -16.1378355564 -2.4999349117
25.9610129803 -16.1290690941 -2.4999349117
25.9891103934 -16.0585587424 -2.4999349117
25.9659571494 -13.6961836101 -2.4999349117
25.9514270637 -13.6611233676 -2.4999349117
25.9495143852 -16.2173780203 -2.4999349117
25.9533789938 -16.2086344888 -2.4999349117
25.9470818471 -13.5903445172 -2.4999349117
25.9517520247 -16.2710528853 -2.4999349117
25.9730686309 -13.5893002575 -2.4999349117
25.9655150970 -16.2987782238 -2.4999349117
25.9376581358 -13.4564727361 -2.4999349117
25.9490085065 -16.3881812696 -2.4999349117
25.9663325742 -16.3531331152 -2.4999349117
25.9550059186 -13.4370247834 -2.4999349117
25.9418477735 -13.4108208360 -2.4999349117
25.9575494450 -13.3361201878 -2.4999349117
25.9533839012 -16.5356164342 -2.4999349117
25.9357404206 -13.2459432422 -2.4999349117
25.9411805749 -13.0659225290 -2.4999349117
25.9561840561 -13.0443463120 -2.4999349117
25.9436058614 -16.8770775519 -2.4999349117
25.9482014908 -12.8996834919 -2.4999349117
25.9478792456 -16.9566625408 -2.4999349117
23.8212895185 -18.4294794894 -2.4999349117
23.8421176363 -18.4245336102 -2.4999349117
23.8525206311 -18.4220144822 -2.4999349117
23.8629161282 -18.4194645913 -2.4999349117
23.8733040369 -18.4168839598 -2.4999349117
23.9147779691 -18.4062544835 -2.4999349117
23.9354670439 -18.4007559016 -2.4999349117
25.9368840289 -17.0141817838 -2.4999349117
23.9209178090 -18.4296347668 -2.4999349117
23.9832996199 -18.4126596425 -2.4999349117
24.0040253905 -18.4067555514 -2.4999349117
24.0315445526 -18.4239173959 -2.4999349117
24.1041515152 -18.4017161624 -2.4999349117
24.0069121343 -18.4562192056 -2.4999349117
24.0801932132 -18.4345210813 -2.4999349117
24.1633718215 -18.4078715203 -2.4999349117
24.1840661124 -18.4009021455 -2.4999349117
24.1943977048 -18.3973715754 -2.4999349117
25.9334054134 -12.6722217603 -2.4999349117
24.0872957965 -18.4576271106 -2.4999349117
24.2437388134 -18.4057123636 -2.4999349117
24.3348469494 -18.3977705395 -2.4999349117
25.9491448368 -17.1998277103 -2.4999349117
24.3642688881 -18.4123049181 -2.4999349117
24.3312152471 -18.4508730732 -2.4999349117
25.9315263722 -17.2996185881 -2.4999349117
24.5069951592 -18.4059100604 -2.4999349117
24.5477707234 -18.4144667179 -2.4999349117
24.5684973061 -18.4052229945 -2.4999349117
24.4418792234 -18.4855164083 -2.4999349117
24.6095902373 -18.4130868048 -2.4999349117
24.6820645227 -18.4056676868 -2.4999349117
24.7237379043 -18.4122468118 -2.4999349117
24.7444482735 -18.4019620464 -2.4999349117
24.8596515089 -18.3968176291 -2.4999349117
24.9124576974 -18.3957053064 -2.4999349117
24.9448307829 -18.4054217417 -2.4999349117
24.9551724164 -18.3996406724 -2.4999349117
25.0638595888 -18.4208196415 -2.4999349117
25.0949649194 -18.4023278629 -2.4999349117
25.1385330385 -18.4041730464 -2.4999349117
25.1488701306 -18.3978189763 -2.4999349117
25.1926391231 -18.3990350941 -2.4999349117
25.5264673670 -11.5869256509 -2.4999349117
25.3695612964 -18.3988321269 -2.4999349117
25.6149750581 -11.5944427218 -2.4999349117
25.4487199901 -18.4029174880 -2.4999349117
25.4937097680 -18.4006755458 -2.4999349117
25.7713964057 -18.4032214328 -2.4999349117
26.2687568425 -11.8704751867 -2.4999349117
26.2416840935 -11.8415485644 -2.4999349117
25.6918156631 -11.3482474167 -2.4999349117
24.0069069833 -19.2797657972 -2.4999349117
26.2133240691 -11.7770207918 -2.4999349117
26.1947521427 -11.7580392619 -2.4999349117
25.6513656127 -18.6445223375 -2.4999349117
26.1536165737 -18.2310896119 -2.4999349117
26.1634372123 -18.2217334984 -2.4999349117
26.1927324652 -18.1934914250 -2.4999349117
26.2024417104 -18.1840197642 -2.4999349117
26.2121228943 -18.1745194231 -2.4999349117
25.4960562049 -18.7789495195 -2.4999349117
25.5982542113 -18.7110175027 -2.4999349117
25.6207169028 -18.6955535762 -2.4999349117
25.7425983796 -18.6081460332 -2.4999349117
25.7644499227 -18.5918299185 -2.4999349117
26.1304980627 -18.2859445587 -2.4999349117
26.1899816002 -18.2297760411 -2.4999349117
26.3153860146 -18.1045102796 -2.4999349117
26.3436349937 -18.0749243619 -2.4999349117
26.3529928359 -18.0650068228 -2.4999349117
26.3993397354 -18.0150062899 -2.4999349117
26.4176705705 -17.9948150537 -2.4999349117
26.4449420382 -17.9643257376 -2.4999349117
25.3458464441 -18.8999822211 -2.4999349117
25.3694315318 -18.8860083165 -2.4999349117
25.4046531180 -18.8647864399 -2.4999349117
26.4991580866 -17.9391195455 -2.4999349117
26.5081135130 -17.9287425352 -2.4999349117
26.5786438930 -17.8447820600 -2.4999349117
25.1777177899 -19.0216544780 -2.4999349117
25.3699711950 -18.9138095074 -2.4999349117
25.3936376674 -18.8996926306 -2.4999349117
26.4902440831 -17.9860729844 -2.4999349117
26.5621360929 -17.9025193051 -2.4999349117
26.6491878121 -17.7957233674 -2.4999349117
26.6746833360 -17.7631873056 -2.4999349117
26.7248031687 -17.6974428304 -2.4999349117
25.0159022209 -19.1302728577 -2.4999349117
25.3822930676 -18.9346063037 -2.4999349117
26.7298804972 -17.7707955149 -2.4999349117
27.0338073094 -17.3702444568 -2.4999349117
27.0909745954 -17.2740007336 -2.4999349117
27.1534858770 -17.2126696553 -2.4999349117
24.6276431822 -19.3979381162 -2.4999349117
24.6541869140 -19.3882046282 -2.4999349117
25.4697659628 -15.3432796955 -2.5000250340
25.4920009526 -15.3952990940 -2.5000250340
25.4798939779 -14.8353268744 -2.5000250340
25.4878805457 -14.7502641419 -2.5000250340
25.4781516405 -14.7064163497 -2.5000250340
25.4747359167 -14.6918396444 -2.5000250340
25.5130857155 -14.7526320515 -2.5000250340
25.4982550017 -14.6862550295 -2.5000250340
25.4947196450 -14.6715597388 -2.5000250340
25.4892537486 -14.6495566638 -2.5000250340
25.4873884171 -14.6422331918 -2.5000250340
25.5286481002 -14.7104011380 -2.5000250340
25.5088998384 -14.6288448703 -2.5000250340
25.9509432256 -16.2214764562 -2.5000250340
25.9492084275 -14.3260678190 -2.5000250340
25.9435341898 -14.3087108403 -2.5000250340
25.9348305394 -14.2827390764 -2.5000250340
25.9444895943 -16.3160488102 -2.5000250340
25.9475520561 -16.3073713766 -2.5000250340
25.9595448105 -16.2725721894 -2.5000250340
25.9635901579 -14.2923979026 -2.5000250340
25.9394777097 -14.2228447681 -2.5000250340
25.9578589320 -16.3503066926 -2.5000250340
25.9610226763 -16.3415895602 -2.5000250340
25.9526828436 -14.1885232569 -2.5000250340
25.9494516642 -14.1798308950 -2.5000250340
25.9362702382 -14.1451581715 -2.5000250340
25.9437921068 -16.4545731767 -2.5000250340
25.9554290241 -14.1277243821 -2.5000250340
25.9416306312 -14.0929845794 -2.5000250340
25.9345775274 -14.0756765128 -2.5000250340
25.9519678247 -16.4984529471 -2.5000250340
25.9424130714 -14.0317347232 -2.5000250340
25.9443234903 -16.5774697400 -2.5000250340
25.9481592832 -16.5687916540 -2.5000250340
25.9341568376 -13.9527795207 -2.5000250340
25.9262743644 -13.9355181254 -2.5000250340
25.9386438074 -16.6481540223 -2.5000250340
25.9442238938 -13.9167338066 -2.5000250340
25.9486424493 -16.7385598027 -2.5000250340
25.9372277314 -13.7916608336 -2.5000250340
25.9300239600 -16.8275470152 -2.5000250340
25.9436740996 -16.8015959587 -2.5000250340
25.9485027934 -13.7086495616 -2.5000250340
25.9297461974 -13.6740210511 -2.5000250340
25.9538826802 -16.8851574692 -2.5000250340
25.9508018902 -16.9403954561 -2.5000250340
24.3424561935 -18.4064496317 -2.5000250340
24.3609509858 -18.3985273253 -2.5000250340
25.9416267347 -17.0045636127 -2.5000250340
25.9333177968 -13.5343515693 -2.5000250340
24.4168910761 -18.4002919065 -2.5000250340
25.9310928664 -17.0689263923 -2.5000250340
25.9592554196 -13.5306773784 -2.5000250340
24.4639265791 -18.4053867222 -2.5000250340
24.5205402715 -18.4053558548 -2.5000250340
24.5682085950 -18.4089453569 -2.5000250340
24.5867142018 -18.3996873798 -2.5000250340
25.9374441676 -17.1942267750 -2.5000250340
25.9599313147 -17.1594851038 -2.5000250340
24.6736934618 -18.4091389307 -2.5000250340
24.7314838083 -18.4054157208 -2.5000250340
25.9360011330 -12.9839967484 -2.5000250340
25.9275148966 -12.9344261464 -2.5000250340
25.1603353004 -18.3962176907 -2.5000250340
25.2853204170 -18.3965573276 -2.5000250340
25.5212417914 -18.3985995156 -2.5000250340
24.9174286284 -11.5892653807 -2.5000250340
26.1669923814 -18.1917011427 -2.5000250340
26.1756023884 -18.1823572989 -2.5000250340
25.5453935152 -18.7753091227 -2.5000250340
25.5660495507 -18.7602633795 -2.5000250340
25.6070927703 -18.7298065898 -2.5000250340
25.6578853029 -18.6910561726 -2.5000250340
25.6981032016 -18.6595175846 -2.5000250340
25.7379451055 -18.6275053276 -2.5000250340
26.1673447225 -18.2268238217 -2.5000250340
26.2106366630 -18.1798420796 -2.5000250340
26.2447669431 -18.1417988688 -2.5000250340
26.2700679366 -18.1130028916 -2.5000250340
26.2784446890 -18.1033544759 -2.5000250340
26.3116651853 -18.0645142836 -2.5000250340
26.3281025088 -18.0449474600 -2.5000250340
25.2623190567 -11.5892239635 -2.5000250340
25.3794837310 -18.9184700871 -2.5000250340
25.4543870900 -18.8686822457 -2.5000250340
25.4967209890 -18.8395391082 -2.5000250340
26.4512277630 -17.9302008540 -2.5000250340
26.4901014829 -17.8790528178 -2.5000250340
25.2943206612 -19.0007979173 -2.5000250340
25.3053279412 -18.9940320541 -2.5000250340
25.3382290199 -18.9735395113 -2.5000250340
25.7984120285 -18.6404238122 -2.5000250340
26.6148103652 -17.7465160660 -2.5000250340
25.1043824850 -19.1382096714 -2.5000250340
25.1271932805 -19.1257667462 -2.5000250340
25.1951783916 -19.0876313050 -2.5000250340
25.3097634762 -19.0762920958 -2.5000250340
25.7383270119 -11.5892969665 -2.5000250340
25.7745780631 -11.5861343876 -2.5000250340
26.1553494209 -11.7734706033 -2.5000250340
26.3839881824 -11.9583756651 -2.5000250340
26.3642982734 -11.9384878219 -2.5000250340
26.3245671932 -11.8990633482 -2.5000250340
26.2129326953 -11.7931006810 -2.5000250340
25.5947088972 -11.3130572338 -2.5000250340
25.5712148813 -11.2978503261 -2.5000250340
25.5594342377 -11.2902990634 -2.5000250340
25.5239590013 -11.2678548320 -2.5000250340
25.5001987911 -11.2530672955 -2.5000250340
26.5645783759 -12.1159714620 -2.5000250340
26.5552135361 -12.1054780708 -2.5000250340
26.5363909377 -12.0845746264 -2.5000250340
26.5079259801 -12.0534291748 -2.5000250340
26.3814260693 -11.9214298651 -2.5000250340
26.1666410855 -11.7187619403 -2.5000250340
25.4769245219 -11.2104775654 -2.5000250340
25.4528256718 -11.1959693050 -2.5000250340
25.3064686090 -11.1119366124 -2.5000250340
26.6840945706 -12.2177309446 -2.5000250340
26.6568054844 -12.1852694627 -2.5000250340
25.2434793566 -11.0505043212 -2.5000250340
26.8525356360 -12.3916337822 -2.5000250340
26.7566470737 -12.2682332771 -2.5000250340
26.5338211875 -12.0102249816 -2.5000250340
25.4898215011 -11.1617863753 -2.5000250340
26.7303626110 -12.1977694988 -2.5000250340
25.5022893385 -11.1410767564 -2.5000250340
25.4408530871 -11.1047065062 -2.5000250340
25.4930310148 -15.3742436052 -2.5000011921
25.4087257030 -14.9555124321 -2.5000011921
25.5145931850 -15.3501334441 -2.5000011921
25.5005770929 -15.2503233821 -2.5000011921
25.4127130077 -14.8867720194 -2.5000011921
25.4675683551 -14.8221842926 -2.5000011921
25.4702472877 -14.7579261847 -2.5000011921
25.5132775392 -14.8064359081 -2.5000011921
25.5007051058 -14.7708026859 -2.5000011921
25.5336364373 -14.7913526835 -2.5000011921
25.5589867233 -14.7906875235 -2.5000011921
25.5217699632 -14.6895191501 -2.5000011921
25.9426149797 -16.6345090955 -2.5000011921
25.9475147884 -14.6568262551 -2.5000011921
25.9440292989 -16.7016556056 -2.5000011921
25.9471615161 -16.6932316129 -2.5000011921
25.9533511231 -16.6763560148 -2.5000011921
25.9564084588 -16.6679045571 -2.5000011921
25.9644639370 -14.6319749375 -2.5000011921
25.9472052813 -16.7608602490 -2.5000011921
25.9394195344 -14.4967973796 -2.5000011921
25.9313766412 -16.8625516949 -2.5000011921
25.9374065551 -14.4287307684 -2.5000011921
25.9337919220 -16.9746938008 -2.5000011921
25.9416469878 -16.9578923756 -2.5000011921
25.9442757908 -14.3250163302 -2.5000011921
25.9364542914 -14.3081992528 -2.5000011921
25.9340973711 -14.2473840440 -2.5000011921
25.9571462619 -17.0377412129 -2.5000011921
25.9446930397 -17.1161440614 -2.5000011921
25.9466541418 -17.2148091367 -2.5000011921
25.9488157807 -17.2603588307 -2.5000011921
25.9424375256 -14.0057070232 -2.5000011921
25.9337359004 -13.8506590021 -2.5000011921
25.9547444868 -17.4835193420 -2.5000011921
25.9528648514 -17.5305467717 -2.5000011921
25.2115949054 -18.3947012680 -2.5000011921
25.9288526764 -13.5848495659 -2.5000011921
25.9519531046 -17.7831754222 -2.5000011921
25.7296734532 -18.6255022403 -2.5000011921
25.7472988286 -18.6098795566 -2.5000011921
26.1712716826 -18.1688564244 -2.5000011921
26.1861876593 -18.1506290894 -2.5000011921
26.2156947941 -18.1139112736 -2.5000011921
26.2302849193 -18.0954220782 -2.5000011921
25.6464860786 -18.7281910581 -2.5000011921
25.7985708145 -18.5961733092 -2.5000011921
26.2049403960 -18.1658826184 -2.5000011921
26.2855185060 -18.0634596251 -2.5000011921
26.3280530210 -18.0065034025 -2.5000011921
26.4228375911 -17.9570570525 -2.5000011921
24.3030421558 -11.5915908967 -2.5000011921
24.2670796422 -11.5810553734 -2.5000011921
24.2616958518 -11.5543668455 -2.5000011921
24.4373781723 -11.5830994912 -2.5000011921
24.3480722405 -11.5294124175 -2.5000011921
24.5972496495 -11.5878533913 -2.5000011921
24.5852602077 -11.5834357914 -2.5000011921
24.4282513865 -11.5292498895 -2.5000011921
24.6297140566 -11.5741749960 -2.5000011921
24.4723163190 -11.5182868270 -2.5000011921
24.7105342749 -11.5795369259 -2.5000011921
24.7796495935 -11.5815017187 -2.5000011921
24.7676405642 -11.5765445745 -2.5000011921
24.5613377306 -11.4977459369 -2.5000011921
24.9067511799 -11.5835558594 -2.5000011921
24.6883685013 -11.4930325435 -2.5000011921
24.9647139754 -11.5832846310 -2.5000011921
24.9527094105 -11.5777800251 -2.5000011921
25.0229350342 -11.5838204052 -2.5000011921
25.1401077609 -11.5873370406 -2.5000011921
25.1870523231 -11.5841317626 -2.5000011921
25.4249178136 -11.5759138690 -2.5000011921
26.1399182361 -11.7364006993 -2.5000011921
26.1051684946 -11.7095582288 -2.5000011921
26.0935324798 -11.7006793998 -2.5000011921
26.4142985923 -11.9342326752 -2.5000011921
26.3702344676 -11.8952509303 -2.5000011921
26.3480302051 -11.8759562632 -2.5000011921
26.2467144950 -11.7907697599 -2.5000011921
26.2238942487 -11.7722077070 -2.5000011921
26.1547802042 -11.7173361462 -2.5000011921
26.1198606903 -11.6903625348 -2.5000011921
25.6830673460 -11.3915162837 -2.5000011921
25.6199683590 -11.3537453414 -2.5000011921
25.5050091388 -11.2881252898 -2.5000011921
25.4921290752 -11.2810236846 -2.5000011921
26.4414192174 -11.9260971013 -2.5000011921
25.6194820373 -11.3254349306 -2.5000011921
25.4387424020 -11.2247332058 -2.5000011921
25.3204130360 -11.1639832041 -2.5000011921
26.7445258426 -12.1880840062 -2.5000011921
25.1566468436 -11.0597960398 -2.5000011921
25.1023240217 -11.0357566306 -2.5000011921
26.9414200081 -12.3713991267 -2.5000011921
26.8630307806 -12.2813639226 -2.5000011921
26.7927089845 -12.2041237375 -2.5000011921
26.4067132892 -11.8308475360 -2.5000011921
24.9465609337 -10.9450268123 -2.5000011921
27.0269844139 -12.4364110845 -2.5000011921
26.5395767558 -11.8846430938 -2.5000011921
25.5258759592 -15.2702487430 -2.5000011921
25.4862565389 -14.6962712933 -2.5000011921
25.4748159986 -14.6764496208 -2.5000011921
25.5087110996 -14.6386922181 -2.5000011921
25.9442673285 -16.9531019205 -2.5000011921
25.9431822628 -14.9262721046 -2.5000011921
25.9514816235 -17.3059068608 -2.5000011921
25.9621245241 -17.4433907693 -2.5000011921
25.9375706473 -14.3200822778 -2.5000011921
24.4218278405 -11.5933427147 -2.5000011921
24.3698939757 -11.5797485152 -2.5000011921
24.3235081776 -11.5432796683 -2.5000011921
24.3687127013 -11.5295689611 -2.5000011921
24.6758702374 -11.5931330011 -2.5000011921
24.6239161067 -11.5765328686 -2.5000011921
24.7224019308 -11.5830710157 -2.5000011921
24.5724609379 -11.5103018576 -2.5000011921
24.6191190495 -11.4991286575 -2.5000011921
25.1251569458 -11.5814234189 -2.5000011921
25.3966936843 -11.5727789357 -2.5000011921
25.5597063063 -11.5740910096 -2.5000011921
25.6101085677 -11.5734900031 -2.5000011921
25.7624435549 -11.5749980405 -2.5000011921
26.3950774358 -11.8802530438 -2.5000011921
26.3829492056 -11.8709584129 -2.5000011921
26.3586105251 -11.8524769866 -2.5000011921
26.2601752161 -11.7800008673 -2.5000011921
26.2103212818 -11.7446414204 -2.5000011921
26.1726581695 -11.7185103106 -2.5000011921
25.5681239904 -11.3609780422 -2.5000011921
25.5407823556 -11.3473263210 -2.5000011921
26.5774454208 -11.9955646514 -2.5000011921
26.5182164685 -11.9467415809 -2.5000011921
26.4823347573 -11.9178701156 -2.5000011921
26.8235303585 -12.1818652687 -2.5000011921
26.6750327561 -12.0471639318 -2.5000011921
26.1489923141 -11.6440258263 -2.5000011921
26.1361663578 -11.6354601933 -2.5000011921
25.1821507450 -11.1341771933 -2.5000011921
24.9077602245 -10.9823495162 -2.5000011921
25.4745457845 -15.3091347640 -2.5000011921
25.4442986324 -15.1973385191 -2.5000011921
25.4287815192 -15.1209747534 -2.5000011921
25.4103781410 -15.0444850287 -2.5000011921
25.4669265869 -15.0904935183 -2.5000011921
25.4807966615 -14.8880105004 -2.5000011921
25.9317903927 -15.3321948684 -2.5000011921
25.9450444726 -17.2648136974 -2.5000011921
25.9616184735 -17.2885303508 -2.5000011921
25.9600900186 -15.2091594899 -2.5000011921
25.9536976656 -15.1943658018 -2.5000011921
25.9517650769 -17.4334417422 -2.5000011921
25.9422956677 -15.1106736516 -2.5000011921
25.9246962601 -15.0740349475 -2.5000011921
25.9419067210 -17.5101680536 -2.5000011921
25.9527062739 -17.4880625245 -2.5000011921
25.9524878609 -17.5430760672 -2.5000011921
24.8447943596 -11.5835445580 -2.5000011921
24.7891003582 -11.5674457713 -2.5000011921
24.9213295857 -11.5815145423 -2.5000011921
24.9074176650 -11.5772016845 -2.5000011921
24.8934930469 -11.5729299996 -2.5000011921
24.8656062063 -11.5645102974 -2.5000011921
24.9982270159 -11.5807256310 -2.5000011921
24.9843124250 -11.5761853002 -2.5000011921
25.0754666063 -11.5811880704 -2.5000011921
25.0615530454 -11.5764192489 -2.5000011921
25.1391192884 -11.5779135144 -2.5000011921
25.2169906966 -11.5806777544 -2.5000011921
25.2812425285 -11.5793026056 -2.5000011921
25.4756187357 -11.5803948688 -2.5000011921
25.5130708289 -11.5702686896 -2.5000011921
25.4851573994 -11.5581834038 -2.5000011921
25.6825015557 -11.5675836500 -2.5000011921
26.4854212009 -11.8909409936 -2.5000011921
26.3409508326 -11.7947196915 -2.5000011921
26.1662878746 -11.6871367430 -2.5000011921
25.8052048729 -11.4925042724 -2.5000011921
25.5178838035 -11.3620037244 -2.5000011921
25.3861747574 -11.3088705292 -2.5000011921
26.6154959454 -11.9536044186 -2.5000011921
27.1255830453 -12.3105184099 -2.5000011921
27.0783312672 -12.2673813793 -2.5000011921
25.9344084420 -16.5413736013 -2.5000011921
25.9425104725 -17.3358445799 -2.5000011921
25.9517312139 -17.3094691352 -2.5000011921
25.9314705367 -15.7206421406 -2.5000011921
22.4343920251 -11.5650372810 -2.5000011921
25.1314607784 -11.5751320223 -2.5000011921
25.1167575316 -11.5709728559 -2.5000011921
22.3397868401 -11.5653088134 -2.5000011921
22.3103588488 -11.5735506463 -2.5000011921
22.2956632675 -11.5777368166 -2.5000011921
22.2809801339 -11.5819664408 -2.5000011921
25.2411241531 -11.5823528239 -2.5000011921
25.1823160084 -11.5646792871 -2.5000011921
22.2006874477 -11.5806484992 -2.5000011921
22.2231440262 -11.5485997139 -2.5000011921
22.1936192197 -11.5575319373 -2.5000011921
25.3586625684 -11.5690378123 -2.5000011921
22.1126335638 -11.5576158405 -2.5000011921
25.3810094598 -11.5509783040 -2.5000011921
25.5215680636 -11.5742916331 -2.5000011921
25.7092251924 -11.5682685500 -2.5000011921
25.8601123027 -11.5786449919 -2.5000011921
25.8454162597 -11.5723303273 -2.5000011921
24.9187082887 -11.2712565019 -2.5000011921
26.2749055348 -11.7515553233 -2.5000011921
26.1607986519 -11.6923953028 -2.5000011921
26.1320556728 -11.6780285224 -2.5000011921
26.5663910841 -11.8905029645 -2.5000011921
26.4415188960 -11.8163295581 -2.5000011921
26.3853952377 -11.7844360134 -2.5000011921
26.3430569856 -11.7609528826 -2.5000011921
25.3807568839 -11.3474672615 -2.5000011921
25.3345803405 -11.3329169398 -2.5000011921
25.3191596890 -11.3281579689 -2.5000011921
26.7700553048 -11.9923420562 -2.5000011921
26.1244589183 -11.6203970647 -2.5000011921
25.2174445439 -11.2728747564 -2.5000011921
26.3520346502 -11.7107583111 -2.5000011921
26.1057772959 -11.5844666275 -2.5000011921
26.0616754386 -11.5634728237 -2.5000011921
26.3922737726 -11.7052695657 -2.5000011921
24.9240898852 -11.0990389481 -2.5000011921
24.7301052498 -11.0596682375 -2.5000011921
24.3604685852 -10.9555259565 -2.5000011921
25.9596739872 -15.9514389683 -2.5000011921
22.6797333239 -11.5654475351 -2.5000011921
25.4753358206 -11.5694784956 -2.5000011921
22.5813992435 -11.5668268459 -2.5000011921
22.4826928101 -11.5700698049 -2.5000011921
22.4450301444 -11.5561476463 -2.5000011921
22.4296638836 -11.5608401295 -2.5000011921
22.3989733415 -11.5703613613 -2.5000011921
25.7724019220 -11.5853965229 -2.5000011921
22.3609725404 -11.5570409544 -2.5000011921
22.3149269751 -11.5720005982 -2.5000011921
22.2996081794 -11.5770778807 -2.5000011921
22.2765976293 -11.5592888902 -2.5000011921
22.2612413977 -11.5644796134 -2.5000011921
22.1612529789 -11.5738287369 -2.5000011921
26.5188324000 -11.8201737346 -2.5000011921
22.0457648734 -11.5909280135 -2.5000011921
26.0349328385 -11.5779314462 -2.5000011921
25.3462346998 -11.3606519352 -2.5000011921
22.0217876748 -11.5742542905 -2.5000011921
24.9807219646 -11.2593947012 -2.5000011921
27.2739568390 -12.1921690901 -2.5000011921
21.8660113420 -11.5847650094 -2.5000011921
26.3676315303 -11.6399917216 -2.5000011921
26.2153764168 -11.5728985264 -2.5000011921
24.7917498261 -11.1809941299 -2.5000011921
21.7399166303 -11.5863289172 -2.5000011921
21.6129699320 -11.5909175626 -2.5000011921
21.2314209101 -11.5936736639 -2.5000011921
21.1893145476 -11.5890926333 -2.5000011921
21.1317809161 -11.5933619804 -2.5000011921
25.9403197055 -16.2471369703 -2.5000011921
25.9400054809 -16.1291581860 -2.5000011921
25.9523238091 -16.0996494809 -2.5000011921
25.4719555746 -15.4175526184 -2.5000011921
25.9366125585 -15.7105978441 -2.5000011921
25.8252178894 -11.5965970250 -2.5000011921
25.7465824452 -11.5755406280 -2.5000011921
23.2298707373 -11.5163858318 -2.5000011921
23.0552388529 -11.5560806616 -2.5000011921
23.0394290824 -11.5599706477 -2.5000011921
22.9763071467 -11.5759977572 -2.5000011921
22.9448183997 -11.5842911185 -2.5000011921
25.9259941532 -11.6002106612 -2.5000011921
23.3210885588 -11.4733948705 -2.5000011921
23.1290636548 -11.5137693802 -2.5000011921
23.0336188653 -11.5365062777 -2.5000011921
22.9227977436 -11.5651685906 -2.5000011921
22.8912458641 -11.5737787211 -2.5000011921
22.8754891652 -11.5781537507 -2.5000011921
22.8440149383 -11.5870435474 -2.5000011921
26.4139088457 -11.7432210921 -2.5000011921
26.3680429083 -11.7252175881 -2.5000011921
26.3066432280 -11.7018474241 -2.5000011921
26.2912504356 -11.6961185303 -2.5000011921
26.2295118178 -11.6736590476 -2.5000011921
26.0896573059 -11.6258065488 -2.5000011921
25.9012974229 -11.5678264108 -2.5000011921
25.5831735034 -11.4861619015 -2.5000011921
22.8373756132 -11.5638001689 -2.5000011921
22.8215896316 -11.5683346001 -2.5000011921
22.7900582546 -11.5775434563 -2.5000011921
22.7743131351 -11.5822178007 -2.5000011921
22.7585819121 -11.5869387016 -2.5000011921
26.6054446670 -11.7971526515 -2.5000011921
26.5600497995 -11.7774472508 -2.5000011921
26.4992546832 -11.7518015157 -2.5000011921
25.5078971376 -11.4450400776 -2.5000011921
25.4432424823 -11.4318671721 -2.5000011921
22.8148815774 -11.5451109636 -2.5000011921
22.7200425312 -11.5734190843 -2.5000011921
22.7042855174 -11.5783005659 -2.5000011921
26.7358690436 -11.8297670261 -2.5000011921
26.4163694001 -11.6921976266 -2.5000011921
26.1988898638 -11.6116220598 -2.5000011921
22.6812872899 -11.5601702393 -2.5000011921
22.6654912532 -11.5651664239 -2.5000011921
22.6339438642 -11.5752988660 -2.5000011921
24.9923470376 -11.3131512514 -2.5000011921
24.9427204507 -11.3077802466 -2.5000011921
22.5948610023 -11.5626692139 -2.5000011921
22.5790727362 -11.5679210521 -2.5000011921
26.5732632185 -11.7042347232 -2.5000011921
24.8287500489 -11.2728716054 -2.5000011921
22.4923661680 -11.5720694010 -2.5000011921
27.6634165589 -12.2887583187 -2.5000011921
22.4211542774 -11.5718549145 -2.5000011921
27.3548112649 -12.0544357686 -2.5000011921
22.3496766525 -11.5725825166 -2.5000011921
22.3339187845 -11.5785596111 -2.5000011921
22.2937164910 -11.5681157973 -2.5000011921
22.2307431369 -11.5929659544 -2.5000011921
27.5234937099 -12.1046965198 -2.5000011921
22.2375192281 -11.5642243187 -2.5000011921
22.1745037624 -11.5897397003 -2.5000011921
22.1337735356 -11.5804794927 -2.5000011921
21.9887389830 -11.5905647420 -2.5000011921
28.9030772391 -13.2263908890 -2.5000011921
21.9473614813 -11.5826894819 -2.5000011921
21.9316352719 -11.5898566533 -2.5000011921
21.8900596371 -11.5824087925 -2.5000011921
21.8743328481 -11.5897454743 -2.5000011921
23.8566371171 -11.0335978437 -2.5000011921
21.7643043419 -11.5619128859 -2.5000011921
21.6589702151 -11.5873179447 -2.5000011921
21.5581007683 -11.5851193619 -2.5000011921
21.4408618503 -11.5933701385 -2.5000011921
21.4134529014 -11.5808918412 -2.5000011921
21.3977237104 -11.5896384186 -2.5000011921
21.3387264300 -11.5951531680 -2.5000011921
21.2952897050 -11.5922022100 -2.5000011921
20.9847164892 -11.6112238841 -2.5000011921
20.6265058390 -11.6190563230 -2.5000011921
20.4761072108 -11.6082462365 -2.5000011921
20.3846684614 -11.6159684949 -2.5000011921
20.2319726970 -11.6111774985 -2.5000011921
20.1701355924 -11.6291182074 -2.5000011921
25.9435400322 -16.7216630579 -2.5000011921
25.9371351723 -16.6037032880 -2.5000011921
25.9480830247 -16.5599927322 -2.5000011921
25.9416289679 -16.5419162063 -2.5000011921
25.9349082583 -16.5239371157 -2.5000011921
25.9353856216 -16.2511937734 -2.5000011921
25.9407818792 -15.9314619544 -2.5000011921
26.3461227567 -16.6390906738 -2.5000011921
26.3459874208 -16.5372523568 -2.5000011921
26.3405486232 -16.5180768698 -2.5000011921
