13.2165101051 -5.2533074012 -2.4002625942
14.0704056715 -5.7209668359 -2.4002625942
18.4599205059 1.3162306138 -2.4893474579
18.4571934599 1.1025763078 -2.4893474579
18.8534910251 1.4039131020 -2.4893474579
18.8773781781 1.2502546349 -2.4893474579
15.7038912400 -3.4334598297 -2.4893474579
15.7198433214 -3.4373699936 -2.4893474579
15.7517818360 -3.4450486688 -2.4893474579
18.2752924772 -3.4544489192 -2.4893474579
18.3711421209 -3.4315601431 -2.4893474579
15.5862859602 -3.4281143810 -2.4893474579
15.6022227433 -3.4323724660 -2.4893474579
15.6181720529 -3.4365833884 -2.4893474579
15.6501076931 -3.4448635988 -2.4893474579
15.8910912145 -3.5009191024 -2.4893474579
18.7575001294 -3.3460986509 -2.4893474579
18.9136016159 -3.2927920290 -2.4893474579
15.5161167514 -3.4338798395 -2.4893474579
15.6280668222 -3.4641464208 -2.4893474579
17.7973778080 -3.5910904565 -2.4893474579
15.4137135629 -3.4292455028 -2.4893474579
15.5416258342 -3.4660709083 -2.4893474579
15.7998850512 -3.5305913931 -2.4893474579
17.6189823690 -3.6370415777 -2.4893474579
19.6011674512 -3.0473983915 -2.4893474579
15.3588092927 -3.4377431778 -2.4893474579
19.1033337118 -3.3249193923 -2.4893474579
15.2321762276 -3.4477724708 -2.4893474579
15.2481727123 -3.4530779904 -2.4893474579
15.1604348076 -3.4489185462 -2.4893474579
15.1044162432 -3.4548512011 -2.4893474579
15.1204342270 -3.4605346269 -2.4893474579
14.8708106078 -3.4439974880 -2.4893474579
14.8297747931 -3.4534937652 -2.4893474579
14.6253841389 -3.4451626414 -2.4893474579
14.4086778795 -3.4509371270 -2.4893474579
14.4407196094 -3.4663728599 -2.4893474579
14.1023117780 -3.4567155456 -2.4893474579
13.8507329971 -3.4534439541 -2.4893474579
13.5376869277 -3.4591902978 -2.4893474579
11.6239369049 -1.6371369774 -2.4893474579
13.1888940537 -3.4564492897 -2.4893474579
13.1428194823 -3.4532326338 -2.4893474579
11.3334843939 -3.1888469863 -2.4893474579
11.3487319886 -3.2056866744 -2.4893474579
11.3640293315 -3.2224811836 -2.4893474579
11.8621741826 -3.7199169559 -2.4893474579
11.8958518555 -3.7504139522 -2.4893474579
11.9297093695 -3.7807111663 -2.4893474579
11.9467051968 -3.7957845234 -2.4893474579
11.9637455395 -3.8108075378 -2.4893474579
11.0203125087 -2.8579044853 -2.4893474579
11.0345824860 -2.8756720405 -2.4893474579
11.0632798067 -2.9110801229 -2.4893474579
11.0777068991 -2.9287203403 -2.4893474579
11.0921861113 -2.9463178026 -2.4893474579
11.1213003879 -2.9813838462 -2.4893474579
11.2248233575 -3.1027456981 -2.4893474579
11.3155414383 -3.2050453081 -2.4893474579
10.9871811858 -2.8551479374 -2.4893474579
12.3201006186 -4.1666269396 -2.4893474579
12.3564131633 -4.1944068712 -2.4893474579
12.4479080051 -4.2629125517 -2.4893474579
12.5450271794 -4.3630301770 -2.4893474579
12.5637429194 -4.3762807648 -2.4893474579
12.5824977751 -4.3894759301 -2.4893474579
12.6012915824 -4.4026155574 -2.4893474579
10.7405437285 -2.6105980354 -2.4893474579
12.5686175149 -4.4092666769 -2.4893474579
12.7588725982 -4.5385468147 -2.4893474579
10.5366902017 -2.3595055047 -2.4893474579
10.5037756346 -2.3535849285 -2.4893474579
12.9669737373 -4.7274737904 -2.4893474579
13.0340348983 -4.7959237207 -2.4893474579
13.2442218576 -4.9436628917 -2.4893474579
12.5567709029 -4.5482066206 -2.4893474579
10.4751800814 -2.4847693847 -2.4893474579
18.4451724750 1.5183184362 -2.5027560927
18.4479034355 1.5338877814 -2.5027560927
18.4530288314 1.4355358479 -2.5027560956
18.4336957837 1.1988105664 -2.5027561013
18.4410877154 1.2194615733 -2.5027561013
18.4329585614 1.0674154068 -2.5027561071
15.3844858742 -3.4376930628 -2.5027565278
15.5724001195 -3.4807827096 -2.5027565278
15.9522227604 -3.5468270471 -2.5027565278
18.1490680146 -3.3984196974 -2.5027565278
18.1645395820 -3.3940870338 -2.5027565278
18.1799982649 -3.3897086215 -2.5027565278
15.2537368990 -3.4285905234 -2.5027565307
15.4885843740 -3.4872169618 -2.5027565307
18.2021345394 -3.4085131665 -2.5027565307
18.2331235773 -3.3994879546 -2.5027565307
18.2640586767 -3.3902795592 -2.5027565307
15.2943281070 -3.4645218504 -2.5027565336
18.3020405788 -3.4039945652 -2.5027565336
15.1626253408 -3.4531815514 -2.5027565365
18.3867767382 -3.4026097086 -2.5027565365
15.0931819178 -3.4578528516 -2.5027565393
18.5798087682 -3.3618879086 -2.5027565393
18.5951703833 -3.3562811959 -2.5027565393
15.0077571813 -3.4566581367 -2.5027565422
15.0547736287 -3.4713980163 -2.5027565422
17.9907218233 -3.5643427944 -2.5027565422
18.6957086866 -3.3442331613 -2.5027565422
18.7263087840 -3.3322889240 -2.5027565422
18.7872943053 -3.3078583797 -2.5027565422
18.8479864836 -3.2827079366 -2.5027565422
18.9384561561 -3.2436401923 -2.5027565422
19.0876524561 -3.1749791058 -2.5027565422
14.9063847063 -3.4488295418 -2.5027565451
14.8359911634 -3.4501362538 -2.5027565480
14.8672853706 -3.4610255482 -2.5027565480
17.5797655275 -3.6958959246 -2.5027565480
17.6614552281 -3.6821631695 -2.5027565480
14.7809582634 -3.4561904045 -2.5027565509
17.4684137833 -3.7370305452 -2.5027565509
17.5507240610 -3.7249402260 -2.5027565509
14.6943767550 -3.4499550070 -2.5027565538
14.7256723684 -3.4616821429 -2.5027565538
17.2250777516 -3.8141121925 -2.5027565566
14.5830157297 -3.4585765741 -2.5027565595
17.1097901923 -3.8480436419 -2.5027565595
14.5269836494 -3.4620258111 -2.5027565624
14.5740666641 -3.4810320747 -2.5027565624
17.0609082395 -3.8756488215 -2.5027565624
14.4394147953 -3.4516600480 -2.5027565653
14.3262195757 -3.4549766946 -2.5027565710
14.2693110039 -3.4557492135 -2.5027565739
14.2122031778 -3.4559264700 -2.5027565768
16.7060281331 -4.0083923911 -2.5027565768
14.1549021963 -3.4555049955 -2.5027565797
13.8813426089 -3.4526376556 -2.5027565941
13.8386407771 -3.4571914059 -2.5027565970
13.7957870757 -3.4614241788 -2.5027565999
13.6939598630 -3.4600741849 -2.5027566056
13.5636228845 -3.4684851074 -2.5027566143
13.4163674403 -3.4642503336 -2.5027566229
12.8193976164 -3.4702037197 -2.5027566633
12.1561863214 -3.4692374565 -2.5027567122
11.3071613565 -3.1908066561 -2.5027567583
11.3971877140 -3.2855893024 -2.5027567583
11.4123550511 -3.3012304156 -2.5027567583
11.4275685910 -3.3168265927 -2.5027567583
11.8882485909 -3.7489676294 -2.5027567583
11.9047845362 -3.7631540682 -2.5027567583
11.9379819629 -3.7913798870 -2.5027567583
11.3044235021 -3.2232580035 -2.5027567612
11.7577415552 -3.6989084471 -2.5027567641
18.4364854858 0.9415764481 -2.5006575584
18.4547759550 0.9969965468 -2.5006575584
18.4461838019 0.8966235092 -2.5006575584
15.0811459112 -3.4470342088 -2.5006575584
15.1113610872 -3.4545355367 -2.5006575584
17.7597043575 -3.4174076071 -2.5006575584
17.7747070372 -3.4132570860 -2.5006575584
17.7896973733 -3.4090622023 -2.5006575584
17.8495326593 -3.3918397828 -2.5006575584
14.9693753813 -3.4426910552 -2.5006575584
14.9844650629 -3.4467947212 -2.5006575584
14.8873905296 -3.4447237134 -2.5006575584
14.9175954270 -3.4533714037 -2.5006575584
18.0281311503 -3.3867526795 -2.5006575584
18.0656482375 -3.3997301667 -2.5006575584
18.1104501895 -3.3844311682 -2.5006575584
14.7374475999 -3.4496688170 -2.5006575584
14.7676843784 -3.4592035335 -2.5006575584
18.1482901123 -3.3968051270 -2.5006575584
18.1632301459 -3.3915051890 -2.5006575584
14.6393376033 -3.4428922081 -2.5006575584
14.6544293240 -3.4479721846 -2.5006575584
14.6695360061 -3.4530074948 -2.5006575584
14.6997937259 -3.4629439406 -2.5006575584
18.2162725533 -3.3980376213 -2.5006575584
18.2610535536 -3.3814019831 -2.5006575584
19.4024270705 -2.7872884004 -2.5006575584
14.6164477486 -3.4606431154 -2.5006575584
14.6315920799 -3.4657907265 -2.5006575584
18.3144039706 -3.3869154936 -2.5006575584
18.3530589252 -3.3977827550 -2.5006575584
18.3680009549 -3.3918770695 -2.5006575584
18.3829254491 -3.3859272087 -2.5006575584
14.4337918965 -3.4462926865 -2.5006575584
18.4665962284 -3.3778229200 -2.5006575584
18.4759121342 -3.4001287305 -2.5006575584
18.6540363581 -3.3219949423 -2.5006575584
18.6834492282 -3.3083600389 -2.5006575584
17.9333809821 -3.6191202820 -2.5006575584
18.9987591707 -3.1760201298 -2.5006575584
19.1123686774 -3.1123233939 -2.5006575584
14.2409531510 -3.4477457368 -2.5006575584
17.7036881237 -3.7069888505 -2.5006575584
17.7353953797 -3.6989697883 -2.5006575584
17.7986647884 -3.6823696000 -2.5006575584
18.9382560871 -3.2358509143 -2.5006575584
17.5977215358 -3.7571442434 -2.5006575584
17.6297273826 -3.7497512373 -2.5006575584
17.6030922932 -3.7807130840 -2.5006575584
19.4975364502 -3.0148236663 -2.5006575584
13.8536184405 -3.4579852123 -2.5006575584
13.8687582469 -3.4653894222 -2.5006575584
20.2746846723 -2.4869126561 -2.5006575584
13.7411745398 -3.4556364880 -2.5006575584
13.7301390199 -3.4771435237 -2.5006575584
13.6431499071 -3.4589655352 -2.5006575584
13.5863210638 -3.4558566915 -2.5006575584
13.5293340101 -3.4521403867 -2.5006575584
13.4873064526 -3.4563461497 -2.5006575584
13.4300076185 -3.4515753322 -2.5006575584
13.3876748522 -3.4550158236 -2.5006575584
13.1004929022 -3.4496050916 -2.5006575584
13.1307579531 -3.4688245829 -2.5006575584
18.4439221618 0.6522272647 -2.4989764690
18.4592971528 0.7012722891 -2.4989764690
18.4404539436 0.5676156087 -2.4989764690
18.4502115479 0.5242953739 -2.4989764690
18.5861075009 0.9073502836 -2.4989764690
14.8745400949 -3.4534752534 -2.4989764690
17.0251985759 -3.5119741214 -2.4989764690
17.5013326778 -3.3966848306 -2.4989764690
14.7676019209 -3.4507407093 -2.4989764690
14.8397743499 -3.4696662826 -2.4989764690
17.4938398371 -3.4240675057 -2.4989764690
17.5081609697 -3.4198733992 -2.4989764690
17.6153597119 -3.4123732749 -2.4989764690
17.6581770109 -3.3985859936 -2.4989764690
17.6724220456 -3.3939058595 -2.4989764690
14.6101527201 -3.4559773875 -2.4989764690
14.6245808653 -3.4603136093 -2.4989764690
14.6390217747 -3.4646071311 -2.4989764690
17.7085850420 -3.4073281728 -2.4989764690
14.5597493031 -3.4657897516 -2.4989764690
17.7735664546 -3.4105740337 -2.4989764690
14.4801274829 -3.4656908041 -2.4989764690
14.3713138974 -3.4542574128 -2.4989764690
14.4290989265 -3.4741721224 -2.4989764690
14.3199185854 -3.4616083308 -2.4989764690
14.2393734485 -3.4576057005 -2.4989764690
14.2308246965 -3.4802166297 -2.4989764690
18.1456023385 -3.3955803783 -2.4989764690
14.1207600021 -3.4632402900 -2.4989764690
18.2122090952 -3.3929462166 -2.4989764690
14.0538460521 -3.4619987682 -2.4989764690
18.2932560706 -3.3828901236 -2.4989764690
13.9722640207 -3.4536309879 -2.4989764690
13.9866880159 -3.4598542102 -2.4989764690
13.9192979319 -3.4568006814 -2.4989764690
13.9337315353 -3.4631805731 -2.4989764690
18.3991251300 -3.3864618609 -2.4989764690
13.8805516669 -3.4659495373 -2.4989764690
18.0850281410 -3.5776712744 -2.4989764690
18.2173384278 -3.5226108383 -2.4989764690
18.2901964986 -3.4905056137 -2.4989764690
18.8133004537 -3.2200463507 -2.4989764690
18.8816182903 -3.1791597130 -2.4989764690
17.8693900692 -3.6843661365 -2.4989764690
17.9146111489 -3.6683137676 -2.4989764690
17.9596879921 -3.6518607191 -2.4989764690
18.0493947800 -3.6177577980 -2.4989764690
18.9892230530 -3.1406155516 -2.4989764690
19.1360355258 -3.0436563958 -2.4989764690
19.1755207873 -3.0163884893 -2.4989764690
17.7861085582 -3.7382179495 -2.4989764690
17.8165918583 -3.7280527322 -2.4989764690
19.3455151398 -2.9231720144 -2.4989764690
17.5311177651 -3.8406053742 -2.4989764690
19.1766379731 -3.0744284393 -2.4989764690
17.3963784541 -3.9007541994 -2.4989764690
17.4435384830 -3.8888910222 -2.4989764690
19.9840652158 -2.4976660932 -2.4989764690
18.4408670487 2.0344900361 -2.5006785393
18.4610108919 2.0501498155 -2.5006785393
18.4357133765 2.1194846014 -2.5006785393
18.4449498185 0.1068287449 -2.5006785393
18.4309389065 2.1973069285 -2.5006785393
18.4489380981 -0.3818341849 -2.5006785393
18.4346148105 -0.8772314992 -2.5006785393
14.5901734888 -3.4513907214 -2.5006785393
14.6309217164 -3.4623394613 -2.5006785393
14.6445258531 -3.4659086277 -2.5006785393
14.6717655034 -3.4729261524 -2.5006785393
17.2808684755 -3.3975320007 -2.5006785393
14.5293451085 -3.4594705768 -2.5006785393
17.3016415655 -3.4162838333 -2.5006785393
14.4545450094 -3.4626588658 -2.5006785393
14.4681508626 -3.4667497850 -2.5006785393
14.4953985764 -3.4748107886 -2.5006785393
17.4034079880 -3.4079957476 -2.5006785393
14.5297755493 -3.5098591231 -2.5006785393
17.4382392106 -3.4215088051 -2.5006785393
17.4651672820 -3.4119985603 -2.5006785393
17.4920386163 -3.4023291665 -2.5006785393
17.6165123074 -3.4071055796 -2.5006785393
17.6433520444 -3.3965408634 -2.5006785393
17.7689708380 -3.3971988108 -2.5006785393
17.8187595208 -3.4021044619 -2.5006785393
17.9458985932 -3.3979717157 -2.5006785393
18.0471258882 -3.4034503926 -2.5006785393
18.2273783995 -3.3935538087 -2.5006785393
19.9708957725 -2.0121402393 -2.5006785393
18.2973688925 -3.4932747145 -2.5006785393
18.7367541624 -3.2321483368 -2.5006785393
18.0011085542 -3.6650623309 -2.5006785393
18.0152976358 -3.6586609881 -2.5006785393
18.0436186796 -3.6457325214 -2.5006785393
18.0718627387 -3.6326367241 -2.5006785393
18.1700964413 -3.5854903765 -2.5006785393
18.8658570924 -3.1733916178 -2.5006785393
18.9544115269 -3.1099034257 -2.5006785393
19.0908597438 -3.0064699074 -2.5006785393
17.7658956084 -3.7899339039 -2.5006785393
17.7804551119 -3.7842278172 -2.5006785393
17.7949976719 -3.7784786858 -2.5006785393
17.9824514129 -3.6998463154 -2.5006785393
17.5978889979 -3.8778486546 -2.5006785393
17.6127093042 -3.8726391772 -2.5006785393
17.4712035507 -3.9457761349 -2.5006785393
19.8928556159 -2.4128583800 -2.5006785393
18.4516238375 -0.1309056964 -2.4996461868
18.4679044562 -0.0813012023 -2.4996461868
18.4636739413 1.7167531222 -2.4996461868
18.4471600823 1.7662804564 -2.4996461868
18.4297698045 1.8155068987 -2.4996461868
18.4572241988 -0.1883603316 -2.4996461868
18.4309252167 1.8812593520 -2.4996461868
18.4424475814 -0.2957755585 -2.4996461868
18.4521614348 -0.2710843743 -2.4996461868
18.4678630363 -0.2297439580 -2.4996461868
18.4660398562 1.8569128639 -2.4996461868
18.4494915764 1.9649159225 -2.4996461868
18.4426166972 1.9813692543 -2.4996461868
18.4285755134 2.0141524572 -2.4996461868
18.4528543198 -0.3966585372 -2.4996461868
18.4507394854 2.0238009611 -2.4996461868
18.4471400158 2.0320361452 -2.4996461868
18.4336099617 2.1756144047 -2.4996461868
18.4371188663 -0.6003040675 -2.4996461868
18.4459272004 -0.6360077780 -2.4996461868
18.4604771713 2.2826099049 -2.4996461868
18.4486951228 -0.7329742984 -2.4996461868
18.4459925952 2.3601089407 -2.4996461868
18.4321368240 2.3847269999 -2.4996461868
18.4293939349 2.4377399518 -2.4996461868
18.4545639767 -0.9596419103 -2.4996461868
18.4514653466 2.5867864622 -2.4996461868
16.9006453298 -3.4788557233 -2.4996461868
17.1396885240 -3.4026722002 -2.4996461868
17.1476730201 -3.4254884906 -2.4996461868
17.1727123677 -3.4166428135 -2.4996461868
17.1852123066 -3.4121644605 -2.4996461868
17.2101721677 -3.4030969216 -2.4996461868
17.2226318715 -3.3985078150 -2.4996461868
17.2435331596 -3.4165279437 -2.4996461868
17.2809891514 -3.4023535615 -2.4996461868
17.3021689275 -3.4200994107 -2.4996461868
17.3986166576 -3.4076539825 -2.4996461868
17.4235460982 -3.3973239507 -2.4996461868
17.5771784284 -3.4095280790 -2.4996461868
17.6021158318 -3.3981415830 -2.4996461868
17.6850188829 -3.4126467725 -2.4996461868
17.7580197630 -3.4039599962 -2.4996461868
17.7937994082 -3.4130906385 -2.4996461868
17.8062861216 -3.4067750132 -2.4996461868
17.8187540976 -3.4004224777 -2.4996461868
17.9772922820 -3.3984412780 -2.4996461868
18.0632001020 -3.4058079491 -2.4996461868
18.1251265893 -3.3980070143 -2.4996461868
18.2121220913 -3.4025360969 -2.4996461868
18.2245757521 -3.3949830437 -2.4996461868
18.0260731624 -3.6741111777 -2.4996461868
18.1446360803 -3.6096707379 -2.4996461868
18.2743078341 -3.5343973687 -2.4996461868
18.6974513372 -3.2504465578 -2.4996461868
18.7214279542 -3.2324349353 -2.4996461868
18.7333761966 -3.2233760075 -2.4996461868
18.7452975888 -3.2142817743 -2.4996461868
18.8396896490 -3.1402665276 -2.4996461868
20.0380815209 -1.7517886318 -2.4996461868
17.9029997847 -3.7636954157 -2.4996461868
17.9704185230 -3.7300952776 -2.4996461868
18.0904914903 -3.6671165531 -2.4996461868
18.1169438897 -3.6526886164 -2.4996461868
18.6634119285 -3.3055824300 -2.4996461868
18.8899377242 -3.1306474719 -2.4996461868
19.0051150716 -3.0335394934 -2.4996461868
19.0278030090 -3.0137114251 -2.4996461868
20.0816166755 -1.7249169812 -2.4996461868
17.6797203041 -3.8926281721 -2.4996461868
17.7075140952 -3.8806265489 -2.4996461868
17.7904626370 -3.8436380242 -2.4996461868
19.3078627739 -2.7825113717 -2.4996461868
17.5768384403 -3.9614237300 -2.4996461868
17.6050410496 -3.9500295864 -2.4996461868
19.0825094408 -3.0298688003 -2.4996461868
19.4094856867 -2.7118693850 -2.4996461868
19.5120493016 -2.5995776772 -2.4996461868
20.2115944334 -1.5891442482 -2.4996461868
17.4575010815 -4.0332954294 -2.4996461868
17.4718239443 -4.0279719218 -2.4996461868
17.5004221129 -4.0171979146 -2.4996461868
17.5146971686 -4.0117475092 -2.4996461868
17.4514836180 -4.0612722450 -2.4996461868
16.6548114169 -4.4554504281 -2.4996461868
18.4783881559 1.2578797640 -2.5001611710
18.4331014517 -0.5632488419 -2.5001611710
18.4391056537 -0.5461547356 -2.5001611710
18.4479220676 -0.5204477190 -2.5001611710
18.4631366498 1.3945091379 -2.5001611710
18.4575575723 1.4117466786 -2.5001611710
18.4630491942 1.4711752787 -2.5001611710
18.4399266249 -0.6828039209 -2.5001611710
18.4511817691 1.5741745473 -2.5001611710
18.4377966811 1.6084622858 -2.5001611710
18.4485757697 -0.7261036362 -2.5001611710
18.4638277867 -0.7525300193 -2.5001611710
18.4394901487 1.7297722644 -2.5001611710
18.4525781939 -0.8396227694 -2.5001611710
18.4384597491 1.7910184509 -2.5001611710
18.4668448086 -0.8667921319 -2.5001611710
18.4643727505 1.7925002246 -2.5001611710
18.4361596712 1.8526248409 -2.5001611710
18.4563920820 -0.9460365027 -2.5001611710
18.4399980813 2.0052192931 -2.5001611710
18.4364114606 2.2070346303 -2.5001611710
18.4413697532 2.2452984324 -2.5001611710
18.4458748619 2.2837868198 -2.5001611710
18.4534233515 2.4484916019 -2.5001611710
15.7514180038 -3.4186910374 -2.5001611710
15.7743628946 -3.4174126959 -2.5001611710
16.6736317290 -3.4083542955 -2.5001611710
16.6964993239 -3.4016200089 -2.5001611710
16.7721648990 -3.4036491299 -2.5001611710
16.8789529878 -3.4192969860 -2.5001611710
16.9133283641 -3.4073223088 -2.5001611710
17.0674408337 -3.4013713775 -2.5001611710
17.1657123535 -3.4136653353 -2.5001611710
17.3886447005 -3.4200830592 -2.5001611710
17.4230069819 -3.4035851230 -2.5001611710
17.7768859928 -3.4073487792 -2.5001611710
18.1424266941 -3.4073616488 -2.5001611710
18.1177111052 -3.6537552242 -2.5001611710
18.1298695048 -3.6461320708 -2.5001611710
18.6299189123 -3.2852730962 -2.5001611710
18.6630359512 -3.2577648563 -2.5001611710
18.6959075658 -3.2299638045 -2.5001611710
18.7176843494 -3.2112681770 -2.5001611710
18.7930240728 -3.1448257873 -2.5001611710
18.8036740124 -3.1352071628 -2.5001611710
18.8142954517 -3.1255570759 -2.5001611710
19.0075695348 -2.9738010721 -2.5001611710
19.0177126136 -2.9635485317 -2.5001611710
19.0479592567 -2.9326115093 -2.5001611710
17.7519366418 -3.9150717803 -2.5001611710
17.7777832754 -3.9019490113 -2.5001611710
17.7906773645 -3.8953303400 -2.5001611710
19.2034675505 -2.8008345965 -2.5001611710
17.2861868039 -4.1977017827 -2.5001611710
20.0152629529 -1.9325111642 -2.5001611710
25.5417060122 0.7799915675 -2.5001611710
17.3798399309 0.4939662279 -2.4999349117
17.5112961326 0.2656240952 -2.4999349117
17.5871885182 0.2223432852 -2.4999349117
18.4567894371 -0.6876845483 -2.4999349117
18.4590871073 -0.6789218079 -2.4999349117
18.4636046321 -0.6613761281 -2.4999349117
18.4701860863 -0.6350082628 -2.4999349117
18.4529980325 0.8887431966 -2.4999349117
18.4529699845 -0.7905296153 -2.4999349117
18.4581479257 -0.7730181731 -2.4999349117
18.4632221727 -0.7554764030 -2.4999349117
18.4801629139 -0.6938502490 -2.4999349117
18.4513279180 0.9828294269 -2.4999349117
18.4322781679 1.0438366280 -2.4999349117
18.4598498164 -0.8502086926 -2.4999349117
18.4626282489 -0.8414361880 -2.4999349117
18.4653807186 -0.8326555026 -2.4999349117
18.4378100498 1.1036557106 -2.4999349117
18.4503638561 -0.9542227690 -2.4999349117
18.4684920854 -0.9016185431 -2.4999349117
18.4743269943 -0.8840133227 -2.4999349117
18.4484186465 1.1465174735 -2.4999349117
18.4357511123 1.1813812273 -2.4999349117
18.4539411157 -1.0149784099 -2.4999349117
18.4316486431 1.2595703687 -2.4999349117
18.4562854143 -1.0761883875 -2.4999349117
18.4597323512 -1.0674254382 -2.4999349117
18.4400031091 1.3034164577 -2.4999349117
18.4327927891 1.3208145360 -2.4999349117
18.4573817999 -1.1378279493 -2.4999349117
18.4312988381 1.4444925816 -2.4999349117
18.4530414010 -1.3250708747 -2.4999349117
18.4670514857 1.4823091832 -2.4999349117
18.4533764768 -1.3794308802 -2.4999349117
18.4617313449 -1.4165873789 -2.4999349117
18.8164073176 0.3178489275 -2.4999349117
18.4544337921 1.6176613660 -2.4999349117
18.4549339126 -1.5824028849 -2.4999349117
18.4423166490 1.8392271761 -2.4999349117
18.4485887120 -1.7808536790 -2.4999349117
18.4561821487 1.9556612951 -2.4999349117
16.3212876111 -3.4294718824 -2.4999349117
16.3525187237 -3.4220068751 -2.4999349117
16.4147760618 -3.4062468764 -2.4999349117
16.4354651366 -3.4007482946 -2.4999349117
16.4209159016 -3.4296271598 -2.4999349117
16.5247139604 -3.4007213360 -2.4999349117
16.5211332380 -3.4269584937 -2.4999349117
16.5627161178 -3.4145791052 -2.4999349117
16.6041496079 -3.4017085554 -2.4999349117
18.4442655605 -2.0861828761 -2.4999349117
18.4402240548 2.2784643459 -2.4999349117
16.6943957974 -3.3973639684 -2.4999349117
16.7644170161 -3.3982599413 -2.4999349117
16.6891525353 -3.4502120630 -2.4999349117
16.7704581697 -3.4474858554 -2.4999349117
16.9561611364 -3.4012355768 -2.4999349117
17.0994818245 -3.3911202855 -2.4999349117
17.2237359969 -3.4122392048 -2.4999349117
17.2547786420 -3.3967661529 -2.4999349117
17.4773836123 -3.4148689011 -2.4999349117
17.5515973834 -3.3999788788 -2.4999349117
17.9487180827 -3.4029098810 -2.4999349117
18.0285108648 -3.4054089964 -2.4999349117
18.6969261292 3.1703928011 -2.4999349117
18.6602937649 3.2080553273 -2.4999349117
18.6510662415 3.2174030248 -2.4999349117
18.7687549352 3.1295324204 -2.4999349117
18.7507349461 3.1488435448 -2.4999349117
18.1624095502 -3.6366425572 -2.4999349117
18.1954066856 -3.6128304675 -2.4999349117
18.6239872909 -3.2589754661 -2.4999349117
18.6732282235 -3.2123407676 -2.4999349117
18.7121209869 -3.1745118160 -2.4999349117
18.7505634179 -3.1362253154 -2.4999349117
17.9845882333 -3.7863213541 -2.4999349117
18.0074984819 -3.7715285843 -2.4999349117
18.0530544205 -3.7415377098 -2.4999349117
18.6899796928 -3.2297684340 -2.4999349117
18.7868736821 -3.1338367314 -2.4999349117
18.8436330864 -3.0749167549 -2.4999349117
17.8103129234 -3.9206732285 -2.4999349117
17.8458445367 -3.8999746141 -2.4999349117
19.0259301717 -2.9079016595 -2.4999349117
19.1045756558 -2.8128624970 -2.4999349117
19.0885808914 -2.8707439659 -2.4999349117
17.1457956365 -4.3655264731 -2.4999349117
17.4407710697 0.4112001255 -2.5000250340
17.4151507687 0.4791972456 -2.5000250340
17.4716356113 0.3961879289 -2.5000250340
17.4655890937 0.4135463011 -2.5000250340
17.5470112385 0.2257111962 -2.5000250340
17.5361772254 0.2677265576 -2.5000250340
17.5345585685 0.2737101233 -2.5000250340
17.5244755727 0.3095085843 -2.5000250340
17.5292623939 0.3762002428 -2.5000250340
17.6068873463 0.1817102185 -2.5000250340
17.5908724463 0.2496020670 -2.5000250340
17.5542047079 0.3776071367 -2.5000250340
17.6903358014 -0.0253464909 -2.5000250340
17.6819557139 0.0389541001 -2.5000250340
17.6646030178 0.1412376599 -2.5000250340
17.6498743104 0.2110286725 -2.5000250340
17.6469527571 0.2236646519 -2.5000250340
17.7412446125 -0.0461618811 -2.5000250340
17.7753960196 -0.1839741123 -2.5000250340
17.8250142291 -0.2230314508 -2.5000250340
17.8231024337 -0.1683284087 -2.5000250340
17.9648878268 -0.4449530367 -2.5000250340
18.4564780633 -1.2040756834 -2.5000250340
18.4760291658 0.5866608327 -2.5000250340
18.4348257710 0.7172612812 -2.5000250340
18.4535951363 -1.2899891638 -2.5000250340
18.4653817971 -1.2551196325 -2.5000250340
18.4635853895 0.7076024550 -2.5000250340
18.4577116976 0.7250439316 -2.5000250340
18.4456552625 0.7598211075 -2.5000250340
18.4394729413 0.7771555895 -2.5000250340
18.4482084045 -1.3764010449 -2.5000250340
18.4514493839 -1.3677123323 -2.5000250340
18.4546646463 -1.3590140702 -2.5000250340
18.4578541637 -1.3503063349 -2.5000250340
18.4715238959 0.7591256697 -2.5000250340
18.4653452364 0.7766132114 -2.5000250340
18.4590632229 0.7940638920 -2.5000250340
18.4558835270 0.8027752185 -2.5000250340
18.4494468958 0.8201694626 -2.5000250340
18.4402894435 -1.4632384859 -2.5000250340
18.4437873384 -1.4545728190 -2.5000250340
18.4621690619 0.8548454555 -2.5000250340
18.4519630563 -1.4984525895 -2.5000250340
18.4569313779 0.9335122856 -2.5000250340
18.4443187219 -1.5774693824 -2.5000250340
18.4481545148 -1.5687912963 -2.5000250340
18.4519646196 -1.5601019013 -2.5000250340
18.4262695960 1.0644822322 -2.5000250340
18.4426839537 -1.6394920709 -2.5000250340
18.4467032281 -1.6308185495 -2.5000250340
18.4506968271 -1.6221331762 -2.5000250340
18.4442191254 1.0832665510 -2.5000250340
18.4355467561 -1.7645570751 -2.5000250340
18.4459563525 1.1910108072 -2.5000250340
18.4526412462 -1.7842280395 -2.5000250340
18.4408726219 1.2540377629 -2.5000250340
18.4420677056 -1.8562536557 -2.5000250340
18.4297414291 1.3259793066 -2.5000250340
18.4297629419 -1.9284829804 -2.5000250340
18.4461406328 1.3463027038 -2.5000250340
16.8609462174 -3.3985269677 -2.5000250340
18.4517947420 -1.9872042541 -2.5000250340
18.4637722556 1.4135380122 -2.5000250340
18.4488704408 1.4867254786 -2.5000250340
18.4409551407 -2.0989338749 -2.5000250340
18.4463335346 -2.0902634573 -2.5000250340
18.4395561670 -2.1464700263 -2.5000250340
17.0959416158 -3.3950170170 -2.5000250340
18.4224950478 1.6639060720 -2.5000250340
17.1829484546 -3.4042112262 -2.5000250340
17.2407275343 -3.4003170782 -2.5000250340
18.4302888859 1.8224216256 -2.5000250340
17.3293122682 -3.4056771064 -2.5000250340
18.4377506612 1.8941551094 -2.5000250340
17.4281068817 -3.4030376309 -2.5000250340
18.4482105511 -2.4734932819 -2.5000250340
18.4611575589 -2.4560870936 -2.5000250340
17.5277798149 -3.3974519123 -2.5000250340
18.4436940869 -2.6369422515 -2.5000250340
17.7018152501 -3.3968237464 -2.5000250340
17.7853156486 -3.3965569700 -2.5000250340
17.3955758379 3.4219397012 -2.5000250340
17.4285184712 3.4322115895 -2.5000250340
17.5717382029 3.4101255781 -2.5000250340
17.6054253636 3.4189130048 -2.5000250340
17.6720743668 3.4084115923 -2.5000250340
17.6611644009 3.4147834245 -2.5000250340
18.2423558888 -3.5926591721 -2.5000250340
18.6059489261 -3.2563888376 -2.5000250340
17.7170970227 3.4098492559 -2.5000250340
18.0453887468 -3.7753087651 -2.5000250340
18.0660447824 -3.7602630218 -2.5000250340
18.0866114407 -3.7450953339 -2.5000250340
18.1172922721 -3.7221163182 -2.5000250340
18.1376323448 -3.7066461006 -2.5000250340
18.7362718442 -3.1513471338 -2.5000250340
18.7447621748 -3.1417985112 -2.5000250340
18.7700631682 -3.1130025339 -2.5000250340
18.7784399206 -3.1033541183 -2.5000250340
18.8033984154 -3.0742607838 -2.5000250340
18.8198935492 -3.0547426704 -2.5000250340
18.8280977404 -3.0449471024 -2.5000250340
18.8767111204 -2.9856679503 -2.5000250340
18.8926808261 -2.9657176448 -2.5000250340
17.8686948841 -3.9254552895 -2.5000250340
17.8902423293 -3.9114522987 -2.5000250340
18.9115970275 -2.9807679805 -2.5000250340
18.9668632322 -2.9098103244 -2.5000250340
18.9900967145 -2.8790524602 -2.5000250340
17.8186193275 3.4043843186 -2.5000250340
17.8272774482 -3.9804024338 -2.5000250340
17.9465572775 -3.9031370084 -2.5000250340
18.8899190144 -3.0460723173 -2.5000250340
19.0927433929 -2.7783855130 -2.5000250340
19.1220967065 -2.7358490858 -2.5000250340
17.6838899417 -4.0940705587 -2.5000250340
18.8162067194 -3.1704115332 -2.5000250340
19.2344690639 -2.6080921761 -2.5000250340
19.2617974660 -2.5638907065 -2.5000250340
17.5001207841 -4.2199742905 -2.5000250340
17.8084223793 -4.0488301853 -2.5000250340
19.3552668587 -2.4526161756 -2.5000250340
19.3807471400 -2.4069962546 -2.5000250340
17.4521360744 -4.2706833858 -2.5000250340
19.4331793164 -2.3609005760 -2.5000250340
18.0264892258 3.4128882066 -2.5000250340
19.9776836780 -0.9308136931 -2.5000250340
18.1195003549 3.4071546943 -2.5000250340
18.8642935051 3.0615125357 -2.5000250340
18.8444862776 3.0812835387 -2.5000250340
18.7026095156 3.2163514236 -2.5000250340
18.6922631895 3.2257726055 -2.5000250340
18.6818890390 3.2351631399 -2.5000250340
18.6714871550 3.2445229446 -2.5000250340
18.6610576286 3.2538519377 -2.5000250340
18.6401160136 3.2724171627 -2.5000250340
18.6296041082 3.2816532322 -2.5000250340
18.1297754332 3.6638728068 -2.5000250340
18.1064172953 3.6792876119 -2.5000250340
18.0712101130 3.7021500316 -2.5000250340
18.0239542329 3.7321455257 -2.5000250340
19.0832099584 2.8629592344 -2.5000250340
19.0079212118 2.9465711828 -2.5000250340
18.9501677277 3.0080981420 -2.5000250340
18.1314223462 3.6917731421 -2.5000250340
18.0961033771 3.7148569759 -2.5000250340
18.0129060331 3.7674937059 -2.5000250340
17.9769197535 3.7895227922 -2.5000250340
17.8922019445 3.8396757205 -2.5000250340
17.8678078555 3.8536818842 -2.5000250340
17.8310624179 3.8744199116 -2.5000250340
19.2110897365 2.7495670340 -2.5000250340
19.1840898023 2.7822694130 -2.5000250340
19.1659290739 2.8039373255 -2.5000250340
19.0338164192 2.9897753760 -2.5000250340
18.9056362939 3.1227383336 -2.5000250340
18.7515141544 3.2698991019 -2.5000250340
19.2028897877 2.8351021576 -2.5000250340
23.5735677293 -0.5672794436 -2.5000250340
24.0799193445 -0.6109267676 -2.5000250340
24.0808712713 -0.5855817847 -2.5000250340
24.1030441791 -0.6372832711 -2.5000250340
25.5061526513 -0.6370026476 -2.5000250340
17.5144753404 0.2666030316 -2.5000011921
17.4925183196 0.3117019935 -2.5000011921
17.4454340467 0.4002783486 -2.5000011921
17.4138979094 0.4544693185 -2.5000011921
17.6475964368 0.0675786251 -2.5000011921
17.6189301163 0.1458610170 -2.5000011921
17.6095063817 0.1697198617 -2.5000011921
17.5636341393 0.2756362551 -2.5000011921
17.6887253202 0.0200273820 -2.5000011921
17.6807856215 0.0447208851 -2.5000011921
17.6746394036 0.0631784144 -2.5000011921
17.6270649739 0.1907526871 -2.5000011921
17.5365698478 0.3845768343 -2.5000011921
17.7521624184 -0.1179641678 -2.5000011921
17.7409201293 -0.0734700347 -2.5000011921
17.7375390527 -0.0608011011 -2.5000011921
17.7195127109 0.0022313429 -2.5000011921
17.7137420387 0.0210342265 -2.5000011921
17.6996299113 0.0647030347 -2.5000011921
17.6779080519 0.1265593102 -2.5000011921
17.6263925082 0.2542142487 -2.5000011921
17.7725069222 -0.0994103196 -2.5000011921
17.8096991865 -0.1522995904 -2.5000011921
17.7558713620 0.0482030572 -2.5000011921
17.7209591621 0.1495346047 -2.5000011921
17.8529101583 -0.2467511159 -2.5000011921
17.8493438128 -0.2267546001 -2.5000011921
17.8430060100 -0.1934999321 -2.5000011921
17.8003348633 -0.0157907126 -2.5000011921
17.7291455694 0.1959045736 -2.5000011921
17.8767262704 -0.2426125064 -2.5000011921
17.8554381668 -0.1352372306 -2.5000011921
17.9441925420 -0.3726042273 -2.5000011921
17.9400015366 -0.3379307563 -2.5000011921
18.4426073503 -1.6345074861 -2.5000011921
18.4455409422 -1.6260879710 -2.5000011921
18.4644832531 0.2924453802 -2.5000011921
18.4589246344 0.3093887521 -2.5000011921
18.4475071590 0.3431753542 -2.5000011921
18.4471538867 -1.6932300036 -2.5000011921
18.4533434937 -1.6763544054 -2.5000011921
18.4624404313 -1.6509730849 -2.5000011921
18.4713117656 -1.6255120336 -2.5000011921
18.4732767810 0.3425479561 -2.5000011921
18.4429984739 0.4271652407 -2.5000011921
18.4471976519 -1.7608586397 -2.5000011921
18.4634844453 -1.7185936762 -2.5000011921
18.4461175426 0.4863729097 -2.5000011921
18.4394119050 0.5032042297 -2.5000011921
18.4385606496 -1.8457649127 -2.5000011921
18.4421191969 -1.8373564441 -2.5000011921
18.4491615925 -1.8205081105 -2.5000011921
18.4719419714 0.4867561294 -2.5000011921
18.4549829669 0.5291412184 -2.5000011921
18.4425009511 -1.8974295547 -2.5000011921
18.4498987527 -1.8805779111 -2.5000011921
18.4571967249 -1.8636827946 -2.5000011921
18.4738650501 0.5467996647 -2.5000011921
18.4596373726 0.5807464286 -2.5000011921
18.4375452231 0.6313449864 -2.5000011921
18.4519900284 0.6581222213 -2.5000011921
18.4476362364 -2.0018786109 -2.5000011921
18.4516565565 -1.9934426120 -2.5000011921
18.4503528669 0.7189610608 -2.5000011921
18.4488108829 -2.0546313302 -2.5000011921
18.4599268551 0.7548030066 -2.5000011921
18.4403021524 -2.1245572922 -2.5000011921
18.4704604829 -2.0653844739 -2.5000011921
18.4733038830 0.7824212193 -2.5000011921
18.4476302206 0.8332305667 -2.5000011921
18.4344562243 0.8584623612 -2.5000011921
18.4419713768 -2.2232277370 -2.5000011921
18.4472478834 0.9858728087 -2.5000011921
18.4289219938 1.1113955185 -2.5000011921
18.4505745524 -2.4451591816 -2.5000011921
18.4601819221 -2.4750586214 -2.5000011921
18.4253222971 1.2510642789 -2.5000011921
18.4284187954 1.2896915189 -2.5000011921
18.4391371777 1.3591527712 -2.5000011921
17.8858532758 -3.3790481730 -2.5000011921
18.4178112122 1.5506392142 -2.5000011921
18.4161679975 1.6306635060 -2.5000011921
18.4542451380 -2.9760449431 -2.5000011921
18.1220008571 -3.7170222782 -2.5000011921
18.2296658238 -3.6255006309 -2.5000011921
18.2472911992 -3.6098779473 -2.5000011921
18.2909475695 -3.5703674248 -2.5000011921
18.6335046092 -3.2140342842 -2.5000011921
18.6712640532 -3.1688548151 -2.5000011921
18.6861800299 -3.1506274800 -2.5000011921
18.0163761281 -3.8310584065 -2.5000011921
18.0446120620 -3.8094700770 -2.5000011921
18.0539813280 -3.8022183875 -2.5000011921
18.1005036327 -3.7655459538 -2.5000011921
18.1097427187 -3.7581291192 -2.5000011921
18.2545243266 -3.6357920377 -2.5000011921
18.8350359044 -2.9969360796 -2.5000011921
18.8695623378 -2.9487996316 -2.5000011921
18.8899351227 -2.9196744952 -2.5000011921
17.9542920549 -3.9070018000 -2.5000011921
17.9639502326 -3.9000168667 -2.5000011921
17.9832043887 -3.8859614412 -2.5000011921
18.0969525771 -3.7992593561 -2.5000011921
18.8615780946 -3.0015257181 -2.5000011921
18.8685537404 -2.9918608305 -2.5000011921
18.9367260962 -2.8940933861 -2.5000011921
19.1092518882 -2.6636421871 -2.5000011921
16.8150010788 3.4048280005 -2.5000011921
16.8030345264 3.4084107127 -2.5000011921
16.7670720128 3.4189462359 -2.5000011921
16.8819810167 3.4094258824 -2.5000011921
16.9613408840 3.4089063846 -2.5000011921
16.9373705429 3.4169021182 -2.5000011921
16.9810927642 3.4277406505 -2.5000011921
16.9449516966 3.4398555796 -2.5000011921
17.0612347528 3.4252945205 -2.5000011921
16.9282437571 3.4707517198 -2.5000011921
17.1417230696 3.4212774704 -2.5000011921
17.1056330337 3.4348181579 -2.5000011921
16.9723086896 3.4817147823 -2.5000011921
17.2225270728 3.4156764831 -2.5000011921
17.0980203519 3.4891054930 -2.5000011921
17.3490499279 3.4153737223 -2.5000011921
17.3250345383 3.4256631595 -2.5000011921
17.4067435505 3.4164457500 -2.5000011921
17.4527017811 3.4222215842 -2.5000011921
17.4286440632 3.4331241408 -2.5000011921
17.5693962080 3.4206821728 -2.5000011921
17.5453455554 3.4322751597 -2.5000011921
17.6281067870 3.4186880388 -2.5000011921
17.6870446937 3.4158698468 -2.5000011921
17.6630204534 3.4281589659 -2.5000011921
17.7815789128 3.4207292991 -2.5000011921
17.9489946541 3.4381265116 -2.5000011921
18.0819455830 3.4153171271 -2.5000011921
18.0579177014 3.4299426221 -2.5000011921
18.6315194796 3.3006823167 -2.5000011921
18.1830597166 3.6084853256 -2.5000011921
18.1704847231 3.6161141116 -2.5000011921
18.0435148653 3.6903433313 -2.5000011921
17.9792204307 3.7260413973 -2.5000011921
17.9533559978 3.7400536977 -2.5000011921
19.0922530691 2.9322905937 -2.5000011921
19.0710652526 2.9529018609 -2.5000011921
18.6696345430 3.3017300162 -2.5000011921
18.6462683953 3.3198344645 -2.5000011921
17.9907979846 3.7472615653 -2.5000011921
17.9256674737 3.7821737024 -2.5000011921
17.7938930924 3.8490891778 -2.5000011921
17.7673039110 3.8620028659 -2.5000011921
19.2749961298 2.7794200385 -2.5000011921
19.2445182132 2.8119176031 -2.5000011921
19.2342949668 2.8226898606 -2.5000011921
19.1827032104 2.8760949319 -2.5000011921
19.0771784408 2.9805868484 -2.5000011921
19.0557051513 3.0011080838 -2.5000011921
18.7195124782 3.2932468443 -2.5000011921
18.6374308916 3.3570394261 -2.5000011921
17.7241365049 3.9092551783 -2.5000011921
17.6159237058 3.9582954142 -2.5000011921
17.6023163923 3.9642449787 -2.5000011921
19.4317305501 2.6399579908 -2.5000011921
19.4024841089 2.6738519772 -2.5000011921
19.3630231512 2.7186376867 -2.5000011921
19.3230350308 2.7629533405 -2.5000011921
17.7613732112 3.9184330948 -2.5000011921
17.5571012801 4.0099153474 -2.5000011921
17.4742897861 4.0439554000 -2.5000011921
19.5364322876 2.5519535953 -2.5000011921
18.8541327903 3.2458046555 -2.5000011921
19.5928707096 2.5201204321 -2.5000011921
19.5644529148 2.5941336221 -2.5000011921
17.2457676083 4.2058401385 -2.5000011921
17.7629463395 -0.1144638272 -2.5000011921
17.7393108017 -0.0611038238 -2.5000011921
17.7227682039 -0.0258882281 -2.5000011921
17.5933626258 0.2061792026 -2.5000011921
17.5648833296 0.2495389435 -2.5000011921
17.8286191978 -0.2146781835 -2.5000011921
17.8027645803 -0.1473574209 -2.5000011921
17.5398147383 0.3274964573 -2.5000011921
17.8710517777 -0.2626702949 -2.5000011921
17.8602764811 -0.2313329413 -2.5000011921
17.5824613135 0.3093347413 -2.5000011921
17.5671301119 0.3309626488 -2.5000011921
17.8960907225 -0.2613336217 -2.5000011921
17.8717182887 -0.1917930221 -2.5000011921
17.7852187719 0.0115602188 -2.5000011921
17.9713003379 -0.4358857091 -2.5000011921
17.9507478795 -0.3572840679 -2.5000011921
17.9394286380 -0.3182691974 -2.5000011921
17.9036194916 -0.2088919371 -2.5000011921
17.7509612852 0.1303178614 -2.5000011921
17.8796963683 -0.0194930162 -2.5000011921
18.4357549493 0.0252992446 -2.5000011921
18.4460015606 -2.0174511491 -2.5000011921
18.4462141907 -2.0822834277 -2.5000011921
18.4494764592 -2.0742938656 -2.5000011921
18.4527150788 -2.0662946882 -2.5000011921
18.4625718430 0.0905281799 -2.5000011921
18.4483450791 -2.1395814162 -2.5000011921
18.4517768360 -2.1315852999 -2.5000011921
18.4588718582 0.1638517880 -2.5000011921
18.4554895971 0.1718689660 -2.5000011921
18.4528879100 -2.1893015426 -2.5000011921
18.4600218365 -2.1732714461 -2.5000011921
18.4670607986 -2.1571994234 -2.5000011921
18.4496096564 0.2455921557 -2.5000011921
18.4527953809 -2.2474183020 -2.5000011921
18.4417451391 0.3196740515 -2.5000011921
18.4621101535 -2.3918961212 -2.5000011921
18.4577741476 -2.4514201960 -2.5000011921
18.4593534974 -2.5472994486 -2.5000011921
18.4712742372 0.6238485384 -2.5000011921
18.4577198135 -2.6442917087 -2.5000011921
18.4531363692 -2.6971773263 -2.5000011921
18.4475770798 -2.7502896018 -2.5000011921
18.4576305216 0.8279206282 -2.5000011921
18.4316122863 1.1899820060 -2.5000011921
16.9218316552 3.4066532322 -2.5000011921
16.8958848299 3.4135271472 -2.5000011921
16.8308438195 3.4300392883 -2.5000011921
16.7786396097 3.4425552403 -2.5000011921
17.0060947172 3.4083458860 -2.5000011921
16.9671410026 3.4193468826 -2.5000011921
17.1037483915 3.4044263663 -2.5000011921
17.0388192483 3.4240138853 -2.5000011921
17.1629039912 3.4110705946 -2.5000011921
17.0195377646 3.5050648362 -2.5000011921
17.3814058681 3.4119035378 -2.5000011921
17.4548909661 3.4097754018 -2.5000011921
17.4419110687 3.4148084204 -2.5000011921
17.4159068924 3.4247591571 -2.5000011921
17.4028828409 3.4296767881 -2.5000011921
17.1793504379 3.5073447132 -2.5000011921
17.4766950577 3.4272030060 -2.5000011921
17.5767888075 3.4127558333 -2.5000011921
17.5507944144 3.4235045879 -2.5000011921
17.6737793129 3.4238745307 -2.5000011921
17.7356587621 3.4227944058 -2.5000011921
17.8471283636 3.4243055668 -2.5000011921
17.9097121133 3.4208385978 -2.5000011921
18.0597101210 3.4259049373 -2.5000011921
18.0970801262 3.4334771525 -2.5000011921
18.1607065520 3.4265573313 -2.5000011921
18.1346202850 3.4407604978 -2.5000011921
18.2114868293 3.4260557492 -2.5000011921
18.1854026411 3.4405593577 -2.5000011921
18.3388274945 3.4366118296 -2.5000011921
18.3903086660 3.4341706020 -2.5000011921
18.8586143398 3.1475189603 -2.5000011921
18.8341667430 3.1658560673 -2.5000011921
18.7353043637 3.2377485419 -2.5000011921
18.7228277505 3.2465700075 -2.5000011921
18.6220865918 3.3158052361 -2.5000011921
18.0817682147 3.6321314428 -2.5000011921
17.9996234749 3.6728433076 -2.5000011921
17.9720829166 3.6860891421 -2.5000011921
19.0538443634 3.0240656076 -2.5000011921
19.0301237412 3.0435599216 -2.5000011921
18.9582756975 3.1011960769 -2.5000011921
18.6099832150 3.3529017139 -2.5000011921
18.2689382387 3.5600874381 -2.5000011921
17.8289412603 3.7781549314 -2.5000011921
17.8007806303 3.7903891096 -2.5000011921
17.7725481116 3.8024564658 -2.5000011921
19.2783958469 2.8601841378 -2.5000011921
19.2097632838 2.9222555546 -2.5000011921
18.6617966904 3.3473665835 -2.5000011921
17.9090459175 3.7688391366 -2.5000011921
17.6391144077 3.8828013874 -2.5000011921
19.5164135915 2.6614498366 -2.5000011921
19.4182603752 2.7605042997 -2.5000011921
17.4734652937 3.9697149412 -2.5000011921
19.5874352719 2.6218265677 -2.5000011921
19.5338094072 2.6782343795 -2.5000011921
17.9540908946 -0.4399849762 -2.5000011921
17.9362236252 -0.3988025270 -2.5000011921
17.8893135352 -0.3003996409 -2.5000011921
17.8685699250 -0.2605883852 -2.5000011921
17.8624921917 -0.2492934568 -2.5000011921
17.8375162387 -0.2044792333 -2.5000011921
17.7669800110 -0.0897771957 -2.5000011921
17.6739253802 0.0407392734 -2.5000011921
17.5800097517 0.1544429939 -2.5000011921
17.9712913721 -0.4186582915 -2.5000011921
17.9253350570 -0.3184675193 -2.5000011921
17.7318819010 0.0035397917 -2.5000011921
17.6194189830 0.1460221422 -2.5000011921
17.7964648617 -0.0468074963 -2.5000011921
17.5630454484 0.2444625656 -2.5000011921
17.9262510126 -0.2147416074 -2.5000011921
17.8561807285 -0.0945109473 -2.5000011921
17.7978591631 -0.0059580190 -2.5000011921
17.7749179361 0.0265228112 -2.5000011921
17.6299199480 0.2074570890 -2.5000011921
17.5389089964 0.3038022510 -2.5000011921
17.4669985940 0.3724366691 -2.5000011921
17.9313275195 -0.1738937280 -2.5000011921
17.7505268846 0.0997441379 -2.5000011921
17.7318535938 0.1622697240 -2.5000011921
17.4230944092 0.4749295404 -2.5000011921
18.4429949531 -2.1303619286 -2.5000011921
18.4605971518 -0.4875352796 -2.5000011921
18.4410913020 -0.4285012243 -2.5000011921
18.4359969774 -0.4138161283 -2.5000011921
18.4394587640 -2.2120141387 -2.5000011921
18.4476124594 -2.1899421170 -2.5000011921
18.4508190919 -2.2500736425 -2.5000011921
18.4593100967 -2.2278993056 -2.5000011921
18.4371089524 -2.3475300198 -2.5000011921
18.4433683163 -2.3328348986 -2.5000011921
18.4251185631 -0.1893956646 -2.5000011921
18.4624890869 -2.3496600047 -2.5000011921
18.4656358265 -2.3422419848 -2.5000011921
18.4439500766 -0.1722474237 -2.5000011921
18.4373396184 -0.1575498992 -2.5000011921
18.4238584171 -0.1282734639 -2.5000011921
18.4483533793 -2.4408189410 -2.5000011921
18.4685240399 -2.3964095048 -2.5000011921
18.4423004361 -0.1106742477 -2.5000011921
18.4388239391 -0.1033257460 -2.5000011921
18.4318058068 -0.0886597556 -2.5000011921
18.4527110423 -2.4880631205 -2.5000011921
18.4487518419 -2.5504549245 -2.5000011921
18.4242976996 0.0836278334 -2.5000011921
18.4531514367 -2.6954846593 -2.5000011921
18.4457753634 0.1440129611 -2.5000011921
18.4528336652 -2.7444750904 -2.5000011921
18.4699610798 -2.7148342219 -2.5000011921
18.4346587721 0.2569705042 -2.5000011921
18.4540738536 -2.8359494161 -2.5000011921
18.4586591620 -2.8285541623 -2.5000011921
18.4677640491 -2.8137231240 -2.5000011921
18.4637063999 0.3904433547 -2.5000011921
18.4450245686 0.8169994943 -2.5000011921
18.4472520861 0.9615688456 -2.5000011921
17.4213343541 3.4184848616 -2.5000011921
17.4074224334 3.4227977194 -2.5000011921
17.3934978153 3.4270694044 -2.5000011921
17.3516489961 3.4396370501 -2.5000011921
17.4843171934 3.4238141038 -2.5000011921
17.4703892322 3.4283132529 -2.5000011921
17.5615578138 3.4235801551 -2.5000011921
17.6391240568 3.4220858895 -2.5000011921
17.7169954649 3.4193216496 -2.5000011921
17.7030797752 3.4245091227 -2.5000011921
17.6891488009 3.4296554081 -2.5000011921
17.7812472969 3.4206967983 -2.5000011921
17.7673272581 3.4260743340 -2.5000011921
17.7394397619 3.4367057541 -2.5000011921
17.8827138312 3.4323235334 -2.5000011921
17.9617058459 3.4255570756 -2.5000011921
17.9198480726 3.4431673084 -2.5000011921
18.0130755973 3.4297307144 -2.5000011921
17.9991278202 3.4357940006 -2.5000011921
18.0646765936 3.4333616236 -2.5000011921
18.1165032325 3.4364460345 -2.5000011921
18.1964433053 3.4258100158 -2.5000011921
18.2208107851 3.4409605710 -2.5000011921
18.3538683939 3.4291437792 -2.5000011921
19.0242767526 3.0820049282 -2.5000011921
18.9854259693 3.1090584103 -2.5000011921
18.9332543715 3.1445913756 -2.5000011921
18.8409556010 3.2052797125 -2.5000011921
18.8276681682 3.2137929995 -2.5000011921
18.7608564520 3.2557677987 -2.5000011921
18.6662926430 3.3128626609 -2.5000011921
18.6254072237 3.3367301441 -2.5000011921
18.5980333000 3.3524398171 -2.5000011921
18.1048885957 3.6006337152 -2.5000011921
18.0324344160 3.6318760110 -2.5000011921
17.9155697063 3.6796248401 -2.5000011921
19.1664976479 3.0087124711 -2.5000011921
19.1282916935 3.0370309701 -2.5000011921
19.1155007137 3.0463949854 -2.5000011921
19.0898359329 3.0650092975 -2.5000011921
17.8801366894 3.7193774109 -2.5000011921
17.8059508288 3.7472825505 -2.5000011921
17.7761622810 3.7581368589 -2.5000011921
19.2695345400 2.9603777072 -2.5000011921
17.6640498932 3.8227105882 -2.5000011921
17.6035265357 3.8425584579 -2.5000011921
17.5731778464 3.8522134888 -2.5000011921
17.5579822136 3.8569736293 -2.5000011921
17.5427725659 3.8616887976 -2.5000011921
19.2844125392 2.9794297522 -2.5000011921
17.4425676803 3.9166744161 -2.5000011921
17.4271819319 3.9210479062 -2.5000011921
17.4117833132 3.9253758632 -2.5000011921
18.9738623817 3.2628202473 -2.5000011921
17.9229450353 -0.4102060981 -2.5000011921
17.9059982537 -0.3851151789 -2.5000011921
17.9245458928 -0.3272825811 -2.5000011921
17.8803100939 -0.2674867215 -2.5000011921
17.7732113198 -0.1389354407 -2.5000011921
17.9657922153 -0.3440822688 -2.5000011921
17.8802124216 -0.2280409637 -2.5000011921
17.7911509330 -0.1227334174 -2.5000011921
17.8467767871 -0.1493927989 -2.5000011921
17.6473481919 0.0544372164 -2.5000011921
17.8140716605 -0.0761085051 -2.5000011921
17.6056658923 0.1536904886 -2.5000011921
18.4336829302 -1.6003586547 -2.5000011921
18.4343088237 -1.5216910986 -2.5000011921
17.6209666351 0.1724047225 -2.5000011921
17.5902933509 0.1970322585 -2.5000011921
18.4469839729 -0.8402014826 -2.5000011921
18.4406557554 -0.8204493457 -2.5000011921
18.4341524979 -0.8007541460 -2.5000011921
17.4442326646 0.4463142949 -2.5000011921
18.4353961832 -2.3555392485 -2.5000011921
18.4425161946 -2.3358302748 -2.5000011921
18.4517369359 -2.3094548300 -2.5000011921
18.4584473304 -2.2896026561 -2.5000011921
18.4380525410 -2.4166283719 -2.5000011921
18.4556576244 -2.3704758546 -2.5000011921
18.4580944889 -2.3638532247 -2.5000011921
18.4516658423 -0.7055942425 -2.5000011921
18.4338396486 -0.6595266765 -2.5000011921
18.4631473018 -2.4188397999 -2.5000011921
18.4335467819 -0.5356663972 -2.5000011921
18.4433514223 -0.4992546435 -2.5000011921
18.4263976228 -0.4098989763 -2.5000011921
18.4231007797 -0.2059614898 -2.5000011921
17.5368655691 3.4258195847 -2.5000011921
17.4927146469 3.4373269414 -2.5000011921
14.9491302890 3.4387527541 -2.5000011921
17.6314665004 3.4248822829 -2.5000011921
17.6020477675 3.4331571024 -2.5000011921
14.8840246889 3.4467414336 -2.5000011921
14.8397925622 3.4347054917 -2.5000011921
14.8103645708 3.4264636588 -2.5000011921
14.7956689895 3.4222774885 -2.5000011921
14.7809858560 3.4180478643 -2.5000011921
17.7411298752 3.4176614813 -2.5000011921
17.7117519437 3.4265852326 -2.5000011921
17.6970433079 3.4309818903 -2.5000011921
14.8926180111 3.4740373470 -2.5000011921
14.7595210914 3.4369734014 -2.5000011921
14.7153805533 3.4238329446 -2.5000011921
14.7006931697 3.4193658059 -2.5000011921
