40.1725749374 -24.3499737855 -2.4002625942
43.2481016818 -27.6034095192 -2.4002625942
43.3324762036 -27.6532950128 -2.4002625942
43.3536616039 -27.6656101167 -2.4002625942
39.9975267250 -24.0533868919 -2.4002625942
40.0401232898 -24.1419832215 -2.4002625942
40.0727570435 -24.2080963096 -2.4002625942
42.7610692030 -27.3173264800 -2.4002625942
43.2356761758 -27.6241445640 -2.4002625942
43.4483231721 -27.7473361273 -2.4002625942
43.5011990798 -27.8042588162 -2.4002625942
48.4523004902 -21.2005932127 -2.4893476963
48.4489698993 -21.3146009580 -2.4893476963
45.6880137379 -25.9294952220 -2.4893476963
45.7518447785 -25.9450413970 -2.4893476963
48.2753554197 -25.9544416474 -2.4893476963
48.3552585681 -25.9354857542 -2.4893476963
48.5300033263 -25.8896363775 -2.4893476963
48.5458134263 -25.8851867687 -2.4893476963
48.5616102944 -25.8806904101 -2.4893476963
48.5773937924 -25.8761473412 -2.4893476963
48.5931637820 -25.8715576018 -2.4893476963
48.6403913219 -25.8575087638 -2.4893476963
45.5863489027 -25.9281071093 -2.4893476963
45.6022856858 -25.9323651942 -2.4893476963
45.6182349954 -25.9365761167 -2.4893476963
45.6501706356 -25.9448563270 -2.4893476963
47.9897251788 -26.0366684028 -2.4893476963
48.8981261907 -25.7983229406 -2.4893476963
49.0988030553 -25.7227574157 -2.4893476963
45.5002388284 -25.9293597591 -2.4893476963
45.7245684896 -25.9882322806 -2.4893476963
45.9674028604 -26.0409449327 -2.4893476963
45.3978497972 -25.9244225155 -2.4893476963
45.4456723106 -25.9387282149 -2.4893476963
45.6220628376 -25.9875384584 -2.4893476963
45.7189178132 -26.0117355812 -2.4893476963
47.6355912452 -26.1352783932 -2.4893476963
47.7347511821 -26.1237157824 -2.4893476963
49.3767123769 -25.6563543908 -2.4893476963
50.0064731178 -25.3178138342 -2.4893476963
45.3588722352 -25.9377359061 -2.4893476963
47.4384658100 -26.1772262427 -2.4893476963
50.1875621491 -25.2293558099 -2.4893476963
45.2717556632 -25.9353513677 -2.4893476963
45.2877152526 -25.9405400447 -2.4893476963
45.3036901213 -25.9456814876 -2.4893476963
45.2322391701 -25.9477651990 -2.4893476963
45.2085469341 -25.9653223757 -2.4893476963
45.1044791857 -25.9548439294 -2.4893476963
45.0321917132 -25.9543090202 -2.4893476963
44.9028661348 -25.9566919382 -2.4893476963
44.8138418516 -25.9469432753 -2.4893476963
44.8458529056 -25.9599823642 -2.4893476963
44.7725912503 -25.9560202750 -2.4893476963
44.6991183312 -25.9510797897 -2.4893476963
44.6254470814 -25.9451553697 -2.4893476963
44.6414385008 -25.9522559014 -2.4893476963
44.5835546973 -25.9528324538 -2.4893476963
44.5094804960 -25.9453623452 -2.4893476963
44.4671996744 -25.9521728591 -2.4893476963
44.4832125452 -25.9597414846 -2.4893476963
44.4087408220 -25.9509298552 -2.4893476963
44.0427475431 -25.9516348634 -2.4893476963
43.7173953998 -25.9579358358 -2.4893476963
43.7334285991 -25.9677224927 -2.4893476963
43.5217427882 -25.9488175534 -2.4893476963
41.6160803681 -24.2121072832 -2.4893476963
43.3562174320 -25.9549153007 -2.4893476963
43.2968542639 -25.9728894108 -2.4893476963
41.6227427959 -24.3494082622 -2.4893476963
43.2349329464 -25.9593035582 -2.4893476963
41.6142971200 -24.3793651807 -2.4893476963
41.6290234381 -24.5642519737 -2.4893476963
41.6357244103 -25.3013345586 -2.4893476963
41.8134367669 -25.9756476935 -2.4893476963
41.2580602393 -25.6039687634 -2.4893476963
41.2881043730 -25.6380510531 -2.4893476963
41.3032019245 -25.6550253918 -2.4893476963
41.3640922740 -25.7224739118 -2.4893476963
41.3794392311 -25.7392230953 -2.4893476963
41.3948356682 -25.7559268063 -2.4893476963
41.8790534076 -26.2351830885 -2.4893476963
41.8959147980 -26.2504066804 -2.4893476963
41.9128211488 -26.2655803267 -2.4893476963
41.9297723120 -26.2807038946 -2.4893476963
41.9980221165 -26.3406947414 -2.4893476963
42.0151951089 -26.3555659407 -2.4893476963
42.0324120179 -26.3703862741 -2.4893476963
42.0496726928 -26.3851556120 -2.4893476963
41.0203754512 -25.3578972136 -2.4893476963
41.0489679029 -25.3933900329 -2.4893476963
41.1802117162 -25.5509888497 -2.4893476963
41.2248863000 -25.6027384263 -2.4893476963
42.0687450623 -26.4330234536 -2.4893476963
42.2095151976 -26.5488621823 -2.4893476963
42.2273030616 -26.5631068360 -2.4893476963
42.2451329861 -26.5772988077 -2.4893476963
40.8612822813 -25.1924743575 -2.4893476963
40.8750636039 -25.2107132628 -2.4893476963
40.9027878091 -25.2470683719 -2.4893476963
40.9167304491 -25.2651842574 -2.4893476963
40.9307266181 -25.2832588189 -2.4893476963
42.2301068007 -26.5962341988 -2.4893476963
42.2660044976 -26.6245481683 -2.4893476963
42.3746938528 -26.7082088794 -2.4893476963
42.3929523705 -26.7219642076 -2.4893476963
40.6935079125 -25.0031048048 -2.4893476963
40.7067297798 -25.0218408456 -2.4893476963
40.7333394985 -25.0591951797 -2.4893476963
40.7736672865 -25.1149298628 -2.4893476963
40.8008265796 -25.1518865428 -2.4893476963
40.8975959084 -25.2799560086 -2.4893476963
42.3784355802 -26.7412928931 -2.4893476963
42.5077766440 -26.8363559264 -2.4893476963
42.5825607176 -26.8894686584 -2.4893476963
42.6013545249 -26.9026082857 -2.4893476963
40.5953311654 -24.9034300256 -2.4893476963
42.7014586187 -27.0003472528 -2.4893476963
42.7397389346 -27.0258654740 -2.4893476963
42.6116501727 -26.9685467609 -2.4893476963
43.0265186998 -27.2632930088 -2.4893476963
42.1186874947 -26.6619391408 -2.4893476963
43.0540920186 -27.3077185693 -2.4893476963
43.0741210217 -27.3194614918 -2.4893476963
43.0941846748 -27.3311451134 -2.4893476963
42.9419090759 -27.2687696015 -2.4893476963
42.9601864582 -27.4207089874 -2.4893476963
48.4328474422 -21.0437025156 -2.5027558543
48.4478805473 -20.9661165101 -2.5027558543
48.4391155479 -21.1215459208 -2.5027558572
48.4430879256 -21.1060246168 -2.5027558572
48.4481698667 -21.0852758699 -2.5027558572
48.4418828454 -21.2005453359 -2.5027558600
48.4525723183 -21.1642010493 -2.5027558600
48.4336728955 -21.3011937251 -2.5027558629
48.4464481356 -21.2649978544 -2.5027558629
48.4456481062 -21.5201177946 -2.5027558744
48.4437377053 -21.5776528682 -2.5027558773
47.9827449778 -22.4380965907 -2.5027559033
48.9021134328 -22.0416492941 -2.5027559522
45.3532977698 -25.9298684002 -2.5027562894
45.3844629860 -25.9376973543 -2.5027562894
45.4312962940 -25.9490947249 -2.5027562894
45.4938945342 -25.9636438515 -2.5027562894
45.8092261952 -26.0252267337 -2.5027562894
45.9521998722 -26.0468313386 -2.5027562894
48.0870327213 -25.9152964034 -2.5027562894
48.1180638798 -25.9069519185 -2.5027562894
48.1335608099 -25.9027108658 -2.5027562894
48.1645166938 -25.8940913253 -2.5027562894
48.1799753767 -25.8897129131 -2.5027562894
45.2537140108 -25.9285948149 -2.5027562923
45.2692874973 -25.9328269324 -2.5027562923
45.2848734350 -25.9370129623 -2.5027562923
45.3160821184 -25.9452466127 -2.5027562923
45.3317045910 -25.9492941612 -2.5027562923
45.3943121631 -25.9650216891 -2.5027562923
45.8052965906 -26.0490782219 -2.5027562923
48.2176128448 -25.9040277699 -2.5027562923
48.2331006891 -25.8994922462 -2.5027562923
48.2485750489 -25.8949109264 -2.5027562923
48.2640357885 -25.8902838507 -2.5027562923
48.2399286120 -25.9226809234 -2.5027562952
48.3020176906 -25.9039988567 -2.5027562952
45.1157434191 -25.9394038042 -2.5027562980
45.1313494842 -25.9440440164 -2.5027562980
45.1469692076 -25.9486380427 -2.5027562980
45.1939089601 -25.9621426065 -2.5027562980
48.3712560986 -25.9076040441 -2.5027562980
48.3867538500 -25.9026140001 -2.5027562980
48.4022367722 -25.8975781329 -2.5027562980
45.0931590296 -25.9578571431 -2.5027563009
45.1244943895 -25.9672246755 -2.5027563009
48.3941966478 -25.9256126967 -2.5027563009
48.4252834651 -25.9154507463 -2.5027563009
48.5336024624 -25.8784393423 -2.5027563009
48.5951474951 -25.8562854874 -2.5027563009
48.6564260846 -25.8334049539 -2.5027563009
48.6717030939 -25.8275716503 -2.5027563009
48.7326365685 -25.8037872855 -2.5027563009
48.7262858958 -25.8322932155 -2.5027563038
48.7568147916 -25.8201681469 -2.5027563038
48.8479635954 -25.7827122281 -2.5027563038
48.8630898084 -25.7763125436 -2.5027563038
48.9384332679 -25.7436444838 -2.5027563038
48.9834045151 -25.7235100034 -2.5027563038
49.0281953091 -25.7029772212 -2.5027563038
49.0430848629 -25.6960447276 -2.5027563038
44.9063618181 -25.9488338334 -2.5027563067
44.9376470624 -25.9593066787 -2.5027563067
47.8031115028 -26.1307213218 -2.5027563067
47.8192717614 -26.1274109761 -2.5027563067
48.7658039532 -25.8426076267 -2.5027563067
49.2164261987 -25.6384503575 -2.5027563067
49.3623894905 -25.5616129482 -2.5027563067
49.3768594010 -25.5536924663 -2.5027563067
44.8359682753 -25.9501405454 -2.5027563096
44.8516073257 -25.9556083361 -2.5027563096
47.6777454054 -26.1792760028 -2.5027563096
47.6940498460 -26.1763363002 -2.5027563096
48.8208481861 -25.8463600600 -2.5027563096
49.5752285364 -25.4675838143 -2.5027563096
44.7652948994 -25.9505178424 -2.5027563125
44.7809353752 -25.9561946960 -2.5027563125
44.7965925757 -25.9618252575 -2.5027563125
47.4683908951 -26.2370348368 -2.5027563125
47.5342535676 -26.2274599561 -2.5027563125
47.6656159917 -26.2059757020 -2.5027563125
44.6943538669 -25.9499592986 -2.5027563153
44.6387924729 -25.9545559776 -2.5027563182
44.6701162541 -25.9666117529 -2.5027563182
44.6858047551 -25.9725700918 -2.5027563182
47.2751562000 -26.3091648114 -2.5027563182
48.9719756412 -25.8609429148 -2.5027563182
49.0638142326 -25.8196618603 -2.5027563182
44.5517180984 -25.9460097795 -2.5027563211
44.6143414119 -25.9709666999 -2.5027563211
44.4393919071 -25.9516643395 -2.5027563269
44.4550372004 -25.9583052681 -2.5027563269
44.4707020703 -25.9648998861 -2.5027563269
44.3672688449 -25.9467624311 -2.5027563297
44.3828999531 -25.9536167343 -2.5027563297
46.7741020737 -26.4353119385 -2.5027563297
50.1165829124 -25.3097613357 -2.5027563297
44.3575284543 -25.9688861756 -2.5027563326
44.2536511837 -25.9485631082 -2.5027563355
44.1965430832 -25.9485714286 -2.5027563384
44.1392435992 -25.9479804493 -2.5027563413
44.1705372203 -25.9629918386 -2.5027563413
44.0973913155 -25.9544856744 -2.5027563441
44.1130464512 -25.9621382903 -2.5027563441
44.0397225013 -25.9528565786 -2.5027563470
43.9818790998 -25.9506187171 -2.5027563499
43.9395034146 -25.9559348310 -2.5027563528
43.9126454349 -25.9691792191 -2.5027563557
43.8386178889 -25.9571956974 -2.5027563586
43.8542821736 -25.9656138001 -2.5027563586
43.8699712921 -25.9739855281 -2.5027563586
43.7957641875 -25.9614284703 -2.5027563614
43.6506321121 -25.9632104800 -2.5027563701
43.5479284770 -25.9592113932 -2.5027563758
43.5041998226 -25.9612258503 -2.5027563787
43.4603377102 -25.9629074296 -2.5027563816
43.4163445522 -25.9642546251 -2.5027563845
43.3722227741 -25.9652659477 -2.5027563874
42.6977240200 -25.9702775175 -2.5027564335
42.4211364912 -25.9692993592 -2.5027564537
41.6006029346 -25.4736489510 -2.5027564767
41.8061794332 -26.1773094109 -2.5027565199
41.8225037469 -26.1917388710 -2.5027565199
41.8388706741 -26.2061199777 -2.5027565199
41.8882257027 -26.2489719209 -2.5027565199
41.3044006139 -25.7232622951 -2.5027565228
41.3320139055 -25.7875756422 -2.5027565257
41.3624076491 -25.8191983525 -2.5027565257
41.4065751838 -25.8989083878 -2.5027565286
48.4446156827 -21.7382313580 -2.5006575584
48.4434268146 -21.8568403747 -2.5006575584
48.4523355262 -21.8383478034 -2.5006575584
48.4415241405 -22.1118142445 -2.5006575584
45.0509527563 -25.9393524609 -2.5006575584
45.0962250634 -25.9508054301 -2.5006575584
47.7896744851 -25.9090604141 -2.5006575584
47.8196176018 -25.9005377066 -2.5006575584
47.8345701203 -25.8962099573 -2.5006575584
47.8495097711 -25.8918379946 -2.5006575584
45.0146576258 -25.9548662615 -2.5006575584
47.9012793367 -25.9015856932 -2.5006575584
44.8873676415 -25.9447219253 -2.5006575584
44.9175725388 -25.9533696156 -2.5006575584
44.9478280701 -25.9618384522 -2.5006575584
48.0281082621 -25.8867508913 -2.5006575584
44.7899341091 -25.9408053841 -2.5006575584
44.8201175401 -25.9500295924 -2.5006575584
44.8352295887 -25.9545746902 -2.5006575584
48.0506614117 -25.9047396156 -2.5006575584
48.1104273013 -25.8844293800 -2.5006575584
44.7223276088 -25.9448326280 -2.5006575584
44.7525360496 -25.9544567486 -2.5006575584
44.7828009012 -25.9639019775 -2.5006575584
48.1781315478 -25.8861592908 -2.5006575584
44.6544064358 -25.9479703964 -2.5006575584
44.6164248604 -25.9606413272 -2.5006575584
48.3143810824 -25.8869137055 -2.5006575584
48.3292911339 -25.8811224159 -2.5006575584
44.5176666769 -25.9515501761 -2.5006575584
48.3829025609 -25.8859254206 -2.5006575584
48.4367532996 -25.8901718444 -2.5006575584
44.3798092148 -25.9514915826 -2.5006575584
48.2342905218 -25.9943790370 -2.5006575584
48.3254102018 -25.9603756420 -2.5006575584
48.6245204459 -25.8354538026 -2.5006575584
48.6834263400 -25.8083582507 -2.5006575584
48.7127580267 -25.7945495695 -2.5006575584
48.7273931053 -25.7875802130 -2.5006575584
48.7566010926 -25.7735117733 -2.5006575584
48.7711737458 -25.7664128131 -2.5006575584
48.8147648134 -25.7448577182 -2.5006575584
48.0732349829 -26.0754750392 -2.5006575584
48.8836513149 -25.7370088687 -2.5006575584
48.9987362825 -25.6760183416 -2.5006575584
49.0699191869 -25.6365227841 -2.5006575584
47.7036652355 -26.2069870624 -2.5006575584
47.7195247940 -26.2030009803 -2.5006575584
49.1385722966 -25.6250789833 -2.5006575584
49.2369787668 -25.5666066324 -2.5006575584
49.3891126796 -25.4706400283 -2.5006575584
44.1862367262 -25.9509365184 -2.5006575584
47.5976986476 -26.2571424553 -2.5006575584
47.6297044944 -26.2497494492 -2.5006575584
47.6456908754 -26.2459819693 -2.5006575584
48.9785139942 -25.7418595911 -2.5006575584
49.4707408744 -25.4454279127 -2.5006575584
49.6188085740 -25.3419201728 -2.5006575584
47.4255258909 -26.3181414061 -2.5006575584
47.4417154811 -26.3149776241 -2.5006575584
49.7126458443 -25.3027764341 -2.5006575584
49.7912579796 -25.2426438593 -2.5006575584
47.2833863915 -26.3683016804 -2.5006575584
44.0208406954 -25.9570763340 -2.5006575584
47.1887348181 -26.4076586334 -2.5006575584
47.2051902525 -26.4051949306 -2.5006575584
43.9095394296 -25.9582683482 -2.5006575584
46.8792651311 -26.4933423850 -2.5006575584
43.8535955523 -25.9579834242 -2.5006575584
43.8687353587 -25.9653876340 -2.5006575584
43.8126017134 -25.9646769154 -2.5006575584
43.7411516516 -25.9556346999 -2.5006575584
43.6431270189 -25.9589637471 -2.5006575584
43.5293111219 -25.9521385986 -2.5006575584
43.4872835644 -25.9563443616 -2.5006575584
43.4451074286 -25.9602308994 -2.5006575584
43.3725449496 -25.9461867393 -2.5006575584
43.3025598073 -25.9609248989 -2.5006575584
43.0137655651 -25.9510532147 -2.5006575584
42.9265735664 -25.9511604924 -2.5006575584
42.5884131544 -25.9491332257 -2.5006575584
47.9784484942 -22.3639994831 -2.4989764690
47.9909357236 -22.4308953486 -2.4989764690
48.4501981965 -21.9757108250 -2.4989764690
48.4535897746 -22.0335448797 -2.4989764690
48.4555916509 -22.0918992405 -2.4989764690
48.4465951683 -22.1717578046 -2.4989764690
48.4375387376 -22.4982024240 -2.4989764690
48.4595010964 -22.7730696884 -2.4989764690
48.4324093366 -23.0073524630 -2.4989764690
44.8601177337 -25.9498846850 -2.4989764690
44.8745267435 -25.9534814523 -2.4989764690
44.9033763674 -25.9605470353 -2.4989764690
47.4299351901 -25.9171389157 -2.4989764690
47.4442360879 -25.9131338415 -2.4989764690
47.5013193264 -25.8966910295 -2.4989764690
44.7964238866 -25.9584452211 -2.4989764690
44.8397609985 -25.9696724815 -2.4989764690
47.5367523496 -25.9113643836 -2.4989764690
44.6890552120 -25.9539966341 -2.4989764690
44.7034771342 -25.9580994174 -2.4989764690
44.7179111300 -25.9621595200 -2.4989764690
44.7323570732 -25.9661769064 -2.4989764690
44.7757653223 -25.9779724193 -2.4989764690
47.6010469455 -25.9168907264 -2.4989764690
47.6153463605 -25.9123794738 -2.4989764690
47.6581636595 -25.8985921925 -2.4989764690
44.5957241139 -25.9516047024 -2.4989764690
44.6101393686 -25.9559835864 -2.4989764690
44.6245675139 -25.9603198082 -2.4989764690
44.6390084233 -25.9646133300 -2.4989764690
44.6534619705 -25.9688641142 -2.4989764690
47.7085716906 -25.9073343717 -2.4989764690
47.7370986924 -25.8976336007 -2.4989764690
44.5164442688 -25.9520837776 -2.4989764690
44.5308612876 -25.9566971836 -2.4989764690
44.5741933442 -25.9702812319 -2.4989764690
47.7592583184 -25.9155594973 -2.4989764690
47.7735531031 -25.9105802326 -2.4989764690
47.8163482049 -25.8953890261 -2.4989764690
44.4512414464 -25.9561271684 -2.4989764690
44.4945715796 -25.9704178205 -2.4989764690
47.8673957940 -25.9024893255 -2.4989764690
47.8816514417 -25.8971902278 -2.4989764690
44.3713005459 -25.9542636117 -2.4989764690
47.9472387829 -25.8981169644 -2.4989764690
47.9614811469 -25.8925816958 -2.4989764690
44.3054745917 -25.9563770561 -2.4989764690
44.3199052339 -25.9616145297 -2.4989764690
44.3343513064 -25.9668092920 -2.4989764690
48.0273408515 -25.8924326847 -2.4989764690
44.2393600970 -25.9576118994 -2.4989764690
44.2682452746 -25.9684352692 -2.4989764690
48.0506881699 -25.9090462437 -2.4989764690
48.0649624122 -25.9032049053 -2.4989764690
44.2163260459 -25.9747217177 -2.4989764690
44.0918947532 -25.9515505585 -2.4989764690
44.1351984222 -25.9690303912 -2.4989764690
44.1641529784 -25.9804698166 -2.4989764690
48.2264216708 -25.8866333789 -2.4989764690
44.0394020676 -25.9559804011 -2.4989764690
44.0011170059 -25.9660409353 -2.4989764690
44.0155775673 -25.9721787114 -2.4989764690
48.3318507783 -25.8916357769 -2.4989764690
48.3602739936 -25.8782477522 -2.4989764690
43.9337181839 -25.9631867719 -2.4989764690
48.3706392496 -25.9000857180 -2.4989764690
43.8516745932 -25.9528386052 -2.4989764690
43.8126929376 -25.9614684172 -2.4989764690
48.2173250763 -26.0226170372 -2.4989764690
48.2901831472 -25.9905118126 -2.4989764690
48.3769741169 -25.9505683825 -2.4989764690
48.6188679616 -25.8291080634 -2.4989764690
48.6329032462 -25.8215862962 -2.4989764690
48.6609067563 -25.8064183700 -2.4989764690
48.6888200377 -25.7910850310 -2.4989764690
48.7027425372 -25.7833564993 -2.4989764690
48.7166421133 -25.7755868161 -2.4989764690
48.7305186446 -25.7677760495 -2.4989764690
48.7443720095 -25.7599242677 -2.4989764690
48.7582020867 -25.7520315396 -2.4989764690
48.7857918945 -25.7361235206 -2.4989764690
48.8132871023 -25.7200525496 -2.4989764690
48.8679898713 -25.6874240068 -2.4989764690
43.7446467813 -25.9560564556 -2.4989764690
47.9145977975 -26.1683199664 -2.4989764690
47.9446652719 -26.1573957081 -2.4989764690
47.9596746406 -26.1518669180 -2.4989764690
48.1532545283 -26.0759725487 -2.4989764690
48.7424069043 -25.7888237231 -2.4989764690
48.9621813541 -25.6577349289 -2.4989764690
48.9892097015 -25.6406217504 -2.4989764690
49.0563334828 -25.5971418379 -2.4989764690
49.1095649004 -25.5616460620 -2.4989764690
49.2147491550 -25.4887774459 -2.4989764690
43.6908259508 -25.9568128718 -2.4989764690
47.7096285138 -26.2628466218 -2.4989764690
47.7402588269 -26.2531333761 -2.4989764690
47.7708311372 -26.2432390813 -2.4989764690
47.8470011325 -26.2177135422 -2.4989764690
48.9341388663 -25.7036791651 -2.4989764690
49.2024982955 -25.5270164225 -2.4989764690
49.3966545441 -25.3842730421 -2.4989764690
49.4220573952 -25.3645941604 -2.4989764690
43.6368083561 -25.9569962817 -2.4989764690
47.5311044137 -26.3406115731 -2.4989764690
47.5466575776 -26.3363053691 -2.4989764690
47.6087408080 -26.3186210339 -2.4989764690
47.6706104430 -26.3002033391 -2.4989764690
49.5252930647 -25.3132959074 -2.4989764690
47.3806219268 -26.4046217279 -2.4989764690
47.3963651027 -26.4007603983 -2.4989764690
49.3874863714 -25.4520758793 -2.4989764690
49.7257200597 -25.1745033896 -2.4989764690
47.0603688663 -26.5462864710 -2.4989764690
46.9833272234 -26.5839974894 -2.4989764690
46.8397755973 -26.6299607470 -2.4989764690
47.9996425175 -22.3297956608 -2.5006785393
47.9720069272 -22.6899233767 -2.5006785393
48.4396273527 -22.2687179320 -2.5006785393
48.4449267791 -22.2533471307 -2.5006785393
48.4501351740 -22.2379452452 -2.5006785393
48.4577766841 -22.2147853137 -2.5006785393
48.4840301430 -22.1293071080 -2.5006785393
48.4272850384 -20.4272004979 -2.5006785393
48.4471950640 -20.4112444963 -2.5006785393
48.4298521030 -20.3651976389 -2.5006785393
48.4825553641 -22.2924197484 -2.5006785393
48.4371909580 -20.3180122183 -2.5006785393
48.4309493970 -20.3026899721 -2.5006785393
48.4454122935 -22.4561457500 -2.5006785393
48.4404444250 -20.2627081264 -2.5006785393
48.4511453499 -22.5041755715 -2.5006785393
48.4644384090 -22.4732501149 -2.5006785393
48.4773646132 -22.4421695336 -2.5006785393
48.4489516766 -22.5680427088 -2.5006785393
48.4359872510 -22.7045925541 -2.5006785393
48.4438655218 -22.6892356603 -2.5006785393
48.4555122281 -22.6661135973 -2.5006785393
48.4585126750 -22.7656061283 -2.5006785393
48.4561691906 -22.9172341902 -2.5006785393
48.4343759534 -22.9991108767 -2.5006785393
48.4401050125 -23.0351098087 -2.5006785393
48.4294496180 -23.1385038784 -2.5006785393
44.6913032588 -25.9529273795 -2.5006785393
44.7184653075 -25.9596684425 -2.5006785393
44.7592819713 -25.9694784314 -2.5006785393
44.8001840859 -25.9789258091 -2.5006785393
46.9228779761 -25.9709784768 -2.5006785393
47.0586303301 -25.9370609565 -2.5006785393
47.0991542126 -25.9261041839 -2.5006785393
44.5901839792 -25.9513876220 -2.5006785393
44.6173386880 -25.9587269676 -2.5006785393
44.6581509789 -25.9694344356 -2.5006785393
46.9830889206 -25.9813628410 -2.5006785393
47.2540397090 -25.9059490255 -2.5006785393
44.5293555989 -25.9594674773 -2.5006785393
44.5565591754 -25.9671665626 -2.5006785393
44.5838078261 -25.9747045676 -2.5006785393
44.6111005974 -25.9820812286 -2.5006785393
46.9888789955 -26.0048321894 -2.5006785393
47.2881830924 -25.9205720134 -2.5006785393
44.4545554998 -25.9626557664 -2.5006785393
44.4681613531 -25.9667466856 -2.5006785393
44.4817792484 -25.9707973383 -2.5006785393
47.4168497257 -25.9033605365 -2.5006785393
47.4247646834 -25.9262010428 -2.5006785393
47.4786205905 -25.9071806366 -2.5006785393
47.4920491067 -25.9023260671 -2.5006785393
47.5272489554 -25.9151695866 -2.5006785393
47.6433625348 -25.8965377639 -2.5006785393
47.7689813285 -25.8971957114 -2.5006785393
47.7784308028 -25.9194452668 -2.5006785393
47.8687965887 -25.9064784932 -2.5006785393
47.8822213207 -25.9004697156 -2.5006785393
47.9190555861 -25.9103232744 -2.5006785393
47.9459090836 -25.8979686163 -2.5006785393
48.0337021169 -25.9099439063 -2.5006785393
48.1114920254 -25.8986842844 -2.5006785393
48.1760418697 -25.8930306706 -2.5006785393
48.2273888900 -25.8935507093 -2.5006785393
48.3038226941 -25.9075491102 -2.5006785393
48.2148551448 -26.0360808374 -2.5006785393
48.2973793830 -25.9932716151 -2.5006785393
48.3791308369 -25.9490044807 -2.5006785393
48.6848917681 -25.7660648422 -2.5006785393
48.6978975603 -25.7576425218 -2.5006785393
47.9012739688 -26.2086894876 -2.5006785393
47.9441752201 -26.1902440291 -2.5006785393
47.9584390520 -26.1840110262 -2.5006785393
47.9726843831 -26.1777358557 -2.5006785393
47.9869110888 -26.1714185723 -2.5006785393
48.0011190446 -26.1650592314 -2.5006785393
48.0294782093 -26.1522146000 -2.5006785393
48.0436291701 -26.1457294219 -2.5006785393
48.0577608845 -26.1392024111 -2.5006785393
48.1000393147 -26.1193709553 -2.5006785393
48.1281264410 -26.1059418779 -2.5006785393
48.1561336247 -26.0923468628 -2.5006785393
48.6190859654 -25.8363264818 -2.5006785393
48.6849104699 -25.7947968634 -2.5006785393
48.7889311438 -25.7263377563 -2.5006785393
48.8018189609 -25.7176078425 -2.5006785393
48.8146808969 -25.7088398424 -2.5006785393
48.8403266758 -25.6911898904 -2.5006785393
48.9039803538 -25.6464039120 -2.5006785393
48.9669646673 -25.6006813699 -2.5006785393
48.9919678791 -25.5821323490 -2.5006785393
49.0292658372 -25.5540322668 -2.5006785393
47.7075012022 -26.3123237115 -2.5006785393
47.7659060989 -26.2899308045 -2.5006785393
47.7804656023 -26.2842247178 -2.5006785393
47.7950081623 -26.2784755864 -2.5006785393
47.8674623638 -26.2490860333 -2.5006785393
47.8963209985 -26.2370306892 -2.5006785393
47.9107234431 -26.2309390431 -2.5006785393
48.9307450418 -25.6569588682 -2.5006785393
49.0934636591 -25.5351204250 -2.5006785393
49.1303404160 -25.5061214759 -2.5006785393
49.1669583713 -25.4767964082 -2.5006785393
49.2394063622 -25.4171771809 -2.5006785393
49.2752306919 -25.3868877167 -2.5006785393
47.5978994883 -26.3778455552 -2.5006785393
47.6865866054 -26.3459323405 -2.5006785393
47.7307142641 -26.3293867074 -2.5006785393
49.0082850879 -25.6302532725 -2.5006785393
49.0959158393 -25.5638254574 -2.5006785393
49.2065300953 -25.4757771129 -2.5006785393
49.2669576784 -25.4255984070 -2.5006785393
47.4712140411 -26.4457730355 -2.5006785393
47.5162362110 -26.4311347815 -2.5006785393
47.3421497704 -26.5104921052 -2.5006785393
47.4180851211 -26.4877751240 -2.5006785393
47.2569400849 -26.5595920378 -2.5006785393
49.8823541191 -24.9248162304 -2.5006785393
47.0616338466 -26.6336167583 -2.5006785393
47.0927815976 -26.6263222363 -2.5006785393
47.1238856465 -26.6188435614 -2.5006785393
49.8363904821 -25.0122280194 -2.5006785393
47.0043748580 -26.6712674947 -2.5006785393
46.8672492229 -26.7240138955 -2.5006785393
47.9894606059 -22.3242420371 -2.4996461868
47.9752942274 -22.4546565049 -2.4996461868
48.4373811001 -22.6719977857 -2.4996461868
48.4516190691 -22.6308867421 -2.4996461868
48.4571437371 -22.6143841148 -2.4996461868
48.4471553140 -20.7337005893 -2.4996461868
48.4414556697 -20.7172575750 -2.4996461868
48.4421310725 -22.7295289678 -2.4996461868
48.4489430671 -22.7793053812 -2.4996461868
48.4502612695 -20.6017552666 -2.4996461868
48.4338781425 -20.5606801712 -2.4996461868
48.4548852429 -22.8295090378 -2.4996461868
48.4662470841 -20.5763738787 -2.4996461868
48.4420212704 -22.9213319712 -2.4996461868
48.4456550404 -22.9131118645 -2.4996461868
48.4528495514 -22.8966395829 -2.4996461868
48.4361908930 -20.4433037396 -2.4996461868
48.4287733553 -20.4269306769 -2.4996461868
48.4339354122 -22.9970248390 -2.4996461868
48.4431885295 -20.4004315111 -2.4996461868
48.4355172229 -20.3840177984 -2.4996461868
48.4277489415 -20.3676497590 -2.4996461868
48.4319511632 -23.0566736376 -2.4996461868
48.4439809221 -23.0320652864 -2.4996461868
48.4336051934 -20.3243666410 -2.4996461868
48.4287150270 -23.1166607344 -2.4996461868
48.4371140979 -23.1002851133 -2.4996461868
48.4471030737 -20.2971965140 -2.4996461868
48.4373119718 -23.1524159331 -2.4996461868
48.4561656455 -20.2615564875 -2.4996461868
48.4260141004 -20.2040706379 -2.4996461868
48.4543136948 -23.1719591546 -2.4996461868
48.4604724029 -20.2173711409 -2.4996461868
48.4294050409 -20.1598055891 -2.4996461868
48.4274649828 -20.1070754710 -2.4996461868
48.4512232021 -23.2777594570 -2.4996461868
48.4293891665 -20.0622410939 -2.4996461868
48.4453627237 -20.0417500786 -2.4996461868
48.4575670204 -23.5437519892 -2.4996461868
48.4721636245 -23.5654391239 -2.4996461868
48.4922595983 -23.5788736734 -2.4996461868
46.8625206333 -25.9896328006 -2.4996461868
47.1396837557 -25.9026532460 -2.4996461868
46.9455592202 -25.9908713807 -2.4996461868
47.2226271031 -25.8984888607 -2.4996461868
47.0035428552 -25.9985042017 -2.4996461868
47.2435283912 -25.9165089894 -2.4996461868
47.2685130475 -25.9070963284 -2.4996461868
47.2809843830 -25.9023346073 -2.4996461868
47.3271689192 -25.9103208239 -2.4996461868
47.3396495367 -25.9053855740 -2.4996461868
47.3861243594 -25.9127446896 -2.4996461868
47.4235413299 -25.8973049964 -2.4996461868
47.4827975807 -25.8983957862 -2.4996461868
47.5048907448 -25.9151641827 -2.4996461868
47.5173849122 -25.9097031783 -2.4996461868
47.5423245101 -25.8986704092 -2.4996461868
47.6247246678 -25.9143035542 -2.4996461868
47.6372157650 -25.9084880631 -2.4996461868
47.6974999908 -25.9066339874 -2.4996461868
47.8672361818 -25.9025487149 -2.4996461868
47.9772875136 -25.8984223237 -2.4996461868
48.0263793029 -25.8988201196 -2.4996461868
48.0876711613 -25.9196538596 -2.4996461868
48.2245709837 -25.8949640894 -2.4996461868
48.2620989656 -25.9003231205 -2.4996461868
48.3122412658 -25.8975722170 -2.4996461868
48.4511442513 -25.8942084770 -2.4996461868
48.0921486845 -26.1386815816 -2.4996461868
48.1184329361 -26.1242443095 -2.4996461868
48.1446313120 -26.1096517836 -2.4996461868
48.1967667713 -26.0800030192 -2.4996461868
48.2097455346 -26.0724945991 -2.4996461868
48.2743030657 -26.0343784144 -2.4996461868
48.6491757483 -25.7860237163 -2.4996461868
48.6733638087 -25.7682970571 -2.4996461868
48.6854184041 -25.7593801407 -2.4996461868
48.6974465689 -25.7504276036 -2.4996461868
48.7214231858 -25.7324159810 -2.4996461868
48.8162514931 -25.6589604849 -2.4996461868
48.8396848806 -25.6402475733 -2.4996461868
48.8513599548 -25.6308392093 -2.4996461868
48.8630071462 -25.6213963495 -2.4996461868
48.8862174733 -25.6024074733 -2.4996461868
47.9165184043 -26.2570362677 -2.4996461868
47.9569698832 -26.2368760672 -2.4996461868
47.9838374523 -26.2232368397 -2.4996461868
47.9972408588 -26.2163576764 -2.4996461868
48.1037235917 -26.1599031933 -2.4996461868
48.7719337850 -25.7242873481 -2.4996461868
48.9247870857 -25.6018544761 -2.4996461868
48.9478807153 -25.5825004310 -2.4996461868
48.9593844896 -25.5727722568 -2.4996461868
49.0051103033 -25.5335205391 -2.4996461868
49.0164689357 -25.5236232837 -2.4996461868
49.1614265207 -25.3919371484 -2.4996461868
47.6936213070 -26.3866289610 -2.4996461868
47.7352316258 -26.3684417440 -2.4996461868
47.7628814624 -26.3561120920 -2.4996461868
47.7766789047 -26.3498859750 -2.4996461868
48.9286144588 -25.6300987324 -2.4996461868
49.1002291277 -25.4814544507 -2.4996461868
49.1337511402 -25.4508200229 -2.4996461868
49.2109022666 -25.3781916945 -2.4996461868
49.2758229500 -25.3146785745 -2.4996461868
49.3078580056 -25.2824924175 -2.4996461868
47.5768336719 -26.4614047757 -2.4996461868
47.5909434031 -26.4557285611 -2.4996461868
47.6050362812 -26.4500106321 -2.4996461868
47.6612367995 -26.4267227795 -2.4996461868
47.6752435657 -26.4207970369 -2.4996461868
49.0825046724 -25.5298498461 -2.4996461868
49.3569647241 -25.2668463059 -2.4996461868
47.5146924002 -26.5117285549 -2.4996461868
49.6297960841 -24.9997770760 -2.4996461868
47.2920127842 -26.6167933751 -2.4996461868
49.7354897948 -24.9080558328 -2.4996461868
49.7449949938 -24.8960007195 -2.4996461868
49.7732960429 -24.8596674106 -2.4996461868
47.0401225023 -26.7430486378 -2.4996461868
47.0700008046 -26.7348249285 -2.4996461868
47.0849215796 -26.7306468208 -2.4996461868
49.9672018030 -24.6767250074 -2.4996461868
47.0464683690 -26.7663738443 -2.4996461868
47.0614825743 -26.7622652117 -2.4996461868
48.4622146595 -26.3162627590 -2.4996461868
47.9914536917 -22.5927234912 -2.5001611710
47.9858570599 -22.7142093222 -2.5001611710
48.4331081275 -23.0632493784 -2.5001611710
48.4450152917 -23.0290259420 -2.5001611710
48.4648754473 -22.9688045677 -2.5001611710
48.4658945960 -21.1141224713 -2.5001611710
48.4575642481 -21.0882538579 -2.5001611710
48.4431712416 -21.0453070519 -2.5001611710
48.4372364429 -21.0281887262 -2.5001611710
48.4339103306 -23.1313410233 -2.5001611710
48.4371264973 -23.1227957396 -2.5001611710
48.4434829252 -23.1056768171 -2.5001611710
48.4497379605 -23.0885205874 -2.5001611710
48.4508886863 -20.9943898878 -2.5001611710
48.4477832908 -20.9858037290 -2.5001611710
48.4414963697 -20.9686591583 -2.5001611710
48.4351081256 -20.9515520831 -2.5001611710
48.4532546183 -23.1484918928 -2.5001611710
48.4565214357 -23.1398893101 -2.5001611710
48.4693338002 -23.1053834714 -2.5001611710
48.4673477454 -20.9689044419 -2.5001611710
48.4378033568 -20.8915382507 -2.5001611710
48.4450606235 -23.2346828931 -2.5001611710
48.4624154999 -23.1916862361 -2.5001611710
48.4463719846 -20.8482225299 -2.5001611710
48.4392711117 -20.8310887169 -2.5001611710
48.4566088423 -23.2697673146 -2.5001611710
48.4602343998 -23.2611542789 -2.5001611710
48.4722699477 -20.8476825352 -2.5001611710
48.4651654267 -20.8303955105 -2.5001611710
48.4615748437 -20.8217678362 -2.5001611710
48.4579587542 -20.8131508211 -2.5001611710
48.4469577642 -20.7873644857 -2.5001611710
48.4394968244 -20.7702282721 -2.5001611710
48.4564170913 -23.3310218681 -2.5001611710
48.4509461785 -23.4012508349 -2.5001611710
48.4899421904 -23.3147585832 -2.5001611710
48.4564456782 -20.6902624236 -2.5001611710
48.4443541822 -20.6644943550 -2.5001611710
48.4702784046 -20.6627707159 -2.5001611710
48.4620799180 -20.6454987101 -2.5001611710
48.4368733631 -20.5939779462 -2.5001611710
48.4568891337 -23.4997562879 -2.5001611710
48.4697303022 -23.4738736500 -2.5001611710
48.4519310194 -23.5623957753 -2.5001611710
48.4653282735 -23.5365546711 -2.5001611710
48.4400047570 -20.4947812434 -2.5001611710
48.4596153009 -23.5995277083 -2.5001611710
48.4642163360 -23.5909043361 -2.5001611710
48.4379880876 -20.4404576249 -2.5001611710
48.4779996400 -20.4633287878 -2.5001611710
48.4686210528 -20.4460145912 -2.5001611710
48.4591401933 -20.4287561844 -2.5001611710
48.4639615326 -23.6918406626 -2.5001611710
48.4785070637 -23.6658876971 -2.5001611710
48.4603707357 -23.7938458834 -2.5001611710
48.4809207486 -23.7592487170 -2.5001611710
48.4643228057 -23.8795844667 -2.5001611710
48.4444079934 -20.1689260401 -2.5001611710
48.4514266509 -23.9443294388 -2.5001611710
48.4508893533 -20.0908524519 -2.5001611710
48.4571217124 -24.0228032688 -2.5001611710
48.4434509463 -19.9947947207 -2.5001611710
48.4448109030 -19.9550527045 -2.5001611710
48.4564864334 -24.1907058758 -2.5001611710
48.4460912908 -19.8750217852 -2.5001611710
48.4428077917 -19.7129245207 -2.5001611710
45.7743695703 -25.9174132324 -2.5001611710
46.5587248556 -25.9399905633 -2.5001611710
46.5817816293 -25.9339355902 -2.5001611710
46.6621897664 -25.9116712110 -2.5001611710
46.6965059996 -25.9016205453 -2.5001611710
46.6573540835 -25.9382018248 -2.5001611710
46.7034033343 -25.9247886712 -2.5001611710
46.7148905961 -25.9213503176 -2.5001611710
46.7378343546 -25.9143717417 -2.5001611710
46.7950096078 -25.8963325068 -2.5001611710
46.6987347204 -25.9513814565 -2.5001611710
46.8024532448 -25.9193309317 -2.5001611710
46.8139239282 -25.9155995944 -2.5001611710
46.8482690485 -25.9042022185 -2.5001611710
46.7055634893 -25.9745698846 -2.5001611710
46.8904299133 -25.9153398655 -2.5001611710
46.9133350398 -25.9073228452 -2.5001611710
46.8057227153 -25.9690690083 -2.5001611710
46.9558579732 -25.9177633330 -2.5001611710
46.9902167063 -25.9051062869 -2.5001611710
47.0130595411 -25.8964990735 -2.5001611710
46.8481222427 -25.9806962914 -2.5001611710
46.8830437130 -25.9689928611 -2.5001611710
46.9258457174 -25.9797958276 -2.5001611710
47.1335831970 -25.9008174822 -2.5001611710
46.9572521842 -25.9943363459 -2.5001611710
47.1542525269 -25.9184378910 -2.5001611710
47.1886094338 -25.9040201779 -2.5001611710
47.3109767353 -25.9029230705 -2.5001611710
47.3439725389 -25.9143470537 -2.5001611710
47.3668638538 -25.9036467404 -2.5001611710
47.4115758485 -25.9091188468 -2.5001611710
47.4679798287 -25.9084337674 -2.5001611710
47.4794153644 -25.9027337297 -2.5001611710
47.6042550092 -25.9199901166 -2.5001611710
47.6844976302 -25.9040154963 -2.5001611710
47.7076831094 -25.9187923774 -2.5001611710
47.7768926685 -25.9073493156 -2.5001611710
47.8471423798 -25.9222849244 -2.5001611710
47.8586172307 -25.9154631948 -2.5001611710
47.9997635642 -25.9138183216 -2.5001611710
48.0112127016 -25.9065451479 -2.5001611710
48.0242047344 -25.9269300042 -2.5001611710
48.1424333699 -25.9073621853 -2.5001611710
48.1673928686 -25.9196987743 -2.5001611710
48.1788586680 -25.9119296971 -2.5001611710
48.2636071387 -25.9121543984 -2.5001611710
48.0442986739 -26.1987363660 -2.5001611710
48.0688602746 -26.1838877107 -2.5001611710
48.1298761806 -26.1461326072 -2.5001611710
48.1782826795 -26.1152813317 -2.5001611710
48.6630426269 -25.7577653927 -2.5001611710
48.6849844662 -25.7392637582 -2.5001611710
48.7068164596 -25.7206326321 -2.5001611710
48.7285378429 -25.7018726668 -2.5001611710
48.7501478558 -25.6829845187 -2.5001611710
48.7823524020 -25.6544134017 -2.5001611710
48.8354591338 -25.6061633897 -2.5001611710
48.8565010272 -25.5866443344 -2.5001611710
47.8307387284 -26.3471191812 -2.5001611710
47.8688733022 -26.3266811517 -2.5001611710
47.9068249983 -26.3059055040 -2.5001611710
47.9571376193 -26.2776822886 -2.5001611710
48.0567434469 -26.2194598528 -2.5001611710
48.8305837915 -25.6434249764 -2.5001611710
48.8835227245 -25.5944628055 -2.5001611710
48.8940232837 -25.5845767097 -2.5001611710
48.9974028473 -25.4840240991 -2.5001611710
49.0177192893 -25.4635490681 -2.5001611710
49.0479659324 -25.4326120457 -2.5001611710
49.0679773185 -25.4118387663 -2.5001611710
49.0977630826 -25.3804577684 -2.5001611710
47.6739439311 -26.4535199311 -2.5001611710
47.6869910291 -26.4472082295 -2.5001611710
47.8035584936 -26.3886740910 -2.5001611710
47.8931204279 -26.3410143338 -2.5001611710
48.9211426839 -25.5921860030 -2.5001611710
49.0145116414 -25.5011011143 -2.5001611710
49.0247354467 -25.4908279381 -2.5001611710
49.0552238981 -25.4598275771 -2.5001611710
49.1938116720 -25.3116378820 -2.5001611710
47.5788831576 -26.5246368227 -2.5001611710
47.6053810404 -26.5125360181 -2.5001611710
47.6186030187 -26.5064268797 -2.5001611710
47.6449924702 -26.4940913978 -2.5001611710
47.6975501239 -26.4689531323 -2.5001611710
47.7628228730 -26.4366586679 -2.5001611710
49.2885818026 -25.2401341390 -2.5001611710
47.3869362495 -26.6327998538 -2.5001611710
47.4276235553 -26.6162890726 -2.5001611710
47.5219790397 -26.5763645572 -2.5001611710
47.8647112862 -26.4111885409 -2.5001611710
49.2589751870 -25.3111079755 -2.5001611710
49.4727847112 -25.0511661284 -2.5001611710
49.5429427497 -24.9574219649 -2.5001611710
47.3137203986 -26.6873301360 -2.5001611710
49.2771111534 -25.3270899029 -2.5001611710
47.2669280294 -26.7306066981 -2.5001611710
49.7614088340 -24.7677335637 -2.5001611710
47.9770914174 -22.3418905771 -2.4999349117
48.4682001773 -23.2379125259 -2.4999349117
48.4591122378 -21.5434423979 -2.4999349117
48.4542227897 -23.3677364599 -2.4999349117
48.4437431269 -21.4137758579 -2.4999349117
48.4378176792 -21.3963518964 -2.4999349117
48.4317892492 -21.3789632969 -2.4999349117
48.4503714855 -23.4542303760 -2.4999349117
48.4576557204 -21.3797349790 -2.4999349117
48.4518910144 -21.2927279720 -2.4999349117
48.4500531643 -23.6553360811 -2.4999349117
48.4572234425 -23.6998795634 -2.4999349117
48.4610362537 -23.6911133207 -2.4999349117
48.4685839966 -23.6735471901 -2.4999349117
48.4477085004 -23.7797913307 -2.4999349117
48.4696261541 -23.7899870032 -2.4999349117
48.4290329577 -20.9390927453 -2.4999349117
48.4533841062 -23.8794384873 -2.4999349117
48.4374158339 -20.9021122637 -2.4999349117
48.4572591445 -23.9253623209 -2.4999349117
48.4369874335 -24.0152605791 -2.4999349117
48.4437000230 -24.0530863329 -2.4999349117
48.4629756961 -24.0180895143 -2.4999349117
48.4499712296 -24.0911569934 -2.4999349117
48.4549415420 -24.0824104920 -2.4999349117
48.4506877237 -24.1382165175 -2.4999349117
48.4319438817 -20.6433780426 -2.4999349117
48.4339475348 -20.5094473418 -2.4999349117
48.4371862269 -20.4701551256 -2.4999349117
48.4436115834 -24.3770775519 -2.4999349117
48.4459852447 -24.4167719225 -2.4999349117
48.4482072129 -20.3996834919 -2.4999349117
46.3421233584 -25.9245336102 -2.4999349117
46.3525263531 -25.9220144822 -2.4999349117
46.3733097589 -25.9168839598 -2.4999349117
46.4147836912 -25.9062544835 -2.4999349117
46.4000638538 -25.9350467651 -2.4999349117
46.4794144200 -25.9388525946 -2.4999349117
46.5419506176 -25.9208379116 -2.4999349117
46.6144915873 -25.8984219907 -2.4999349117
46.6010523497 -25.9280433526 -2.4999349117
46.6426423817 -25.9147183389 -2.4999349117
46.6633775436 -25.9078715203 -2.4999349117
46.6840718344 -25.9009021455 -2.4999349117
46.6944034268 -25.8973715754 -2.4999349117
46.8038177169 -25.9095168769 -2.4999349117
46.8849916144 -25.9041468911 -2.4999349117
46.9561687658 -25.9012431838 -2.4999349117
46.8800693750 -25.9839698912 -2.4999349117
47.1406505539 -25.8986267164 -2.4999349117
47.1820702447 -25.9056676868 -2.4999349117
47.2027424190 -25.8956295903 -2.4999349117
47.2547862714 -25.8967737600 -2.4999349117
47.3596572310 -25.8968176291 -2.4999349117
47.5949706415 -25.9023278629 -2.4999349117
47.6385387606 -25.9041730464 -2.4999349117
47.7600398906 -25.9134112454 -2.4999349117
47.7704037794 -25.9066977125 -2.4999349117
48.6603013943 -19.2919522797 -2.4999349117
48.7597668515 -19.3608062979 -2.4999349117
48.1954143149 -26.1128380745 -2.4999349117
48.6140642633 -25.7682223293 -2.4999349117
48.6437740230 -25.7404166332 -2.4999349117
48.6634429343 -25.7217334984 -2.4999349117
48.6830009657 -25.7029343227 -2.4999349117
48.6927381873 -25.6934914250 -2.4999349117
47.9269408614 -26.3227156238 -2.4999349117
47.9960619270 -26.2789495195 -2.4999349117
48.0303284401 -26.2566081357 -2.4999349117
48.0757061453 -26.2263482618 -2.4999349117
48.0869943771 -26.2186995619 -2.4999349117
48.0982599334 -26.2110175027 -2.4999349117
48.6104555558 -25.8044316907 -2.4999349117
48.7387890530 -25.6821684842 -2.4999349117
48.7677302216 -25.6532593143 -2.4999349117
48.7964136979 -25.6240944461 -2.4999349117
48.9176762926 -25.4948150537 -2.4999349117
47.8929392546 -26.3718951191 -2.4999349117
49.0259378011 -25.4079092666 -2.4999349117
49.0524337655 -25.3764626125 -2.4999349117
49.1045832852 -25.3128701040 -2.4999349117
47.6533392512 -26.5344917657 -2.4999349117
47.7383481561 -26.4889320755 -2.4999349117
49.1406309852 -25.3065182830 -2.4999349117
49.1662226451 -25.2740577839 -2.4999349117
49.1998948386 -25.2304262665 -2.4999349117
49.2248088907 -25.1974428304 -2.4999349117
49.2330484064 -25.1863993786 -2.4999349117
47.7012742896 -26.5365046926 -2.4999349117
47.9297930149 -26.4060855244 -2.4999349117
49.3649120317 -25.0428925317 -2.4999349117
47.5011848720 -26.6640192472 -2.4999349117
47.2938262178 -26.7818046707 -2.4999349117
47.9561223335 -22.5093269264 -2.5000250340
48.4646046962 -23.6779032843 -2.5000250340
48.4760396562 -21.9133280809 -2.5000250340
48.4575327155 -21.8521540283 -2.5000250340
48.4547855982 -21.8434466205 -2.5000250340
48.4435399119 -21.8086993962 -2.5000250340
48.4475577782 -23.8073599325 -2.5000250340
48.4536056267 -23.7899780774 -2.5000250340
48.4805963967 -21.8449151130 -2.5000250340
48.4750331844 -21.8273721364 -2.5000250340
48.4693662794 -21.8098623805 -2.5000250340
48.4394834318 -21.7228333240 -2.5000250340
48.4514598743 -23.8677012458 -2.5000250340
48.4641663420 -23.8328516629 -2.5000250340
48.4590737133 -21.7059250215 -2.5000250340
48.4817935873 -21.6976701678 -2.5000250340
48.4335782957 -24.0417813496 -2.5000250340
48.4446923871 -24.0158100538 -2.5000250340
48.4483458118 -24.0071311632 -2.5000250340
48.4497317345 -21.5490784725 -2.5000250340
48.4350033013 -21.5144116554 -2.5000250340
48.4443292123 -24.0774582959 -2.5000250340
48.4519751100 -24.0600908148 -2.5000250340
48.4386495295 -24.1481425783 -2.5000250340
48.4507073175 -24.1221220898 -2.5000250340
48.4482391069 -21.4254004108 -2.5000250340
48.4620933151 -21.3978202024 -2.5000250340
48.4486481713 -24.2385483586 -2.5000250340
48.4372334534 -21.2916493896 -2.5000250340
48.4283976943 -21.2743726457 -2.5000250340
48.4391553711 -24.3102483141 -2.5000250340
48.4436798216 -24.3015845146 -2.5000250340
48.4531335386 -21.2173297340 -2.5000250340
48.4297519195 -21.1740096070 -2.5000250340
48.4364989714 -21.1363591205 -2.5000250340
48.4458725365 -24.4490682895 -2.5000250340
48.4508076122 -24.4403840120 -2.5000250340
48.4477568150 -21.1071388382 -2.5000250340
48.4378292453 -21.0898030638 -2.5000250340
48.4277992850 -21.0725263277 -2.5000250340
46.8609567078 -25.8985158812 -2.5000250340
46.9076497962 -25.9044207666 -2.5000250340
48.4416523403 -24.5516171427 -2.5000250340
48.4463440250 -24.5902523708 -2.5000250340
48.4590476201 -20.9833557864 -2.5000250340
46.8802695557 -25.9691515299 -2.5000250340
47.0959521062 -25.8950059305 -2.5000250340
48.4543538142 -24.6681839850 -2.5000250340
48.4287821649 -24.7508166383 -2.5000250340
47.2014345370 -25.8942633777 -2.5000250340
47.2591895664 -25.8900274575 -2.5000250340
47.2987647588 -25.8953823168 -2.5000250340
47.3970802410 -25.8936175234 -2.5000250340
47.5370139460 -25.8914660645 -2.5000250340
47.5686998246 -25.8996254769 -2.5000250340
48.4275206186 -20.4344147023 -2.5000250340
48.4277153804 -25.2697279807 -2.5000250340
47.7853261391 -25.8965458835 -2.5000250340
48.4265607942 -20.2448088295 -2.5000250340
47.9025932551 -25.8994843554 -2.5000250340
48.1411723449 -25.8937936220 -2.5000250340
47.4283334067 -19.0949047225 -2.5000250340
47.4174343505 -19.0892539366 -2.5000250340
47.4722775681 -19.0907063485 -2.5000250340
47.5164462249 -19.0869996668 -2.5000250340
47.4945831329 -19.0752091944 -2.5000250340
47.6272622965 -19.0935221204 -2.5000250340
47.6054358541 -19.0810759088 -2.5000250340
47.6611748913 -19.0852054890 -2.5000250340
48.0246545476 -26.2902209504 -2.5000250340
48.1173027625 -26.2221052318 -2.5000250340
48.1376428352 -26.2066350141 -2.5000250340
48.1578910249 -26.1910447285 -2.5000250340
48.1880894794 -26.1674353676 -2.5000250340
48.2280259071 -26.1355411102 -2.5000250340
48.6934090355 -25.6987001309 -2.5000250340
48.7192171199 -25.6703577359 -2.5000250340
48.7362823347 -25.6513360473 -2.5000250340
48.7447726652 -25.6417874247 -2.5000250340
48.7532347120 -25.6322137280 -2.5000250340
48.7700736586 -25.6129914475 -2.5000250340
48.7784504110 -25.6033430318 -2.5000250340
48.8034089059 -25.5742496974 -2.5000250340
48.8444295028 -25.5252722860 -2.5000250340
48.8606341518 -25.5055123381 -2.5000250340
47.8253638334 -26.4530665180 -2.5000250340
47.9650085696 -26.3614320110 -2.5000250340
47.9756028671 -26.3541618488 -2.5000250340
48.6318492289 -25.7991599383 -2.5000250340
48.8134882439 -25.5996842766 -2.5000250340
48.9116075180 -25.4807568940 -2.5000250340
48.9901072050 -25.3790413737 -2.5000250340
49.0282201735 -25.3273239749 -2.5000250340
47.6831714059 -26.5666429656 -2.5000250340
47.7832991368 -26.5075197453 -2.5000250340
47.8053336632 -26.4940206100 -2.5000250340
47.8382347419 -26.4735280672 -2.5000250340
49.1365945957 -25.2144402825 -2.5000250340
47.8424023064 -19.0819951396 -2.5000250340
47.7736296067 -26.5416119458 -2.5000250340
49.2618079564 -25.0638796200 -2.5000250340
48.1553391543 -19.0886728288 -2.5000250340
48.2383327339 -19.0892855224 -2.5000250340
48.3218800337 -19.0915549696 -2.5000250340
48.4208882345 -19.0764926768 -2.5000250340
48.1993074350 -18.8831858885 -2.5000250340
48.1530524535 -18.8516688367 -2.5000250340
48.1064277857 -18.8207013016 -2.5000250340
48.0594399597 -18.7902876193 -2.5000250340
48.0002045132 -18.7530558514 -2.5000250340
47.9882917039 -18.7457148631 -2.5000250340
49.0645840980 -19.6159600179 -2.5000250340
49.0079317022 -19.5534177307 -2.5000250340
48.9695506066 -19.5122857406 -2.5000250340
48.2246009326 -18.8712955557 -2.5000250340
48.0724546795 -18.7699172400 -2.5000250340
47.9528313938 -18.6959578609 -2.5000250340
47.8922124349 -18.6603131930 -2.5000250340
47.8678183459 -18.6463070293 -2.5000250340
49.2200355808 -19.7613757606 -2.5000250340
49.1106926834 -19.6316978105 -2.5000250340
48.7664097470 -19.2766763828 -2.5000250340
48.0376411081 -18.7193861490 -2.5000250340
47.9165384685 -18.6464785775 -2.5000250340
47.8920621035 -18.6323287349 -2.5000250340
47.7673244166 -18.5357667049 -2.5000250340
49.4310738575 -19.9576322167 -2.5000250340
49.1376816938 -19.5891445004 -2.5000250340
47.9866647862 -22.6723588380 -2.5000011921
47.9824329781 -22.6511782544 -2.5000011921
47.9928682292 -22.3997107682 -2.5000011921
48.4365708034 -22.7228446859 -2.5000011921
48.4396488648 -24.1429189420 -2.5000011921
48.4426073503 -24.1345081418 -2.5000011921
48.4455409422 -24.1260886266 -2.5000011921
48.4475071590 -22.1568253014 -2.5000011921
48.4440216695 -24.2016546520 -2.5000011921
48.4533434937 -24.1763550611 -2.5000011921
48.4594331508 -24.1594431385 -2.5000011921
48.4584505251 -22.1150320942 -2.5000011921
48.4302875248 -24.3028787477 -2.5000011921
48.4471976519 -24.2608592953 -2.5000011921
48.4527234831 -22.0304984443 -2.5000011921
48.4526453792 -24.3120690485 -2.5000011921
48.4462123145 -24.3890098596 -2.5000011921
48.4450090171 -21.8854781881 -2.5000011921
48.4532352341 -24.4326028825 -2.5000011921
48.4503528669 -21.7810395949 -2.5000011921
48.4422710856 -21.7641872879 -2.5000011921
48.4340897417 -21.7473830903 -2.5000011921
48.4390046479 -21.7030195883 -2.5000011921
48.4446854103 -24.6161431078 -2.5000011921
48.4572831043 -24.6442222178 -2.5000011921
