3.2776611072 -17.5334188829 -2.4002625942
3.2911076189 -17.5533033682 -2.4002625942
3.3046128936 -17.5731479893 -2.4002625942
3.4007851910 -17.7109295959 -2.4002625942
3.4287850355 -17.7499271521 -2.4002625942
3.4712161799 -17.8081111757 -2.4002625942
4.7445012623 -19.1751632749 -2.4002625942
4.7811404877 -19.2061853290 -2.4002625942
4.9108096059 -19.3130441220 -2.4002625942
3.2042622182 -17.4667591192 -2.4002625942
4.8956303914 -19.3318570625 -2.4002625942
4.9331940249 -19.3619822435 -2.4002625942
4.9520425140 -19.3769613623 -2.4002625942
4.9898720124 -19.4067520008 -2.4002625942
5.0088526906 -19.4215632600 -2.4002625942
5.0469450745 -19.4510170099 -2.4002625942
3.0799062958 -17.3173424388 -2.4002625942
3.0927144796 -17.3378128641 -2.4002625942
3.1055831625 -17.3582453108 -2.4002625942
5.0513834220 -19.4848695948 -2.4002625942
5.1867649885 -19.5860730406 -2.4002625942
5.2454216709 -19.6285836735 -2.4002625942
2.9835988675 -17.2061578943 -2.4002625942
2.9960785686 -17.2269137008 -2.4002625942
3.0338853015 -17.2889583472 -2.4002625942
3.0722411569 -17.3506650368 -2.4002625942
5.1140431821 -19.5624261617 -2.4002625942
5.2707527259 -19.6763531851 -2.4002625942
5.2905297042 -19.6903323686 -2.4002625942
5.3302072866 -19.7181149188 -2.4002625942
5.3900301180 -19.7593473822 -2.4002625942
2.8769798374 -17.0718398221 -2.4002625942
2.9012077796 -17.1139475718 -2.4002625942
2.9504089061 -17.1977293695 -2.4002625942
4.9260685863 -19.4488583510 -2.4002625942
2.7613060824 -16.9134911002 -2.4002625942
2.7963406105 -16.9776315628 -2.4002625942
5.5454739225 -19.9204765122 -2.4002625942
2.5944913880 -16.6973007620 -2.4002625942
5.7062431093 -20.0780932556 -2.4002625942
5.8537674617 -20.1656101167 -2.4002625942
5.4238751813 -19.9277005058 -2.4002625942
6.0013049376 -20.3042588162 -2.4002625942
6.6161537767 -20.7411780352 -2.4002625942
6.9839736150 -20.9696104020 -2.4002625942
10.9517199166 -13.5769444121 -2.4893474579
11.0299480132 -18.3896382849 -2.4893474579
11.1874370134 -18.3430432685 -2.4893474579
11.2344077731 -18.3281584405 -2.4893474579
11.1157228332 -18.3901029329 -2.4893474579
11.6446348526 -18.2042290797 -2.4893474579
7.9137211923 -18.4292401384 -2.4893474579
7.9456169975 -18.4387301222 -2.4893474579
7.9615858153 -18.4434043075 -2.4893474579
7.8428653164 -18.4327596439 -2.4893474579
7.7962629834 -18.4687049388 -2.4893474579
7.6764426260 -18.4544309204 -2.4893474579
11.4866475317 -18.4463386330 -2.4893474579
7.5321364001 -18.4543109275 -2.4893474579
7.4756052648 -18.4589317770 -2.4893474579
7.3868051359 -18.4503666446 -2.4893474579
7.2150716406 -18.4579642700 -2.4893474579
7.1573955417 -18.4593110039 -2.4893474579
6.9671443613 -18.4521747664 -2.4893474579
6.8820791899 -18.4648581752 -2.4893474579
6.6297941663 -18.4440670603 -2.4893474579
6.6618001634 -18.4611529281 -2.4893474579
6.4550078528 -18.4578955265 -2.4893474579
6.3667599329 -18.4628306433 -2.4893474579
3.7730017876 -18.1210340346 -2.4893474579
3.8031466114 -18.1550272992 -2.4893474579
3.8334920232 -18.1888416219 -2.4893474579
3.8947803551 -18.2559287137 -2.4893474579
3.9412651967 -18.3057655530 -2.4893474579
4.3958594849 -18.7504085878 -2.4893474579
4.4808378777 -18.8257747136 -2.4893474579
4.4979668034 -18.8406966487 -2.4893474579
4.5151397958 -18.8555678480 -2.4893474579
4.5323567048 -18.8703881815 -2.4893474579
4.5496173797 -18.8851575193 -2.4893474579
4.5669216694 -18.8998757324 -2.4893474579
3.5632874361 -17.9110747585 -2.4893474579
3.5921937407 -17.9463124382 -2.4893474579
3.6949968810 -18.0682846427 -2.4893474579
3.7248309869 -18.1027403337 -2.4893474579
3.7548684221 -18.1370189131 -2.4893474579
4.5686897492 -18.9330253609 -2.4893474579
4.6917142366 -19.0345668786 -2.4893474579
4.7272477485 -19.0631087434 -2.4893474579
3.3888435071 -17.7289132281 -2.4893474579
4.7659491845 -19.1245500756 -2.4893474579
4.8235562260 -19.1997374918 -2.4893474579
5.1442675821 -19.4616482986 -2.4893474579
5.2205245916 -19.5131365809 -2.4893474579
3.0882287896 -17.4360733301 -2.4893474579
5.5264633866 -19.7632949162 -2.4893474579
5.7238323507 -19.9324174367 -2.4893474579
10.9328703303 -13.5437025156 -2.5027560927
10.9451724750 -13.4816858553 -2.5027560927
10.9479034355 -13.4661165101 -2.5027560927
10.9513295834 -13.4453208491 -2.5027560927
10.9336957837 -13.8011937251 -2.5027561013
10.9534337748 -13.7441982188 -2.5027561013
10.9506277445 -13.8251059781 -2.5027561042
10.9396915143 -13.9171101752 -2.5027561071
10.9462868372 -13.9015723241 -2.5027561071
11.2706361661 -14.6096347516 -2.5027561820
7.8844858742 -18.4376973543 -2.5027565278
10.6490680146 -18.3984239889 -2.5027565278
10.6645395820 -18.3940913253 -2.5027565278
7.8161050066 -18.4452466127 -2.5027565307
7.8943350512 -18.4650216891 -2.5027565307
10.7485979371 -18.3949109264 -2.5027565307
10.7640586767 -18.3902838507 -2.5027565307
10.8330011346 -18.3943826462 -2.5027565336
7.6313723723 -18.4440440164 -2.5027565365
10.8091424029 -18.4271051194 -2.5027565365
10.8712789868 -18.4076040441 -2.5027565365
10.8867767382 -18.4026140001 -2.5027565365
10.9022596603 -18.3975781329 -2.5027565365
10.3894739177 -18.5629445303 -2.5027565393
11.0490361172 -18.3729691761 -2.5027565393
11.1869856686 -18.3216931799 -2.5027565393
7.4764863547 -18.4466042888 -2.5027565422
7.5077571813 -18.4566624283 -2.5027565422
11.2872943053 -18.3078626712 -2.5027565422
11.6024589391 -18.1678752089 -2.5027565422
7.4063847063 -18.4488338334 -2.5027565451
7.4220195833 -18.4540933930 -2.5027565451
10.4963754668 -18.5878496730 -2.5027565451
11.7751066566 -18.1082338156 -2.5027565451
11.8043003368 -18.0928657958 -2.5027565451
11.8768822892 -18.0536924663 -2.5027565451
11.9488769137 -18.0134499067 -2.5027565451
7.3359911634 -18.4501405454 -2.5027565480
7.3516302139 -18.4556083361 -2.5027565480
7.2809582634 -18.4561946960 -2.5027565509
12.2709508525 -17.8734183866 -2.5027565509
7.1943767550 -18.4499592986 -2.5027565538
9.7893141747 -18.7833778877 -2.5027565538
7.0830157297 -18.4585808657 -2.5027565595
6.9956894802 -18.4491274515 -2.5027565624
6.8985741573 -18.4604247678 -2.5027565682
6.7849691379 -18.4628976136 -2.5027565739
6.6965659714 -18.4485714286 -2.5027565768
6.5974142036 -18.4544856744 -2.5027565826
6.4395263028 -18.4559348310 -2.5027565912
6.1939598630 -18.4600784764 -2.5027566056
5.7391330584 -18.4662700424 -2.5027566344
5.6497932721 -18.4652335440 -2.5027566402
4.9368656709 -18.4819105753 -2.5027566921
4.7032440935 -18.4775229057 -2.5027567094
3.8369830431 -18.2225825228 -2.5027567583
3.8669921791 -18.2541771069 -2.5027567583
3.8971877140 -18.2855935939 -2.5027567583
4.4213623752 -18.7772958202 -2.5027567583
3.8646384958 -18.2866585782 -2.5027567612
4.4390941825 -18.8239318170 -2.5027567612
10.9378098984 -14.1920209281 -2.5006575584
10.4012993638 -18.4015933226 -2.5006575584
7.3873876686 -18.4447295547 -2.5006575584
7.2899541363 -18.4408130135 -2.5006575584
7.0862022390 -18.4502194483 -2.5006575584
10.4021398165 -18.6283179323 -2.5006575584
11.4844500640 -18.1837984978 -2.5006575584
6.7560581114 -18.4540100266 -2.5006575584
6.4501915745 -18.4508539077 -2.5006575584
6.0863182028 -18.4558625328 -2.5006575584
10.9367097569 -14.5106113976 -2.4989759922
10.9466018440 -14.6717473142 -2.4989759922
10.9452388765 -14.7310330714 -2.4989759922
10.9500314295 -14.9772426017 -2.4989759922
7.3601244094 -18.4498741946 -2.4989759922
7.3889530059 -18.4570250890 -2.4989759922
7.2675952452 -18.4507364178 -2.4989759922
7.2820072105 -18.4546068993 -2.4989759922
7.3253109205 -18.4659623095 -2.4989759922
10.0510423737 -18.4070328597 -2.4989759922
10.1724153699 -18.3939015679 -2.4989759922
7.1101460444 -18.4559730959 -2.4989759922
7.1679347048 -18.4730616332 -2.4989759922
10.2371053681 -18.3976231102 -2.4989759922
7.0164509445 -18.4520732872 -2.4989759922
6.8713072217 -18.4542531213 -2.4989759922
6.8488193584 -18.4719508070 -2.4989759922
6.5011236816 -18.4660304449 -2.4989759922
10.8602806693 -18.3782372618 -2.4989759922
10.9665705312 -18.3803686530 -2.4989759922
10.6587083739 -18.5475126558 -2.4989759922
10.7173317521 -18.5226065467 -2.4989759922
11.2443786852 -18.2599137773 -2.4989759922
11.3270056060 -18.2119456421 -2.4989759922
11.3952021936 -18.1708570868 -2.4989759922
11.4757148595 -18.1491878380 -2.4989759922
10.2249575295 -18.7580021611 -2.4989759922
10.0466642533 -18.8362948787 -2.4989759922
10.0622046106 -18.8319426845 -2.4989759922
10.3733990649 -14.9754864587 -2.5006785393
10.3707057164 -15.0774979958 -2.5006785393
10.3884127196 -15.0473935749 -2.5006785393
10.5904597339 -14.7377359056 -2.5006785393
10.9430185912 -14.8306827196 -2.5006785393
10.9832826270 -14.7144564617 -2.5006785393
10.9509892556 -14.8777655320 -2.5006785393
10.9685478297 -14.8313414671 -2.5006785393
10.9641450625 -12.8874101156 -2.5006785393
10.9356226560 -14.9791883574 -2.5006785393
10.9518138289 -14.9407393501 -2.5006785393
10.9658020132 -12.8244526998 -2.5006785393
10.9564617163 -12.8012290255 -2.5006785393
10.9511386741 -15.0041774788 -2.5006785393
10.9417836593 -15.0834337224 -2.5006785393
10.9563562490 -15.1091730279 -2.5006785393
11.0056156517 -14.9999587327 -2.5006785393
10.9438588460 -15.1892375677 -2.5006785393
10.9555055524 -15.1661155047 -2.5006785393
10.9332415660 -15.3117854745 -2.5006785393
10.9585059993 -15.2656080357 -2.5006785393
10.9413002962 -15.3466812286 -2.5006785393
10.9399240938 -15.3972165890 -2.5006785393
10.9422872283 -15.4403541020 -2.5006785393
10.9596744293 -15.5042797253 -2.5006785393
10.9450772197 -15.6154939643 -2.5006785393
10.9369420052 -15.7121582583 -2.5006785393
7.0901773035 -18.4513895293 -2.5006785393
7.1173320123 -18.4587288749 -2.5006785393
9.4283832697 -18.4945166005 -2.5006785393
9.6867210594 -18.4263052613 -2.5006785393
9.7002074212 -18.4223140800 -2.5006785393
9.7808722902 -18.3975308086 -2.5006785393
7.0021913732 -18.4516094887 -2.5006785393
7.0157643354 -18.4555595210 -2.5006785393
7.0293489232 -18.4594693847 -2.5006785393
7.0429450176 -18.4633390456 -2.5006785393
6.9545488241 -18.4626576737 -2.5006785393
9.5359985049 -18.5179106999 -2.5006785393
9.9034118027 -18.4079945555 -2.5006785393
9.9168430500 -18.4033624439 -2.5006785393
9.9786139148 -18.4071825439 -2.5006785393
9.9920424310 -18.4023279744 -2.5006785393
10.0406942159 -18.4101730379 -2.5006785393
10.1030729318 -18.4123271518 -2.5006785393
10.1657389242 -18.4136382564 -2.5006785393
10.1791857188 -18.4082301090 -2.5006785393
10.2060310191 -18.3972945987 -2.5006785393
10.2421288246 -18.4085055264 -2.5006785393
10.2689746527 -18.3971976187 -2.5006785393
10.3187633355 -18.4021032699 -2.5006785393
10.3687899130 -18.4064804006 -2.5006785393
10.3822146449 -18.4004716230 -2.5006785393
10.4190489104 -18.4103251817 -2.5006785393
10.4324847960 -18.4041677121 -2.5006785393
10.5471297029 -18.4034492005 -2.5006785393
10.6114853497 -18.3986861918 -2.5006785393
10.7655153293 -18.4006985469 -2.5006785393
10.8172420140 -18.4002553493 -2.5006785393
10.8306463689 -18.3929199965 -2.5006785393
10.9212351969 -18.3976779953 -2.5006785393
10.9346314725 -18.3900350231 -2.5006785393
11.1718544423 -18.2744505596 -2.5006785393
11.1848850923 -18.2660667495 -2.5006785393
11.1978908845 -18.2576444292 -2.5006785393
10.4441685443 -18.6902459364 -2.5006785393
10.4584323762 -18.6840129336 -2.5006785393
10.5577542088 -18.6392043184 -2.5006785393
10.5718665534 -18.6326355320 -2.5006785393
10.7257887334 -18.5576383914 -2.5006785393
11.1717881495 -18.3031825104 -2.5006785393
11.1849037942 -18.2947987708 -2.5006785393
11.3018122851 -18.2176097498 -2.5006785393
11.4292485022 -18.1282286346 -2.5006785393
11.4919612034 -18.0821342564 -2.5006785393
11.5168542354 -18.0634376327 -2.5006785393
12.6748463955 -16.8545664603 -2.5006785393
10.2367300961 -18.8012155518 -2.5006785393
10.2658994231 -18.7899327118 -2.5006785393
10.3095269761 -18.7726853680 -2.5006785393
10.3240352679 -18.7668502986 -2.5006785393
10.3529997506 -18.7550515333 -2.5006785393
11.4052935269 -18.1751462720 -2.5006785393
11.6303337402 -18.0061233832 -2.5006785393
11.7393996865 -17.9171790882 -2.5006785393
12.6589029995 -16.9195651235 -2.5006785393
10.0830571606 -18.8830130760 -2.5006785393
10.0978928126 -18.8778474625 -2.5006785393
10.1275179497 -18.8673846893 -2.5006785393
10.1423071755 -18.8620876211 -2.5006785393
10.2160147053 -18.8349473304 -2.5006785393
10.4056979375 -18.7593100078 -2.5006785393
11.8028489811 -17.8950660160 -2.5006785393
12.7933918725 -16.7646200035 -2.5006785393
9.9109791012 -18.9646700066 -2.5006785393
10.0162295353 -18.9311366888 -2.5006785393
11.3816099134 -18.2508085789 -2.5006785393
12.0632042167 -17.6899079214 -2.5006785393
9.7964235283 -19.0235842221 -2.5006785393
12.2792368737 -17.5029664867 -2.5006785393
10.0766794000 -18.9618733330 -2.5006785393
12.4241824540 -17.3767884946 -2.5006785393
9.5772064410 -19.1299944399 -2.5006785393
9.6394142668 -19.1150371556 -2.5006785393
9.5357396898 -19.1643129845 -2.5006785393
10.4926771989 -14.5865527292 -2.4996461868
10.5240227730 -15.1048426892 -2.4996461868
10.5753811458 -15.0356234615 -2.4996461868
10.9414652064 -13.2172823705 -2.4996461868
10.9356683795 -13.2008733650 -2.4996461868
10.9327957634 -15.2541576117 -2.4996461868
10.9421406093 -15.2295537634 -2.4996461868
10.9671669990 -13.2175826960 -2.4996461868
10.9554781197 -13.1844951315 -2.4996461868
10.9358548785 -15.3121938772 -2.4996461868
10.9405138207 -13.0771058902 -2.4996461868
10.9346903973 -15.4377645523 -2.4996461868
10.9416361224 -15.4806452216 -2.4996461868
10.9545226121 -12.9251612560 -2.4996461868
10.9371236347 -15.6003099088 -2.4996461868
10.9737145346 -15.5260165410 -2.4996461868
10.9388304623 -12.7807862438 -2.4996461868
10.9304512239 -12.7644004657 -2.4996461868
10.9373215085 -15.6524407287 -2.4996461868
10.9433988909 -12.7368681097 -2.4996461868
10.9578325440 -12.6115836695 -2.4996461868
10.9592274332 -15.8599478773 -2.4996461868
10.9563030179 -12.5129109603 -2.4996461868
10.9590367129 -15.9974689953 -2.4996461868
9.5321255278 -18.4133933802 -2.4996461868
9.5695619754 -18.4010952882 -2.4996461868
9.6022400371 -18.4155984473 -2.4996461868
9.6396932924 -18.4026780415 -2.4996461868
9.6727171361 -18.4166486547 -2.4996461868
9.7101769361 -18.4031027628 -2.4996461868
9.8021736959 -18.4201052519 -2.4996461868
9.8271784559 -18.4103456195 -2.4996461868
9.8396590734 -18.4054103696 -2.4996461868
9.8645762375 -18.3954292182 -2.4996461868
9.8986214259 -18.4076598237 -2.4996461868
9.9578701862 -18.4091011743 -2.4996461868
10.0423340468 -18.3986952048 -2.4996461868
10.0646893418 -18.4151717915 -2.4996461868
10.0771831968 -18.4095339203 -2.4996461868
10.3672457185 -18.4025735104 -2.4996461868
10.5632048704 -18.4058137903 -2.4996461868
10.8625477981 -18.3942862122 -2.4996461868
10.5789841794 -18.6458666348 -2.4996461868
10.5921582212 -18.6387063771 -2.4996461868
10.6053110241 -18.6315071795 -2.4996461868
10.6184424729 -18.6242691050 -2.4996461868
10.6577075465 -18.6023222555 -2.4996461868
11.1974561056 -18.2504523991 -2.4996461868
11.2214327226 -18.2324407765 -2.4996461868
11.2333809650 -18.2233818487 -2.4996461868
11.2453023571 -18.2142876155 -2.4996461868
11.2927173406 -18.1775592246 -2.4996461868
11.3162610299 -18.1589852804 -2.4996461868
11.3396944174 -18.1402723689 -2.4996461868
10.4030045531 -18.7637012570 -2.4996461868
10.4300316269 -18.7503808939 -2.4996461868
10.4569794200 -18.7369008627 -2.4996461868
10.5904962586 -18.6671223944 -2.4996461868
10.6169486581 -18.6526944577 -2.4996461868
11.2719433217 -18.2243121436 -2.4996461868
11.4708689725 -18.0630348905 -2.4996461868
11.5051198400 -18.0335453346 -2.4996461868
11.5391076555 -18.0037529827 -2.4996461868
11.5728297422 -17.9736601812 -2.4996461868
11.6284355076 -17.9228442940 -2.4996461868
10.1797250725 -18.8926340133 -2.4996461868
10.2628909991 -18.8561368875 -2.4996461868
10.3727464029 -18.8051889814 -2.4996461868
11.7758324868 -17.8147033701 -2.4996461868
10.0627167480 -18.9670640219 -2.4996461868
10.0768432087 -18.9614295712 -2.4996461868
10.1892422780 -18.9148546812 -2.4996461868
12.0804019746 -17.5580794905 -2.4996461868
12.3391063765 -17.3130682287 -2.4996461868
9.6881193756 -19.2509737755 -2.4996461868
9.6950839225 -19.2741217855 -2.4996461868
10.4439153144 -15.2718407438 -2.5001611710
10.9335419635 -15.4871290335 -2.5001611710
10.9339036549 -15.6313429307 -2.5001611710
10.9798086567 -13.5035382546 -2.5001611710
10.9445399400 -13.4086642294 -2.5001611710
10.9377966811 -13.3915401580 -2.5001611710
10.9450539478 -15.7346848005 -2.5001611710
10.9485757697 -15.7261060799 -2.5001611710
10.9579520785 -13.3131527285 -2.5001611710
10.9469510885 -13.2873663930 -2.5001611710
10.9568824580 -15.9997581953 -2.5001611710
10.9564155695 -16.0537972043 -2.5001611710
10.9518806861 -12.7718603680 -2.5001611710
8.2514180038 -18.4186934812 -2.5001611710
9.3482623728 -18.4042041259 -2.5001611710
9.3481155670 -18.4806981987 -2.5001611710
9.5560111290 -18.4058551895 -2.5001611710
9.7324801050 -18.4114634746 -2.5001611710
11.2716390661 -18.1639707565 -2.5001611710
10.4194277314 -18.7989074513 -2.5001611710
10.2130222506 -18.9344710849 -2.5001611710
10.2777832754 -18.9019514551 -2.5001611710
9.7861868039 -19.1977042265 -2.5001611710
10.9476932987 -15.8080186773 -2.4999349117
10.9503469534 -15.7992823326 -2.4999349117
10.9581526940 -15.7730267338 -2.4999349117
10.9632269411 -15.7554849637 -2.4999349117
10.9433232220 -13.9909849640 -2.4999349117
10.9378545710 -13.9735621187 -2.4999349117
10.9542199287 -15.8677374135 -2.4999349117
10.9598545847 -15.8502172534 -2.4999349117
10.9734868796 -15.8062736915 -2.4999349117
10.9771189619 -14.0190289414 -2.4999349117
10.9378148182 -13.8963528501 -2.4999349117
10.9565150749 -15.9367324413 -2.4999349117
10.9800624111 -15.8663824498 -2.4999349117
10.9576528594 -13.8797359326 -2.4999349117
10.9421412146 -13.8360404738 -2.4999349117
10.9539458841 -16.0149869706 -2.4999349117
10.9604517227 -15.9974658547 -2.4999349117
10.9316534115 -13.7404381920 -2.4999349117
10.9597371196 -16.0674339989 -2.4999349117
10.9699221860 -16.0410845083 -2.4999349117
10.9400078775 -13.6965921030 -2.4999349117
10.9463433756 -16.1640709441 -2.4999349117
10.9500503033 -16.1553370348 -2.4999349117
10.9646191658 -16.1202928878 -2.4999349117
10.9822454625 -16.0762493140 -2.4999349117
10.9659600105 -13.6961845638 -2.4999349117
10.9477326613 -13.6523863165 -2.4999349117
10.9495172463 -16.2173789740 -2.4999349117
10.9572205815 -16.1998805171 -2.4999349117
10.9610333927 -16.1911142744 -2.4999349117
10.9548204360 -13.6078296317 -2.4999349117
10.9392456735 -13.5729073832 -2.4999349117
10.9313036064 -13.5555159791 -2.4999349117
10.9670562540 -13.5176993775 -2.4999349117
10.9374129729 -13.4021132173 -2.4999349117
10.9464505003 -16.4978320100 -2.4999349117
10.9604556309 -16.4715834822 -2.4999349117
10.9292127152 -13.2838018003 -2.4999349117
10.9449722043 -16.5998897071 -2.4999349117
10.9367901101 -13.1047632082 -2.4999349117
10.9500031699 -16.7330797496 -2.4999349117
10.9542523557 -12.9963359601 -2.4999349117
10.9280270168 -16.9428754311 -2.4999349117
10.9362791150 -12.8822518215 -2.4999349117
8.8157771109 -18.4059449997 -2.4999349117
10.9318676588 -12.8336578713 -2.4999349117
8.8525234921 -18.4220154359 -2.4999349117
8.8629189892 -18.4194655450 -2.4999349117
8.8733068979 -18.4168849135 -2.4999349117
8.9209206700 -18.4296357205 -2.4999349117
8.9625421425 -18.4184419633 -2.4999349117
8.9729265873 -18.4155666330 -2.4999349117
9.0211380064 -18.4269670544 -2.4999349117
9.1840689734 -18.4009030991 -2.4999349117
9.1944005658 -18.3973725291 -2.4999349117
9.2230178803 -18.4130356517 -2.4999349117
9.2644217845 -18.3982685020 -2.4999349117
9.3038148558 -18.4095178306 -2.4999349117
9.3245164233 -18.4017175357 -2.4999349117
9.3348498104 -18.3977714932 -2.4999349117
9.3435068417 -18.4203411872 -2.4999349117
9.3642717491 -18.4123058718 -2.4999349117
9.3953290653 -18.4000229035 -2.4999349117
9.3102255971 -18.4587131109 -2.4999349117
9.4012072360 -18.4757181165 -2.4999349117
9.7547834104 -18.3967747137 -2.4999349117
10.1488729916 -18.3978199300 -2.4999349117
10.5362793380 -11.5944274761 -2.4999349117
10.3147244990 -18.4065256397 -2.4999349117
10.6398145383 -11.5832899735 -2.4999349117
10.4937126290 -18.4006764994 -2.4999349117
11.2150793210 -11.8486089101 -2.4999349117
11.1510710098 -11.7826055359 -2.4999349117
11.1325332085 -11.7639922352 -2.4999349117
11.2687597035 -11.8704761403 -2.4999349117
11.2597639905 -11.8608072515 -2.4999349117
11.2507397145 -11.8511650160 -2.4999349117
10.7128237189 -11.3642615312 -2.4999349117
10.6812804912 -11.3402884629 -2.4999349117
11.2409734437 -11.8056992295 -2.4999349117
10.6513684737 -18.6445232912 -2.4999349117
11.1536194347 -18.2310905656 -2.4999349117
11.2121257553 -18.1745203767 -2.4999349117
11.2217787930 -18.1649914385 -2.4999349117
11.2314036002 -18.1554339865 -2.4999349117
10.4960590659 -18.7789504731 -2.4999349117
10.5303255790 -18.7566090894 -2.4999349117
10.5757032842 -18.7263492155 -2.4999349117
10.6986104753 -18.6403899498 -2.4999349117
10.7096438863 -18.6323780443 -2.4999349117
10.7316393653 -18.6162564923 -2.4999349117
11.1702675030 -18.2486170343 -2.4999349117
11.2868784505 -18.1338452921 -2.4999349117
11.3342507157 -18.0848151290 -2.4999349117
11.3716231630 -18.0450898691 -2.4999349117
11.3808926241 -18.0350896750 -2.4999349117
11.4449448992 -17.9643266913 -2.4999349117
10.4046559790 -18.8647873936 -2.4999349117
10.4280318075 -18.8504661849 -2.4999349117
11.5524309044 -17.8764635662 -2.4999349117
10.1777206509 -19.0216554316 -2.4999349117
10.2020285351 -19.0086741031 -2.4999349117
10.2141535701 -19.0021295654 -2.4999349117
10.2864924055 -18.9621117376 -2.4999349117
11.6998919776 -17.7304272202 -2.4999349117
11.7575675781 -17.6531244106 -2.4999349117
9.8998758749 -19.2102832926 -2.4999349117
9.9379937016 -19.1932157150 -2.4999349117
12.0698067960 -17.3102513640 -2.4999349117
10.3931885332 -15.1226641372 -2.5000250340
10.3906534317 -15.0874719526 -2.5000250340
10.3888826208 -15.0663759949 -2.5000250340
10.3869246648 -15.0452965829 -2.5000250340
10.3824479492 -15.0031940352 -2.5000250340
10.4458480721 -15.2202398724 -2.5000250340
10.4260876465 -14.9619258289 -2.5000250340
10.4059268512 -14.8339234999 -2.5000250340
10.4668585206 -14.9047819159 -2.5000250340
10.4894224853 -14.7575885970 -2.5000250340
10.5647545447 -14.5576362650 -2.5000250340
10.9424372202 -16.2475148664 -2.5000250340
10.9509394109 -16.2214764562 -2.5000250340
10.9564790169 -16.2040760411 -2.5000250340
10.9602445260 -14.3608809684 -2.5000250340
10.9435303751 -14.3087108403 -2.5000250340
10.9348267247 -14.2827390764 -2.5000250340
10.9475482414 -16.3073713766 -2.5000250340
10.9750236477 -14.3273835804 -2.5000250340
10.9635863432 -14.2923979026 -2.5000250340
10.9456562162 -14.2401792501 -2.5000250340
10.9402903972 -16.4632388436 -2.5000250340
10.9575230697 -16.4198081739 -2.5000250340
10.9588105031 -14.1364346540 -2.5000250340
10.9446828504 -16.5158214979 -2.5000250340
10.9519640100 -16.4984529471 -2.5000250340
10.9424092567 -14.0317347232 -2.5000250340
10.9349937646 -14.0144230995 -2.5000250340
10.9304733845 -16.6654411238 -2.5000250340
10.9486386346 -16.7385598027 -2.5000250340
10.9543405781 -13.7720091586 -2.5000250340
10.9271759548 -13.7200365687 -2.5000250340
10.9391718997 -13.6913075635 -2.5000250340
10.9526725579 -13.6158401193 -2.5000250340
10.9261716370 -17.0304885074 -2.5000250340
10.9364980634 -17.0132204676 -2.5000250340
9.4076402595 -18.4044322107 -2.5000250340
9.4168872615 -18.4002919065 -2.5000250340
9.3802600190 -18.4691629740 -2.5000250340
10.9305686585 -13.3924563177 -2.5000250340
9.4277221981 -18.4748634248 -2.5000250340
10.9431006548 -17.1855663407 -2.5000250340
10.9368152223 -13.3140244608 -2.5000250340
9.7014250003 -18.3942748218 -2.5000250340
9.7407284880 -18.4003174359 -2.5000250340
9.8293132219 -18.4056774641 -2.5000250340
10.0370044092 -18.3914775085 -2.5000250340
10.2018162038 -18.3968241040 -2.5000250340
9.9722680314 -11.5907177925 -2.5000250340
11.0882654839 -18.2746380113 -2.5000250340
11.1322732643 -18.2288205953 -2.5000250340
11.1669885667 -18.1917011427 -2.5000250340
11.1233588246 -18.2731601201 -2.5000250340
11.2532251753 -18.1322251721 -2.5000250340
11.3280986941 -18.0449474600 -2.5000250340
11.3444199660 -18.0252837301 -2.5000250340
11.3606246151 -18.0055237821 -2.5000250340
10.3362202766 -18.9462204933 -2.5000250340
10.4755933303 -18.8541732929 -2.5000250340
11.3874649219 -18.0108255562 -2.5000250340
11.4275380865 -17.9606117216 -2.5000250340
11.4668641858 -17.9098106820 -2.5000250340
10.2167122411 -19.0472431285 -2.5000250340
10.2611755938 -19.0208997248 -2.5000250340
10.3053241265 -18.9940320541 -2.5000250340
10.1043786703 -19.1382096714 -2.5000250340
10.1951745769 -19.0876313050 -2.5000250340
9.9884474142 -19.2258366789 -2.5000250340
9.7583560050 -19.3853762275 -2.5000250340
10.5373929405 -11.5945646719 -2.5000250340
10.5729203622 -11.5897113649 -2.5000250340
11.4035562689 -11.9783796524 -2.5000250340
11.3839843677 -11.9583756651 -2.5000250340
11.3642944587 -11.9384878219 -2.5000250340
11.1610585823 -11.7461484200 -2.5000250340
10.7906729501 -11.4478622593 -2.5000250340
10.6414211538 -11.3438867091 -2.5000250340
10.5712110667 -11.2978503261 -2.5000250340
11.4306759684 -11.9716222170 -2.5000250340
11.3814222546 -11.9214298651 -2.5000250340
11.3515155811 -11.8916660642 -2.5000250340
11.1560991546 -11.7094474575 -2.5000250340
10.5961043308 -11.2851433817 -2.5000250340
10.3310633716 -11.1255804461 -2.5000250340
11.6840907559 -12.2177309446 -2.5000250340
11.6292255806 -12.1530514343 -2.5000250340
10.4409211531 -11.1607844269 -2.5000250340
10.3304991556 -11.0976012724 -2.5000250340
11.7655257581 -12.2793218330 -2.5000250340
11.7566432590 -12.2682332771 -2.5000250340
11.6844103845 -12.1804806160 -2.5000250340
11.9723271034 -12.5159067783 -2.5000250340
12.0247059183 -12.5493637146 -2.5000250340
10.3947764132 -15.0906856909 -2.5000011921
10.3895013836 -14.9759113449 -2.5000011921
10.3875064266 -14.8874629999 -2.5000011921
10.5131376035 -15.1820102779 -2.5000011921
10.5725747320 -15.1098321896 -2.5000011921
10.5157248886 -14.8135846491 -2.5000011921
10.5182116274 -14.7482563924 -2.5000011921
10.4673945629 -14.6207042749 -2.5000011921
10.9471577014 -16.6932316129 -2.5000011921
10.9656391661 -14.5643565658 -2.5000011921
10.9526491939 -16.8120700022 -2.5000011921
10.9374027404 -14.4287307684 -2.5000011921
10.9387685098 -16.9058404991 -2.5000011921
10.9425047658 -16.8974311641 -2.5000011921
10.9499025674 -16.8805795204 -2.5000011921
10.9560215829 -14.4107949804 -2.5000011921
10.9493986986 -16.9410447713 -2.5000011921
10.9422749003 -14.2641882415 -2.5000011921
10.9314648695 -17.1413494984 -2.5000011921
10.9533809673 -17.0992756660 -2.5000011921
10.9344600390 -14.1415392481 -2.5000011921
10.9377906274 -14.0965454498 -2.5000011921
10.9419751915 -17.2232293464 -2.5000011921
10.9568128280 -14.0310149285 -2.5000011921
10.9453461525 -17.3146092741 -2.5000011921
10.9552120702 -17.2977335186 -2.5000011921
10.9510831335 -17.3522589257 -2.5000011921
10.9546894712 -13.8843390027 -2.5000011921
10.9442800319 -17.7122607145 -2.5000011921
10.9451763891 -17.7518457227 -2.5000011921
10.9519492899 -17.7831754222 -2.5000011921
10.6401734043 -18.7020365842 -2.5000011921
10.6762432728 -18.6717408158 -2.5000011921
10.7296696385 -18.6255022403 -2.5000011921
10.7735590023 -18.5862506951 -2.5000011921
10.5633329159 -18.7949406230 -2.5000011921
10.5912464616 -18.7729370345 -2.5000011921
11.1288268291 -18.2566752768 -2.5000011921
10.3861160094 -18.9550937176 -2.5000011921
10.4251979530 -18.9277863588 -2.5000011921
10.8324230357 -18.5978973520 -2.5000011921
11.4899529281 -17.8576994789 -2.5000011921
10.5215397862 -18.9177719366 -2.5000011921
9.2790737032 -11.5845317480 -2.5000011921
9.3939540415 -11.5943919815 -2.5000011921
9.3580128058 -11.5830495221 -2.5000011921
9.2616920371 -11.5543668455 -2.5000011921
9.4253715523 -11.5791548408 -2.5000011921
9.4690615200 -11.5681870176 -2.5000011921
9.5972458348 -11.5878533913 -2.5000011921
9.6657195350 -11.5879289672 -2.5000011921
9.6417268843 -11.5787241389 -2.5000011921
9.7464889865 -11.5940079201 -2.5000011921
9.8036195825 -11.5915224728 -2.5000011921
9.7796457788 -11.5815017187 -2.5000011921
9.5980241666 -11.5108961163 -2.5000011921
9.8490537426 -11.5846278871 -2.5000011921
10.1870485084 -11.5841317626 -2.5000011921
10.3411647669 -11.5842434877 -2.5000011921
10.3291613913 -11.5776252568 -2.5000011921
10.4850846541 -11.5829002767 -2.5000011921
10.5819493977 -11.5846844822 -2.5000011921
11.1283576595 -11.7274189568 -2.5000011921
11.0935286651 -11.7006793998 -2.5000011921
10.7574554860 -11.4663386081 -2.5000011921
11.4142947776 -11.9342326752 -2.5000011921
11.3702306529 -11.8952509303 -2.5000011921
11.3480263904 -11.8759562632 -2.5000011921
11.2807341411 -11.8188651737 -2.5000011921
11.2353142846 -11.7814718568 -2.5000011921
10.7455969694 -11.4302163529 -2.5000011921
10.5178643236 -11.2952649655 -2.5000011921
10.5050053241 -11.2881252898 -2.5000011921
10.4144088554 -11.2392169902 -2.5000011921
10.4778171219 -11.2456806103 -2.5000011921
10.3336362632 -11.1705773543 -2.5000011921
10.3204092213 -11.1639832041 -2.5000011921
11.7342987815 -12.1773117487 -2.5000011921
10.3974198036 -11.1758561755 -2.5000011921
10.1836968205 -11.0720563670 -2.5000011921
10.1430890503 -11.0537259523 -2.5000011921
11.9414161934 -12.3713991267 -2.5000011921
11.8330849922 -12.2480827741 -2.5000011921
10.1256443079 -11.0195720738 -2.5000011921
12.4835614880 -12.9096377891 -2.5000011921
10.3949982184 -15.1175737196 -2.5000011921
10.4935208941 -15.3309192526 -2.5000011921
10.3768571010 -15.0131842888 -2.5000011921
10.4965013277 -15.2574039797 -2.5000011921
10.4923514439 -15.1698565407 -2.5000011921
10.3909122827 -14.9294091654 -2.5000011921
10.4280289887 -14.9509548647 -2.5000011921
10.5158336964 -14.8011905154 -2.5000011921
10.5053230907 -14.7811022476 -2.5000011921
10.4837691465 -14.7412094871 -2.5000011921
10.4462835177 -14.6755917631 -2.5000011921
10.9413654858 -16.9610766146 -2.5000011921
10.9500059008 -16.9371269375 -2.5000011921
10.9528387655 -16.9291267884 -2.5000011921
10.9556479520 -16.9211182941 -2.5000011921
10.9416270228 -14.9906217063 -2.5000011921
10.9357530420 -14.9746967023 -2.5000011921
10.9551401421 -16.9934540735 -2.5000011921
10.9669955626 -16.9613389926 -2.5000011921
10.9462761540 -14.9342524571 -2.5000011921
10.9431841701 -14.9262721046 -2.5000011921
10.9494745518 -17.0742898125 -2.5000011921
10.9625699357 -14.9094677670 -2.5000011921
10.9465059944 -14.8694202372 -2.5000011921
10.9399148596 -14.8534684887 -2.5000011921
10.9483431717 -17.1395773631 -2.5000011921
10.9420076021 -17.2132627956 -2.5000011921
10.9528860027 -17.1892974894 -2.5000011921
10.9475360884 -17.3139013523 -2.5000011921
10.9655522484 -14.6190221062 -2.5000011921
10.9621082461 -17.3918920681 -2.5000011921
10.9521719750 -17.5112288622 -2.5000011921
10.9551093236 -14.3963897730 -2.5000011921
10.9457194311 -14.3803954031 -2.5000011921
10.9588936251 -17.8629741803 -2.5000011921
9.3958829226 -11.5864687997 -2.5000011921
9.3828943728 -11.5830894388 -2.5000011921
9.5190554967 -11.5953938276 -2.5000011921
9.5060928098 -11.5916500609 -2.5000011921
9.4671390952 -11.5806490643 -2.5000011921
9.3628010879 -11.5530075096 -2.5000011921
9.6758721448 -11.5931330011 -2.5000011921
9.6629020838 -11.5889253523 -2.5000011921
9.6369249048 -11.5806252497 -2.5000011921
9.4669281523 -11.5304367817 -2.5000011921
9.7353909569 -11.5874547071 -2.5000011921
9.5129316691 -11.5181844972 -2.5000011921
9.8212059915 -11.5918112756 -2.5000011921
9.7952431159 -11.5825745434 -2.5000011921
9.5724628452 -11.5103018576 -2.5000011921
9.9159049850 -11.5752367898 -2.5000011921
10.0156965181 -11.5883162532 -2.5000011921
10.0767869002 -11.5872401136 -2.5000011921
10.1251588531 -11.5814234189 -2.5000011921
10.1737774056 -11.5761214162 -2.5000011921
10.2356568548 -11.5772015410 -2.5000011921
10.3966955916 -11.5727789357 -2.5000011921
10.4464809656 -11.5704024826 -2.5000011921
11.3341648356 -11.8341398796 -2.5000011921
11.3096091782 -11.8159477337 -2.5000011921
11.2849463197 -11.7979011857 -2.5000011921
11.2601771234 -11.7800008673 -2.5000011921
11.2103231891 -11.7446414204 -2.5000011921
11.1977946036 -11.7358939250 -2.5000011921
11.1726600768 -11.7185103106 -2.5000011921
11.1474231426 -11.7012757048 -2.5000011921
11.0711067472 -11.6504719451 -2.5000011921
10.4996215676 -11.3271526393 -2.5000011921
11.4823366646 -11.9178701156 -2.5000011921
11.3486120975 -11.8147591699 -2.5000011921
10.4269212267 -11.2659681259 -2.5000011921
10.4129800667 -11.2595401695 -2.5000011921
10.3289393529 -11.2218410155 -2.5000011921
10.3148680857 -11.2157031003 -2.5000011921
10.2725462043 -11.1975394811 -2.5000011921
11.7097613764 -12.0777403923 -2.5000011921
11.3754112558 -11.8046145785 -2.5000011921
10.3103451723 -11.1874073254 -2.5000011921
10.2535458899 -11.1633282166 -2.5000011921
10.1391125004 -11.1171945595 -2.5000011921
12.0164116841 -12.3385461102 -2.5000011921
11.8849589962 -12.2070585224 -2.5000011921
11.4146514982 -11.8039444948 -2.5000011921
10.1623150823 -11.1003139913 -2.5000011921
9.9880846595 -11.0354097953 -2.5000011921
11.7650838779 -12.0623428648 -2.5000011921
11.5518314188 -11.8806496089 -2.5000011921
9.8929842482 -10.9774585673 -2.5000011921
9.7513134812 -10.9077878737 -2.5000011921
9.7213049167 -10.8989766207 -2.5000011921
9.8183241849 -10.9028516263 -2.5000011921
9.5613464542 -10.8302780303 -2.5000011921
9.3154393069 -10.6996376656 -2.5000011921
10.4294001640 -15.2205746495 -2.5000011921
10.5091956359 -15.2698820671 -2.5000011921
10.4320425287 -15.0793608382 -2.5000011921
10.4774280117 -15.1083843455 -2.5000011921
10.4633972417 -15.0845532400 -2.5000011921
10.5122210006 -15.1204871313 -2.5000011921
10.5124866881 -14.9798092704 -2.5000011921
10.9454930545 -17.1230038467 -2.5000011921
10.9552674310 -17.0934933426 -2.5000011921
10.9623686867 -17.0712856951 -2.5000011921
10.9410913020 -15.4285025356 -2.5000011921
10.9394587640 -17.2120154500 -2.5000011921
10.9509353393 -15.3836547180 -2.5000011921
10.9455755077 -15.3689121663 -2.5000011921
10.9317951611 -15.3321967757 -2.5000011921
10.9261312220 -15.3175683643 -2.5000011921
10.9450492410 -17.2648156048 -2.5000011921
10.9565016312 -17.2353004244 -2.5000011921
10.9655318388 -15.3531591099 -2.5000011921
10.9339774546 -15.2720193677 -2.5000011921
10.9433683163 -17.3328362099 -2.5000011921
10.9556256755 -17.3033361571 -2.5000011921
10.9347194810 -15.2113481556 -2.5000011921
10.9491329940 -17.4954435798 -2.5000011921
10.9527110423 -17.4880644318 -2.5000011921
10.9633139957 -17.4658639332 -2.5000011921
10.9189992672 -14.9571243080 -2.5000011921
10.9511010210 -17.5984602015 -2.5000011921
10.9287253397 -14.8266332105 -2.5000011921
10.9699610798 -17.7148355332 -2.5000011921
10.9459680111 -14.7155206968 -2.5000011921
10.9511547225 -17.8857925467 -2.5000011921
10.9472841298 -14.5007467287 -2.5000011921
9.8934978153 -11.5729319069 -2.5000011921
10.0260203685 -11.5899315860 -2.5000011921
9.9843171934 -11.5761872075 -2.5000011921
10.0615578138 -11.5764211562 -2.5000011921
10.1112624014 -11.5680424251 -2.5000011921
10.4617058459 -11.5744442357 -2.5000011921
10.5646765936 -11.5666396877 -2.5000011921
10.6825063241 -11.5675855573 -2.5000011921
10.7347728759 -11.5657598274 -2.5000011921
10.8399208620 -11.5637861166 -2.5000011921
11.4593927271 -11.8730992515 -2.5000011921
11.2608564520 -11.7442335126 -2.5000011921
10.5178885719 -11.3620056317 -2.5000011921
10.5033246883 -11.3559290191 -2.5000011921
10.4448913107 -11.3320541867 -2.5000011921
11.6155007137 -11.9536063259 -2.5000011921
10.2612440557 -11.2365034356 -2.5000011921
10.1864186413 -11.2103615900 -2.5000011921
11.9544671401 -12.1907626409 -2.5000011921
11.8443109302 -12.0990932729 -2.5000011921
10.0883593314 -11.1525928937 -2.5000011921
12.1373207455 -12.3213917008 -2.5000011921
10.0804380775 -11.1247308425 -2.5000011921
9.5101625567 -10.8802074720 -2.5000011921
10.9466719481 -15.6924069557 -2.5000011921
10.9338415559 -15.6595390743 -2.5000011921
10.9345402027 -15.5978703067 -2.5000011921
10.4774816880 -14.8968369286 -2.5000011921
10.4628000176 -14.8812885269 -2.5000011921
10.9539395739 -15.5817668511 -2.5000011921
10.9585531667 -15.5322931367 -2.5000011921
7.4786304654 -11.5538390104 -2.5000011921
7.4638758430 -11.5575275117 -2.5000011921
7.3755831124 -11.5805736076 -2.5000011921
7.3840265962 -11.5532709642 -2.5000011921
7.3397944695 -11.5653069060 -2.5000011921
7.3250743786 -11.5694060591 -2.5000011921
7.2956708969 -11.5777349093 -2.5000011921
10.2411317825 -11.5823509165 -2.5000011921
7.2006950770 -11.5806465918 -2.5000011921
7.1788843923 -11.5620616073 -2.5000011921
7.1053767305 -11.5853725530 -2.5000011921
10.4027503526 -11.5837906448 -2.5000011921
10.4105248846 -11.5609019591 -2.5000011921
10.5215756930 -11.5742897257 -2.5000011921
11.2037601205 -11.7142617854 -2.5000011921
11.0598383942 -11.6428558318 -2.5000011921
11.0308041013 -11.6290872783 -2.5000011921
11.6075784867 -11.9159610512 -2.5000011921
11.4833694632 -11.8406823951 -2.5000011921
11.3147240558 -11.7455046935 -2.5000011921
11.2862926071 -11.7302263543 -2.5000011921
11.2148228832 -11.6927687502 -2.5000011921
11.7295545842 -11.9654351887 -2.5000011921
11.5651816535 -11.8614415945 -2.5000011921
11.0660467213 -11.5922669300 -2.5000011921
10.2330368077 -11.2773311701 -2.5000011921
10.1706200943 -11.2597747701 -2.5000011921
11.2224611606 -11.6423529770 -2.5000011921
10.1141313110 -11.2195756174 -2.5000011921
10.0510395311 -11.2034302057 -2.5000011921
9.8656980416 -11.1358420273 -2.5000011921
9.5875266952 -11.0107902565 -2.5000011921
12.3677736190 -12.2635519463 -2.5000011921
10.9325791574 -15.8888750326 -2.5000011921
10.9306485136 -15.8278127725 -2.5000011921
10.4623511175 -15.1312441892 -2.5000011921
10.4172809494 -14.9373951976 -2.5000011921
10.4382693593 -11.5842958816 -2.5000011921
10.4229732693 -11.5801337212 -2.5000011921
7.6337574394 -11.5775780248 -2.5000011921
7.6121151336 -11.5583849688 -2.5000011921
7.5814068729 -11.5668268459 -2.5000011921
7.5660716064 -11.5711158778 -2.5000011921
10.6199529984 -11.5868654203 -2.5000011921
10.5893605955 -11.5775114200 -2.5000011921
7.5441349063 -11.5521997116 -2.5000011921
7.5287565331 -11.5565990648 -2.5000011921
7.4827004395 -11.5700698049 -2.5000011921
7.4450377738 -11.5561476463 -2.5000011921
7.4296715130 -11.5608401295 -2.5000011921
7.3609801698 -11.5570409544 -2.5000011921
7.3302683527 -11.5669686537 -2.5000011921
7.2843120996 -11.5822004568 -2.5000011921
10.8567354379 -11.5890466882 -2.5000011921
7.2152734031 -11.5803240223 -2.5000011921
7.1999796656 -11.5856960842 -2.5000011921
10.9107787299 -11.5828102376 -2.5000011921
10.8954761777 -11.5772503156 -2.5000011921
7.1765896210 -11.5683421889 -2.5000011921
7.1459478930 -11.5793606069 -2.5000011921
11.6059953211 -11.8652362410 -2.5000011921
11.5479804931 -11.8350226005 -2.5000011921
11.4749658892 -11.7982243429 -2.5000011921
11.4602981024 -11.7909945106 -2.5000011921
11.3866418970 -11.7554979254 -2.5000011921
11.9030216832 -12.0058134174 -2.5000011921
11.6027542194 -11.8362118659 -2.5000011921
10.3940441266 -11.3726017695 -2.5000011921
10.3462423292 -11.3606519352 -2.5000011921
10.2182718660 -11.3308643968 -2.5000011921
6.9911912633 -11.5861884202 -2.5000011921
6.9759158542 -11.5922233319 -2.5000011921
11.8589403333 -11.9512602639 -2.5000011921
10.1589528209 -11.2934416383 -2.5000011921
10.1427975536 -11.2901070194 -2.5000011921
10.0942735553 -11.2803901060 -2.5000011921
10.0618771418 -11.2741515656 -2.5000011921
6.8660189714 -11.5847650094 -2.5000011921
6.7954413085 -11.5884612103 -2.5000011921
12.1506236659 -12.0485730358 -2.5000011921
11.7506864066 -11.8059907702 -2.5000011921
6.8319826045 -11.5466112036 -2.5000011921
6.7246503657 -11.5931071216 -2.5000011921
6.6841946493 -11.5847769876 -2.5000011921
6.6689164082 -11.5917200570 -2.5000011921
6.3720432226 -11.6014440945 -2.5000011921
8.9773231209 -10.9350973611 -2.5000011921
6.3304216400 -11.5957947171 -2.5000011921
6.2886407876 -11.5904582633 -2.5000011921
6.2314285395 -11.5936736639 -2.5000011921
6.1740588677 -11.5974996062 -2.5000011921
10.9401614606 -16.1861526663 -2.5000011921
10.9335852596 -16.0134166574 -2.5000011921
10.4416232715 -14.9667200737 -2.5000011921
10.4298888332 -14.9052321542 -2.5000011921
10.8408928184 -11.6009477457 -2.5000011921
10.7937868488 -11.5880349131 -2.5000011921
10.8788639866 -11.5865427580 -2.5000011921
11.4138945406 -11.7432210921 -2.5000011921
11.3220047008 -11.7076218276 -2.5000011921
11.1519576223 -11.6466145578 -2.5000011921
11.1208310886 -11.6361183839 -2.5000011921
10.6631344627 -11.5048111937 -2.5000011921
7.7900439495 -11.5775434563 -2.5000011921
7.7742988300 -11.5822178007 -2.5000011921
7.7357996111 -11.5685842361 -2.5000011921
10.0882996120 -11.3491824619 -2.5000011921
7.6654769481 -11.5651664239 -2.5000011921
11.3787020464 -11.6516079634 -2.5000011921
11.0646967411 -11.5415674683 -2.5000011921
9.9592536133 -11.3095216440 -2.5000011921
7.5948466972 -11.5626692139 -2.5000011921
7.5790584311 -11.5679210521 -2.5000011921
7.5632857700 -11.5732195720 -2.5000011921
9.8120804298 -11.2715164638 -2.5000011921
9.5467242603 -11.2082216700 -2.5000011921
7.3654378277 -11.5666520628 -2.5000011921
7.3496623473 -11.5725825166 -2.5000011921
7.2375049230 -11.5642243187 -2.5000011921
7.1810763770 -11.5609119309 -2.5000011921
7.1086229354 -11.5648258842 -2.5000011921
7.0613433762 -11.5850362755 -2.5000011921
6.9159160279 -11.5970703143 -2.5000011921
6.8743185430 -11.5897454743 -2.5000011921
5.7616610478 -11.6135304013 -2.5000011921
5.6716542192 -11.6168660255 -2.5000011921
5.5514902591 -11.6131921931 -2.5000011921
10.9426863562 -16.6217084977 -2.5000011921
10.9371456627 -16.6037051953 -2.5000011921
10.9313392994 -16.5857858112 -2.5000011921
10.9416394583 -16.5419181137 -2.5000011921
11.3374389294 -16.6007755852 -2.5000011921
11.3561929546 -16.5757915804 -2.5000011921
11.3405591136 -16.5180787771 -2.5000011921
11.3973795982 -11.6937069488 -2.5000011921
11.3660316100 -11.6838919397 -2.5000011921
11.3189021207 -11.6695176009 -2.5000011921
11.2874123937 -11.6601673142 -2.5000011921
11.1450468226 -11.6204031307 -2.5000011921
11.0814436260 -11.6039495998 -2.5000011921
11.0495701326 -11.5960053448 -2.5000011921
10.6799688451 -11.5182745137 -2.5000011921
8.4781577250 -11.5764325524 -2.5000011921
8.4461669934 -11.5838906927 -2.5000011921
10.3084771920 -11.4418118510 -2.5000011921
8.4406089902 -11.5603653047 -2.5000011921
8.3604827609 -11.5799223224 -2.5000011921
8.3125489540 -11.5922246379 -2.5000011921
12.3282026214 -12.0297480451 -2.5000011921
8.5158062651 -11.5183905043 -2.5000011921
8.2424211926 -11.5859752009 -2.5000011921
12.3688596648 -12.0239185476 -2.5000011921
11.1475340683 -11.5460653015 -2.5000011921
9.9983985326 -11.3693772207 -2.5000011921
8.4133056007 -11.5171641754 -2.5000011921
11.8353340577 -11.7483542380 -2.5000011921
9.7657486547 -11.3386095450 -2.5000011921
8.3103829635 -11.5178608218 -2.5000011921
8.2135328259 -11.5437893094 -2.5000011921
8.0531874590 -11.5908099096 -2.5000011921
8.3043390395 -11.4944555603 -2.5000011921
9.5975933716 -11.2914748035 -2.5000011921
7.9265643134 -11.5806561480 -2.5000011921
7.7988113486 -11.5734518400 -2.5000011921
7.7105183473 -11.5798445871 -2.5000011921
7.6379776741 -11.5814788975 -2.5000011921
7.5651951575 -11.5840759262 -2.5000011921
7.4349251719 -11.5853902800 -2.5000011921
7.3517876228 -11.5685472705 -2.5000011921
7.2778851347 -11.5749512742 -2.5000011921
7.1878258215 -11.5898237239 -2.5000011921
7.0976738374 -11.6061809381 -2.5000011921
6.8355974602 -11.6045747895 -2.5000011921
6.7487542641 -11.5967827779 -2.5000011921
6.5855054046 -11.6060169818 -2.5000011921
6.4083829664 -11.5994041223 -2.5000011921
6.2741927828 -11.5979929788 -2.5000011921
6.2292189876 -11.5982063039 -2.5000011921
6.1682026817 -11.6092553257 -2.5000011921
5.3715700671 -11.6246514878 -2.5000011921
4.2405705645 -11.4045286357 -2.5000011921
4.5120874457 -11.1179313241 -2.5000011921
4.4947475880 -11.1333710949 -2.5000011921
4.4774534797 -11.1488620926 -2.5000011921
4.4602052723 -11.1644041816 -2.5000011921
4.3916744637 -11.2270807241 -2.5000011921
4.3746580164 -11.2428762208 -2.5000011921
4.3576883696 -11.2587219860 -2.5000011921
4.3407656716 -11.2746178812 -2.5000011921
4.2735473242 -11.3386999730 -2.5000011921
4.1905983879 -11.4199136902 -2.5000011921
3.6891335194 -11.9677420190 -2.5000011921
3.6743111561 -11.9856125181 -2.5000011921
3.6155522834 -12.0575306353 -2.5000011921
4.6013537619 -11.0080168521 -2.5000011921
3.6261058424 -12.0061903713 -2.5000011921
4.5563813083 -10.9192706567 -2.5000011921
10.9397770752 -16.6084549722 -2.5000011921
11.3434913297 -16.2381193679 -2.5000011921
10.3789763432 -15.0507317392 -2.5000011921
10.9331615062 -15.0322976629 -2.5000011921
8.7183985360 -11.5751241296 -2.5000011921
13.8115005049 -12.7845724950 -2.5000011921
8.5998598450 -11.5814365515 -2.5000011921
8.5838242296 -11.5858761674 -2.5000011921
8.4970189341 -11.5855960741 -2.5000011921
8.5224156445 -11.5530221087 -2.5000011921
8.4259106984 -11.5817492341 -2.5000011921
14.9506981515 -14.0282942704 -2.5000011921
8.3544890168 -11.5788297005 -2.5000011921
8.3384467635 -11.5839951791 -2.5000011921
14.8992211290 -13.9010580703 -2.5000011921
13.1301783980 -12.1559675813 -2.5000011921
8.2988295666 -11.5715141790 -2.5000011921
8.2506862693 -11.5876471035 -2.5000011921
8.2346705536 -11.5931196109 -2.5000011921
8.2268205970 -11.5702566831 -2.5000011921
13.1123344598 -12.0880060625 -2.5000011921
8.1224135974 -11.5815073637 -2.5000011921
8.1063802805 -11.5873593516 -2.5000011921
8.0903643450 -11.5932587434 -2.5000011921
8.1464118821 -11.5471773609 -2.5000011921
8.0338325973 -11.5886453918 -2.5000011921
13.9134686044 -12.6168064647 -2.5000011921
8.1382919503 -11.5244089181 -2.5000011921
7.9610384517 -11.5908929782 -2.5000011921
7.9450336052 -11.5972223019 -2.5000011921
7.9843808021 -11.5558322873 -2.5000011921
7.8467856891 -11.5849145897 -2.5000011921
7.7732991037 -11.5896474539 -2.5000011921
7.6156947009 -11.5800797207 -2.5000011921
7.5574186536 -11.5803757412 -2.5000011921
7.4989535898 -11.5812806155 -2.5000011921
7.4242792263 -11.5906674950 -2.5000011921
7.3814813860 -11.5849303459 -2.5000011921
7.3494653526 -11.6010652695 -2.5000011921
7.3064752922 -11.5959000440 -2.5000011921
7.2473271669 -11.5994483981 -2.5000011921
7.2360668504 -11.5780582005 -2.5000011921
7.2040127042 -11.5950535656 -2.5000011921
7.0849347524 -11.6049378178 -2.5000011921
7.0689752865 -11.6138587533 -2.5000011921
6.9371848219 -11.6057632496 -2.5000011921
6.9089686975 -11.5942877724 -2.5000011921
6.7595646880 -11.5996424779 -2.5000011921
6.7435909811 -11.6095259401 -2.5000011921
6.5347056013 -11.5996366822 -2.5000011921
5.9998883296 -11.6231438694 -2.5000011921
5.9533755400 -11.6282984855 -2.5000011921
4.0338393122 -13.8970508599 -2.5000011921
4.0246736811 -13.9149874585 -2.5000011921
4.0402435800 -13.8321830257 -2.5000011921
4.0356503103 -13.7378416978 -2.5000011921
4.0240978194 -13.7084010868 -2.5000011921
4.0414839185 -13.5773899268 -2.5000011921
5.6418407543 -11.6296455193 -2.5000011921
4.0204499264 -13.5654774772 -2.5000011921
4.0199389548 -13.5175759145 -2.5000011921
4.0408027087 -13.4336812084 -2.5000011921
4.0377261727 -13.1609511558 -2.5000011921
4.0287521484 -13.1300414272 -2.5000011921
4.0431199445 -13.0631851661 -2.5000011921
4.0228660737 -13.0499898639 -2.5000011921
4.0380624127 -12.9829052974 -2.5000011921
4.0383964806 -12.8527831294 -2.5000011921
4.4007520936 -11.2210164338 -2.5000011921
4.3666351911 -11.2547927220 -2.5000011921
4.2822224065 -11.3401113336 -2.5000011921
4.2654917990 -11.3573243579 -2.5000011921
4.2488121839 -11.3745867989 -2.5000011921
3.8030660510 -11.8773734579 -2.5000011921
4.5226563869 -11.0703222838 -2.5000011921
4.4009803196 -11.1869253628 -2.5000011921
4.3837960406 -11.2037877499 -2.5000011921
4.3155599938 -11.2717434202 -2.5000011921
4.2817447002 -11.3060228457 -2.5000011921
3.6940564241 -11.9748708990 -2.5000011921
3.6496740210 -12.0318527183 -2.5000011921
3.6203674434 -12.0700584457 -2.5000011921
3.6057990473 -12.0892261627 -2.5000011921
3.5624349585 -12.1469867137 -2.5000011921
