3.4033023267 -0.1967124811 -3.0000157657
3.4171854441 -0.2199812852 -3.0000157714
3.3789018345 -0.6541835869 -3.0000158233
3.3867503310 -0.6439201459 -3.0000158233
3.3771987109 -0.8883513969 -3.0000158579
-3.4462648791 -1.1870374549 -3.0000158867
3.3896513347 -1.0594476431 -3.0000158867
3.4049467239 -1.2228856043 -3.0000159155
3.4169575697 -1.3512248320 -3.0000159386
-0.5355111291 -0.4731268999 -3.0000121707
-0.6815575652 -0.4868818224 -3.0000121448
0.3727316383 -0.3890810760 -3.0000121189
0.6177050538 -0.2900985067 -3.0000121189
-0.9137234915 -0.5013277925 -3.0000120929
-0.6590727500 -0.5618774149 -3.0000120670
-0.4722268453 -0.5716650671 -3.0000120670
-0.6838011056 -0.5838317172 -3.0000120410
0.4461347032 -0.4399730673 -3.0000120410
0.8877116049 -0.2562395297 -3.0000120151
0.9390814303 -0.2816778211 -3.0000119632
1.0047420092 -0.2401041489 -3.0000119632
1.0371039568 -0.2185935145 -3.0000119632
-1.5703282779 -0.5432921365 -3.0000118336
0.4826047024 -0.6835998609 -3.0000117817
-3.3400862718 0.0573467273 -3.0000110555
-3.3432112282 0.0182150890 -3.0000110296
-3.3517125254 -0.0124963124 -3.0000110037
-3.3375369661 -0.1176021473 -3.0000109518
-3.3322644466 -0.1661102237 -3.0000109259
-3.3326643904 -0.2062150301 -3.0000108999
-3.3253508424 -0.2955039440 -3.0000108480
-3.3173658005 -0.3446503522 -3.0000108221
-3.3016483034 -0.4024165164 -3.0000107962
-3.3247742710 -0.4502904111 -3.0000107443
-3.4637850949 -0.4323572823 -3.0000106406
-3.2865460607 -0.6413025488 -3.0000106406
3.4751231672 0.7142471408 -3.0000103812
3.4787870004 0.7258145954 -3.0000103812
3.4860119312 0.7489817663 -3.0000103812
3.4895729655 0.7605812799 -3.0000103812
3.4792145187 0.6489021712 -3.0000103553
3.4830716362 0.6604820147 -3.0000103553
3.4868944817 0.6720732175 -3.0000103553
3.5054934663 0.7301960691 -3.0000103553
3.4822229505 0.5831656372 -3.0000103293
3.4902917803 0.6063556330 -3.0000103293
3.4942747097 0.6179684312 -3.0000103293
3.4982232690 0.6295929608 -3.0000103293
3.4841378003 0.5170553512 -3.0000103034
3.4883849231 0.5286503356 -3.0000103034
3.4967761758 0.5518777417 -3.0000103034
3.5009202324 0.5635099603 -3.0000103034
3.4849486968 0.4505893547 -3.0000102775
3.4892869200 0.3953829835 -3.0000102515
3.5748536478 0.6300611850 -3.0000102515
3.5608024772 0.5156178325 -3.0000102256
3.5146669718 0.2065033369 -3.0000101478
3.5094914319 0.0240662325 -3.0000100700
3.6926625100 0.3846471404 -3.0000100441
3.7109970595 0.4335783800 -3.0000100441
3.7243673130 0.4704173064 -3.0000100441
3.4049239756 -0.3213871227 -3.0000099922
3.9200541875 0.4438234485 -3.0000098366
3.5319316368 -1.1204569186 -3.0000093957
0.0543661975 -0.3861029226 -3.0000087182
-0.5167102248 -0.5673790209 -3.0000085856
-0.2060965788 -0.5396182951 -3.0000085194
-0.7095492895 -0.6279545225 -3.0000084531
0.6345557343 -0.1951422076 -3.0000084531
0.6466520853 -0.1868149691 -3.0000084531
-0.7383711498 -0.6768021877 -3.0000083205
-0.6451940439 -0.7466359510 -3.0000081217
-0.2510297391 -0.7225135234 -3.0000080554
1.0131220974 -0.1114986546 -3.0000079891
0.8096098102 -0.5723035768 -3.0000073264
-3.1976989740 -0.5247315350 -3.0000059345
-3.3159967197 -0.6111248151 -3.0000055369
-3.0957118052 -1.1639855064 -3.0000048078
3.4964351943 1.3314957752 -3.0000034822
3.5030246206 1.2019791189 -3.0000034160
3.5086389948 1.2398978132 -3.0000034160
3.5139166407 1.2778648387 -3.0000034160
3.5156009549 1.2905307375 -3.0000034160
3.5079565302 1.0842614102 -3.0000033497
3.5249639085 1.1856335224 -3.0000033497
3.5269210113 1.1983325045 -3.0000033497
3.5325668061 1.2364634094 -3.0000033497
3.5148079558 0.9911391499 -3.0000032834
3.5198354587 1.0164861660 -3.0000032834
3.5270953167 1.0545613515 -3.0000032834
3.5196258277 0.8974053452 -3.0000032171
3.5332990209 0.9609090579 -3.0000032171
3.5359208628 0.9736336801 -3.0000032171
3.5285276497 0.8284996420 -3.0000031509
3.5315412035 0.8412107289 -3.0000031509
3.5488317139 0.9176593913 -3.0000031509
3.5330673867 0.7463977900 -3.0000030846
3.5363237928 0.7591226655 -3.0000030846
3.5458669582 0.7973543104 -3.0000030846
3.6354348232 1.2747755458 -3.0000030846
3.6403979557 1.3138664398 -3.0000030846
3.5430022824 0.6892921242 -3.0000030183
3.5628570371 0.6701746287 -3.0000029520
3.6768374438 1.0674331042 -3.0000028857
3.5682601161 0.5156792103 -3.0000028195
3.5913224345 0.5928308414 -3.0000028195
3.6696042336 0.7948326309 -3.0000027532
3.5855195970 0.4109930429 -3.0000026869
3.5729238646 0.3002589004 -3.0000026206
3.5774998558 0.3131036306 -3.0000026206
3.5926066941 0.1461309191 -3.0000024218
3.4942231599 -0.1440309105 -3.0000023555
3.8810852157 1.1161214405 -3.0000023555
3.9787883845 1.1150050448 -3.0000020904
3.6070998725 -0.2444945644 -3.0000019579
0.1555814054 -0.0320479534 -3.0000125079
-0.1054894018 -0.4864209771 -3.0000122226
0.1079772949 -0.4058772535 -3.0000121967
0.4681294565 -0.2193308253 -3.0000121448
0.5129307910 -0.1822303573 -3.0000121448
-0.4333617996 -0.7300414444 -3.0000120929
-0.8069926044 -0.8481480503 -3.0000120410
0.5464831068 -0.2801964701 -3.0000120410
-0.0897950817 -0.6901646467 -3.0000120151
-0.8018809982 -0.8962231230 -3.0000119892
-1.0552754338 -0.9348958073 -3.0000119632
0.8939619084 -0.0447779449 -3.0000119632
-1.0786180690 -0.9833320890 -3.0000119114
-0.9678407132 -0.9811007145 -3.0000119114
-0.9980780215 -1.0305320858 -3.0000118595
0.6726167672 -0.3953953653 -3.0000118595
0.9191903368 -0.3004132579 -3.0000117558
3.5065846263 1.8117019360 -3.0000098625
3.5037424121 1.8930351865 -3.0000098625
3.5031283805 1.9065852701 -3.0000098625
3.5317705223 1.6214510695 -3.0000098366
3.5322172435 1.6623550031 -3.0000098366
3.5563897634 1.6621982780 -3.0000098107
3.5697031339 1.3729430530 -3.0000097847
3.5790790935 1.8135913173 -3.0000097847
3.5794857316 1.2057136212 -3.0000097588
3.5836200104 1.2470573717 -3.0000097588
3.6014729263 1.8695925828 -3.0000097588
3.6005526557 1.1755180531 -3.0000097328
3.6035278895 1.2032016643 -3.0000097328
3.6197852140 1.1311595770 -3.0000097069
3.6424895037 0.9434176331 -3.0000096550
3.7210909584 1.9025623721 -3.0000096291
3.6657801227 0.7951664750 -3.0000096032
3.6545318028 0.6220705466 -3.0000095772
3.7736714593 1.6320879029 -3.0000095772
3.7846861690 1.3292588395 -3.0000095513
3.8635737813 1.4261032301 -3.0000094735
3.8680251371 1.5284609840 -3.0000094735
3.6561236970 0.1699152518 -3.0000094476
3.6823966528 0.2541611485 -3.0000094476
3.8928168388 1.8364811823 -3.0000094476
3.5531078810 -0.1847298272 -3.0000094216
3.7223004133 0.3038610132 -3.0000094216
3.9362909582 1.9565910055 -3.0000093957
3.4776751990 -0.4760064304 -3.0000093698
0.1943007777 0.1783250744 -3.0000188815
0.0914619880 -0.0702097380 -3.0000190774
0.2642957971 0.1113356496 -3.0000190774
0.0526791555 -0.1696045806 -3.0000191754
0.0078633208 -0.2685371389 -3.0000192734
-0.0776130223 -0.5639849069 -3.0000196653
0.2150088377 -0.3488483172 -3.0000196653
-0.0831702461 -0.5958493748 -3.0000197143
-0.0465368574 -0.5729570318 -3.0000197143
0.0451724654 -0.5410192845 -3.0000197633
0.2520104268 -0.3807866150 -3.0000197633
0.6414218213 0.0039716502 -3.0000198122
0.6501166023 0.0158065728 -3.0000198122
-0.3269866629 -0.8065174860 -3.0000198612
-0.1870485290 -0.7383120463 -3.0000198612
0.1533825981 -0.5526456750 -3.0000199102
-0.4467750963 -0.9084699553 -3.0000199592
-0.1803523240 -0.8165371162 -3.0000200082
-0.0532246286 -0.7469473082 -3.0000200082
0.8388981654 0.1233213842 -3.0000200082
0.8468833770 0.1363225544 -3.0000200082
0.5726651690 -0.2702326106 -3.0000200572
0.8222335812 0.0521551976 -3.0000200572
0.9494583717 0.0265445603 -3.0000203021
-0.7039116714 -1.1904487554 -3.0000203511
1.2272344222 0.5381324477 -3.0000203511
-1.1766195596 -1.4081515758 -3.0000206450
-0.1585008302 -1.1813313341 -3.0000206940
3.5234996877 2.4413146395 -3.0000248580
3.6390359135 1.6392154093 -3.0000249070
3.6380035799 1.6687566041 -3.0000249070
3.6270358916 1.8605667109 -3.0000249070
3.6221781756 1.9194849901 -3.0000249070
3.6103730960 2.0371284978 -3.0000249070
3.5957874916 2.1544597167 -3.0000249070
3.5784295308 2.2714129380 -3.0000249070
3.5736579651 2.3005845006 -3.0000249070
3.5609747205 2.3733854352 -3.0000249070
3.5384460088 2.4894535701 -3.0000249070
3.5197504426 2.5761370370 -3.0000249070
3.6571460287 1.7735074854 -3.0000249560
3.5433339770 2.5814429004 -3.0000249560
3.5400527967 2.5959270349 -3.0000249560
3.6895477137 1.4169502291 -3.0000250050
3.6873572599 1.6407609221 -3.0000250050
3.6308078088 2.2495941402 -3.0000250050
3.6137935451 2.3526558501 -3.0000250050
3.7089910915 1.2517897943 -3.0000250540
3.7140360107 1.5066137204 -3.0000250540
3.7459092198 1.0683380773 -3.0000251519
3.7504171991 1.1287183818 -3.0000251519
3.7799805918 1.2181494682 -3.0000252009
3.7907319486 1.9343864811 -3.0000252499
3.7893637957 1.9496052947 -3.0000252499
3.7886694112 0.7877950784 -3.0000252989
3.8393974065 2.1563987915 -3.0000253969
3.8911732987 2.3057083469 -3.0000255438
3.8331418815 2.6144407375 -3.0000255438
-2.2528212874 -3.7789423681 -3.0000255928
-2.1593520494 -3.7940560072 -3.0000255928
-2.6196037341 -3.7527012723 -3.0000256908
-2.4487081217 -3.7910876562 -3.0000256908
-2.4018915383 -3.8005897591 -3.0000256908
-2.2766541041 -3.8238937508 -3.0000256908
-2.8417952000 -3.7190806720 -3.0000257398
-2.8264103544 -3.7234573369 -3.0000257398
-2.7647435235 -3.7405083162 -3.0000257398
-2.2965495608 -3.8449463270 -3.0000257398
-3.8187998085 -3.3606130501 -3.0000257888
-2.8947257650 -3.7288586708 -3.0000257888
-2.8329902404 -3.7467176116 -3.0000257888
-2.6465764248 -3.7958945431 -3.0000257888
-2.5997093911 -3.8071524269 -3.0000257888
-2.5840650726 -3.8108125728 -3.0000257888
-2.8860978114 -3.7565928370 -3.0000258378
-2.8084864694 -3.7786716307 -3.0000258378
-3.0861762692 -3.7448308826 -3.0000259358
-2.6991340235 -4.0816460220 -3.0000263766
-2.4843309857 -4.1292277979 -3.0000263766
0.1781943176 0.0988508666 -3.0000202774
0.2324789241 0.0944384279 -3.0000204042
0.1640927231 -0.0917002206 -3.0000205310
0.2660535621 0.0120213892 -3.0000205944
0.3799174651 -0.0788316074 -3.0000209748
0.3882983478 -0.1526805784 -3.0000211016
0.3091457408 -0.2991656576 -3.0000211650
0.4404443822 -0.1187754410 -3.0000211650
0.4715978694 -0.0703312405 -3.0000211650
0.3813246084 -0.2451995002 -3.0000212284
-0.1881005970 -0.8552054888 -3.0000213551
0.6526304292 0.1045172750 -3.0000213551
0.3369941997 -0.4173308827 -3.0000214185
0.4528349619 -0.2704019611 -3.0000214185
-0.3213735885 -0.9951327794 -3.0000214819
0.4035036166 -0.3746969315 -3.0000214819
-0.3761133391 -1.0530360612 -3.0000215453
0.7146575994 0.0134161390 -3.0000216087
0.8700830209 0.3736611988 -3.0000216087
0.1991225086 -0.8633281298 -3.0000219891
1.0763398729 0.5601980696 -3.0000219891
-2.3300347438 -3.6216254423 -3.0000276314
-2.3157037942 -3.6237906738 -3.0000276314
-2.6344211341 -3.5900212262 -3.0000276948
-2.6201823437 -3.5930870260 -3.0000276948
-2.4055896185 -3.6340037579 -3.0000276948
-2.2038476015 -3.6635695007 -3.0000276948
-2.1604685900 -3.6688164757 -3.0000276948
-2.0300761040 -3.6822448737 -3.0000276948
-2.9939553004 -3.5229482948 -3.0000277582
-2.3990799425 -3.6840955794 -3.0000278216
-1.5937344813 -3.7502137056 -3.0000278216
-1.4466734578 -3.7481215264 -3.0000278216
-2.9081570447 -3.5976175108 -3.0000278850
-1.8006014384 -3.7699857635 -3.0000278850
-1.6676433061 -3.7737984569 -3.0000278850
-1.2228138738 -3.7850468121 -3.0000279484
-1.7280624422 -3.8208691429 -3.0000280118
-1.3998267386 -3.8191127071 -3.0000280118
-1.2805958601 -3.8131791957 -3.0000280118
-1.1318094740 -3.8017975991 -3.0000280118
-1.1020962444 -3.7989934026 -3.0000280118
-1.3090455944 -3.8390626999 -3.0000280752
-1.2641444153 -3.8363618985 -3.0000280752
-1.2192689724 -3.8332627306 -3.0000280752
-2.8608423443 -3.7102106239 -3.0000281385
-3.0709437246 -3.6765433373 -3.0000282019
-2.6458005974 -3.7853411225 -3.0000282019
-2.4077151105 -3.8296433151 -3.0000282019
-1.8370749516 -3.9135297136 -3.0000282653
-2.9803870390 -3.8033890711 -3.0000284555
3.7601477740 1.8067746441 -3.0000288993
3.7547456961 1.8542393678 -3.0000288993
3.7337007795 2.0120744097 -3.0000288993
3.7161958755 2.1221556841 -3.0000288993
3.7768485240 1.8729611508 -3.0000289627
3.7729020654 1.9047072987 -3.0000289627
3.7666303878 1.9522813531 -3.0000289627
3.6878263044 2.3930315847 -3.0000289627
3.6093360436 2.7031105634 -3.0000289627
3.7717119490 2.0826856286 -3.0000290261
3.6540200645 2.6323124511 -3.0000290261
3.5665006063 2.9247246900 -3.0000290261
3.7822006230 2.1660910632 -3.0000290895
3.6468983421 2.7473706767 -3.0000290895
3.5475279064 3.0544096445 -3.0000290895
3.6420821520 2.8472628124 -3.0000291529
4.0963679732 2.4484190529 -3.0000300404
0.4181077492 -0.1752581072 -3.0000153680
0.1708310356 -1.0776562603 -3.0000154487
-2.2664378206 -3.4863850957 -3.0000158406
-2.3215628260 -3.5043013733 -3.0000158463
-2.2296933287 -3.5145872506 -3.0000158463
-2.1902592192 -3.5184127208 -3.0000158463
-2.0190436489 -3.5309407784 -3.0000158463
-2.2321341151 -3.5386367380 -3.0000158521
-2.3141864127 -3.5538919839 -3.0000158579
-1.7009624184 -3.6092525322 -3.0000158636
-1.6472931438 -3.6080125548 -3.0000158636
-1.4983331926 -3.6254567250 -3.0000158694
-1.3638062809 -3.6151659603 -3.0000158694
-1.2238204290 -3.6488949253 -3.0000158809
-1.1967577708 -3.6455306926 -3.0000158809
-1.2762249594 -3.8008297100 -3.0000159155
-1.6253777370 -3.8733707343 -3.0000159270
-0.9755970245 -3.8081668315 -3.0000159270
-0.1899259686 -3.6565526495 -3.0000159386
0.0073388375 -3.6093258676 -3.0000159443
0.1102041860 -3.5936713004 -3.0000159501
3.7723297503 3.1699917550 -3.0000162094
0.0191049743 -0.3796151972 -3.0000124560
0.1605544752 -0.0291898542 -3.0000124560
0.1911023240 -0.0113979209 -3.0000124301
0.2659204834 -0.4252962885 -3.0000121967
0.3066673459 -0.3342061942 -3.0000121967
0.5144878459 0.0851018129 -3.0000121189
0.2358876578 -0.7778297200 -3.0000120410
-1.6346788448 -3.5125806261 -3.0000103553
-1.5495016301 -3.5059381086 -3.0000103553
-1.4887540231 -3.5001143350 -3.0000103553
-1.4618532584 -3.5215632157 -3.0000103293
-1.4374530227 -3.5188227028 -3.0000103293
-1.4715034891 -3.5469168552 -3.0000103034
-1.3366904682 -3.5303602178 -3.0000103034
-1.3000231618 -3.5250842292 -3.0000103034
-1.6297894394 -3.5849346948 -3.0000102775
-1.2719146337 -3.5452758978 -3.0000102775
-1.4167387768 -3.5894151390 -3.0000102515
-1.2435458621 -3.5652786624 -3.0000102515
-1.2312153544 -3.5632804671 -3.0000102515
-1.5263450401 -3.6252087606 -3.0000102256
-1.5115647525 -3.6481129637 -3.0000101997
-0.9630669697 -3.5600596539 -3.0000101997
-0.8835192691 -3.5660152718 -3.0000101737
-0.8281795699 -3.5769421198 -3.0000101478
-0.8594631754 -3.6098547776 -3.0000101219
-1.1143079201 -3.7146636172 -3.0000100700
-0.8742835510 -3.7130470187 -3.0000100181
-1.3883377269 -3.8294711920 -3.0000099922
-1.2835745173 -3.8158178403 -3.0000099922
-0.4505502618 -3.6141078353 -3.0000099922
-1.0575895830 -3.8023274144 -3.0000099663
-1.4888521671 -3.8887738593 -3.0000099403
-0.4095144374 -3.6509669823 -3.0000099403
-0.8271756790 -3.8508696610 -3.0000098625
-1.2091796513 -3.9514005321 -3.0000098366
-0.0853813286 -3.6276842350 -3.0000098366
-0.4080824693 -3.7784548349 -3.0000098107
-0.5180396872 -3.8400234046 -3.0000097847
-0.0474703198 -0.3871396063 -3.0000135618
0.2417431403 -0.7114215359 -3.0000133313
0.3365397077 -0.8526947756 -3.0000132448
0.2840839418 3.2622134830 -3.0000125388
-1.1245936465 -3.4746430324 -3.0000124956
-1.0858072366 -3.4903300628 -3.0000124812
-1.0636191830 -3.4849226852 -3.0000124812
-1.0525372503 -3.4821697929 -3.0000124812
-1.0414635096 -3.4793841302 -3.0000124812
0.4590418343 3.2473809512 -3.0000124812
-0.8221353121 -3.4929226862 -3.0000124380
-0.7592053734 -3.4982346816 -3.0000124235
-0.7181632365 -3.5100845589 -3.0000124091
-0.7070083819 -3.5063096354 -3.0000124091
-0.2983310557 -3.5276433531 -3.0000123083
-0.2871260960 -3.5226264132 -3.0000123083
-0.5093173076 -3.8468760634 -3.0000121786
-0.1936639287 -0.4848943756 -3.0000150029
-0.0674615175 -0.3180153443 -3.0000150145
0.3622813268 -0.5414999456 -3.0000150692
0.4293592948 -0.1312466320 -3.0000150721
0.4437389518 0.1370349547 -3.0000150750
0.4155690758 0.3459462888 -3.0000150750
0.4773848788 -0.1468141777 -3.0000150779
0.4022185674 0.5224301073 -3.0000150779
0.3466816121 -1.0234520378 -3.0000150836
0.4311188983 0.6855678446 -3.0000150865
0.5596871737 0.3638916224 -3.0000150923
0.4628471052 0.7440962594 -3.0000150923
0.3296006940 -1.3451986453 -3.0000150980
0.4350444507 -1.1262035863 -3.0000150980
0.4413667563 -1.2864881649 -3.0000151067
0.3502808227 -1.5040745077 -3.0000151095
0.4957077252 1.0548552075 -3.0000151095
-0.5698455977 -3.4349218201 -3.0000152162
-0.5304733472 -3.4441969277 -3.0000152191
-0.5106349195 -3.4354198444 -3.0000152191
-0.5007352656 -3.4309873269 -3.0000152191
-0.4510979005 -3.4348940286 -3.0000152219
-0.4409267315 -3.4568230642 -3.0000152248
-0.4110801263 -3.4428182902 -3.0000152248
-0.4011590220 -3.4380912392 -3.0000152248
-0.3509285064 -3.4405723876 -3.0000152277
-0.3410143091 -3.4356674072 -3.0000152277
-0.3004163434 -3.4423310374 -3.0000152306
-0.2298040674 -3.4329222718 -3.0000152335
-0.0858375093 -3.4363569002 -3.0000152421
-0.0118609960 -3.4492129027 -3.0000152479
-0.0019227221 -3.4433048614 -3.0000152479
-0.2308242761 3.3963033972 -3.0000152479
0.0403534807 -3.4460543913 -3.0000152508
-0.1579390601 3.3856266444 -3.0000152508
-0.1682188385 3.3910726550 -3.0000152508
-0.1785146823 3.3964882324 -3.0000152508
-0.1053826695 3.3847472818 -3.0000152536
-0.1259540089 3.3959198264 -3.0000152536
-0.0525902316 3.3831073710 -3.0000152565
-0.0098383225 3.3866157317 -3.0000152594
0.1196862716 3.3942036702 -3.0000152680
0.4183100816 3.4015215528 -3.0000152882
0.7351518253 3.3771310649 -3.0000153084
0.7961073091 3.3903391982 -3.0000153141
0.4931472299 -0.6091111170 -3.0000153680
0.4983213997 -0.5074522821 -3.0000153680
0.2906122054 0.8282907861 -3.0000153968
-0.0182122308 -3.3432054271 -3.0000156158
0.0383202356 -3.3340995126 -3.0000156216
-0.7676597294 3.4664573920 -3.0000157541
-0.5484895143 3.4698669611 -3.0000157714
-0.4592899970 3.4623931463 -3.0000157772
-0.4939216930 3.4755450682 -3.0000157772
0.2185691701 3.4918257848 -3.0000158521
-0.2101714596 -0.3971449550 -3.0000147820
0.5517433600 -0.3953292095 -3.0000147820
0.2514091627 0.5485325834 -3.0000147820
0.6525370086 -0.7312287268 -3.0000147820
0.2443440812 0.7329094263 -3.0000147820
0.5174674884 0.3073910838 -3.0000147820
0.3523632245 0.7040943576 -3.0000147820
0.8217962029 -0.8000530188 -3.0000147820
0.0366143691 1.1267611587 -3.0000147820
0.4480244713 -3.2043739432 -3.0000147820
-1.3093629561 3.4692960075 -3.0000147820
-1.1805173872 3.4752207069 -3.0000147820
-1.1930692424 3.4771931593 -3.0000147820
-1.2056268777 3.4791284724 -3.0000147820
-1.2181901830 3.4810266293 -3.0000147820
-1.2433333639 3.4847114083 -3.0000147820
-1.2559130196 3.4864979982 -3.0000147820
-1.2684979052 3.4882473673 -3.0000147820
-1.2810879108 3.4899595005 -3.0000147820
-1.0885440134 3.4841659799 -3.0000147820
-1.1011227328 3.4864104671 -3.0000147820
-1.1137080368 3.4886177343 -3.0000147820
-1.1641128949 3.4970742222 -3.0000147820
-1.1767294686 3.4990951064 -3.0000147820
-1.2272538880 3.5068051620 -3.0000147820
-1.2398989713 3.5086392212 -3.0000147820
-1.3158783682 3.5188573337 -3.0000147820
-1.0463560557 3.5009613138 -3.0000147820
-1.0842625680 3.5079568292 -3.0000147820
-0.9279067753 3.5015842718 -3.0000147820
-1.1563958414 3.5448004017 -3.0000147820
-1.2714221765 3.5618315473 -3.0000147820
-0.8720628141 3.5138942042 -3.0000147820
-0.6129840582 3.5216601056 -3.0000147820
-0.5100588193 3.5412071044 -3.0000147820
-0.4644786211 3.5521266541 -3.0000147820
-0.4057983441 3.5583108392 -3.0000147820
-0.8288446221 3.7023872968 -3.0000147820
-1.2827774265 3.7826923140 -3.0000147820
-0.7438650167 3.7069583589 -3.0000147820
-0.3786523197 3.7275760860 -3.0000147820
0.0509040665 0.6900178976 -3.0000147820
-1.7710262258 3.5074640476 -3.0000147820
-1.8388250934 3.5057972885 -3.0000147820
-1.8523814933 3.5053436104 -3.0000147820
-1.9201401000 3.5024738073 -3.0000147820
-1.9349591996 3.5259190906 -3.0000147820
-1.3454633093 3.5677331394 -3.0000147820
-1.1644149186 3.5749853846 -3.0000147820
-1.0236141849 3.5812660966 -3.0000147820
-1.0925863681 3.5906457777 -3.0000147820
-1.8009403884 3.6277505773 -3.0000147820
-0.6413419069 3.6340851358 -3.0000147820
-0.5801289400 3.6448498709 -3.0000147820
-0.3313688149 3.6799069960 -3.0000147820
0.7022675952 -0.2224563085 -3.0000147820
-0.0545815281 0.7366295036 -3.0000147820
0.9469497717 -0.4811107859 -3.0000147820
-0.2286230883 0.9006077381 -3.0000147820
-1.8422875710 3.5799248859 -3.0000147820
-2.0462791675 3.5606732584 -3.0000147820
-2.1914126960 3.5417587983 -3.0000147820
-2.2492987786 3.5329923245 -3.0000147820
-2.2926430517 3.5259683126 -3.0000147820
-2.3359232838 3.5185599211 -3.0000147820
-2.4653456746 3.4940344554 -3.0000147820
-1.9759320396 3.5925707470 -3.0000147820
-2.1074522141 3.5776022074 -3.0000147820
-2.1366217530 3.5738007007 -3.0000147820
-2.1511979606 3.5718352474 -3.0000147820
-2.5421171908 3.5025375420 -3.0000147820
-1.5210090336 3.6414167669 -3.0000147820
-1.6251479179 3.6636490236 -3.0000147820
-1.3125245779 3.6871710939 -3.0000147820
-1.7153196909 3.6844201817 -3.0000147820
-2.3967170523 3.6058480862 -3.0000147820
-1.0871741938 3.6989022767 -3.0000147820
-1.7464009418 3.7070762850 -3.0000147820
-1.9706648995 3.6902547150 -3.0000147820
-2.4747299139 3.6154419583 -3.0000147820
-2.5931334882 3.6645667287 -3.0000147820
-1.5071350847 3.8107264768 -3.0000147820
-1.9518094157 3.8134358563 -3.0000147820
-1.0566882739 3.8904785515 -3.0000147820
-2.5837326261 3.8397645906 -3.0000147820
3.7608846404 -2.4748139909 -3.0000147820
3.7768799144 -2.3971841645 -3.0000147820
3.7171733862 -2.7584350650 -3.0000147820
3.7943024744 -2.4331076601 -3.0000147820
3.8449474999 -2.2965451908 -3.0000147820
3.6176735978 -3.2301822632 -3.0000147820
3.8144278322 -2.5684056515 -3.0000147820
3.8790794169 -2.5000801115 -3.0000147820
3.8208959596 -3.0075703455 -3.0000147820
3.6077836609 -2.5488561046 -3.0000147820
3.6968980092 -1.8121096707 -3.0000147820
3.6975307954 -1.7975583181 -3.0000147820
3.6996314071 -1.7393360991 -3.0000147820
3.7185179425 -2.1514494593 -3.0000147820
3.7490898006 -1.6966837231 -3.0000147820
3.7501838740 -1.6084429031 -3.0000147820
3.7982421201 -1.5343587682 -3.0000147820
3.7861141030 -1.2376269635 -3.0000147820
3.7790549231 -1.1488013361 -3.0000147820
3.8131794548 -1.2805961953 -3.0000147820
3.8056744260 -1.1764094603 -3.0000147820
3.8546132932 -2.0001345868 -3.0000147820
3.8619980113 -1.8949356696 -3.0000147820
3.7945055585 -2.6013238615 -3.0000147820
-2.0592957543 3.7264778786 -3.0000147820
-2.0788534796 3.7478445708 -3.0000147820
-2.3354448851 3.7249748640 -3.0000147820
-2.8022057196 3.6053534314 -3.0000147820
0.6544147218 0.1966359542 -3.0000147820
3.5074339745 -2.2953390766 -3.0000147820
3.5132340658 -2.2428329565 -3.0000147820
3.5171761961 -2.2034103383 -3.0000147820
3.5207683175 -2.1639542883 -3.0000147820
3.5218878618 -2.1507953794 -3.0000147820
3.5298892851 -2.3113218468 -3.0000147820
3.5424826739 -2.1924891619 -3.0000147820
3.5535718578 -2.0468596267 -3.0000147820
3.5613762518 -1.8212930479 -3.0000147820
3.5839461688 -2.2637149920 -3.0000147820
3.5992499227 -2.0899255519 -3.0000147820
3.6071545394 -1.6204676649 -3.0000147820
3.6049622576 -1.5668288499 -3.0000147820
3.6036281469 -1.5400201088 -3.0000147820
3.5967063924 -1.4328781464 -3.0000147820
3.6339995248 -1.8084856155 -3.0000147820
3.6227876106 -1.4579467048 -3.0000147820
3.6175426419 -1.3906890907 -3.0000147820
3.6633116213 -1.3594089564 -3.0000147820
3.6488952579 -1.2238231709 -3.0000147820
3.7279459440 -1.6162464531 -3.0000147820
3.6604827883 -0.9727039833 -3.0000147820
3.6733539228 -0.7867337005 -3.0000147820
3.8020446216 -1.6696620149 -3.0000147820
3.8004207868 -1.6137137261 -3.0000147820
3.6785553585 -0.6997275862 -3.0000147820
3.8045802402 -2.2449908476 -3.0000147820
3.6802237668 -0.4222267446 -3.0000147820
3.7306524078 -0.5115665997 -3.0000147820
3.9171491979 -2.0398496316 -3.0000147820
3.9289134628 -2.2137629367 -3.0000147820
3.9378435839 -2.0987350015 -3.0000147820
-3.0614675542 3.7372666387 -3.0000147820
3.4900267384 -1.6605198190 -3.0000147820
3.5108622820 -1.6103227366 -3.0000147820
3.5013503252 -1.5008905687 -3.0000147820
3.5375078303 -1.6452931297 -3.0000147820
3.5228786519 -1.4740533413 -3.0000147820
3.5129080493 -1.3886973326 -3.0000147820
3.5608162188 -1.6314131797 -3.0000147820
3.5286368315 -1.3244568316 -3.0000147820
3.5332456656 -1.1983677400 -3.0000147820
3.5779015578 -0.9329266252 -3.0000147820
3.7312991501 -1.6456486523 -3.0000147820
3.5938120823 -0.7972479720 -3.0000147820
3.8232832088 -1.5741821296 -3.0000147820
3.6189244828 -0.3217283386 -3.0000147820
3.6278387886 -0.0255863175 -3.0000147820
-0.1426348591 -0.1631030665 -3.0000147820
-0.3265452842 -0.1602790578 -3.0000147820
-0.2616000851 -0.1349900164 -3.0000147820
0.1407642178 -0.1546592118 -3.0000147820
-0.0258725743 -0.1014382476 -3.0000147820
-0.1434928790 -0.0903793935 -3.0000147820
-0.3740405456 -0.0899085434 -3.0000147820
0.0771178556 -0.0681193453 -3.0000147820
-0.1681105873 -0.0163888180 -3.0000147820
0.3773920395 -0.0951993494 -3.0000147820
-0.0138273818 0.0432167070 -3.0000147820
-0.0318691170 0.0453448027 -3.0000147820
0.5606803544 -0.0881003755 -3.0000147820
0.3594723532 0.3142673322 -3.0000147820
0.2083851964 0.3498508961 -3.0000147820
0.1529160245 0.3603421688 -3.0000147820
0.5224766520 0.2894978528 -3.0000147820
0.2320389096 0.3943601042 -3.0000147820
-0.0814472370 0.4384086232 -3.0000147820
0.6742370029 0.2837847539 -3.0000147820
0.3149881889 0.4005004812 -3.0000147820
-0.0868994571 0.4630451788 -3.0000147820
-0.3933555247 0.4900650010 -3.0000147820
0.6582880759 0.3423571722 -3.0000147820
1.0420406362 0.3472329543 -3.0000147820
-0.8841010507 0.6633998336 -3.0000147820
1.4610330857 0.1516347938 -3.0000147820
-0.6258518864 0.7353044788 -3.0000147820
1.6700838969 0.0656836506 -3.0000147820
1.3936628422 0.4421492343 -3.0000147820
0.9420261104 0.7477060169 -3.0000147820
-1.2919491812 0.8183771696 -3.0000147820
-2.1289294071 0.8831090817 -3.0000147820
-3.2622201708 0.2840751546 -3.0000147820
-3.2501658539 0.4172867987 -3.0000147820
-3.2643480706 0.3995695084 -3.0000147820
3.4956034641 -1.1080158841 -3.0000147820
3.4929818585 -1.0969021613 -3.0000147820
3.4903273880 -1.0857962424 -3.0000147820
3.4849199454 -1.0636082046 -3.0000147820
3.4821670206 -1.0525262799 -3.0000147820
3.4793813256 -1.0414525474 -3.0000147820
-3.2401343161 0.4678517935 -3.0000147820
3.5056183758 -1.0466637528 -3.0000147820
3.4942082091 -1.0021418672 -3.0000147820
3.4912734152 -0.9910327351 -3.0000147820
3.4883057712 -0.9799323333 -3.0000147820
3.4853053033 -0.9688407589 -3.0000147820
3.4822720376 -0.9577581089 -3.0000147820
3.4792060007 -0.9466844803 -3.0000147820
-3.2367255908 0.5097271638 -3.0000147820
3.5086302423 -0.9624939092 -3.0000147820
3.4993749152 -0.9290663746 -3.0000147820
3.4898233019 -0.8957222922 -3.0000147820
3.5468116647 -1.0123835921 -3.0000147820
3.5379975770 -0.9786152543 -3.0000147820
3.5031238712 -0.8554987656 -3.0000147820
3.4963536875 -0.8332390501 -3.0000147820
3.5673053425 -0.9950483908 -3.0000147820
3.5643492449 -0.9837230552 -3.0000147820
3.5194597885 -0.8261366999 -3.0000147820
3.5018516335 -0.7703250844 -3.0000147820
3.4982310501 -0.7591943560 -3.0000147820
3.5100808072 -0.7181521844 -3.0000147820
3.5063058509 -0.7069973408 -3.0000147820
3.5024979131 -0.6958537131 -3.0000147820
3.4986570272 -0.6847213987 -3.0000147820
3.5136687769 -0.6544381830 -3.0000147820
3.5097053274 -0.6432730043 -3.0000147820
3.5016794296 -0.6209780650 -3.0000147820
3.5304738337 -0.5594863439 -3.0000147820
3.5132974176 -0.5147044624 -3.0000147820
-3.2231254815 0.7800544079 -3.0000147820
3.5134694300 -0.4498957829 -3.0000147820
3.5842042986 -0.5651744337 -3.0000147820
3.5358551265 -0.4407735094 -3.0000147820
3.5172736682 -0.3959362645 -3.0000147820
3.5536181344 -0.4203551798 -3.0000147820
3.5408382342 -0.2108435425 -3.0000147820
-3.4289047882 0.7684879583 -3.0000147820
3.5025383367 -0.0770980097 -3.0000147820
3.7415910923 -0.5739090183 -3.0000147820
3.4288908325 0.1108550029 -3.0000147820
3.7430819228 -0.4386455165 -3.0000147820
3.0123998030 1.3908960131 -3.0000147820
2.9887975842 1.4469683655 -3.0000147820
0.2264056555 -0.2041467609 -3.0000147820
-0.1282792089 -0.1872300847 -3.0000147820
0.4473186607 -0.1858057654 -3.0000147820
-0.3143355352 -0.1447930231 -3.0000147820
0.2471196164 -0.0845598182 -3.0000147820
0.0582381240 -0.0055494024 -3.0000147820
0.0238840882 0.4047761188 -3.0000147820
-0.1563412730 0.4176044304 -3.0000147820
0.7127157284 0.3978689339 -3.0000147820
-0.4707002449 0.4395246072 -3.0000147820
1.5730849280 0.3073312057 -3.0000147820
1.4951604726 0.7423304489 -3.0000147820
3.4391465223 -0.5797485110 -3.0000147820
3.4441934519 -0.5304652578 -3.0000147820
3.4440197428 -0.4709261704 -3.0000147820
3.4568193726 -0.4409186117 -3.0000147820
3.4380874518 -0.4011509473 -3.0000147820
3.4333310492 -0.3912438814 -3.0000147820
3.4356634748 -0.3410062403 -3.0000147820
3.4423270072 -0.3004082585 -3.0000147820
3.4372725710 -0.2904890920 -3.0000147820
3.4485320303 -0.2595618896 -3.0000147820
3.4541319463 -0.1671742835 -3.0000147820
-3.3857555410 -0.2102571982 -3.0000147820
-3.4018776281 -0.1888349063 -3.0000147820
3.4421231551 0.0927784704 -3.0000147820
-3.3903532428 -0.1156684538 -3.0000147820
-3.3866204620 -0.0098466908 -3.0000147820
-3.3896417473 0.0331202261 -3.0000147820
-3.3763765021 0.1940771154 -3.0000147820
-3.3836427001 0.2276021173 -3.0000147820
0.2011484618 -0.2169926608 -3.0000147820
0.4027565746 -0.1776695450 -3.0000147820
0.2992158350 -0.1339852697 -3.0000147820
0.2399250441 -0.1393155790 -3.0000147820
-0.0626376511 -0.1975791885 -3.0000147820
0.1485574166 -0.0779854038 -3.0000147820
-0.2108704859 -0.1689676329 -3.0000147820
-0.4183440895 -0.1503993931 -3.0000147820
0.2069546124 0.4404320564 -3.0000147820
0.1360968875 0.4326858400 -3.0000147820
0.4275379744 0.4752582300 -3.0000147820
-0.0515782382 0.4264637083 -3.0000147820
-0.4942244442 0.3176960745 -3.0000147820
0.4274222516 0.5236041475 -3.0000147820
-0.1543644799 0.4530270584 -3.0000147820
-0.2112663523 0.4384442023 -3.0000147820
0.9500469130 0.4939493230 -3.0000147820
-0.4798491395 0.4014327939 -3.0000147820
-0.8548154460 0.2755265030 -3.0000147820
-0.8110726109 0.3552287333 -3.0000147820
-0.9113713155 0.3265065467 -3.0000147820
-0.9383153464 0.3104350475 -3.0000147820
-0.9650673256 0.2940458591 -3.0000147820
0.6246669538 0.7101476346 -3.0000147820
0.4748179470 0.7408502292 -3.0000147820
0.4186564760 0.7894752109 -3.0000147820
-1.0703875289 0.3704105991 -3.0000147820
1.0827968341 0.8359084981 -3.0000147820
1.2290974803 0.8229706676 -3.0000147820
2.1471987304 0.7238790443 -3.0000147820
3.3458634818 0.0211230258 -3.0000147820
3.3360530692 0.0778666591 -3.0000147820
3.3300162000 0.0864444289 -3.0000147820
3.3186638976 0.3040513569 -3.0000147820
3.3119580091 0.3125766968 -3.0000147820
3.2984707207 0.3295676784 -3.0000147820
3.3224812490 0.3768713893 -3.0000147820
3.3203051375 0.4177813637 -3.0000147820
3.2991026061 0.4433077717 -3.0000147820
3.2848420937 0.4602204085 -3.0000147820
3.2839069582 0.6082034647 -3.0000147820
-3.4557348155 -0.7330971900 -3.0000147820
-3.4664571143 -0.7676590154 -3.0000147820
-3.4639300303 -0.6796281306 -3.0000147820
-3.4676963401 -0.6911626263 -3.0000147820
-3.4714285124 -0.7027082129 -3.0000147820
-3.4553577506 -0.5796849157 -3.0000147820
-3.4753267352 -0.6373514377 -3.0000147820
-3.4656782690 -0.5369485081 -3.0000147820
-3.4711949198 -0.4823641277 -3.0000147820
-3.4755447404 -0.4939209773 -3.0000147820
-3.4841417251 -0.5170730263 -3.0000147820
-3.4668355088 -0.4043492578 -3.0000147820
-3.4714161307 -0.4158935529 -3.0000147820
-3.4759625823 -0.4274513478 -3.0000147820
-3.4734405848 -0.2935380802 -3.0000147820
-3.4832231389 -0.3166811874 -3.0000147820
-3.4857024704 -0.2608444018 -3.0000147820
-3.4716868040 -0.1699948385 -3.0000147820
-3.4822003121 -0.1931297319 -3.0000147820
-3.4884582151 -0.0916532195 -3.0000147820
-3.4979826837 -0.0007905518 -3.0000147820
-3.6591931248 -0.2995700242 -3.0000147820
-3.5019010750 0.3947467465 -3.0000147820
-3.5064528411 0.5258909906 -3.0000147820
-0.1875730945 0.4115677861 -3.0000147820
0.3427895953 0.7881773910 -3.0000147820
3.2219499326 0.4646202502 -3.0000147820
-3.4642996155 -1.2717903910 -3.0000147820
-3.4676675704 -1.2968336713 -3.0000147820
-3.4708873019 -1.3218964391 -3.0000147820
-3.4791284293 -1.2056265950 -3.0000147820
-3.4828875719 -1.2307587654 -3.0000147820
-3.4847113677 -1.2433330809 -3.0000147820
-3.4864979584 -1.2559127364 -3.0000147820
-3.4882473284 -1.2684976219 -3.0000147820
-3.4916343453 -1.2936826425 -3.0000147820
-3.4841659290 -1.0885437303 -3.0000147820
-3.4907877138 -1.1262995318 -3.0000147820
-3.4936296186 -1.0085128336 -3.0000147820
-3.5015842102 -0.9279064911 -3.0000147820
-3.5080122862 -0.8467531911 -3.0000147820
-3.5279427767 -0.9354842408 -3.0000147820
-3.6263928623 -1.2097277937 -3.0000147820
-3.5336420579 -0.5680510605 -3.0000147820
-3.5412070150 -0.5100585325 -3.0000147820
-3.7277244575 -1.2355699309 -3.0000147820
-3.5583107428 -0.4057980561 -3.0000147820
-3.7516721704 -1.2322771618 -3.0000147820
-3.5501652912 -0.3084057855 -3.0000147820
-3.5575127985 -0.1893184398 -3.0000147820
-3.4376934033 0.3659695145 -3.0000147820
0.0891389978 0.5055855793 -3.0000147820
0.0438430325 0.4846578363 -3.0000147820
0.0309818575 0.4785066373 -3.0000147820
-0.1388785431 0.3881205596 -3.0000147820
0.0857992359 0.5305756349 -3.0000147820
-0.3642003913 0.2988627256 -3.0000147820
0.0997478820 0.5894348449 -3.0000147820
-0.7585031399 0.0143371089 -3.0000147820
0.2059249034 0.6836086360 -3.0000147820
-0.5869749141 0.2461567513 -3.0000147820
0.4516726735 0.8096520584 -3.0000147820
0.1954339026 0.7569538982 -3.0000147820
-0.6301219446 0.2727734465 -3.0000147820
0.1496034864 0.7916416561 -3.0000147820
1.0707046024 0.9833248741 -3.0000147820
0.7178154749 1.1297643364 -3.0000147820
3.0743250622 1.0602654923 -3.0000147820
-3.5081402379 -1.6896373713 -3.0000147820
-3.5072111049 -1.7845790873 -3.0000147820
-3.5065845628 -1.8116997997 -3.0000147820
-3.5043163255 -1.8794812105 -3.0000147820
-3.5306100883 -1.5669195730 -3.0000147820
-3.5323132620 -1.6896236504 -3.0000147820
-3.5284691902 -1.8804683312 -3.0000147820
-3.5278922254 -1.8940916165 -3.0000147820
-3.5482235635 -1.4156342646 -3.0000147820
-3.5765559992 -1.4967543788 -3.0000147820
-3.5782795977 -1.8411345468 -3.0000147820
-3.5734025646 -1.1506466204 -3.0000147820
-3.6047661153 -1.7172824229 -3.0000147820
-3.5832223434 -1.0373884872 -3.0000147820
-3.5957824594 -1.1340246741 -3.0000147820
-3.6109724416 -1.0617500079 -3.0000147820
-3.6763879854 -1.7879867174 -3.0000147820
-3.7254841345 -1.6468918511 -3.0000147820
-3.7256683761 -1.6753063498 -3.0000147820
-3.6432237630 -0.6831833891 -3.0000147820
-3.7342635275 -1.3043836611 -3.0000147820
-3.7498022086 -1.7180581936 -3.0000147820
-3.7732305221 -1.6033878984 -3.0000147820
-3.7236689698 -0.8429248009 -3.0000147820
-3.7424222620 -0.9567645434 -3.0000147820
-3.7449263740 -0.8244454616 -3.0000147820
-3.8186601602 -1.5010906999 -3.0000147820
-3.8218124944 -1.6169939489 -3.0000147820
-3.8465625752 -1.6894452794 -3.0000147820
-3.8404784037 -1.9369512931 -3.0000147820
-3.6995119296 -0.4018665123 -3.0000147820
-3.8663767421 -1.4845799123 -3.0000147820
-3.8669694084 -1.4992045214 -3.0000147820
-3.8692836768 -1.5723503453 -3.0000147820
-3.8690569033 -1.8211465375 -3.0000147820
-3.6424266828 -0.1279682885 -3.0000147820
-3.5362674824 0.2257485680 -3.0000147820
-3.5803615587 0.1160441141 -3.0000147820
-3.4494447408 0.4790182996 -3.0000147820
-3.5176888342 0.3306009133 -3.0000147820
-3.5471048379 0.2624209332 -3.0000147820
0.1639020372 0.6431981947 -3.0000147820
-0.3799250046 0.2621339844 -3.0000147820
0.2769912752 0.7565765447 -3.0000147820
0.1020189443 0.6634702481 -3.0000147820
0.0329620558 0.6215841647 -3.0000147820
0.3927173056 0.8610992387 -3.0000147820
-0.5439257173 0.1935908286 -3.0000147820
0.3321599833 0.8880431179 -3.0000147820
-0.8873274625 -0.1567451477 -3.0000147820
-3.5606742516 -2.0462726224 -3.0000147820
-3.5374624055 -2.2203621896 -3.0000147820
-3.5329935880 -2.2492922704 -3.0000147820
-3.6112716449 -1.7266139713 -3.0000147820
-3.5940185212 -1.9612886700 -3.0000147820
-3.5738018141 -2.1366151904 -3.0000147820
-3.6408520010 -1.5653375400 -3.0000147820
-3.6258870117 -1.8752989263 -3.0000147820
-3.5131775782 -2.6049534750 -3.0000147820
-3.6809392528 -1.1783626308 -3.0000147820
-3.6880707842 -1.3423495609 -3.0000147820
-3.6884544318 -1.3572672747 -3.0000147820
-3.7115180086 -1.6415309598 -3.0000147820
-3.6476337110 -2.2977058727 -3.0000147820
-3.6955757574 -2.1376526768 -3.0000147820
-3.7612966215 -1.3706433571 -3.0000147820
-3.7774589271 -1.1725905434 -3.0000147820
-3.7562069004 -0.7304884913 -3.0000147820
-3.7778698558 -0.8971612969 -3.0000147820
-3.7964642128 -1.0949193163 -3.0000147820
-3.8041222444 -1.2169178921 -3.0000147820
-3.7879508551 -1.9648172403 -3.0000147820
-3.8194045268 -1.0778121813 -3.0000147820
-3.8483009533 -1.8156178751 -3.0000147820
2.2372643890 3.7815764260 -3.0000147820
2.7979929362 3.6812288814 -3.0000147820
2.6601001575 3.7178240159 -3.0000147820
2.1786684500 3.8155377792 -3.0000147820
2.8045039961 3.7045085158 -3.0000147820
2.5265449040 3.7743285767 -3.0000147820
3.8078346345 3.3390704217 -3.0000147820
3.3502793314 3.5718611024 -3.0000147820
3.0786064934 3.6709165153 -3.0000147820
3.0633630910 3.6759939215 -3.0000147820
3.2857578499 3.6743936678 -3.0000147820
-0.1787150512 0.4137116012 -3.0000147820
0.0664918636 0.6754906597 -3.0000147820
0.0275338241 0.6435192936 -3.0000147820
0.1792242354 0.7904030136 -3.0000147820
-0.0211798892 0.6337260414 -3.0000147820
-0.5621013782 -0.0359114237 -3.0000147820
0.2506933137 0.8674724214 -3.0000147820
-0.1132172187 0.5829653011 -3.0000147820
-0.5731536279 0.2248058429 -3.0000147820
0.4363673398 1.1381446999 -3.0000147820
-0.1957697440 0.7043520709 -3.0000147820
0.5885705870 1.2589253303 -3.0000147820
-1.0604524261 -0.5973470404 -3.0000147820
1.1029708104 1.6544098228 -3.0000147820
2.5677243892 3.5546662132 -3.0000147820
2.5111386926 3.5658897891 -3.0000147820
2.4969718271 3.5685910027 -3.0000147820
2.1548745495 3.6207952680 -3.0000147820
2.8826628005 3.5043470128 -3.0000147820
1.9267811097 3.6661705743 -3.0000147820
1.7965418784 3.6733790274 -3.0000147820
2.7904162067 3.5535250174 -3.0000147820
1.8716640656 3.7180705756 -3.0000147820
1.6668992764 3.7254582457 -3.0000147820
1.6376283317 3.7258211563 -3.0000147820
1.6231488543 3.7501101888 -3.0000147820
1.5201945781 3.7497115137 -3.0000147820
1.5054882705 3.7494805311 -3.0000147820
2.6786579435 3.6545433640 -3.0000147820
1.2688180645 3.7639936922 -3.0000147820
1.7125573833 3.7970869874 -3.0000147820
1.2672596201 3.7881164311 -3.0000147820
1.8026287257 3.8182894151 -3.0000147820
1.1466705075 3.8031337336 -3.0000147820
2.4147947205 3.7795022512 -3.0000147820
2.7290980673 3.7422691649 -3.0000147820
3.1489662755 3.8802158933 -3.0000147820
-3.7651282375 -1.7592655129 -3.0000147820
-3.8059595183 -1.5544314520 -3.0000147820
-3.7988869331 -1.8918208861 -3.0000147820
-3.6558319880 -2.7163568886 -3.0000147820
-3.6746163753 -2.7385623022 -3.0000147820
-3.6937878111 -3.0014988759 -3.0000147820
-0.0843298767 0.6010354046 -3.0000147820
-1.0167729474 -0.9915660581 -3.0000147820
2.2011077451 3.4931130840 -3.0000147820
2.1880304828 3.4943426560 -3.0000147820
2.3215613508 3.5043015539 -3.0000147820
2.1112954381 3.5250131793 -3.0000147820
1.8611187810 3.5608235342 -3.0000147820
1.8882543278 3.5844245986 -3.0000147820
1.6479929558 3.5838496587 -3.0000147820
1.6079670877 3.5825101369 -3.0000147820
1.5802318382 3.6055696432 -3.0000147820
1.3369392133 3.6126303741 -3.0000147820
1.7408187186 3.6581100939 -3.0000147820
1.4236551284 3.7172191221 -3.0000147820
2.0860448198 3.7448761841 -3.0000147820
0.8453858399 3.7349296128 -3.0000147820
2.3316857072 3.8195743037 -3.0000147820
1.7532182138 3.8757568757 -3.0000147820
2.0813093689 3.8905175626 -3.0000147820
0.3880230005 3.6952629289 -3.0000147820
0.1708874478 3.6242786303 -3.0000147820
-3.7621348708 -2.9960532249 -3.0000147820
1.6860955515 3.4673127603 -3.0000147820
1.6726372031 3.4907556729 -3.0000147820
1.6242031454 3.4876265881 -3.0000147820
1.6000008487 3.4858471869 -3.0000147820
1.5251917919 3.5037164005 -3.0000147820
1.5008960353 3.5013509334 -3.0000147820
1.4766146989 3.4988417657 -3.0000147820
1.4496506008 3.5202109735 -3.0000147820
1.4008836247 3.5144413456 -3.0000147820
1.2914304047 3.4993527420 -3.0000147820
1.6930485381 3.5645237173 -3.0000147820
1.5554878110 3.5792508768 -3.0000147820
1.3764906905 3.6088266287 -3.0000147820
0.9630664541 3.5600595907 -3.0000147820
0.9138620345 3.5485296834 -3.0000147820
0.8711876419 3.5629519800 -3.0000147820
1.0474179487 3.6524338125 -3.0000147820
0.6224812908 3.5940305375 -3.0000147820
0.6100684474 3.5901949957 -3.0000147820
0.5605321636 3.5744861423 -3.0000147820
1.5741880249 3.8232837194 -3.0000147820
0.1845730420 3.7472823959 -3.0000147820
0.1903500325 -0.4216317436 -3.0000147820
-0.3472920670 0.4206024802 -3.0000147820
-0.4901063989 0.1081234883 -3.0000147820
1.0804333167 3.4641572578 -3.0000147820
-0.4084478134 -3.2572626937 -3.0000147820
1.0193414893 3.4737147209 -3.0000147820
0.9972529009 3.4679144005 -3.0000147820
0.9641853281 3.4589691432 -3.0000147820
0.8914664595 3.4633885872 -3.0000147820
0.8514093201 3.4766317444 -3.0000147820
0.7258785984 3.4871758603 -3.0000147820
0.6514047927 3.4869411430 -3.0000147820
0.2313271050 3.4970459707 -3.0000147820
0.0994191152 3.5137878124 -3.0000147820
0.2784316850 3.7299922460 -3.0000147820
-0.8808764225 0.5190343349 -3.0000147820
-0.9418799797 0.5778497205 -3.0000147820
-0.9171944683 -0.9719336583 -3.0000147820
-0.9203670592 1.3076749283 -3.0000147820
-0.9219180199 -1.3530055704 -3.0000147820
-0.8886961853 -1.4576206559 -3.0000147820
-0.0932068503 3.4117917204 -3.0000147820
-0.1134797729 -3.4002612379 -3.0000147820
-0.0933285680 -3.4097310115 -3.0000147820
-0.1034224225 3.4337001062 -3.0000147820
-0.1439276485 3.4145205306 -3.0000147820
-0.1540182731 3.4096508531 -3.0000147820
-0.1640944482 3.4047513471 -3.0000147820
-0.1440494635 -3.4124580116 -3.0000147820
-0.1339446503 -3.4172981785 -3.0000147820
-0.1136922910 -3.4268887310 -3.0000147820
-0.1035449220 -3.4316390327 -3.0000147820
-0.1746972452 3.4264749742 -3.0000147820
-0.2050305597 3.4115029653 -3.0000147820
-0.2151119904 3.4064525476 -3.0000147820
-0.2252997828 -3.3993069109 -3.0000147820
-0.1849451632 -3.4194502441 -3.0000147820
-0.1748194868 -3.4244113573 -3.0000147820
-0.2056653687 3.4381840555 -3.0000147820
-0.2463384250 -3.4157282107 -3.0000147820
-0.2977642084 3.4183268303 -3.0000147820
-0.3179508351 3.4076474314 -3.0000147820
-0.2877694294 -3.4215540485 -3.0000147820
-0.3698730658 -3.4050583477 -3.0000147820
-0.3712233885 3.4338687151 -3.0000147820
-0.4217924398 3.4058585638 -3.0000147820
-0.4017364881 -3.4150806409 -3.0000147820
-0.3916227892 -3.4206830811 -3.0000147820
-0.3713458938 -3.4317980848 -3.0000147820
-0.4540181056 -3.4133601052 -3.0000147820
-0.4236407213 -3.4305415868 -3.0000147820
-0.4033049394 -3.4418458468 -3.0000147820
-0.4861801270 3.4247473804 -3.0000147820
-0.4962995070 3.4188652135 -3.0000147820
-0.5064014422 3.4129531373 -3.0000147820
-0.4964214768 -3.4167901197 -3.0000147820
-0.4761657794 -3.4285252157 -3.0000147820
-0.6248919389 -3.4241540634 -3.0000147820
-0.6882310948 3.4148330690 -3.0000147820
-0.9173329223 -3.4041163180 -3.0000147820
-1.0405681667 -3.4041742777 -3.0000147820
-1.3977232820 -3.3975415607 -3.0000147820
-1.6572135003 -3.4260133085 -3.0000147820
-0.0905563669 -0.0733441415 -3.0000147820
0.0054060882 -0.3424808650 -3.0000147820
-0.1397920326 -0.0759654647 -3.0000147820
0.0051621132 -0.4506597705 -3.0000147820
-0.0976117310 -0.2857189209 -3.0000147820
-0.0845393208 -0.3783039047 -3.0000147820
-0.9622006798 0.4264719704 -3.0000147820
-0.9629492611 0.4048857492 -3.0000147820
-1.0179719149 0.6361750462 -3.0000147820
-1.0265729309 0.5550763746 -3.0000147820
-1.0316445491 0.4885428330 -3.0000147820
-1.0063566952 0.8531952506 -3.0000147820
-0.7737428851 -0.9887049661 -3.0000147820
-1.1382601994 0.8088628487 -3.0000147820
-1.1524181458 0.9737428377 -3.0000147820
-1.2184603002 0.5802936020 -3.0000147820
-1.1815446123 1.1412186340 -3.0000147820
-1.0691148912 1.5035355035 -3.0000147820
-0.8102671326 -1.3291612094 -3.0000147820
-0.4841372696 3.3191233608 -3.0000147820
-0.5239847337 3.3217785402 -3.0000147820
-0.6712063590 3.3080068396 -3.0000147820
-0.6941753042 3.3212427310 -3.0000147820
-0.7172411693 3.3343686069 -3.0000147820
-0.7614180760 3.3016932174 -3.0000147820
-0.7935848768 3.3076821938 -3.0000147820
-0.7144059904 3.4256330439 -3.0000147820
-0.7975569690 3.4253766119 -3.0000147820
-0.9765384950 3.2858971983 -3.0000147820
-1.0095020679 3.2898998817 -3.0000147820
-1.0425980890 3.2936152893 -3.0000147820
-1.0513500778 3.2861702558 -3.0000147820
0.2842899535 -3.4689750150 -3.0000147820
0.2955371241 -3.4724652844 -3.0000147820
0.3067945705 -3.4759222674 -3.0000147820
0.1869516848 -3.4627577751 -3.0000147820
0.1981808897 -3.4665360159 -3.0000147820
0.2319348762 -3.4776712004 -3.0000147820
0.2657863521 -3.4885063987 -3.0000147820
0.2997326513 -3.4990407574 -3.0000147820
0.1341350721 -3.4701194156 -3.0000147820
0.1453862851 -3.4740538654 -3.0000147820
0.1566490877 -3.4779550148 -3.0000147820
0.1905060469 -3.4894583210 -3.0000147820
0.0697068229 -3.4726341504 -3.0000147820
0.1714664497 -3.5085567775 -3.0000147820
-0.0063368288 -3.4697197254 -3.0000147820
0.0161772806 -3.4783864105 -3.0000147820
0.0274534650 -3.4826697645 -3.0000147820
0.0387422710 -3.4869197429 -3.0000147820
0.0613573526 -3.4953194238 -3.0000147820
-0.0263919541 -3.4878439976 -3.0000147820
-0.0037702645 -3.4966290183 -3.0000147820
-0.0805605300 -3.4922748371 -3.0000147820
0.1871081684 -3.6156082745 -3.0000147820
-0.2237522555 -3.4839999215 -3.0000147820
-0.2011498545 -3.4939526593 -3.0000147820
-0.3445427506 -3.5084250134 -3.0000147820
-0.4117850417 -3.5028713149 -3.0000147820
-0.5916126918 -3.4368414650 -3.0000147820
-0.5580911268 -3.4549867938 -3.0000147820
-0.1205645140 -3.6585650267 -3.0000147820
-0.5129646191 -3.5060413523 -3.0000147820
-0.1650592788 -3.6666691372 -3.0000147820
-0.6260788594 -3.4730724077 -3.0000147820
-0.5468563150 -3.5156532811 -3.0000147820
-0.6607772173 -3.5091320402 -3.0000147820
-0.3914582260 -3.6999491654 -3.0000147820
-0.3675752616 -3.7108903286 -3.0000147820
-0.9391658483 -3.5132001418 -3.0000147820
-0.0081902454 -0.2777039262 -3.0000147820
-0.1870582244 -0.0859363177 -3.0000147820
-0.4680295443 0.2971947526 -3.0000147820
-1.1298530915 0.3351428951 -3.0000147820
-0.5636403840 -1.0739231993 -3.0000147820
-1.1847831427 0.7268504577 -3.0000147820
-1.2350767613 0.6909323687 -3.0000147820
-0.5887100445 -1.1560505224 -3.0000147820
-1.0536957423 3.1758174761 -3.0000147820
-1.1978464280 3.1709284585 -3.0000147820
0.8458842002 -3.4683796710 -3.0000147820
0.7106936925 -3.4723940996 -3.0000147820
0.7825959757 -3.4838043972 -3.0000147820
0.8066070097 -3.4873240108 -3.0000147820
0.6585940646 -3.4878697487 -3.0000147820
0.6826313208 -3.4921229281 -3.0000147820
0.7066933196 -3.4962338206 -3.0000147820
0.7307792186 -3.5002022823 -3.0000147820
0.5578653365 -3.4931199398 -3.0000147820
0.5939811110 -3.5003400646 -3.0000147820
0.4805696120 -3.5013126395 -3.0000147820
0.5117072130 -3.5328572039 -3.0000147820
0.7437341441 -3.5756843333 -3.0000147820
0.8761060411 -3.6184912320 -3.0000147820
0.5015993672 -3.5801348157 -3.0000147820
0.1349079515 -3.5350233203 -3.0000147820
0.0912368098 -3.5467830858 -3.0000147820
0.1034290513 -3.5506055398 -3.0000147820
0.8136577327 -3.7079521716 -3.0000147820
-0.0015262850 -3.5419183060 -3.0000147820
0.6666895898 -3.7346310308 -3.0000147820
0.7432530321 -3.7467810158 -3.0000147820
-0.0906298420 -3.5620998821 -3.0000147820
0.7653854857 -3.7744565005 -3.0000147820
0.4917873868 -3.7509932641 -3.0000147820
