45.5299513906 -6.9921417480 -3.0000132736
45.2192517785 -8.5224978706 -3.0000132592
45.5902058300 -7.2388147760 -3.0000132448
45.5099873787 -8.0491486853 -3.0000132160
45.5504171329 -6.5625701414 -3.0000132160
45.7620259831 -7.5824632690 -3.0000131296
45.7796490249 -7.7779390415 -3.0000131007
45.6868678419 -8.2039308572 -3.0000130863
45.3253880211 -4.2389362739 -3.0000125244
45.3312203134 -4.2129236749 -3.0000125100
43.8754114795 -10.9746418701 -3.0000124956
43.8919782322 -10.9956049114 -3.0000124812
43.9141978894 -10.9903289005 -3.0000124812
43.9252959152 -10.9876416208 -3.0000124812
43.9474678757 -10.9821686306 -3.0000124812
43.9756081702 -10.9999808370 -3.0000124668
43.9867344795 -10.9971118524 -3.0000124668
44.0089613938 -10.9912752052 -3.0000124668
44.0200618044 -10.9883075938 -3.0000124668
44.0311533876 -10.9853071584 -3.0000124668
44.0263395585 -11.0116512243 -3.0000124524
44.0375001690 -11.0086321160 -3.0000124524
44.1042718410 -10.9898253712 -3.0000124524
44.1556302032 -10.9997574612 -3.0000124380
45.5762897661 -4.2564041280 -3.0000124380
44.2185276130 -11.0054416783 -3.0000124235
44.2519197327 -10.9945800577 -3.0000124235
44.0792483582 -11.0723559196 -3.0000124091
44.2818418895 -11.0100833966 -3.0000124091
44.3041403830 -11.0025005679 -3.0000124091
45.6697479722 -4.2741665756 -3.0000124091
44.3455558804 -11.0136715530 -3.0000123947
44.3678744875 -11.0057117081 -3.0000123947
44.3790160335 -11.0016823037 -3.0000123947
44.3901456109 -10.9976199582 -3.0000123947
45.5601680605 -4.1479953263 -3.0000123947
43.9769373584 -11.1492018064 -3.0000123803
44.4319846147 -11.0078562601 -3.0000123803
43.9827304177 -11.1726704183 -3.0000123659
44.4741132221 -11.0176443331 -3.0000123659
43.9768084015 -11.1990124362 -3.0000123515
44.9226288112 -11.0297676326 -3.0000122507
44.6885358168 -11.2177631626 -3.0000122074
45.0685015673 -11.0353426988 -3.0000122074
44.6266162426 -11.2693429278 -3.0000121930
44.5754616300 -11.3153624701 -3.0000121786
45.1710056908 -7.8595616517 -3.0000150433
45.3623011155 -8.0415009588 -3.0000150692
45.4024990372 -7.7091653548 -3.0000150692
45.4242490407 -7.4225817914 -3.0000150721
45.4251486011 -7.2114325577 -3.0000150750
45.4355581712 -8.1612509096 -3.0000150807
45.3682103290 -8.4675641507 -3.0000150836
45.4780059907 -6.9817784551 -3.0000150865
45.3742917392 -8.5837185896 -3.0000150894
45.6031032916 -7.2625719978 -3.0000150951
45.4652371971 -6.6895070998 -3.0000150951
45.4018315076 -8.8115595946 -3.0000151038
44.4202632006 -10.9391508927 -3.0000152162
44.4396923032 -10.9571431129 -3.0000152191
44.5588197261 -10.9302864054 -3.0000152219
44.5391267809 -10.9660132033 -3.0000152248
44.6996034454 -10.9423320506 -3.0000152306
44.8943308731 -10.9476482246 -3.0000152421
44.9461031296 -10.9458558182 -3.0000152450
44.9659430253 -10.9342592364 -3.0000152450
44.8420807287 -4.1143743689 -3.0000152508
44.8318009502 -4.1089283582 -3.0000152508
44.8946371193 -4.1152537315 -3.0000152536
44.8843597122 -4.1096522457 -3.0000152536
44.8740657799 -4.1040811869 -3.0000152536
44.9474295571 -4.1168936423 -3.0000152565
44.9165603246 -4.0997119466 -3.0000152565
45.1838513081 -4.1171423294 -3.0000152709
45.1735782224 -4.1106852875 -3.0000152709
45.4209903285 -7.7654887644 -3.0000153507
45.4750637540 -7.9635371696 -3.0000153622
45.4914765999 -8.1308635726 -3.0000153680
45.4073665831 -7.2669708773 -3.0000153680
45.3930611076 -7.2181246517 -3.0000153680
45.3693255484 -7.0719356445 -3.0000153738
45.5324393486 -7.4879783141 -3.0000153853
45.5150628824 -7.3998503115 -3.0000153853
45.5583589105 -8.3709617568 -3.0000153910
45.3362069355 -6.8106765584 -3.0000153910
45.2830940452 -6.6584260348 -3.0000153968
45.6640784362 -7.5441072417 -3.0000154141
45.5631420430 -8.8275400701 -3.0000154199
45.5846676571 -6.9578831765 -3.0000154314
45.7878333084 -8.3109923696 -3.0000154429
45.7140812666 -8.9078471948 -3.0000154602
45.9557663105 -8.0644164778 -3.0000154775
44.9340347837 -10.8456937647 -3.0000156100
44.9817733448 -10.8432071258 -3.0000156158
44.9989549864 -10.8316763489 -3.0000156158
45.0297161727 -10.8399957026 -3.0000156216
45.0468779754 -10.8281813361 -3.0000156216
45.0864305349 -10.8300174647 -3.0000156273
45.1660986235 -10.8322597705 -3.0000156389
45.2607501657 -10.9426896580 -3.0000156734
45.4927802698 -10.7888243157 -3.0000156792
45.5170164917 -10.7998549141 -3.0000156850
45.5752110301 -10.7809851724 -3.0000156907
44.2668876736 -4.0442665993 -3.0000157541
44.2553776542 -4.0406584268 -3.0000157541
44.3203567315 -4.0360713747 -3.0000157599
44.2857200706 -4.0248748970 -3.0000157599
44.3972688315 -4.0365537105 -3.0000157657
44.3857354254 -4.0325598808 -3.0000157657
44.4745642056 -4.0385456020 -3.0000157714
44.4514960613 -4.0301347376 -3.0000157714
44.4399434295 -4.0259805220 -3.0000157714
44.5406955786 -4.0376085525 -3.0000157772
44.4829118321 -4.0158596501 -3.0000157772
44.5725335121 -4.0240387765 -3.0000157829
44.7738531186 -4.0295196037 -3.0000158002
44.7275397206 -4.0092938074 -3.0000158002
44.5044387579 -3.9207703776 -3.0000158002
44.5127192387 -3.8980598312 -3.0000158060
45.1258509212 -4.0128414477 -3.0000158406
45.2069337996 -4.0017526961 -3.0000158521
45.5025230821 -3.9789183536 -3.0000158924
46.0704574077 -3.9601160980 -3.0000159731
45.4300822963 -7.4978328830 -3.0000147820
45.5509121698 -7.6506642966 -3.0000147820
45.7008371533 -8.3061138067 -3.0000147820
45.5552113823 -7.4158236478 -3.0000147820
45.5207097103 -7.3238426763 -3.0000147820
45.7296010054 -7.9457631167 -3.0000147820
45.7180379690 -7.2979456677 -3.0000147820
45.4335648443 -10.7179509157 -3.0000147820
43.7156918467 -4.0340004711 -3.0000147820
43.7943747913 -4.0208741502 -3.0000147820
43.8611037110 -4.0070820907 -3.0000147820
43.8358887740 -4.0029284004 -3.0000147820
43.8904342479 -3.9875691250 -3.0000147820
44.1911458455 -4.0010935469 -3.0000147820
44.1279388549 -3.9861084184 -3.0000147820
44.0645171422 -3.9720597848 -3.0000147820
44.0518082532 -3.9693627116 -3.0000147820
44.1968960143 -3.9776143893 -3.0000147820
44.3044042182 -3.9803363725 -3.0000147820
44.3996984691 -3.9820311608 -3.0000147820
43.8068427682 -3.8516264677 -3.0000147820
44.4064844716 -3.9588301813 -3.0000147820
44.5865303333 -3.9646147082 -3.0000147820
44.5482933821 -3.9520040517 -3.0000147820
43.7112058894 -3.7652803050 -3.0000147820
44.6325299838 -3.9547102710 -3.0000147820
44.7171096619 -3.9590544969 -3.0000147820
44.3683972696 -3.8474694967 -3.0000147820
44.3353644013 -3.8134441997 -3.0000147820
44.7978833138 -3.9375854760 -3.0000147820
43.8995776299 -3.6949161731 -3.0000147820
43.7504331232 -3.6728333882 -3.0000147820
44.9217599597 -3.9607340209 -3.0000147820
44.9053335392 -3.9279035896 -3.0000147820
43.8937666751 -3.6449820538 -3.0000147820
45.1795966420 -3.9958454553 -3.0000147820
43.8461776402 -3.5886486416 -3.0000147820
44.1265569571 -3.6145556235 -3.0000147820
45.3068148776 -3.8963631783 -3.0000147820
43.2967955999 -3.9918731007 -3.0000147820
43.6117227457 -3.9534942365 -3.0000147820
44.3028453058 -3.8538109178 -3.0000147820
45.4724267306 -7.4416337714 -3.0000147820
45.5920656901 -7.5770304691 -3.0000147820
45.5243015219 -7.4310117915 -3.0000147820
45.9367279355 -8.0249401760 -3.0000147820
43.2586778151 -3.8894771522 -3.0000147820
43.1999466280 -3.8929226087 -3.0000147820
42.9363302329 -3.9170147488 -3.0000147820
42.7469275493 -3.9431244775 -3.0000147820
43.2278914522 -3.8669814728 -3.0000147820
43.5530323798 -3.8343387087 -3.0000147820
43.1523823743 -3.8477467025 -3.0000147820
42.4620502083 -3.9470763860 -3.0000147820
43.5083057110 -3.7617287162 -3.0000147820
43.9618142050 -3.7566079393 -3.0000147820
44.1604988461 -3.7533597792 -3.0000147820
44.0547365101 -3.7412014919 -3.0000147820
44.0268442836 -3.7140735941 -3.0000147820
43.0328919285 -3.6879794072 -3.0000147820
44.0622722990 -3.6690750097 -3.0000147820
42.4967793236 -3.7423386276 -3.0000147820
42.7208670442 -3.6780710539 -3.0000147820
48.7735245275 -9.7839074330 -3.0000147820
48.7841529051 -9.7216860152 -3.0000147820
48.6593450594 -10.4571886719 -3.0000147820
48.8155003148 -10.1679871112 -3.0000147820
44.9938298571 -7.5349238673 -3.0000147820
45.2560803459 -7.1876617915 -3.0000147820
45.2652126199 -7.1641616114 -3.0000147820
45.7258115636 -7.5913592862 -3.0000147820
45.7079316479 -7.5684193799 -3.0000147820
45.6988902132 -7.5570291657 -3.0000147820
45.3480969819 -7.1995497113 -3.0000147820
45.9137315688 -7.8256904948 -3.0000147820
45.7359713481 -7.5650025337 -3.0000147820
45.2830981345 -7.1169502403 -3.0000147820
44.9886032554 -6.9238508659 -3.0000147820
45.9568631873 -7.8518407711 -3.0000147820
45.8384705032 -7.6636251625 -3.0000147820
45.0261967492 -6.9173611508 -3.0000147820
45.8825059711 -7.6423120074 -3.0000147820
45.1273972651 -6.8648106395 -3.0000147820
44.9729314510 -6.7782359174 -3.0000147820
44.8340935886 -6.7116396330 -3.0000147820
46.2141095842 -8.1066857728 -3.0000147820
46.2978632666 -7.9939427989 -3.0000147820
45.1816593634 -6.7282270423 -3.0000147820
46.0630310521 -7.4370055538 -3.0000147820
44.1043739691 -6.2162402361 -3.0000147820
48.5537846977 -10.1858840355 -3.0000147820
48.5896370030 -10.0157055312 -3.0000147820
48.6464701118 -9.6432761980 -3.0000147820
48.6750200015 -9.2530960742 -3.0000147820
48.6315817071 -9.9199529751 -3.0000147820
48.6847663685 -9.5010570589 -3.0000147820
48.6902956657 -9.4284423837 -3.0000147820
48.6975397361 -9.2975605831 -3.0000147820
48.6716139515 -9.8228581990 -3.0000147820
48.7144118314 -9.4300994400 -3.0000147820
48.5624868275 -10.4442974971 -3.0000147820
48.6494063717 -10.0871014698 -3.0000147820
48.6580550479 -10.0438331377 -3.0000147820
48.7460759564 -8.8878797827 -3.0000147820
48.7447877199 -8.8584917937 -3.0000147820
48.7440784061 -8.8438007859 -3.0000147820
48.5976266022 -10.4081596306 -3.0000147820
48.6927667452 -9.9903776916 -3.0000147820
48.8196651419 -8.9147420941 -3.0000147820
48.8080477843 -8.7061631800 -3.0000147820
48.7954977210 -9.8110664073 -3.0000147820
48.8610853864 -9.4099753849 -3.0000147820
48.8620069520 -9.3949379346 -3.0000147820
48.7945144992 -10.1013261265 -3.0000147820
48.8272141206 -9.9226572080 -3.0000147820
43.1801060285 -3.7656303275 -3.0000147820
43.0542595809 -3.7812746673 -3.0000147820
42.7415708416 -3.8333715716 -3.0000147820
43.0194512233 -3.7617190704 -3.0000147820
42.6122140577 -3.8357750015 -3.0000147820
43.4136558099 -3.6961050412 -3.0000147820
43.0794380581 -3.7291437982 -3.0000147820
42.6382293039 -3.8053388467 -3.0000147820
42.1895409089 -3.9224528250 -3.0000147820
42.1742585811 -3.9271750202 -3.0000147820
43.1560482615 -3.6953812277 -3.0000147820
43.2013993499 -3.6660347975 -3.0000147820
42.8339184736 -3.7178015791 -3.0000147820
41.6953467347 -4.0225771457 -3.0000147820
41.7616806988 -3.9698330489 -3.0000147820
41.7465404023 -3.9758207246 -3.0000147820
41.6129041391 -3.9521561628 -3.0000147820
42.3237526677 -3.6825767281 -3.0000147820
41.5599029166 -3.8695906396 -3.0000147820
48.5118556469 -9.7559683667 -3.0000147820
48.5146003319 -9.7296984936 -3.0000147820
48.5240234986 -9.6244704174 -3.0000147820
48.5259899846 -9.5981308566 -3.0000147820
48.5329094381 -9.4794778819 -3.0000147820
48.5358902714 -9.7585514096 -3.0000147820
48.5591300830 -9.4274927252 -3.0000147820
48.5852305259 -9.3482206055 -3.0000147820
48.6829467335 -9.7467840991 -3.0000147820
48.6580911390 -8.4591394893 -3.0000147820
48.8090205270 -8.8602193761 -3.0000147820
48.7586463157 -8.3406463573 -3.0000147820
48.6638615780 -7.8678097281 -3.0000147820
48.8455927727 -8.5561494481 -3.0000147820
48.9008199958 -9.7544719405 -3.0000147820
48.6518463786 -7.6763792693 -3.0000147820
44.9213550242 -7.5345579366 -3.0000147820
45.1676516627 -7.1300767569 -3.0000147820
44.8570629384 -6.8509594385 -3.0000147820
43.8831595418 -6.6392663596 -3.0000147820
48.5162523156 -9.1955877992 -3.0000147820
48.5117471652 -9.1224954503 -3.0000147820
48.5080233236 -9.0738166148 -3.0000147820
48.5228865793 -8.9740522684 -3.0000147820
48.5159450468 -8.9130623561 -3.0000147820
48.5631578251 -9.1683834655 -3.0000147820
48.5770706881 -9.0307379966 -3.0000147820
48.5394313929 -8.7351104053 -3.0000147820
48.5879363308 -8.9043289390 -3.0000147820
48.5576872334 -8.5666771804 -3.0000147820
48.7554343187 -9.1441604628 -3.0000147820
48.8232911362 -9.0741810568 -3.0000147820
48.7971968635 -8.5315278623 -3.0000147820
48.6236207885 -7.8342263580 -3.0000147820
48.8039047505 -8.3386154896 -3.0000147820
48.6440794523 -7.2244164438 -3.0000147820
45.4344059471 -7.1567905474 -3.0000147820
45.4754867119 -6.9924730500 -3.0000147820
41.7310719403 -7.2248096278 -3.0000147820
48.4746426766 -8.6245842480 -3.0000147820
41.7427321404 -7.0915629077 -3.0000147820
48.4765650900 -8.5303886536 -3.0000147820
48.4942104145 -8.5021434170 -3.0000147820
48.4822742430 -8.4577596586 -3.0000147820
48.4962261335 -8.4179438279 -3.0000147820
48.4930422531 -8.4068291014 -3.0000147820
48.5097644459 -8.3777996959 -3.0000147820
48.4929214444 -8.3221258600 -3.0000147820
48.4894541316 -8.3110213286 -3.0000147820
48.5296299732 -8.3597480794 -3.0000147820
48.4908933881 -8.2369668233 -3.0000147820
48.6111121408 -8.4714453969 -3.0000147820
48.7509737406 -8.1765713555 -3.0000147820
48.5413141816 -7.6554705567 -3.0000147820
41.7719199986 -6.3481615650 -3.0000147820
48.0858639520 -6.2510514109 -3.0000147820
45.2436606467 -7.0026343164 -3.0000147820
44.6370074880 -6.9892476598 -3.0000147820
45.6730965449 -6.7203920721 -3.0000147820
44.5115819757 -6.7180211353 -3.0000147820
48.4391245729 -8.0797468421 -3.0000147820
48.4348964896 -8.0698358618 -3.0000147820
48.4394477726 -7.9609995815 -3.0000147820
48.4356415254 -7.8410045714 -3.0000147820
48.4433347866 -7.7496228773 -3.0000147820
48.4382738848 -7.6886551914 -3.0000147820
48.4342316018 -7.5340670291 -3.0000147820
48.4432781626 -7.5019129660 -3.0000147820
41.6089312660 -7.7205354603 -3.0000147820
41.6143470328 -7.6579457571 -3.0000147820
41.6152262688 -7.6053893643 -3.0000147820
41.6111084146 -7.5628697234 -3.0000147820
41.6192720732 -7.4995791065 -3.0000147820
41.6133575886 -7.5098450218 -3.0000147820
41.6074734983 -7.5201283884 -3.0000147820
41.6201747910 -7.4031558377 -3.0000147820
41.6254459166 -7.0852354312 -3.0000147820
44.3661008900 -7.0843746612 -3.0000147820
47.1874867134 -6.6585949117 -3.0000147820
48.3456860050 -7.5659543054 -3.0000147820
48.3300097329 -7.4135585514 -3.0000147820
48.4638694380 -7.4377495644 -3.0000147820
41.5406505429 -8.2446101890 -3.0000147820
41.5370764328 -8.2561308311 -3.0000147820
41.5285650205 -8.2027111932 -3.0000147820
41.5365458525 -8.1027190109 -3.0000147820
41.5325520207 -8.1142524163 -3.0000147820
41.5177668512 -8.0831862870 -3.0000147820
41.4714198778 -8.2230200860 -3.0000147820
41.5331826020 -7.9708231764 -3.0000147820
41.5331580241 -7.9043522381 -3.0000147820
41.5200192610 -7.8722232683 -3.0000147820
41.5177932208 -7.6931327122 -3.0000147820
41.6909987641 -7.1600662792 -3.0000147820
41.3306564177 -7.6378868389 -3.0000147820
41.5323178861 -8.7968262803 -3.0000147820
41.5152740888 -8.7433256899 -3.0000147820
41.5100259941 -8.7810802364 -3.0000147820
41.5038746454 -8.5211125074 -3.0000147820
41.4710607612 -8.1383705556 -3.0000147820
41.4569827686 -8.1892856204 -3.0000147820
41.4663433986 -8.0680436695 -3.0000147820
45.1719983183 -6.9329579417 -3.0000147820
44.8241972059 -7.0775186652 -3.0000147820
44.5571351482 -7.1690542314 -3.0000147820
44.2955240300 -7.3276815097 -3.0000147820
45.0712931192 -6.7651747659 -3.0000147820
45.7967764621 -6.5557042963 -3.0000147820
43.8885513280 -7.6531147298 -3.0000147820
41.4706892275 -9.0260362816 -3.0000147820
41.4517821585 -8.9156368872 -3.0000147820
41.4481969881 -8.9840774780 -3.0000147820
41.3606391122 -8.2857032293 -3.0000147820
41.2751131461 -9.1042760127 -3.0000147820
41.3315931764 -8.3092011101 -3.0000147820
41.3433421026 -7.8380110151 -3.0000147820
41.2715499642 -8.1202841336 -3.0000147820
41.1293000795 -9.1747975986 -3.0000147820
41.4809409803 -7.2333885272 -3.0000147820
41.5570037616 -7.0076034829 -3.0000147820
41.3759376162 -7.4307125856 -3.0000147820
44.6541693311 -7.2721192237 -3.0000147820
44.7474849141 -7.1516945383 -3.0000147820
44.9788127278 -6.9425559776 -3.0000147820
44.7502932498 -7.0538439507 -3.0000147820
45.5825094819 -6.5696156912 -3.0000147820
44.8200808392 -6.9369814339 -3.0000147820
44.0421765740 -7.7324415075 -3.0000147820
41.4393042908 -9.5462701190 -3.0000147820
41.4520935880 -9.6479232461 -3.0000147820
41.4561340296 -9.6769162579 -3.0000147820
41.4973846847 -9.9222690247 -3.0000147820
41.4187464359 -9.5782516189 -3.0000147820
41.4281421621 -9.6511888973 -3.0000147820
41.3600850283 -9.1096634351 -3.0000147820
41.3740915306 -9.3752964229 -3.0000147820
41.4263201946 -9.8005793428 -3.0000147820
41.3456388728 -9.3179670914 -3.0000147820
41.3415611961 -9.5425192582 -3.0000147820
41.3996423463 -9.9260395394 -3.0000147820
41.2859015064 -8.9616261835 -3.0000147820
41.2635795734 -8.8410326414 -3.0000147820
41.2552590711 -8.3243915453 -3.0000147820
41.2352214568 -8.5057827968 -3.0000147820
41.2178809142 -8.7637209718 -3.0000147820
41.2564621300 -9.6438979522 -3.0000147820
41.1444021485 -9.5178868634 -3.0000147820
41.1028222381 -8.6498358619 -3.0000147820
41.1346216974 -9.6440787491 -3.0000147820
47.6041013874 -3.7435772138 -3.0000147820
47.5265234463 -3.7256689199 -3.0000147820
47.3393227683 -3.6873853631 -3.0000147820
48.3161947505 -3.8371194459 -3.0000147820
44.9108377178 -6.9944199920 -3.0000147820
44.4202764540 -7.5178201841 -3.0000147820
44.9028004377 -6.8692035676 -3.0000147820
44.3387761906 -7.5158233789 -3.0000147820
47.2835863885 -3.8959311683 -3.0000147820
47.9524223848 -4.0152728838 -3.0000147820
47.8966373370 -3.9994924792 -3.0000147820
47.2439542073 -3.8660168591 -3.0000147820
46.9574931818 -3.8117936924 -3.0000147820
46.7102141253 -3.7995743571 -3.0000147820
47.0659754744 -3.7482459427 -3.0000147820
46.4311971216 -3.7281638159 -3.0000147820
46.3130762352 -3.7333417485 -3.0000147820
47.0111200023 -3.6947950431 -3.0000147820
47.4115713612 -3.6464908200 -3.0000147820
47.4003420284 -3.6202110019 -3.0000147820
41.2452539184 -9.3542386440 -3.0000147820
41.2490892363 -9.3858543505 -3.0000147820
41.2920030208 -9.6692172007 -3.0000147820
41.2977010395 -9.7005508112 -3.0000147820
41.1940398857 -9.0544290678 -3.0000147820
41.2124395486 -9.2775896853 -3.0000147820
41.3375566242 -10.0020805634 -3.0000147820
41.2184766875 -9.5191714475 -3.0000147820
41.2179463333 -9.7977179936 -3.0000147820
41.4354460344 -10.7167181203 -3.0000147820
44.5252514622 -7.3866766431 -3.0000147820
44.8839039011 -6.7866257641 -3.0000147820
44.5480863911 -7.2324168827 -3.0000147820
44.3776496044 -7.4864922501 -3.0000147820
44.9584932772 -6.5663519312 -3.0000147820
44.2405967859 -7.7493194006 -3.0000147820
44.2621617779 -7.5928107300 -3.0000147820
44.6839375873 -6.3967812389 -3.0000147820
43.9648373094 -7.6578356761 -3.0000147820
44.4012480441 -6.6143271670 -3.0000147820
47.3186275422 -4.0196951011 -3.0000147820
47.2925431414 -4.0165791627 -3.0000147820
47.2664407621 -4.0136176030 -3.0000147820
47.1880348935 -4.0056602050 -3.0000147820
47.3084548747 -3.9941154605 -3.0000147820
47.2822193142 -3.9910601547 -3.0000147820
47.1112998489 -3.9749896817 -3.0000147820
46.9530860357 -3.9659981061 -3.0000147820
47.0468598611 -3.9464307535 -3.0000147820
46.8876730666 -3.9397441945 -3.0000147820
46.7549042143 -3.9384908500 -3.0000147820
46.7283492480 -3.9387115094 -3.0000147820
46.8081724181 -3.9143483491 -3.0000147820
46.3906892654 -3.8824605809 -3.0000147820
46.3772474650 -3.8836289308 -3.0000147820
47.3227910174 -3.8741035566 -3.0000147820
46.2209122222 -3.8271110204 -3.0000147820
46.1257878893 -3.8396512476 -3.0000147820
45.8914121268 -3.8545523181 -3.0000147820
45.7867338233 -3.8266498630 -3.0000147820
47.0612895654 -3.7051315371 -3.0000147820
45.8090117510 -3.7972008295 -3.0000147820
45.6997277041 -3.8214485084 -3.0000147820
46.8941154579 -3.6739189422 -3.0000147820
46.1753895316 -3.6866161627 -3.0000147820
46.5543984010 -3.6294282102 -3.0000147820
46.2287528564 -3.6557928247 -3.0000147820
45.6693546951 -3.7541038364 -3.0000147820
45.3406712188 -3.8445849311 -3.0000147820
45.3062102158 -3.8301538515 -3.0000147820
41.2725006110 -10.6518845282 -3.0000147820
41.3400648560 -10.8718555284 -3.0000147820
40.9902159331 -10.3764055600 -3.0000147820
44.7211398334 -7.1622209084 -3.0000147820
44.9022659050 -6.6900120761 -3.0000147820
44.7668966673 -6.9053830497 -3.0000147820
44.7494036322 -6.9372539101 -3.0000147820
44.6602919752 -7.1202470978 -3.0000147820
44.5367717446 -7.3860542568 -3.0000147820
44.6750028562 -6.9226450354 -3.0000147820
44.6543887320 -6.9625491500 -3.0000147820
44.3845635501 -7.9977850852 -3.0000147820
44.3682823788 -7.6848113283 -3.0000147820
44.6748664961 -6.7746102605 -3.0000147820
44.3615820386 -7.3822798856 -3.0000147820
44.2361580705 -7.7520644328 -3.0000147820
44.2212218654 -7.8950235602 -3.0000147820
44.3197584992 -6.7154376732 -3.0000147820
44.3237068324 -6.6578459219 -3.0000147820
44.4147126830 -5.9415536907 -3.0000147820
46.6242116092 -4.0123722198 -3.0000147820
46.5879122179 -4.0150950098 -3.0000147820
46.5637266655 -4.0170891227 -3.0000147820
46.5516384193 -4.0181398293 -3.0000147820
46.6468655591 -3.9866133003 -3.0000147820
46.6103366797 -3.9891360635 -3.0000147820
46.5373532758 -3.9951535876 -3.0000147820
46.5252002557 -3.9962824074 -3.0000147820
46.5130506281 -3.9974471731 -3.0000147820
46.4523570963 -4.0038098224 -3.0000147820
46.4402300548 -4.0051900384 -3.0000147820
46.4038741707 -4.0095458443 -3.0000147820
46.3917643095 -4.0110694565 -3.0000147820
46.5351532174 -3.9710808847 -3.0000147820
46.4252670428 -3.9826005173 -3.0000147820
46.4130773789 -3.9840609634 -3.0000147820
46.3765350552 -3.9886585661 -3.0000147820
46.3157264692 -3.9970412947 -3.0000147820
46.2914388686 -4.0006460659 -3.0000147820
46.3366984184 -3.9696386284 -3.0000147820
46.2390276162 -3.9844303744 -3.0000147820
43.5754796102 -10.6112967862 -3.0000147820
46.4566072923 -3.9303758939 -3.0000147820
46.1494780833 -3.9754959022 -3.0000147820
46.1819620004 -3.9450756627 -3.0000147820
46.0470417825 -3.9710568342 -3.0000147820
46.5138439550 -3.8759519603 -3.0000147820
46.0790069205 -3.9398333823 -3.0000147820
46.1238718839 -3.9065012842 -3.0000147820
45.9507610765 -3.9427670979 -3.0000147820
45.8465613378 -3.9432826399 -3.0000147820
46.6328395021 -3.7695086536 -3.0000147820
46.5047589144 -3.7796876027 -3.0000147820
46.4536204021 -3.7848192719 -3.0000147820
46.5649314387 -3.7259304123 -3.0000147820
46.6020967668 -3.6989019718 -3.0000147820
45.4787430813 -3.9273093689 -3.0000147820
46.5741964888 -3.6767150885 -3.0000147820
45.4708927837 -3.9044465582 -3.0000147820
45.4336810288 -3.9174086557 -3.0000147820
45.3759250701 -3.9125088124 -3.0000147820
46.1751989480 -3.6764652390 -3.0000147820
46.5686651694 -3.6044072601 -3.0000147820
45.2594579720 -3.9050674344 -3.0000147820
45.2346447096 -3.9149230544 -3.0000147820
45.0405011721 -3.9714709693 -3.0000147820
45.0160846074 -3.9826208491 -3.0000147820
45.2417445240 -3.8600832718 -3.0000147820
45.0551375610 -3.9383886676 -3.0000147820
44.9692837873 -3.9777475586 -3.0000147820
45.1199095684 -3.8838251148 -3.0000147820
44.6342509053 -4.1249961205 -3.0000147820
44.6578258597 -4.0838486692 -3.0000147820
45.5996581688 -3.3335990842 -3.0000147820
44.6352613466 -7.2449853426 -3.0000147820
44.6065778526 -7.3991331466 -3.0000147820
44.6034456901 -7.4202871958 -3.0000147820
44.5986429871 -7.4556030390 -3.0000147820
44.5960122757 -7.4768252820 -3.0000147820
44.5892515307 -7.5406203789 -3.0000147820
44.6132097969 -7.2327629842 -3.0000147820
44.5569724889 -7.6605004375 -3.0000147820
44.5548350722 -7.7684667630 -3.0000147820
44.5928247038 -7.2133159287 -3.0000147820
44.5657489327 -7.3487722402 -3.0000147820
44.5488806701 -7.4638721274 -3.0000147820
44.5359495192 -7.6014013790 -3.0000147820
44.6002069922 -7.0869962787 -3.0000147820
44.5126358432 -7.9373216831 -3.0000147820
44.6119260977 -6.9670738488 -3.0000147820
44.7807445780 -6.4775018354 -3.0000147820
44.4474946132 -8.0252393651 -3.0000147820
44.4573831760 -8.1077757132 -3.0000147820
44.8489401993 -6.3231387180 -3.0000147820
44.7224569356 -6.5318321317 -3.0000147820
44.4102224771 -7.7154146865 -3.0000147820
44.3899108114 -8.1483494752 -3.0000147820
44.3952242783 -8.3139679624 -3.0000147820
44.3966316266 -8.5176030447 -3.0000147820
44.2457057274 -7.3606548609 -3.0000147820
44.2818312709 -6.6746756561 -3.0000147820
44.6242967277 -10.7524330506 -3.0000147820
46.0914529023 -4.0331734549 -3.0000147820
44.5826951109 -10.7501596177 -3.0000147820
46.0082839648 -4.0291702661 -3.0000147820
45.9972439602 -4.0320867618 -3.0000147820
45.9862126314 -4.0350359032 -3.0000147820
45.9577606375 -4.0177259376 -3.0000147820
45.9356224798 -4.0238906880 -3.0000147820
45.8846291389 -4.0134240324 -3.0000147820
45.8735430951 -4.0167063904 -3.0000147820
45.8624668096 -4.0200215286 -3.0000147820
45.8514003794 -4.0233694179 -3.0000147820
45.8403439013 -4.0267500291 -3.0000147820
45.8292974720 -4.0301633326 -3.0000147820
44.4570450551 -10.7403020520 -3.0000147820
44.5462244250 -10.8138785362 -3.0000147820
45.8332416218 -4.0036439064 -3.0000147820
45.7999280928 -4.0140457124 -3.0000147820
44.4237060223 -10.7435955305 -3.0000147820
46.0290789872 -3.9240257524 -3.0000147820
45.7480769529 -4.0054197771 -3.0000147820
45.7369678285 -4.0091061162 -3.0000147820
45.8302986905 -3.9539883235 -3.0000147820
45.7293207714 -3.9861745267 -3.0000147820
45.6736030620 -4.0052138783 -3.0000147820
45.6513958520 -4.0130600193 -3.0000147820
45.6403097519 -4.0170323252 -3.0000147820
45.6292354511 -4.0210374083 -3.0000147820
45.9714467704 -3.8888880816 -3.0000147820
46.0346355242 -3.8479587291 -3.0000147820
45.9064346381 -3.8312772855 -3.0000147820
45.7560857708 -3.8757926077 -3.0000147820
45.7372179662 -3.8564353547 -3.0000147820
44.2225479239 -10.7913703063 -3.0000147820
45.8231737199 -3.8047271485 -3.0000147820
45.3193227006 -3.9894799320 -3.0000147820
45.1547856608 -3.9858681989 -3.0000147820
45.5701935016 -3.7853766723 -3.0000147820
44.9430080336 -3.9859123369 -3.0000147820
45.2333427920 -3.7632086755 -3.0000147820
45.2215194156 -3.7684187512 -3.0000147820
44.4335423832 -3.9553151035 -3.0000147820
44.0772111305 -7.0685432743 -3.0000147820
44.0498864295 -7.7276660915 -3.0000147820
44.0644752211 -7.8504005550 -3.0000147820
44.0533961446 -7.9335952629 -3.0000147820
44.0734852446 -8.0344045600 -3.0000147820
44.0633808058 -6.9005257933 -3.0000147820
44.0531424055 -6.9438166631 -3.0000147820
43.9997790752 -7.7100084655 -3.0000147820
44.0283091727 -7.9305259852 -3.0000147820
44.0500452591 -8.3125393688 -3.0000147820
43.8841139498 -7.0501296952 -3.0000147820
44.0745542787 -6.0078964232 -3.0000147820
44.9068386876 -4.0882065129 -3.0000147820
44.8866871448 -4.0976755674 -3.0000147820
44.8763421340 -4.0758280038 -3.0000147820
44.8662228753 -4.0806378965 -3.0000147820
44.8358296234 -10.9026863418 -3.0000147820
44.8459056236 -10.9075862074 -3.0000147820
44.8661008876 -10.9172964118 -3.0000147820
44.8965006160 -10.9316372660 -3.0000147820
44.7436074358 -10.9105538029 -3.0000147820
44.6820947028 -4.0923508019 -3.0000147820
44.6819731332 -10.9055769355 -3.0000147820
44.7021593788 -10.9162570548 -3.0000147820
44.6402563838 -10.9105648073 -3.0000147820
44.6085448574 -4.0772437983 -3.0000147820
44.5882119683 -10.9094465403 -3.0000147820
44.3979654625 -10.9098284870 -3.0000147820
44.3651526612 -4.0800566379 -3.0000147820
44.1821789311 -4.1717121798 -3.0000147820
43.8100273972 -4.0865236149 -3.0000147820
44.0660789378 -7.3380549275 -3.0000147820
44.0989650846 -7.5996091218 -3.0000147820
44.0378057575 -7.0735285958 -3.0000147820
44.0365001900 -7.1167068314 -3.0000147820
44.0132650579 -7.2543233967 -3.0000147820
44.0218452352 -6.7577748579 -3.0000147820
43.9956408823 -6.9690309734 -3.0000147820
44.0400104404 -7.7835140441 -3.0000147820
43.9393389236 -7.1894958787 -3.0000147820
44.0260258323 -7.8256600322 -3.0000147820
44.2339901913 -8.3539210841 -3.0000147820
43.9500949531 -7.8221526019 -3.0000147820
43.9228384456 -7.8131637602 -3.0000147820
43.9735420242 -6.2749850892 -3.0000147820
43.9072800741 -7.8494621423 -3.0000147820
44.1688141546 -9.0396600937 -3.0000147820
44.4848767207 -4.1723371904 -3.0000147820
44.4671841337 -4.1841330306 -3.0000147820
44.3692408013 -4.1928595527 -3.0000147820
44.3376150004 -4.1856733226 -3.0000147820
44.1976268697 -4.1990268413 -3.0000147820
44.1240104610 -4.1950002846 -3.0000147820
44.0234679423 -4.2141033679 -3.0000147820
43.9399264327 -4.2213012013 -3.0000147820
45.2618332699 -10.9618953055 -3.0000147820
45.2730595942 -10.9654520559 -3.0000147820
45.2955435615 -10.9724658507 -3.0000147820
45.3068010078 -10.9759228337 -3.0000147820
45.2094276594 -10.9702815885 -3.0000147820
45.2657927894 -10.9885069649 -3.0000147820
45.2770978184 -10.9920518859 -3.0000147820
45.1116742458 -10.9621513194 -3.0000147820
45.1229019844 -10.9661522662 -3.0000147820
45.1679298186 -10.9818233959 -3.0000147820
43.8115652188 -4.1085761560 -3.0000147820
45.0697132602 -10.9726347167 -3.0000147820
45.0809721941 -10.9767597458 -3.0000147820
45.1035264234 -10.9849097963 -3.0000147820
45.1261284763 -10.9929262657 -3.0000147820
45.0049202538 -10.9740702844 -3.0000147820
45.0161837179 -10.9783869767 -3.0000147820
45.0613637899 -10.9953199901 -3.0000147820
44.9397803913 -10.9744164730 -3.0000147820
44.9510451645 -10.9789258593 -3.0000147820
44.9736144832 -10.9878445638 -3.0000147820
44.9081417820 -10.9876724823 -3.0000147820
44.9194459073 -10.9922754034 -3.0000147820
44.9534392879 -11.0058832480 -3.0000147820
44.7551027337 -11.0010391569 -3.0000147820
44.6884104088 -10.9971758167 -3.0000147820
43.4028486192 -4.2310953634 -3.0000147820
44.6441129413 -11.0030416808 -3.0000147820
44.5995718833 -11.0084211180 -3.0000147820
44.5434276402 -11.0076285499 -3.0000147820
44.5661739076 -11.0189583542 -3.0000147820
44.8349471585 -11.1666697034 -3.0000147820
44.9419552964 -11.2087731627 -3.0000147820
44.4190756818 -11.0249983182 -3.0000147820
44.9369462538 -11.2585460459 -3.0000147820
44.9284627159 -11.2811815240 -3.0000147820
44.2699842511 -11.0256497345 -3.0000147820
44.7044625952 -11.2428639306 -3.0000147820
45.0344666388 -11.4980144807 -3.0000147820
44.1068785063 -7.7717524164 -3.0000147820
43.9625274750 -7.3167073268 -3.0000147820
43.8057374368 -6.6106939068 -3.0000147820
43.9711458079 -8.0141754679 -3.0000147820
43.7944660158 -4.3367390542 -3.0000147820
45.8578279760 -10.9699724092 -3.0000147820
45.8817558446 -10.9730470889 -3.0000147820
45.8065937775 -10.9873263354 -3.0000147820
45.6465717457 -10.9856921723 -3.0000147820
45.6585808323 -10.9878720733 -3.0000147820
45.6705963150 -10.9900164397 -3.0000147820
45.6946460477 -10.9941984939 -3.0000147820
45.6060205336 -11.0026778378 -3.0000147820
45.6301463055 -11.0072417225 -3.0000147820
45.6422192116 -11.0094701186 -3.0000147820
45.7026797143 -11.0200758662 -3.0000147820
45.4027095206 -11.0080373813 -3.0000147820
45.5238431871 -11.0354382159 -3.0000147820
45.7559957934 -11.0775787803 -3.0000147820
45.3606432906 -11.0225641887 -3.0000147820
45.7276630299 -11.0976325158 -3.0000147820
45.2575781793 -11.0203703741 -3.0000147820
45.2696915524 -11.0237008367 -3.0000147820
45.3060900419 -11.0334770207 -3.0000147820
45.2268007009 -11.0368621075 -3.0000147820
45.6951411024 -11.1413468919 -3.0000147820
45.8200897939 -11.1600399961 -3.0000147820
45.1470519821 -11.0387189632 -3.0000147820
45.0912235776 -11.0467854104 -3.0000147820
44.9784852198 -11.0606646257 -3.0000147820
44.9093569258 -11.0621022066 -3.0000147820
45.7782350443 -11.2762860291 -3.0000147820
44.8398792092 -11.0623942141 -3.0000147820
45.5558233686 -11.2638000578 -3.0000147820
44.8068247898 -11.0757392005 -3.0000147820
45.5986303742 -11.3209421228 -3.0000147820
45.4672042579 -11.3693370532 -3.0000147820
44.4451494434 -11.1064401585 -3.0000147820
44.8232057810 -11.2623178141 -3.0000147820
44.3349377644 -8.3220256377 -3.0000147820
43.5228750994 -7.0652015667 -3.0000147820
46.4318639594 -10.9831832769 -3.0000147820
46.4445600762 -10.9826850211 -3.0000147820
46.2667086399 -11.0104145633 -3.0000147820
46.3305936446 -11.0099875129 -3.0000147820
46.3816927400 -11.0089655783 -3.0000147820
46.4593648730 -11.0304491909 -3.0000147820
46.3054351333 -11.0586161684 -3.0000147820
46.4604199778 -11.0545991813 -3.0000147820
45.7482137895 -11.0518549008 -3.0000147820
46.4225294067 -11.0802775846 -3.0000147820
45.7194104141 -11.0726773823 -3.0000147820
46.3711384889 -11.1059443851 -3.0000147820
46.3993499567 -11.1777563045 -3.0000147820
45.4698524890 -11.1323363929 -3.0000147820
45.5619838807 -11.1479473742 -3.0000147820
46.0130699029 -11.1964924204 -3.0000147820
45.2944947319 -11.1219058857 -3.0000147820
46.4275738803 -11.2252280018 -3.0000147820
45.1784127263 -11.1445434031 -3.0000147820
45.2416175646 -11.2339419060 -3.0000147820
46.1287044479 -11.3467011127 -3.0000147820
44.8752377783 -11.1605021072 -3.0000147820
46.4203145679 -11.4189612221 -3.0000147820
41.1614341418 -4.7761433735 -3.0000147820
44.4091079423 -8.3917440004 -3.0000147820
46.8357938828 -11.0128295449 -3.0000147820
46.7452267480 -11.0508327999 -3.0000147820
47.0941408365 -10.9885141540 -3.0000147820
46.8028175742 -11.0668960737 -3.0000147820
46.1339086084 -11.1431202477 -3.0000147820
45.9678551077 -11.1652022986 -3.0000147820
46.5626754645 -11.1454042746 -3.0000147820
46.8100480582 -11.1146983877 -3.0000147820
46.9965748141 -11.1318435553 -3.0000147820
45.5534004710 -11.2558787810 -3.0000147820
45.3102988210 -11.2457162137 -3.0000147820
45.2780043510 -11.2647175966 -3.0000147820
45.4623686210 -11.2931652411 -3.0000147820
46.0201087518 -11.3357368827 -3.0000147820
46.0052424502 -11.3596177054 -3.0000147820
41.2939713146 -5.3502692592 -3.0000147820
41.2327883786 -5.6514369275 -3.0000147820
41.2005948267 -5.8685948241 -3.0000147820
41.3062993962 -5.2020852253 -3.0000147820
41.1863176714 -5.7926848049 -3.0000147820
41.3354319164 -4.9333026973 -3.0000147820
41.3229352235 -4.8188818756 -3.0000147820
41.1038931669 -5.6902413895 -3.0000147820
44.8882528534 -7.5162554117 -3.0000147820
44.6674762728 -7.4722567950 -3.0000147820
44.6927416944 -8.3259489535 -3.0000147820
44.6501743184 -8.3281065490 -3.0000147820
44.6013002092 -8.3255594080 -3.0000147820
44.0059508806 -7.8140174090 -3.0000147820
44.5521216375 -8.3219078245 -3.0000147820
44.6062512890 -8.3575236672 -3.0000147820
44.0005571509 -7.8460549156 -3.0000147820
44.7643426867 -8.5050961604 -3.0000147820
44.7904358682 -8.5185793636 -3.0000147820
43.7093665551 -7.4936350684 -3.0000147820
43.7718223641 -7.6031006122 -3.0000147820
44.7794660921 -8.5401200064 -3.0000147820
44.3294164541 -8.2773885637 -3.0000147820
43.6667854888 -7.5165303502 -3.0000147820
43.7954149453 -7.7300739432 -3.0000147820
43.5500020186 -7.4470061493 -3.0000147820
45.1777529029 -8.9786187096 -3.0000147820
41.4256194979 -5.5116367350 -3.0000147820
41.4002317152 -5.6715351426 -3.0000147820
41.3965529420 -5.6982681408 -3.0000147820
41.4853612285 -5.0384152034 -3.0000147820
41.3666262209 -5.5704284956 -3.0000147820
41.3644681193 -5.5838921276 -3.0000147820
41.3623498549 -5.5973620848 -3.0000147820
41.3115264248 -6.1127385154 -3.0000147820
41.4814652525 -4.9660161641 -3.0000147820
41.4546562901 -5.0581420319 -3.0000147820
41.3692645442 -5.4181441618 -3.0000147820
41.2834266022 -6.3446825259 -3.0000147820
41.2593102935 -6.2622106913 -3.0000147820
41.2662771113 -6.5652045327 -3.0000147820
41.4043861839 -5.0584580889 -3.0000147820
41.2995436658 -5.5315137882 -3.0000147820
41.2648309518 -5.7783560031 -3.0000147820
41.2271504895 -5.9141664473 -3.0000147820
41.2205085432 -6.6095771735 -3.0000147820
41.3577900006 -5.0455686813 -3.0000147820
41.1847296882 -6.7668887876 -3.0000147820
41.1905061871 -6.8228493198 -3.0000147820
41.1969444327 -6.8787375843 -3.0000147820
41.2078405787 -6.9624173646 -3.0000147820
41.1696284353 -6.8535693764 -3.0000147820
41.1195931193 -6.0762149426 -3.0000147820
41.2732136669 -4.9030682893 -3.0000147820
46.6716580801 -11.1966208512 -3.0000147820
47.1729976475 -11.0924250129 -3.0000147820
46.2074930375 -11.2702039862 -3.0000147820
46.2955404977 -11.2642639466 -3.0000147820
46.3102042250 -11.2631220458 -3.0000147820
46.4420074879 -11.2508944797 -3.0000147820
46.5880149612 -11.2331987291 -3.0000147820
46.0317068836 -11.3015584742 -3.0000147820
46.1498695288 -11.2974421559 -3.0000147820
46.7082331230 -11.2398053434 -3.0000147820
47.1423359684 -11.1502532474 -3.0000147820
47.2992689612 -11.1078191239 -3.0000147820
46.1213230135 -11.3228863519 -3.0000147820
47.3344756561 -11.1227455863 -3.0000147820
46.2580383950 -11.3639021312 -3.0000147820
46.6192549211 -11.3509018920 -3.0000147820
47.4197611088 -11.1980621460 -3.0000147820
47.7432728114 -11.1125636047 -3.0000147820
47.2640414808 -11.3183527314 -3.0000147820
47.6557354185 -11.3243644165 -3.0000147820
47.7993438009 -11.3497519008 -3.0000147820
47.4637940727 -11.7396093433 -3.0000147820
44.7985410465 -7.5345149426 -3.0000147820
44.7145008223 -7.5354953182 -3.0000147820
44.6397925393 -7.5096290485 -3.0000147820
44.6517555856 -7.5189465806 -3.0000147820
44.6638008487 -7.5281575805 -3.0000147820
44.5536552274 -7.5015007415 -3.0000147820
44.6151373159 -8.3200972900 -3.0000147820
44.7904267585 -8.3994434306 -3.0000147820
44.6365923663 -8.3576077394 -3.0000147820
44.6821926472 -8.3790672706 -3.0000147820
44.5740039474 -8.3534419511 -3.0000147820
44.5045783919 -8.3440152570 -3.0000147820
44.6089481236 -8.3979314682 -3.0000147820
45.0129802249 -8.5527371205 -3.0000147820
44.5631525505 -8.5636319578 -3.0000147820
41.5043441333 -5.6530314568 -3.0000147820
41.5028441894 -5.6654324395 -3.0000147820
41.4958950847 -5.7275009239 -3.0000147820
41.4946154719 -5.7399265746 -3.0000147820
41.4933726220 -5.7523559562 -3.0000147820
41.4898647571 -5.7896653990 -3.0000147820
41.4625932546 -5.8250622795 -3.0000147820
41.4606485805 -5.8501126291 -3.0000147820
41.4543528901 -5.9504159227 -3.0000147820
41.4495751722 -6.0885188652 -3.0000147820
41.4266304884 -6.0375538263 -3.0000147820
41.4254061968 -6.0880762449 -3.0000147820
41.4251935394 -6.1007088368 -3.0000147820
41.4246908347 -6.1638781921 -3.0000147820
41.4248377033 -6.2017809421 -3.0000147820
41.4008470815 -6.1130423816 -3.0000147820
41.4058264674 -6.3797767921 -3.0000147820
41.3763708715 -6.1510736299 -3.0000147820
41.3853306691 -6.4447605738 -3.0000147820
41.3679356273 -6.5360078772 -3.0000147820
41.3713871731 -6.5743996438 -3.0000147820
41.3347578164 -6.4091863894 -3.0000147820
41.3613618911 -6.7051052313 -3.0000147820
41.3049343768 -5.6944154866 -3.0000147820
41.2984355907 -5.7594079634 -3.0000147820
41.2949979847 -5.7984470853 -3.0000147820
41.3166849942 -6.7369871124 -3.0000147820
41.2650418065 -5.8750235223 -3.0000147820
41.3081459876 -6.9910114185 -3.0000147820
41.3131021633 -7.0169551239 -3.0000147820
41.3261633563 -7.0816821316 -3.0000147820
41.2372625175 -5.6470802049 -3.0000147820
41.3195306097 -7.1644646640 -3.0000147820
41.3225025672 -7.1774057453 -3.0000147820
41.2073890478 -5.6973588056 -3.0000147820
41.2761266158 -7.0785254352 -3.0000147820
41.1588149679 -6.1503076990 -3.0000147820
41.1658085049 -6.4185969674 -3.0000147820
41.1814596250 -6.6192857478 -3.0000147820
41.1587744689 -6.6351224516 -3.0000147820
41.3017979302 -7.3898512194 -3.0000147820
41.1134217269 -6.0009693567 -3.0000147820
41.1121351284 -6.0416408605 -3.0000147820
41.3177167362 -7.6840257423 -3.0000147820
41.3313582741 -7.7228179661 -3.0000147820
41.3517967199 -7.8471704830 -3.0000147820
41.4483787965 -8.1362842127 -3.0000147820
47.0720663844 -11.3452836328 -3.0000147820
47.2246463673 -11.3023077163 -3.0000147820
47.9173444366 -11.2281860199 -3.0000147820
48.3400350108 -11.0482790658 -3.0000147820
47.4946202499 -11.7246596888 -3.0000147820
44.9451377298 -7.5696378363 -3.0000147820
44.9419172287 -7.5940583399 -3.0000147820
44.9600402756 -7.6000051409 -3.0000147820
44.7854968148 -7.5589808964 -3.0000147820
44.8524048471 -7.5871442065 -3.0000147820
44.7801131292 -7.5830458652 -3.0000147820
44.9778000884 -8.4276867561 -3.0000147820
44.9026676870 -8.4361275945 -3.0000147820
44.9237278330 -8.4409229642 -3.0000147820
44.9113711322 -8.4629229305 -3.0000147820
44.9611290476 -8.4736350843 -3.0000147820
44.6866311854 -8.4261897503 -3.0000147820
44.7779614859 -8.4539297868 -3.0000147820
44.7850300036 -8.4559178332 -3.0000147820
41.5035991108 -6.2972789721 -3.0000147820
41.5050398325 -6.3206441188 -3.0000147820
41.5058120257 -6.3323233935 -3.0000147820
41.5074600432 -6.3556748345 -3.0000147820
41.5101910366 -6.3906826927 -3.0000147820
41.4860998090 -6.3926696582 -3.0000147820
41.4870851496 -6.4044046458 -3.0000147820
41.4937257787 -6.4747486894 -3.0000147820
41.4661833647 -6.4418632859 -3.0000147820
41.4696808576 -6.4772340575 -3.0000147820
41.4748321984 -6.5243441567 -3.0000147820
41.4851870118 -6.6066282635 -3.0000147820
41.4421173342 -6.4441351709 -3.0000147820
41.4612356793 -6.6098946004 -3.0000147820
41.4662245508 -6.6453026631 -3.0000147820
41.4810623214 -6.7394933364 -3.0000147820
41.4553322310 -6.8661886411 -3.0000147820
41.3378274022 -6.3559127077 -3.0000147820
41.4478502424 -7.0543414456 -3.0000147820
41.3128681821 -6.3453668305 -3.0000147820
41.4130352017 -7.1138114281 -3.0000147820
41.4193083886 -7.1376980906 -3.0000147820
41.4089913512 -7.1918432912 -3.0000147820
41.1950737002 -6.7880195065 -3.0000147820
41.1497717964 -6.9406345688 -3.0000147820
45.0350587216 -7.7095139229 -3.0000147820
45.0738103885 -8.4392993319 -3.0000147820
44.6694849654 -8.4092335496 -3.0000147820
44.8627052976 -8.4437093975 -3.0000147820
45.0725818008 -8.4634411184 -3.0000147820
43.9743370185 -8.1684885336 -3.0000147820
44.1973901759 -8.2803903599 -3.0000147820
44.6571231688 -8.4312542777 -3.0000147820
44.9907681229 -8.4821661671 -3.0000147820
45.0273756981 -8.4849533883 -3.0000147820
45.0786870372 -8.4879452522 -3.0000147820
44.3011446411 -8.4008942729 -3.0000147820
45.4526078194 -8.5505417955 -3.0000147820
41.5308851678 -6.8563840506 -3.0000147820
41.5124460500 -6.8836469595 -3.0000147820
41.5150507131 -6.8945442158 -3.0000147820
41.5203566903 -6.9163153748 -3.0000147820
41.5108040235 -6.9767423391 -3.0000147820
41.5136840868 -6.9876440454 -3.0000147820
41.5165963867 -6.9985371843 -3.0000147820
41.5195408978 -7.0094216604 -3.0000147820
41.5225175942 -7.0202973785 -3.0000147820
41.4903220415 -6.9938529196 -3.0000147820
41.5115172313 -7.0704020417 -3.0000147820
41.4914657725 -7.0880611865 -3.0000147820
41.5011913006 -7.1209077404 -3.0000147820
41.5044978732 -7.1318372521 -3.0000147820
41.5078367629 -7.1427569346 -3.0000147820
41.5112079404 -7.1536666922 -3.0000147820
41.5020164495 -7.2046480197 -3.0000147820
41.5091573331 -7.2264908664 -3.0000147820
41.4898446826 -7.2450436100 -3.0000147820
41.4972247730 -7.2669577619 -3.0000147820
41.5047343858 -7.2888278673 -3.0000147820
41.4186033233 -7.0971671349 -3.0000147820
41.5013535201 -7.3515604046 -3.0000147820
41.5053424044 -7.3624884272 -3.0000147820
41.4746528383 -7.3488083821 -3.0000147820
41.2963551463 -7.1951441480 -3.0000147820
41.3331569211 -7.3100115699 -3.0000147820
41.4696177364 -7.8324384160 -3.0000147820
41.2415217211 -7.3408718134 -3.0000147820
41.4693050135 -8.0423095349 -3.0000147820
44.5647497802 -8.4268016639 -3.0000147820
44.9632477096 -8.4547755537 -3.0000147820
44.9561776366 -8.4790189147 -3.0000147820
45.0882513070 -8.4744034120 -3.0000147820
45.1102316023 -8.4729507535 -3.0000147820
44.4487889220 -8.5294414020 -3.0000147820
41.5647319424 -7.5001970088 -3.0000147820
41.5679495537 -7.7825060124 -3.0000147820
41.5626729658 -7.8238342188 -3.0000147820
41.5578663581 -7.8653958000 -3.0000147820
41.5689800255 -7.8853466359 -3.0000147820
41.5591991689 -7.9171819263 -3.0000147820
41.5677529791 -8.0738679244 -3.0000147820
41.5635462660 -8.2024804854 -3.0000147820
48.3997513467 -8.0546561220 -3.0000147820
45.1004593327 -7.6109557372 -3.0000147820
45.1237816017 -7.6044984295 -3.0000147820
45.2054437523 -7.6044380769 -3.0000147820
45.1226311375 -7.6550263898 -3.0000147820
45.2460978282 -7.6158732084 -3.0000147820
45.2787924308 -7.6037198909 -3.0000147820
45.2834422994 -7.6019285274 -3.0000147820
45.2921657406 -7.6244726365 -3.0000147820
45.3062829894 -7.6189378223 -3.0000147820
45.0108873288 -8.4903933013 -3.0000147820
45.2617954936 -8.4677962598 -3.0000147820
45.2977731176 -8.4588590035 -3.0000147820
45.2455921450 -8.4964545779 -3.0000147820
48.4724295249 -7.2273903011 -3.0000147820
48.4735199234 -7.3022624829 -3.0000147820
48.4846524605 -7.2685076232 -3.0000147820
48.4771083462 -7.3663080193 -3.0000147820
48.4810419135 -7.3550564978 -3.0000147820
48.4849421796 -7.3437933892 -3.0000147820
48.4964428304 -7.3099355279 -3.0000147820
48.4853845925 -7.4842651620 -3.0000147820
48.4896670622 -7.4729886417 -3.0000147820
48.4900431169 -7.6035971925 -3.0000147820
48.4992018426 -7.8789883192 -3.0000147820
48.4930568949 -7.9461791586 -3.0000147820
44.9331391131 -7.5884829467 -3.0000147820
44.9937042204 -7.6180580285 -3.0000147820
45.0556703840 -7.5932331779 -3.0000147820
45.2494383742 -7.5787506693 -3.0000147820
45.3781613922 -7.5569728252 -3.0000147820
45.1952896434 -8.4184680928 -3.0000147820
45.3643101433 -8.4334529348 -3.0000147820
45.4079642889 -8.4415873774 -3.0000147820
48.4872279622 -6.6803715143 -3.0000147820
48.5003327603 -6.7561604847 -3.0000147820
48.5040865942 -6.7320402038 -3.0000147820
48.5094496128 -6.6958191962 -3.0000147820
48.5182744465 -6.7962978679 -3.0000147820
48.5261130131 -6.7478204150 -3.0000147820
48.5459940652 -6.9142760353 -3.0000147820
48.7947082117 -6.7499602706 -3.0000147820
45.1701744157 -7.5725715797 -3.0000145435
45.0966651872 -8.4119582948 -3.0000145435
45.1095553924 -8.4065716578 -3.0000145435
45.2988901141 -8.4255465791 -3.0000145435
45.3441024353 -8.4021703864 -3.0000145435
45.4252810562 -8.4128437923 -3.0000145435
48.5119759167 -6.2202082772 -3.0000145435
48.5119264666 -6.2074309747 -3.0000145435
48.5101702667 -6.1052292249 -3.0000145435
48.5072662414 -6.0286208362 -3.0000145435
48.5319945032 -6.0403265591 -3.0000145435
48.5681422563 -6.6093215203 -3.0000145435
48.5703067003 -6.5834280084 -3.0000145435
48.5840630837 -6.1680692666 -3.0000145435
48.5826588275 -6.1031254000 -3.0000145435
48.6805369211 -6.1534176664 -3.0000145435
48.6526480008 -7.2948940733 -3.0000145435
48.6708359186 -7.2155695786 -3.0000145435
48.6631093146 -7.5381016230 -3.0000145435
48.6744691908 -7.5847146362 -3.0000145435
48.8492362075 -6.7170623626 -3.0000145435
45.1453801460 -7.5083650127 -3.0000147820
45.2037926443 -7.5169017358 -3.0000147820
45.2160185656 -8.3478565239 -3.0000147820
45.2945231015 -8.3546019496 -3.0000147820
45.4565205456 -8.2671560901 -3.0000147820
45.4089594118 -8.3335511305 -3.0000147820
45.4521260944 -8.3315535030 -3.0000147820
45.1423540322 -8.5582239756 -3.0000147820
45.4667028019 -8.3508370421 -3.0000147820
45.4898005061 -8.3331614447 -3.0000147820
45.4955421262 -8.3286999376 -3.0000147820
44.7345494721 -8.8826519113 -3.0000147820
44.9995514191 -8.8394040766 -3.0000147820
46.3068937780 -7.6691935808 -3.0000147820
45.1204351167 -8.8391352518 -3.0000147820
48.5665985879 -5.8890961545 -3.0000147820
48.5478761705 -5.7402853886 -3.0000147820
48.5962640756 -5.9410065664 -3.0000147820
48.5331770238 -5.5071082905 -3.0000147820
48.5224117366 -5.4533478237 -3.0000147820
48.5020445933 -5.3595870884 -3.0000147820
48.6383573457 -6.1997996073 -3.0000147820
48.6264917743 -6.0072794350 -3.0000147820
48.5917745543 -5.7062005099 -3.0000147820
48.5908714182 -5.5523425926 -3.0000147820
48.6858373192 -6.6014252286 -3.0000147820
48.6596104757 -5.8509194657 -3.0000147820
48.6375325845 -5.6853351846 -3.0000147820
48.6043674760 -5.4932902932 -3.0000147820
48.7026542657 -6.7282312649 -3.0000147820
48.7036341544 -6.7142725776 -3.0000147820
48.7126120884 -6.5325959131 -3.0000147820
48.7142038738 -6.4626494415 -3.0000147820
48.7199848916 -6.8140730433 -3.0000147820
48.7382329285 -6.3083174878 -3.0000147820
48.7026190657 -5.8034874911 -3.0000147820
48.7427799015 -6.8303069590 -3.0000147820
48.7385590624 -7.0723746643 -3.0000147820
48.7516688522 -6.9737913217 -3.0000147820
48.7588375474 -5.8680809091 -3.0000147820
48.8031692760 -6.1073221845 -3.0000147820
