30.1069913603 -7.7664724104 -3.0000128032
30.1185590442 -7.7594326656 -3.0000128032
30.0425104411 -7.8317010938 -3.0000127772
30.0723228630 -7.8149202815 -3.0000127772
30.1683335496 -7.8139367517 -3.0000127254
30.2299674872 -7.8321323638 -3.0000126735
30.2065822231 -7.8755488976 -3.0000126476
29.8411997518 -8.1398347652 -3.0000125698
29.4588701843 -8.4044217635 -3.0000124141
33.5080791898 -5.7832314286 -3.0000103394
33.5024779634 -5.5798653298 -3.0000103394
33.5017837757 -5.5663191161 -3.0000103394
33.5309645148 -5.9194460969 -3.0000103134
33.5317742178 -5.8785477384 -3.0000103134
33.5322891764 -5.8240084781 -3.0000103134
33.5490255128 -6.0706786312 -3.0000102875
33.5787034371 -5.6726341998 -3.0000102616
33.5780298196 -6.3080580826 -3.0000102356
33.5873909193 -6.2115626244 -3.0000102356
33.6400542446 -6.1599414683 -3.0000101838
33.6163943159 -6.5666807189 -3.0000101578
33.6333023852 -6.6123731358 -3.0000101319
33.6283140965 -6.7700399780 -3.0000101059
33.6491153391 -6.7888685309 -3.0000100800
33.7680526456 -5.5666495316 -3.0000100541
33.6548243907 -6.9814907942 -3.0000100281
33.6582757980 -6.9674877795 -3.0000100281
33.7499803502 -6.6470071769 -3.0000100022
33.6836936263 -7.0636814092 -3.0000099763
33.8394394429 -6.0725953467 -3.0000099763
33.8610211054 -6.1177308116 -3.0000099503
33.6650511376 -7.3020535682 -3.0000099244
33.8177770044 -6.8087861337 -3.0000098985
25.9028616815 -9.8181611301 -3.0000098725
33.9787559040 -7.8572741171 -3.0000094057
30.1154319741 -7.7431590037 -3.0000198482
30.1306616828 -7.7300454000 -3.0000198482
30.0842494014 -7.8004807960 -3.0000198972
30.1311233973 -7.7615468942 -3.0000198972
30.1675438793 -7.8257477141 -3.0000200441
30.1993439122 -7.7984479679 -3.0000200441
30.1668811567 -7.8578028194 -3.0000200931
30.2416457715 -7.7932336207 -3.0000200931
30.3287392277 -7.7107521360 -3.0000200931
29.8613741921 -8.1008636666 -3.0000201421
30.1602312373 -7.8944762356 -3.0000201421
30.2566547836 -7.9086500183 -3.0000202891
33.6005900212 -5.6119561125 -3.0000253349
33.5925585405 -5.5240747457 -3.0000253349
33.5498007353 -5.2033910182 -3.0000253349
33.5397889367 -5.1454169947 -3.0000253349
33.6390230388 -5.8607874518 -3.0000253838
33.6374090019 -5.8164780792 -3.0000253838
33.6338453343 -5.7426665554 -3.0000253838
33.6180646925 -5.5363691379 -3.0000253838
33.5937563007 -5.3309019745 -3.0000253838
33.5852501938 -5.2723989218 -3.0000253838
33.5197375679 -4.9238658240 -3.0000253838
33.6631837121 -5.8600146954 -3.0000254328
33.6595449603 -5.7709833324 -3.0000254328
33.7067580297 -6.2931405749 -3.0000255308
33.7140231361 -5.9933891407 -3.0000255308
33.6001667486 -4.9518769872 -3.0000255308
33.7252331602 -6.3846560641 -3.0000255798
33.7262881614 -6.3696273860 -3.0000255798
33.7886565366 -6.7122077827 -3.0000257757
33.7084058434 -4.8814189174 -3.0000257757
33.8577430075 -5.9000845813 -3.0000258247
33.8280541202 -5.1096900514 -3.0000259227
27.8562387262 -11.2964164148 -3.0000260697
27.6962540000 -11.2945577343 -3.0000261187
27.4734446700 -11.2743316262 -3.0000261677
26.8831330930 -11.1835069692 -3.0000263146
30.1473783028 -7.7297282050 -3.0000211980
30.1601912895 -7.7142447299 -3.0000211980
30.1728663645 -7.6986481564 -3.0000211980
30.1895502113 -7.6776789186 -3.0000211980
30.1977987972 -7.6671206365 -3.0000211980
30.1484516505 -7.7659070326 -3.0000212614
30.1615856617 -7.7504126074 -3.0000212614
30.1702650540 -7.7400185000 -3.0000212614
30.1916931700 -7.7138101706 -3.0000212614
30.2085551028 -7.6926171038 -3.0000212614
30.2127313108 -7.6872877777 -3.0000212614
30.1975743091 -7.7449017188 -3.0000213248
30.2074660423 -7.7708961229 -3.0000213882
30.2162658189 -7.7602302133 -3.0000213882
30.2422843851 -7.7279227323 -3.0000213882
29.9503006850 -8.1618903652 -3.0000216418
29.9656080378 -8.1805991929 -3.0000217052
30.4352338888 -7.7120853328 -3.0000217686
30.2547643517 -7.9738897160 -3.0000218320
30.7029958456 -7.2880840441 -3.0000218320
29.5746328558 -8.5243409481 -3.0000218954
30.7441183372 -7.3728647275 -3.0000220222
30.1509256592 -8.2126066065 -3.0000220856
29.5813110270 -8.6564039776 -3.0000222124
29.6484560137 -8.6494227625 -3.0000222758
30.8535546997 -7.4241683785 -3.0000223392
27.0408739579 -11.0079476126 -3.0000281716
27.6519393426 -11.1433058291 -3.0000281716
27.7384052513 -11.1559776010 -3.0000281716
28.1006434981 -11.1921999002 -3.0000281716
27.2692749202 -11.1178041588 -3.0000282984
28.4356974999 -11.2501458188 -3.0000282984
28.3175950135 -11.2735521526 -3.0000283618
27.6370701958 -11.2388478251 -3.0000284252
28.1687276762 -11.2928056859 -3.0000284252
27.9271427715 -11.3239444220 -3.0000285520
27.8924173683 -11.3691037161 -3.0000286788
28.5424188849 -11.3935179306 -3.0000286788
27.6786488401 -11.3672745278 -3.0000287422
28.4213943948 -11.4194134800 -3.0000287422
33.7751247130 -5.8517553172 -3.0000293761
33.7528672785 -5.6299524453 -3.0000293761
33.7448227349 -5.5667677948 -3.0000293761
33.6743836942 -5.1588894655 -3.0000293761
33.6676692854 -5.1277578212 -3.0000293761
33.6808203473 -5.0757605582 -3.0000294395
33.6624590608 -4.9979211855 -3.0000294395
33.6265154546 -4.8585275326 -3.0000294395
33.7884035462 -5.5285391929 -3.0000295029
33.7408804828 -5.2433030378 -3.0000295029
33.7249906447 -5.1645570259 -3.0000295029
33.6782438855 -4.9610004298 -3.0000295029
33.5959279975 -4.6670809381 -3.0000295029
33.7955952391 -5.4134853196 -3.0000295663
33.7877092078 -5.3657171761 -3.0000295663
33.7243436712 -5.0492804210 -3.0000295663
33.6655668883 -4.7303156732 -3.0000296297
33.5976611965 -4.2351035506 -3.0000298833
33.7649970524 -4.1325249801 -3.0000303905
30.1930503005 -7.6364899531 -3.0000157930
30.1749204407 -7.7180289110 -3.0000157987
30.1816604742 -7.7064492548 -3.0000157987
30.1883318807 -7.6948299250 -3.0000157987
30.1949344265 -7.6831713282 -3.0000157987
30.2079320143 -7.6597379676 -3.0000157987
30.1957761140 -7.7302508656 -3.0000158045
30.2193140721 -7.6891149327 -3.0000158045
30.2478947156 -7.7367536962 -3.0000158160
30.3283021499 -7.7418239849 -3.0000158333
30.3812420026 -7.6408151030 -3.0000158333
29.9907865209 -8.3818140380 -3.0000158621
30.2559675058 -8.0772883788 -3.0000158621
30.1201477922 -8.3177710522 -3.0000158736
27.7046553551 -11.0074323766 -3.0000163232
27.8097325554 -11.0184108134 -3.0000163232
28.0205190685 -11.0328942995 -3.0000163232
27.6754907212 -11.0282932589 -3.0000163289
27.7018591345 -11.0314431332 -3.0000163289
27.9663902686 -11.0543431167 -3.0000163289
27.7123250340 -11.0569784779 -3.0000163347
28.5001715183 -11.1013275732 -3.0000163405
27.6934704727 -11.1034754030 -3.0000163462
28.0026974012 -11.1288627340 -3.0000163462
28.3668861518 -11.1317621052 -3.0000163462
27.6906742521 -11.1274861596 -3.0000163520
28.5166826957 -11.1487276162 -3.0000163520
28.7058759248 -11.1325650769 -3.0000163520
28.7328432117 -11.1296170214 -3.0000163520
27.7285304000 -11.1560484299 -3.0000163578
28.9148909869 -11.1543730865 -3.0000163635
28.8093400243 -11.1934877015 -3.0000163693
28.9321306821 -11.1761902899 -3.0000163693
29.0408575361 -11.1580753890 -3.0000163693
27.6519849022 -11.2202436029 -3.0000163750
28.9495054950 -11.1979453786 -3.0000163750
28.8982084120 -11.2301622517 -3.0000163808
29.4347651511 -11.1949526741 -3.0000163981
28.3320076305 -11.3745423853 -3.0000164039
29.5297118681 -11.2192192672 -3.0000164096
29.9046307920 -11.1226666972 -3.0000164154
30.1369085497 -11.0824135892 -3.0000164269
33.7682237967 -4.5203472059 -3.0000166690
30.2325233068 -7.6212040650 -3.0000128291
30.2388744566 -7.6021364609 -3.0000128291
30.2207777835 -7.7244044595 -3.0000128032
30.2757026147 -7.7160637223 -3.0000127513
30.3079875199 -7.6983235307 -3.0000127254
30.3515038298 -7.6465243062 -3.0000126994
30.2628693685 -7.9317386814 -3.0000126735
28.4261795434 -11.0080175988 -3.0000108321
28.5112491956 -11.0001160039 -3.0000108321
28.5137339377 -11.0241609896 -3.0000108062
28.5503521048 -11.0202126733 -3.0000108062
28.5747441269 -11.0173999920 -3.0000108062
28.6234761149 -11.0113419465 -3.0000108062
28.3949918811 -11.0831883085 -3.0000107543
28.4235893339 -11.1294877882 -3.0000107024
28.4480292656 -11.2730216719 -3.0000105468
28.8551076885 -11.3429139244 -3.0000104172
30.2490062988 -7.5856068083 -3.0000139090
30.2510275172 -7.5723617652 -3.0000139090
30.2520087316 -7.5657348173 -3.0000139090
30.2614919134 -7.6560620716 -3.0000138946
30.2662887380 -7.6294075911 -3.0000138946
30.2696791976 -7.6093805033 -3.0000138946
30.2739230910 -7.5826324151 -3.0000138946
30.2749345877 -7.5759376929 -3.0000138946
30.2759262758 -7.5692400079 -3.0000138946
30.2839953644 -7.6672091145 -3.0000138801
30.2912665402 -7.6268054246 -3.0000138801
30.2998438200 -7.5727451985 -3.0000138801
30.3486815722 -7.5728426872 -3.0000138513
30.3639281490 -7.6320582184 -3.0000138369
30.4086665037 -7.4806631011 -3.0000138225
30.3432007349 -7.9344084868 -3.0000138081
30.4312196709 -7.4974254372 -3.0000138081
30.2696682812 -8.2077496746 -3.0000137937
30.2649830875 -8.2776554632 -3.0000137793
30.3957367653 -7.9271215765 -3.0000137793
30.2346827755 -8.3942771494 -3.0000137649
30.2931055598 -8.2743048346 -3.0000137649
30.2305564062 -8.5028522056 -3.0000137361
30.1839090045 -8.6711290799 -3.0000137072
30.6314671731 -7.0447186607 -3.0000136928
30.2216406188 -9.0282317777 -3.0000135632
30.2779861929 -9.0738847494 -3.0000135199
30.2929390408 -4.2445207701 -3.0000130157
30.2751925033 -4.2310742807 -3.0000130157
28.9030786112 -10.9929823848 -3.0000129580
28.9252825637 -10.9876406671 -3.0000129580
28.9474545243 -10.9821676769 -3.0000129580
28.9585282650 -10.9793820143 -3.0000129580
30.4590336089 -4.2526169329 -3.0000129580
30.4501935076 -4.2453891906 -3.0000129580
28.9978389017 -10.9942090130 -3.0000129436
29.0089480424 -10.9912742516 -3.0000129436
29.0200484529 -10.9883066402 -3.0000129436
29.0311400362 -10.9853062047 -3.0000129436
29.0263262071 -11.0116502707 -3.0000129292
29.0931532207 -10.9930411308 -3.0000129292
29.1556168517 -10.9997565075 -3.0000129148
29.1667417126 -10.9963549861 -3.0000129148
29.2000552402 -10.9859531756 -3.0000129148
29.2185142616 -11.0054407246 -3.0000129004
29.2407864012 -10.9982325657 -3.0000129004
29.2519063813 -10.9945791040 -3.0000129004
29.2594855723 -11.0175332136 -3.0000128860
29.2706625654 -11.0138243519 -3.0000128860
29.3041270316 -11.0024996143 -3.0000128860
29.3152593572 -10.9986587609 -3.0000128860
30.6609573425 -4.2663144937 -3.0000128860
29.2670647633 -11.0404873231 -3.0000128716
30.7373189691 -4.2702269744 -3.0000128572
29.0408156503 -11.1578715558 -3.0000128428
28.9533396552 -11.2046542660 -3.0000128283
29.3433783521 -11.1168137249 -3.0000128139
29.2877399210 -11.2624593734 -3.0000127419
29.3428566734 -11.2700284188 -3.0000127275
29.5053722450 -11.2384987912 -3.0000127131
29.5342479294 -11.2793028413 -3.0000126843
30.2622746107 -11.0366294153 -3.0000126266
30.0904704391 -11.2153155759 -3.0000125834
30.4722411825 -11.0488170777 -3.0000125546
30.6500050104 -11.0462168247 -3.0000124970
30.6863764928 -11.0503274911 -3.0000124825
30.8423105201 -3.4779799180 -3.0000124537
29.8649218491 -11.8248612719 -3.0000123096
30.2604598762 -7.6080528705 -3.0000155288
30.2605283297 -7.5745572559 -3.0000155288
30.2603315964 -7.5544606908 -3.0000155288
30.2594031453 -7.5142767551 -3.0000155288
30.2589351861 -7.5008865533 -3.0000155288
30.2586715006 -7.4941925492 -3.0000155288
30.2843499784 -7.6285911357 -3.0000155316
30.2833373479 -7.5067370275 -3.0000155316
30.3085653044 -7.5469315571 -3.0000155345
30.3330307624 -7.6018238750 -3.0000155374
30.3330731500 -7.5810828178 -3.0000155374
30.3329991486 -7.5672555903 -3.0000155374
30.3262714639 -7.4084130442 -3.0000155374
30.3257339304 -7.4015202518 -3.0000155374
30.3508965629 -7.4135349284 -3.0000155403
30.3814255211 -7.5880238295 -3.0000155432
30.3811845056 -7.5527412771 -3.0000155432
30.3735548827 -7.9783456633 -3.0000155460
30.3978079967 -7.7802912311 -3.0000155460
30.4040321824 -7.6735576149 -3.0000155460
30.4055644206 -7.5737810428 -3.0000155460
30.4297371024 -7.5736516739 -3.0000155489
30.4539445935 -7.5880647709 -3.0000155518
30.4142832422 -7.1468983964 -3.0000155518
30.3986951244 -7.0684517803 -3.0000155518
30.3543726610 -8.3606316064 -3.0000155547
30.4675595276 -7.8153795390 -3.0000155547
30.4688693505 -7.8007525443 -3.0000155547
30.4706717693 -7.7787981623 -3.0000155547
30.4312306277 -7.1065018855 -3.0000155547
30.3403309543 -8.4730347480 -3.0000155576
30.4582462102 -8.2675054562 -3.0000155633
30.4754975991 -8.2017160292 -3.0000155633
30.4444457893 -6.8577745833 -3.0000155633
30.5194174938 -8.1183100302 -3.0000155662
30.5787354179 -7.9107170451 -3.0000155691
30.5050028491 -6.5900938909 -3.0000155806
30.4169260069 -8.9862629240 -3.0000155922
30.4508804813 -6.2475429025 -3.0000155922
29.4301589322 -10.9349223565 -3.0000156930
29.4794568877 -10.9398235940 -3.0000156959
29.4992692643 -10.9309878634 -3.0000156959
29.5389952016 -10.9394739017 -3.0000156988
29.5789893594 -10.9475165085 -3.0000157017
29.5889244037 -10.9428188266 -3.0000157017
29.6192469807 -10.9551115984 -3.0000157045
29.6292043165 -10.9502947940 -3.0000157045
29.6896540995 -10.9473566212 -3.0000157074
29.7194115487 -10.9321934286 -3.0000157074
29.7503718963 -10.9433614250 -3.0000157103
29.7602938993 -10.9381567808 -3.0000157103
29.7702004626 -10.9329228083 -3.0000157103
29.7914784910 -10.9489825855 -3.0000157132
29.8113395945 -10.9383006700 -3.0000157132
29.8626341152 -10.9377028383 -3.0000157161
29.8943156143 -10.9476477477 -3.0000157189
29.9042496672 -10.9420172732 -3.0000157189
29.9659277665 -10.9342587596 -3.0000157218
29.7794757797 -4.1089579745 -3.0000157247
30.0403580106 -10.9460549277 -3.0000157276
29.8317856914 -4.1089278814 -3.0000157276
30.0629145945 -10.9606048609 -3.0000157305
30.1125901962 -10.9296643027 -3.0000157305
29.8843444534 -4.1096517689 -3.0000157305
29.8534134412 -4.0930300679 -3.0000157305
29.9371415114 -4.1111355029 -3.0000157334
29.9268517372 -4.1054082543 -3.0000157334
29.9165450658 -4.0997114698 -3.0000157334
30.0004321086 -4.1192993141 -3.0000157362
29.9798828551 -4.1075006897 -3.0000157362
30.0331331317 -4.1103636229 -3.0000157391
30.2745873350 -10.9389980155 -3.0000157420
30.0660096243 -4.1016942324 -3.0000157420
30.1402476884 -4.1184226712 -3.0000157449
30.1196908015 -4.1057968662 -3.0000157449
30.0867166133 -11.1155889363 -3.0000157478
30.1632708218 -4.1042581866 -3.0000157478
30.4251430831 -10.9217063809 -3.0000157506
30.2070444075 -4.1032204753 -3.0000157506
30.5032430278 -10.9240656614 -3.0000157564
30.7707077045 -4.1202646926 -3.0000157881
30.3096525480 -11.7401706995 -3.0000158256
30.1749729383 -3.3066480199 -3.0000158313
30.2706946204 -7.5347781839 -3.0000157987
30.2606385249 -7.4821377706 -3.0000157987
30.2522805129 -7.4428216880 -3.0000157987
30.3033919385 -7.5839515151 -3.0000158045
30.2932887538 -7.5238603688 -3.0000158045
30.2895659554 -7.5038923886 -3.0000158045
30.2869857057 -7.4905990959 -3.0000158045
30.2618898538 -7.3782786692 -3.0000158045
30.3182859581 -7.5262690300 -3.0000158102
30.3170717327 -7.5195354186 -3.0000158102
30.3133096163 -7.4993565480 -3.0000158102
30.3542466957 -7.5970827418 -3.0000158160
30.3396076743 -7.5084101429 -3.0000158160
30.3567735177 -7.4697191116 -3.0000158218
30.4127842596 -7.6741247958 -3.0000158275
30.3896729647 -7.5135052991 -3.0000158275
30.4509002129 -7.9632370249 -3.0000158333
30.4043337933 -7.3500910539 -3.0000158391
30.3822328181 -7.1834205600 -3.0000158448
30.5137117499 -8.1547543205 -3.0000158506
30.5263924948 -8.2600753496 -3.0000158564
30.5191287791 -8.4477035894 -3.0000158621
30.5718973784 -7.9497644747 -3.0000158621
30.2488930568 -6.5538965024 -3.0000158794
30.6920373984 -7.9976015825 -3.0000158909
30.6927241080 -7.9113314847 -3.0000158909
30.0383134407 -10.8341007345 -3.0000160984
30.0468856048 -10.8281808592 -3.0000160984
30.1746724105 -10.8259613922 -3.0000161157
30.5071251544 -10.8401453796 -3.0000161676
29.2668953030 -4.0442661225 -3.0000162310
29.2323334757 -4.0335438299 -3.0000162310
29.3318876654 -4.0398713102 -3.0000162367
29.4087980020 -4.0405811639 -3.0000162425
29.3741978848 -4.0285997096 -3.0000162425
29.3626410517 -4.0246741852 -3.0000162425
29.3510726568 -4.0207828652 -3.0000162425
29.4745718350 -4.0385451251 -3.0000162483
29.4630439831 -4.0343226330 -3.0000162483
29.4515036907 -4.0301342608 -3.0000162483
29.4283861888 -4.0218600225 -3.0000162483
29.5407032080 -4.0376080756 -3.0000162540
29.5176283625 -4.0288059722 -3.0000162540
29.4945018446 -4.0201405414 -3.0000162540
29.5956432331 -4.0331653689 -3.0000162598
29.5609699472 -4.0195260600 -3.0000162598
29.3032199576 -3.9289886245 -3.0000162598
29.6161888971 -4.0153509944 -3.0000162655
29.7180041589 -4.0315028508 -3.0000162713
29.6833113006 -4.0167777228 -3.0000162713
29.8068627562 -4.0178005270 -3.0000162828
29.7952720842 -4.0125951489 -3.0000162828
29.9536530324 -4.0065318086 -3.0000163001
29.5214107859 -3.7983886545 -3.0000163059
29.7795947154 -3.8212615526 -3.0000163232
30.8318386096 -11.6021857976 -3.0000163578
30.8573700247 -11.6131120947 -3.0000163635
30.5142179124 -3.9862156011 -3.0000163693
29.8048674259 -3.3104510548 -3.0000164384
29.9365205145 -3.3366851177 -3.0000164442
30.0370224079 -3.3266814133 -3.0000164557
29.5641553651 -2.9469478277 -3.0000165018
30.2703087887 -7.4809582385 -3.0000152588
30.2608606559 -7.4558825039 -3.0000152588
30.3111744779 -7.5235860060 -3.0000152588
30.2514070169 -6.9514690856 -3.0000152588
28.8194804671 -4.0247809621 -3.0000152588
28.7692388059 -4.0171140556 -3.0000152588
28.8988751214 -4.0135912018 -3.0000152588
28.8862898174 -4.0113839346 -3.0000152588
28.7347927165 -3.9878065885 -3.0000152588
28.9536417986 -3.9990403551 -3.0000152588
28.8650995376 -3.9832412932 -3.0000152588
29.2095760438 -3.9807396686 -3.0000152588
29.9599009161 -3.9766576864 -3.0000152588
28.7948440165 -2.9718331082 -3.0000152588
30.2762847792 -7.4575235501 -3.0000152588
30.3324503897 -7.4096726693 -3.0000152588
30.5392610243 -7.6677614499 -3.0000152588
30.3321299289 -7.2700352023 -3.0000152588
30.5928237747 -7.7392100877 -3.0000152588
30.3868570311 -7.3118214110 -3.0000152588
30.5314381629 -7.5296834231 -3.0000152588
30.2705521640 -6.9418747983 -3.0000152588
28.1619457854 -4.0183652912 -3.0000152588
28.1214952904 -4.0198388124 -3.0000152588
28.1604002131 -3.9700439466 -3.0000152588
29.1042252735 -3.9143579410 -3.0000152588
29.1262962989 -3.8691029154 -3.0000152588
29.3028376764 -3.8538118714 -3.0000152588
29.2937742451 -3.8272204732 -3.0000152588
28.4402985455 -3.7035865446 -3.0000152588
29.5715164814 -3.8434013271 -3.0000152588
29.8087344566 -3.8624273663 -3.0000152588
30.2167939516 -7.3542069497 -3.0000152588
30.1944171675 -7.3292822548 -3.0000152588
30.2615437009 -7.3688579296 -3.0000152588
30.2843653603 -7.3583777704 -3.0000152588
30.2393393932 -7.3068616476 -3.0000152588
30.3207023111 -7.2527827096 -3.0000152588
30.3949706478 -7.2645559151 -3.0000152588
29.6946507123 -6.5313886100 -3.0000152588
27.6640773122 -3.9814355489 -3.0000152588
27.5490023548 -4.0030659152 -3.0000152588
27.4059312772 -4.0339230803 -3.0000152588
28.1559405919 -3.8959626236 -3.0000152588
28.4642126407 -3.8587233585 -3.0000152588
28.2279048037 -3.8669814728 -3.0000152588
28.5530457312 -3.8343387087 -3.0000152588
29.0347396024 -3.7877424361 -3.0000152588
28.7944344905 -3.7690865328 -3.0000152588
29.0672908107 -3.7668388914 -3.0000152588
28.3248300833 -3.6929025487 -3.0000152588
28.8762493706 -3.6772297120 -3.0000152588
27.7325773953 -3.6518277768 -3.0000152588
33.7878299211 -9.9642858321 -3.0000152588
33.8238955026 -9.7766452224 -3.0000152588
30.2194119557 -7.3440826479 -3.0000152588
30.1565071817 -7.2940334392 -3.0000152588
30.3286081961 -7.3420677980 -3.0000152588
30.3025723152 -7.3193279604 -3.0000152588
30.6655396350 -7.5927755191 -3.0000152588
30.7197458166 -7.6232789143 -3.0000152588
30.2191893326 -7.1295138680 -3.0000152588
30.5198291751 -7.3564039332 -3.0000152588
30.9837748465 -7.8017519970 -3.0000152588
29.7169015738 -6.7149275531 -3.0000152588
33.5783444037 -10.0725717892 -3.0000152588
33.6279896905 -9.7870255811 -3.0000152588
33.6689542289 -9.3833941454 -3.0000152588
33.6996269963 -9.2393383641 -3.0000152588
33.7501391449 -9.0643209509 -3.0000152588
33.7702154674 -8.8868926073 -3.0000152588
33.7758106993 -9.5682787763 -3.0000152588
33.7827771756 -8.6932007529 -3.0000152588
33.6071195443 -10.5499713908 -3.0000152588
33.8122350084 -8.7657054517 -3.0000152588
33.7220973939 -10.4107988205 -3.0000152588
28.0228452184 -3.7856507496 -3.0000152588
28.1457568158 -3.7452565268 -3.0000152588
27.9564333356 -3.7710701749 -3.0000152588
27.8935438567 -3.7811661238 -3.0000152588
27.8307782404 -3.7920055034 -3.0000152588
28.0477148313 -3.7333718285 -3.0000152588
27.4668565821 -3.8452255142 -3.0000152588
27.3276780209 -3.8819931817 -3.0000152588
27.9808240230 -3.7184792300 -3.0000152588
27.6331195525 -3.7817091622 -3.0000152588
27.4851902289 -3.7162822923 -3.0000152588
27.5274927606 -3.6814674785 -3.0000152588
27.0621061416 -3.7344284141 -3.0000152588
30.1656214260 -7.2952853522 -3.0000152588
30.1538664541 -7.2888559567 -3.0000152588
30.1302434250 -7.2762063649 -3.0000152588
30.1124288320 -7.2669030910 -3.0000152588
30.2126916407 -7.2940259216 -3.0000152588
30.1832096274 -7.2773870640 -3.0000152588
30.1772838730 -7.2741117221 -3.0000152588
30.1355359390 -7.2516771406 -3.0000152588
30.1175034545 -7.2423278645 -3.0000152588
30.0933324289 -7.2301117939 -3.0000152588
30.2424835526 -7.2833622377 -3.0000152588
30.2427550584 -7.2555506985 -3.0000152588
30.1640978749 -7.2120745182 -3.0000152588
30.2427379905 -7.2276668279 -3.0000152588
30.2061477370 -7.2072298127 -3.0000152588
30.1938710898 -7.2005621910 -3.0000152588
30.3987344289 -7.2957128792 -3.0000152588
30.1866675082 -7.1693199538 -3.0000152588
30.2790501504 -7.1927678677 -3.0000152588
30.6440390642 -7.4200140346 -3.0000152588
30.5996113577 -7.3833594411 -3.0000152588
30.2535598158 -7.1505528369 -3.0000152588
30.0007083590 -7.0288070964 -3.0000152588
30.2843135612 -7.1400789986 -3.0000152588
29.8469925575 -6.9204784577 -3.0000152588
30.9979548850 -7.6362745053 -3.0000152588
29.7546365354 -6.8419092018 -3.0000152588
31.0502633648 -7.6611763853 -3.0000152588
29.9220775072 -6.7671389589 -3.0000152588
31.0666140239 -7.4944515873 -3.0000152588
30.8065384804 -7.1778024679 -3.0000152588
33.5074416039 -9.7953406263 -3.0000152588
33.5104193112 -9.7690961452 -3.0000152588
33.5118499249 -9.7559674130 -3.0000152588
33.5171838255 -9.7034118880 -3.0000152588
33.5196174810 -9.6771113776 -3.0000152588
33.5294495669 -9.5454181835 -3.0000152588
33.5334774854 -9.4662829503 -3.0000152588
33.5340122220 -9.4530873328 -3.0000152588
33.5344461893 -9.7717502755 -3.0000152588
33.5358845493 -9.7585504559 -3.0000152588
33.5510252234 -9.5866129504 -3.0000152588
33.5522962600 -9.8274435145 -3.0000152588
33.5569877098 -9.7876709771 -3.0000152588
33.5777094075 -9.5483041693 -3.0000152588
33.5850000607 -9.3615672243 -3.0000152588
33.5854100615 -9.3348714730 -3.0000152588
33.5856621141 -9.3081737633 -3.0000152588
33.5834503840 -9.1346554523 -3.0000152588
33.5794738686 -9.8037293313 -3.0000152588
33.5952607106 -9.6434617057 -3.0000152588
33.6092602083 -9.2009666863 -3.0000152588
33.6029092479 -9.0266203652 -3.0000152588
33.6262746180 -9.0118056098 -3.0000152588
33.6578121256 -9.2136983152 -3.0000152588
33.6325749042 -8.7941201316 -3.0000152588
33.6515061334 -9.8121180363 -3.0000152588
33.6560576715 -9.7714656704 -3.0000152588
33.6817685867 -9.1997206546 -3.0000152588
33.6633192507 -8.8594105061 -3.0000152588
33.6521069331 -8.7509068111 -3.0000152588
33.6420144015 -8.6697197776 -3.0000152588
33.7065932961 -9.2952504339 -3.0000152588
33.6745305479 -8.7345233249 -3.0000152588
33.7224889292 -9.5569621269 -3.0000152588
33.7307817752 -9.2677786341 -3.0000152588
33.7202527986 -9.8480112067 -3.0000152588
33.6762764863 -8.3003481915 -3.0000152588
33.6940208706 -8.2679647318 -3.0000152588
33.6879588437 -8.2406431167 -3.0000152588
33.8398131265 -8.9426382969 -3.0000152588
33.7351259048 -8.2300313555 -3.0000152588
33.8680955844 -9.5514366183 -3.0000152588
33.8740580574 -9.4094912841 -3.0000152588
33.7110450841 -8.0316295481 -3.0000152588
33.6842245777 -7.9358631527 -3.0000152588
33.6802313962 -7.9222282943 -3.0000152588
33.7074332176 -7.9291033955 -3.0000152588
33.9155282916 -9.5685060703 -3.0000152588
33.6374386895 -7.6358070835 -3.0000152588
33.6276375960 -7.6088312915 -3.0000152588
33.6176770762 -7.5819139580 -3.0000152588
33.5878812029 -7.4391148667 -3.0000152588
27.1351060129 -3.7418427615 -3.0000152588
26.9875771784 -3.7440096920 -3.0000152588
27.2120423118 -3.4104399503 -3.0000152588
30.0894045504 -7.2569864979 -3.0000152588
30.1609451784 -7.2556548702 -3.0000152588
30.1289556267 -7.2445774484 -3.0000152588
30.0903571340 -7.2319108895 -3.0000152588
30.1509834727 -7.2010007816 -3.0000152588
30.0454920348 -7.1426064083 -3.0000152588
30.2748010871 -7.1691415493 -3.0000152588
30.2348407722 -7.1538983811 -3.0000152588
30.1609030333 -7.1278041273 -3.0000152588
29.9329304557 -7.0389747191 -3.0000152588
30.0440763765 -7.0418095119 -3.0000152588
31.0251370367 -7.5081650943 -3.0000152588
30.9623067481 -7.4561715672 -3.0000152588
30.5066627629 -7.1660071890 -3.0000152588
29.3672410369 -6.8583138050 -3.0000152588
26.8788475277 -6.3914525254 -3.0000152588
33.4921204566 -9.1968607416 -3.0000152588
33.4914635727 -9.1847447116 -3.0000152588
33.4907708502 -9.1726306777 -3.0000152588
33.4892779142 -9.1484090226 -3.0000152588
33.4884777138 -9.1363016133 -3.0000152588
33.4876417009 -9.1241966242 -3.0000152588
33.5149023850 -9.1712149403 -3.0000152588
33.5141695364 -9.1590316294 -3.0000152588
33.5090159098 -9.0859821395 -3.0000152588
33.5080309530 -9.0738166148 -3.0000152588
33.5059530978 -9.0494945725 -3.0000152588
33.5300322007 -9.0473657031 -3.0000152588
33.5277974679 -9.0229139571 -3.0000152588
33.5174131385 -8.9252520181 -3.0000152588
33.5129236061 -8.8886962598 -3.0000152588
33.5369030575 -8.8856431968 -3.0000152588
33.5320612515 -8.8489160361 -3.0000152588
33.5286523883 -8.8244557587 -3.0000152588
33.5865512599 -9.1545702794 -3.0000152588
33.5471683944 -8.7841845872 -3.0000152588
33.5289616376 -8.6739019251 -3.0000152588
33.5447242886 -8.5052171131 -3.0000152588
33.6950406971 -8.9942958305 -3.0000152588
33.5733663557 -8.2229193638 -3.0000152588
33.6237529122 -8.3160315915 -3.0000152588
33.5966145639 -8.2162969700 -3.0000152588
33.5902087581 -8.1100617896 -3.0000152588
33.7679691128 -8.7903818151 -3.0000152588
33.7989988043 -8.8390322168 -3.0000152588
33.7811088436 -8.5751563835 -3.0000152588
33.9010069411 -9.1485631417 -3.0000152588
33.9255083612 -8.8769696627 -3.0000152588
33.5671004581 -7.5674531825 -3.0000152588
33.5304834409 -7.3749672384 -3.0000152588
30.0922244342 -7.2520250185 -3.0000152588
30.0591046277 -7.2470210900 -3.0000152588
30.0524719878 -7.2460791194 -3.0000152588
30.1560616786 -7.2384992306 -3.0000152588
30.0222777241 -7.2176787922 -3.0000152588
30.0155584455 -7.2168458906 -3.0000152588
30.0456422367 -7.1963393517 -3.0000152588
30.0762498138 -7.1762300136 -3.0000152588
29.9595792549 -7.1621181910 -3.0000152588
30.1280579238 -7.1599029158 -3.0000152588
30.1876176171 -7.1460616671 -3.0000152588
30.1250963323 -7.1349057724 -3.0000152588
30.0343142705 -7.1217387793 -3.0000152588
30.5106795705 -7.1554812453 -3.0000152588
30.1941628617 -7.0734842003 -3.0000152588
30.0937754165 -7.0566422412 -3.0000152588
29.6878488918 -7.0311633134 -3.0000152588
29.7461007625 -7.0065069806 -3.0000152588
29.6783457218 -6.9346542188 -3.0000152588
31.3510588078 -7.3848986660 -3.0000152588
31.3260529223 -7.3659519094 -3.0000152588
30.6969783969 -7.0170302758 -3.0000152588
31.5276803918 -6.8274707976 -3.0000152588
26.7377839419 -7.2159254414 -3.0000152588
26.7321024710 -7.1835064939 -3.0000152588
33.4746445840 -8.6245832943 -3.0000152588
33.4956075768 -8.6080164802 -3.0000152588
33.4929859712 -8.5969027574 -3.0000152588
33.4903315007 -8.5857968384 -3.0000152588
33.5111298179 -8.5689751421 -3.0000152588
33.4912775279 -8.4910333312 -3.0000152588
33.4883098840 -8.4799329293 -3.0000152588
33.4853094160 -8.4688413549 -3.0000152588
33.4930441605 -8.4068281477 -3.0000152588
33.4997593542 -8.3443644970 -3.0000152588
33.4963578002 -8.3332396461 -3.0000152588
33.4929233518 -8.3221249063 -3.0000152588
33.5054433870 -8.2814670705 -3.0000152588
33.5025020259 -8.1958543091 -3.0000152588
33.5176032931 -8.1656156334 -3.0000152588
33.5097094401 -8.1432736004 -3.0000152588
33.5057129793 -8.1321201952 -3.0000152588
33.5016835423 -8.1209786611 -3.0000152588
33.6873133376 -8.4763771647 -3.0000152588
33.6522877551 -8.3484041120 -3.0000152588
26.7833351912 -6.6429205504 -3.0000152588
33.5300086902 -7.8640833312 -3.0000152588
33.5251862453 -7.8528710987 -3.0000152588
33.5226255115 -7.7871156032 -3.0000152588
33.5175754144 -7.7759255483 -3.0000152588
33.7113533400 -7.9238307772 -3.0000152588
33.5225066075 -7.5102863561 -3.0000152588
33.9007148034 -8.1683979128 -3.0000152588
33.8423244529 -7.6141312661 -3.0000152588
30.0611505483 -7.2395868856 -3.0000152588
29.9807982394 -7.2419193404 -3.0000152588
30.0111764814 -7.1439581657 -3.0000152588
30.1091846285 -7.1186841286 -3.0000152588
30.3654046532 -7.1105798344 -3.0000152588
30.5672466975 -7.1181491870 -3.0000152588
33.4306581798 -8.0599383860 -3.0000152588
33.4398166818 -8.0205388482 -3.0000152588
33.4333281733 -7.8912431662 -3.0000152588
33.4405656032 -7.8509197105 -3.0000152588
26.6142415831 -7.7102564829 -3.0000152588
26.6035045678 -7.6785223591 -3.0000152588
29.9755771972 -7.2407011443 -3.0000152588
30.0105470206 -7.2091685781 -3.0000152588
30.0038947075 -7.2104291976 -3.0000152588
29.9323517387 -7.2005163994 -3.0000152588
30.2443797875 -7.0805807542 -3.0000152588
29.8974984126 -7.1092492004 -3.0000152588
30.2313870357 -7.0088763797 -3.0000152588
29.9387919021 -7.0261616594 -3.0000152588
30.7632287311 -6.9496360205 -3.0000152588
29.3347692529 -7.1789546238 -3.0000152588
31.3917649911 -6.6776164781 -3.0000152588
33.3456955417 -7.5659533517 -3.0000152588
33.3489361282 -7.5268311194 -3.0000152588
26.5479104617 -8.2215999217 -3.0000152588
26.5335459553 -8.2676610419 -3.0000152588
26.5437079397 -8.1565948424 -3.0000152588
26.5360730394 -8.1796301572 -3.0000152588
26.5285745573 -8.2027102395 -3.0000152588
26.5365553893 -8.1027180573 -3.0000152588
26.5325615574 -8.1142514626 -3.0000152588
26.5331921387 -7.9708222227 -3.0000152588
26.5201427148 -8.0054926705 -3.0000152588
26.5331675608 -7.9043512844 -3.0000152588
26.4251458281 -8.1300811524 -3.0000152588
26.5170489261 -7.6367286552 -3.0000152588
26.6246612479 -7.2717606988 -3.0000152588
34.1511352403 -6.7337117169 -3.0000152588
26.4652361276 -6.6679613284 -3.0000152588
25.8628276828 -7.3815260744 -3.0000152588
25.8445749842 -7.4221688363 -3.0000152588
29.9621477458 -7.2367408675 -3.0000152588
29.9598901307 -7.2117489343 -3.0000152588
29.8968935796 -7.2365551149 -3.0000152588
29.9641868511 -7.1843412814 -3.0000152588
29.9321910075 -7.1964508709 -3.0000152588
29.8877051638 -7.2141964857 -3.0000152588
29.8785167479 -7.1918378566 -3.0000152588
29.8863110608 -7.1365459570 -3.0000152588
30.1894121293 -7.0141149025 -3.0000152588
30.4523593572 -6.9401315226 -3.0000152588
29.8751598188 -7.0889665739 -3.0000152588
30.7067649014 -6.7512053362 -3.0000152588
30.5606699148 -6.7586924250 -3.0000152588
31.0178674018 -6.6412325183 -3.0000152588
31.1331721182 -6.6299919846 -3.0000152588
33.1975632418 -7.0447687850 -3.0000152588
33.1766113759 -6.8521764580 -3.0000152588
26.5357087292 -8.7717839537 -3.0000152588
26.5275667962 -8.8344284195 -3.0000152588
26.5228152294 -8.6930625226 -3.0000152588
26.5208799154 -8.7056201577 -3.0000152588
26.5100488823 -8.7810811901 -3.0000152588
26.5158424156 -8.5885372930 -3.0000152588
26.4989297291 -8.6893452438 -3.0000152588
26.4795792067 -8.8285519936 -3.0000152588
26.4943460244 -8.5716134625 -3.0000152588
26.4903774702 -8.4658167584 -3.0000152588
26.4615648157 -8.6181527986 -3.0000152588
26.4453681275 -8.7202368423 -3.0000152588
26.4839101564 -8.2777405472 -3.0000152588
26.3038180840 -8.6860003714 -3.0000152588
26.3636595974 -8.1640699584 -3.0000152588
26.2465180462 -8.7456401468 -3.0000152588
26.4874310643 -7.4544268114 -3.0000152588
26.4898555277 -7.3330417105 -3.0000152588
26.2718846669 -7.8044560085 -3.0000152588
29.8841741124 -7.2957755787 -3.0000152588
29.9285288581 -7.2404882512 -3.0000152588
29.8940696844 -7.2611806667 -3.0000152588
29.8769791787 -7.2717554125 -3.0000152588
29.9514615452 -7.1993630383 -3.0000152588
29.8469915275 -7.2620963189 -3.0000152588
29.8915500950 -7.1501050844 -3.0000152588
29.8304488871 -7.0738215858 -3.0000152588
29.7930471323 -7.0962809941 -3.0000152588
30.4112273701 -6.8010344654 -3.0000152588
30.4692561309 -6.7607047070 -3.0000152588
29.1589140451 -7.5417340681 -3.0000152588
30.8804029915 -6.6208741841 -3.0000152588
30.2396012831 -6.7531392665 -3.0000152588
30.6341226456 -6.6271576411 -3.0000152588
29.1283791207 -7.3588885460 -3.0000152588
26.5175764452 -9.3110726398 -3.0000152588
26.5204036378 -9.3919771092 -3.0000152588
26.5216650839 -9.4189325414 -3.0000152588
26.5223556056 -9.4324073408 -3.0000152588
26.4918559474 -9.1896399939 -3.0000152588
26.4927850804 -9.2845817099 -3.0000152588
26.4956798598 -9.3794838331 -3.0000152588
26.4711915142 -9.0124103935 -3.0000152588
26.4298792606 -8.6231447824 -3.0000152588
26.4093515854 -8.5925800613 -3.0000152588
26.3928359833 -8.5340274497 -3.0000152588
26.3745535484 -8.2160440144 -3.0000152588
26.3567724223 -8.1831860117 -3.0000152588
26.2840534591 -8.3003567302 -3.0000152588
26.2041313893 -8.6831063611 -3.0000152588
26.3315009291 -7.8800738461 -3.0000152588
26.2033811703 -8.4926977753 -3.0000152588
26.1659476044 -8.5908237366 -3.0000152588
34.0971401876 -5.1818417079 -3.0000152588
29.8492149954 -7.2876479613 -3.0000152588
29.8293016499 -7.3055788941 -3.0000152588
29.8843867052 -7.2253359599 -3.0000152588
29.8130203047 -7.2877112396 -3.0000152588
29.7907057532 -7.2426929708 -3.0000152588
29.7804576141 -7.2519759305 -3.0000152588
29.8431640345 -7.1652776227 -3.0000152588
29.9590315482 -7.0150938277 -3.0000152588
29.6836616283 -7.2098828095 -3.0000152588
30.3468224450 -6.7375749301 -3.0000152588
29.4493759159 -7.4264554407 -3.0000152588
29.4213941768 -7.4225925532 -3.0000152588
29.0571285161 -7.7051674684 -3.0000152588
26.3839227346 -9.0943299667 -3.0000152588
26.3357243736 -8.8578504947 -3.0000152588
26.3344741737 -8.9320950095 -3.0000152588
26.2949437032 -8.6769171056 -3.0000152588
26.2295435335 -9.3867864274 -3.0000152588
26.2647148734 -9.7041746479 -3.0000152588
26.2353011268 -8.2910117908 -3.0000152588
26.2238881343 -8.3819785859 -3.0000152588
26.1346560297 -9.6440787491 -3.0000152588
32.2061355293 -3.7132909723 -3.0000152588
32.1125358536 -3.6990073718 -3.0000152588
32.7061849449 -3.7939637811 -3.0000152588
32.2256393503 -3.6919814292 -3.0000152588
32.8175389906 -3.7489297119 -3.0000152588
29.8459637880 -7.3165144387 -3.0000152588
29.8440677671 -7.2805820664 -3.0000152588
29.8355716509 -7.2909422063 -3.0000152588
29.8083101668 -7.2861904229 -3.0000152588
29.7748382619 -7.3287746020 -3.0000152588
29.7666284806 -7.3395434835 -3.0000152588
29.8287418768 -7.2235875836 -3.0000152588
29.8067755897 -7.2498146382 -3.0000152588
29.7156419807 -7.3269334767 -3.0000152588
29.8486351606 -7.0923564854 -3.0000152588
29.7110760219 -7.2531852480 -3.0000152588
29.6853070008 -7.2867802337 -3.0000152588
30.0456775743 -6.8102257447 -3.0000152588
29.9569655341 -6.8854766332 -3.0000152588
30.3988745083 -6.4896079132 -3.0000152588
29.2713972195 -7.6511010615 -3.0000152588
29.2756810770 -7.5858659977 -3.0000152588
32.1835030329 -3.8826236226 -3.0000152588
32.7845151862 -3.9699173248 -3.0000152588
32.7563806028 -3.9629387324 -3.0000152588
32.6292843870 -3.9335998320 -3.0000152588
32.2726597375 -3.8699653933 -3.0000152588
32.2008247569 -3.8604127899 -3.0000152588
32.0711961298 -3.8458994098 -3.0000152588
31.9701338014 -3.8370000671 -3.0000152588
32.5345511742 -3.8894010919 -3.0000152588
32.2327266701 -3.8401395467 -3.0000152588
32.1315104488 -3.8278968171 -3.0000152588
32.0590686972 -3.8204364678 -3.0000152588
31.9574817377 -3.8117936924 -3.0000152588
31.7684363099 -3.8013304466 -3.0000152588
32.6966723738 -3.8990982682 -3.0000152588
31.4760659868 -3.7511095562 -3.0000152588
31.4613623082 -3.7514710400 -3.0000152588
31.5937344425 -3.7256107659 -3.0000152588
31.3425830078 -3.7317852181 -3.0000152588
31.2061468656 -3.6919590452 -3.0000152588
31.8036311601 -3.6575564695 -3.0000152588
31.9400254433 -3.6408977109 -3.0000152588
32.7711254060 -3.6433893348 -3.0000152588
26.3263902180 -9.9554094651 -3.0000152588
26.1953671711 -9.3439605696 -3.0000152588
26.2344359495 -9.8770687114 -3.0000152588
26.2788121216 -10.0664463324 -3.0000152588
26.2436026229 -10.0249751143 -3.0000152588
26.3348213467 -10.3544326823 -3.0000152588
26.1963472375 -10.6277820123 -3.0000152588
29.7940296277 -7.2873206999 -3.0000152588
29.7741154612 -7.3227284861 -3.0000152588
29.7708576686 -7.3286639067 -3.0000152588
29.7580025042 -7.3525011801 -3.0000152588
29.7730663087 -7.2752843160 -3.0000152588
30.2322996293 -6.4547193180 -3.0000152588
29.2573450388 -7.6894440487 -3.0000152588
32.1749559585 -4.0044693233 -3.0000152588
32.1618716505 -4.0033171423 -3.0000152588
32.2690967774 -3.9895907223 -3.0000152588
31.6479992739 -3.9161532023 -3.0000152588
31.8219797356 -3.8661107168 -3.0000152588
31.3235184964 -3.8886998046 -3.0000152588
31.2832617725 -3.8929199924 -3.0000152588
31.3886335879 -3.8583752820 -3.0000152588
31.2373638980 -3.8494860565 -3.0000152588
31.1697202872 -3.8579966568 -3.0000152588
31.1426993319 -3.8616808809 -3.0000152588
32.3205071749 -3.7764715874 -3.0000152588
30.8732156441 -3.8334813285 -3.0000152588
32.1431801365 -3.7349872837 -3.0000152588
31.5311119223 -3.7273985015 -3.0000152588
30.9601535866 -3.7680963618 -3.0000152588
31.5837753216 -3.6523366745 -3.0000152588
31.4285391005 -3.6612133298 -3.0000152588
30.5925975200 -3.7979489564 -3.0000152588
30.4222287683 -3.8197803588 -3.0000152588
30.1978486442 -3.8662902327 -3.0000152588
29.7739948504 -7.3597860639 -3.0000152588
29.7653388893 -7.3851461510 -3.0000152588
29.7489301718 -7.4361646982 -3.0000152588
29.7672014644 -7.3072440564 -3.0000152588
29.7141974865 -7.4679582801 -3.0000152588
29.7216744816 -7.3633150276 -3.0000152588
29.6909765329 -7.4612409447 -3.0000152588
29.8021768434 -6.9414251492 -3.0000152588
29.6346791557 -7.3188597780 -3.0000152588
29.6085733710 -7.2483411123 -3.0000152588
29.4818830187 -7.7403720547 -3.0000152588
29.5685200690 -7.2882929030 -3.0000152588
29.8188223448 -6.6405781216 -3.0000152588
29.7115578078 -6.6698956995 -3.0000152588
29.1504708667 -8.5390662409 -3.0000152588
31.6740480208 -4.0333746717 -3.0000152588
31.6726323155 -4.0092431350 -3.0000152588
31.6241982578 -4.0123722198 -3.0000152588
31.5637133140 -4.0170891227 -3.0000152588
31.6590332983 -3.9858444307 -3.0000152588
31.5981521880 -3.9900490115 -3.0000152588
31.5616557164 -3.9930038248 -3.0000152588
31.6207959743 -3.9641460278 -3.0000152588
31.5595981187 -3.9689185269 -3.0000152588
31.4252536913 -3.9826005173 -3.0000152588
31.3765217038 -3.9886585661 -3.0000152588
31.3643501739 -3.9902631437 -3.0000152588
31.5431097185 -3.9218234063 -3.0000152588
31.4291403785 -3.9091344319 -3.0000152588
31.2025237101 -3.9169916721 -3.0000152588
31.4738401614 -3.8556145878 -3.0000152588
31.4180640535 -3.8130788254 -3.0000152588
31.6584752627 -3.7679277686 -3.0000152588
31.5630030223 -3.7018333626 -3.0000152588
31.4979317826 -3.7074893345 -3.0000152588
30.4584627506 -3.9087305580 -3.0000152588
31.6102263939 -3.6256478585 -3.0000152588
30.9146806602 -3.7278297036 -3.0000152588
30.3302521628 -3.9036927622 -3.0000152588
31.5686518179 -3.6044072601 -3.0000152588
30.5268154592 -3.7332475904 -3.0000152588
29.7563893159 -7.3813336774 -3.0000152588
29.7442626142 -7.4607998778 -3.0000152588
29.7436200228 -7.3173408195 -3.0000152588
29.7397566035 -7.3372820696 -3.0000152588
29.7337113142 -7.3705911550 -3.0000152588
29.7250654573 -7.4240610520 -3.0000152588
29.7231018967 -7.4374593260 -3.0000152588
29.7212176391 -7.4508689827 -3.0000152588
29.7194127506 -7.4642895526 -3.0000152588
29.7144749168 -7.5046120420 -3.0000152588
29.7239918206 -7.2925213545 -3.0000152588
29.7160046928 -7.3327896292 -3.0000152588
29.7147430461 -7.3395145168 -3.0000152588
29.7110775430 -7.3597111606 -3.0000152588
29.7087335117 -7.3731933181 -3.0000152588
29.6896946808 -7.5086865696 -3.0000152588
29.6889534842 -7.5154885174 -3.0000152588
29.6762386809 -7.4237483493 -3.0000152588
29.6622640416 -7.3581692077 -3.0000152588
29.6543877932 -7.4064264200 -3.0000152588
29.6484332364 -7.4479120981 -3.0000152588
29.6448729995 -7.4756251071 -3.0000152588
29.6424181530 -7.4964364486 -3.0000152588
29.6821024123 -7.1541576087 -3.0000152588
29.6226361405 -7.4586831878 -3.0000152588
29.6250644854 -7.2938255775 -3.0000152588
29.7304305782 -6.8549758932 -3.0000152588
29.7724453760 -6.6995790030 -3.0000152588
29.5621886194 -7.3702906064 -3.0000152588
29.5599097854 -7.3846534556 -3.0000152588
29.5588022443 -7.3918398733 -3.0000152588
29.5311707912 -7.8121488270 -3.0000152588
29.6938781202 -6.8165434673 -3.0000152588
29.6119432639 -6.9670738488 -3.0000152588
29.4590885098 -7.6938486326 -3.0000152588
29.4344086169 -7.7158574002 -3.0000152588
29.4516736112 -8.0627956130 -3.0000152588
29.4487329139 -8.2090248781 -3.0000152588
29.2207128618 -7.9168123697 -3.0000152588
29.2010389805 -7.9841835655 -3.0000152588
29.2765065357 -6.7555334307 -3.0000152588
29.2562349235 -6.8119072651 -3.0000152588
29.7159238842 -10.7622143427 -3.0000152588
31.1135505788 -4.0279304872 -3.0000152588
31.0914700685 -4.0331734549 -3.0000152588
31.0804415421 -4.0358439044 -3.0000152588
29.6004295239 -10.7643418888 -3.0000152588
31.0193497148 -4.0262864414 -3.0000152588
31.0083011310 -4.0291702661 -3.0000152588
30.9972611264 -4.0320867618 -3.0000152588
30.9752072412 -4.0380176643 -3.0000152588
30.9688604629 -4.0146927058 -3.0000152588
30.9467041657 -4.0207919406 -3.0000152588
30.9245843414 -4.0270221527 -3.0000152588
30.9135383485 -4.0301863073 -3.0000152588
30.8624839758 -4.0200215286 -3.0000152588
30.8293146381 -4.0301633326 -3.0000152588
29.4658817456 -10.7477780290 -3.0000152588
30.9001562102 -3.9837292357 -3.0000152588
30.8332587880 -4.0036439064 -3.0000152588
30.8221440377 -4.0070783207 -3.0000152588
30.8110394956 -4.0105455995 -3.0000152588
30.7999452590 -4.0140457124 -3.0000152588
30.7888614248 -4.0175786287 -3.0000152588
30.7777880902 -4.0211443175 -3.0000152588
30.7667253520 -4.0247427477 -3.0000152588
30.7556733070 -4.0283738877 -3.0000152588
29.4061317766 -10.7283681685 -3.0000152588
30.7703448391 -3.9981457677 -3.0000152588
30.7369849947 -4.0091061162 -3.0000152588
30.7037237309 -4.0203620831 -3.0000152588
30.6625108205 -4.0091205255 -3.0000152588
30.6514130181 -4.0130600193 -3.0000152588
30.6403269181 -4.0170323252 -3.0000152588
30.9944001880 -3.8829376425 -3.0000152588
30.9256990540 -3.9011955301 -3.0000152588
30.5765522913 -4.0147641798 -3.0000152588
30.4701486907 -4.0044041579 -3.0000152588
30.4387518652 -3.9910954777 -3.0000152588
30.4053425111 -4.0049988055 -3.0000152588
30.5993891562 -3.9033112554 -3.0000152588
30.3416923963 -3.9796695474 -3.0000152588
30.1987571592 -3.9915801517 -3.0000152588
30.4043045484 -3.8745983676 -3.0000152588
30.6647230516 -3.7529245608 -3.0000152588
30.5739295073 -3.7584057073 -3.0000152588
30.0549813065 -3.9816063938 -3.0000152588
29.9771063745 -4.0224559703 -3.0000152588
28.9094551159 -10.7223248936 -3.0000152588
30.3443113396 -3.7947147061 -3.0000152588
30.6438095708 -3.6071704201 -3.0000152588
29.3499954968 -3.9537818702 -3.0000152588
28.9413044346 -11.4120669779 -3.0000152588
29.0665688019 -3.9206560447 -3.0000152588
30.3781608791 -3.1610226829 -3.0000152588
30.2799659896 -3.1449900891 -3.0000152588
27.2278958628 -6.5067267641 -3.0000152588
30.1350787618 -3.1751375276 -3.0000152588
30.1079699668 -3.1861843885 -3.0000152588
27.2316806263 -6.4017712893 -3.0000152588
27.1915842870 -6.2821800020 -3.0000152588
29.6919068420 -7.4909527839 -3.0000152588
29.6208657543 -7.5739357498 -3.0000152588
29.5472119673 -7.4614609612 -3.0000152588
29.0909742159 -8.0007531192 -3.0000152588
29.0943871196 -8.2118642555 -3.0000152588
29.0501980064 -8.2328569993 -3.0000152588
28.9082682126 -6.9269962131 -3.0000152588
28.8954577784 -6.9884197471 -3.0000152588
29.1426801691 -8.7180129582 -3.0000152588
29.0790929720 -6.3538801396 -3.0000152588
29.0145879994 -8.5597043248 -3.0000152588
29.0928609373 -5.2327467887 -3.0000152588
29.1068418818 -5.0800653530 -3.0000152588
29.8866776080 -4.0976750905 -3.0000152588
29.8865562283 -10.9002589944 -3.0000152588
29.9067074332 -10.9097287679 -3.0000152588
29.8763325973 -4.0758275269 -3.0000152588
29.8662133386 -4.0806374196 -3.0000152588
29.8660913509 -10.9172959349 -3.0000152588
29.7950054415 -4.0884947911 -3.0000152588
29.7335135678 -10.9053508309 -3.0000152588
29.7123887115 -4.0763760602 -3.0000152588
29.6820851661 -4.0923503250 -3.0000152588
29.6720156348 -4.0977347645 -3.0000152588
29.7021498420 -10.9162565779 -3.0000152588
29.7223989215 -10.9268170817 -3.0000152588
29.6504689521 -4.0818829529 -3.0000152588
29.6302844865 -4.0928688310 -3.0000152588
29.6202167156 -4.0984065040 -3.0000152588
29.6402468471 -10.9105643304 -3.0000152588
29.6503470089 -10.9160427026 -3.0000152588
29.6807441113 -10.9322982162 -3.0000152588
29.6186657472 -4.0716711854 -3.0000152588
29.6085353207 -4.0772433214 -3.0000152588
29.5883241394 -4.0884773742 -3.0000152588
29.5781220557 -10.9037838853 -3.0000152588
29.5562487864 -4.0788073253 -3.0000152588
29.5461397430 -4.0845640707 -3.0000152588
29.5159154083 -4.1020133794 -3.0000152588
29.5239926104 -4.0693981698 -3.0000152588
29.4936345590 -4.0870446191 -3.0000152588
29.4835501570 -4.0929865527 -3.0000152588
29.5036145244 -10.9167878762 -3.0000152588
29.4308420508 -4.0963904243 -3.0000152588
29.1782749017 -4.1449945716 -3.0000152588
29.2682601243 -10.9134606866 -3.0000152588
29.2146837878 -4.0909786985 -3.0000152588
28.7647167417 -4.0916470056 -3.0000152588
29.5594996976 -3.3433209194 -3.0000152588
29.5084218368 -3.2337789904 -3.0000152588
28.7217642417 -3.6090031966 -3.0000152588
29.6737471623 -7.5171325068 -3.0000152588
29.6779960349 -7.5383595167 -3.0000152588
29.6813473569 -7.5542459685 -3.0000152588
29.6510690385 -7.5271182584 -3.0000152588
29.6364607605 -7.5752885772 -3.0000152588
29.6047316262 -7.5419856376 -3.0000152588
29.6204632975 -7.6134147142 -3.0000152588
29.5518733105 -7.5231468375 -3.0000152588
29.4753418338 -7.5068654933 -3.0000152588
29.0180623643 -6.9927258243 -3.0000152588
29.0016239508 -6.6102393634 -3.0000152588
28.9553931765 -6.8831878335 -3.0000152588
29.1319543936 -8.1372856717 -3.0000152588
29.2167587418 -8.4234848526 -3.0000152588
29.1097389222 -8.3230386909 -3.0000152588
29.4760064448 -4.1782220260 -3.0000152588
29.4671688749 -4.1841330306 -3.0000152588
29.4134687330 -4.1621171592 -3.0000152588
29.1064430133 -4.2089307342 -3.0000152588
28.9817479679 -4.2174477977 -3.0000152588
30.2618180111 -10.9618953055 -3.0000152588
30.2730443354 -10.9654520559 -3.0000152588
30.1757248843 -10.9589468990 -3.0000152588
30.2319260547 -10.9776717666 -3.0000152588
30.2431991794 -10.9813168738 -3.0000152588
30.2544830376 -10.9849286171 -3.0000152588
30.1228867256 -10.9661522662 -3.0000152588
30.1792002458 -10.9856578425 -3.0000152588
30.0809569353 -10.9767597458 -3.0000152588
30.1035111646 -10.9849097963 -3.0000152588
30.1148062625 -10.9889347463 -3.0000152588
30.0387334495 -10.9869203091 -3.0000152588
30.0500347784 -10.9911368745 -3.0000152588
29.9510299057 -10.9789258593 -3.0000152588
29.9735992244 -10.9878445638 -3.0000152588
29.9849035723 -10.9922538040 -3.0000152588
29.9962209141 -10.9966295845 -3.0000152588
29.7762389230 -10.9840004877 -3.0000152588
29.7875327630 -10.9889935722 -3.0000152588
29.7664318109 -11.0060947366 -3.0000152588
30.0112517092 -11.1314316303 -3.0000152588
29.6440976825 -11.0030416808 -3.0000152588
29.5542538622 -10.9860230511 -3.0000152588
29.5320644839 -11.0019132316 -3.0000152588
29.3187593306 -10.9143136877 -3.0000152588
29.8704762593 -11.1810205597 -3.0000152588
