16.0779276476 -25.9489051577 -1.8500015212
17.3296101424 -24.0088281578 -1.8500015212
17.5466159551 -22.2791531155 -1.8500015212
17.5392729140 -22.1849932913 -1.8500015212
17.2447512286 -20.9281088782 -1.8500015212
15.9400145402 -19.1030401316 -1.8500015212
17.1591337354 -24.6753164495 -1.8500015328
16.0754436024 -19.0922038377 -1.8500015328
17.6724906382 -22.8108297717 -1.8500015356
16.6260261180 -25.5816366546 -1.8500015385
16.1962020696 -19.1033141998 -1.8500015414
16.3345191928 -19.1004914503 -1.8500015529
17.8368079578 -21.4523234940 -1.8500015702
15.3747766846 -22.4373305932 -1.8500015463
15.9454978459 -21.8879400569 -1.8500017134
16.3280997562 -22.0598988042 -1.8500017883
14.9426560020 -25.8400837218 -1.8500018056
16.4110132617 -22.0910180690 -1.8500018056
16.4059706704 -22.0710971830 -1.8500018056
14.9817876500 -25.8432085563 -1.8500018114
15.0211234399 -25.8458661890 -1.8500018171
15.0297304778 -25.8399971332 -1.8500018171
16.4985294351 -22.2623367463 -1.8500018171
15.0881898809 -25.8877942230 -1.8500018344
15.1661129286 -25.8322612010 -1.8500018344
15.1746790862 -25.8259632996 -1.8500018344
15.1832265759 -25.8196400855 -1.8500018344
15.2062177362 -25.8326610200 -1.8500018402
15.1561531607 -25.9287565885 -1.8500018517
15.3531743126 -25.8105360091 -1.8500018575
15.5000283546 -25.8144527043 -1.8500018805
15.5085403704 -25.8071670986 -1.8500018805
16.8748066778 -23.0716684701 -1.8500018921
16.6909273107 -21.7522333691 -1.8500018921
16.9008264542 -23.0040537705 -1.8500018978
16.9101662631 -23.2798055239 -1.8500019036
16.7037760613 -21.6393944571 -1.8500019036
16.9448346792 -23.4113653625 -1.8500019151
16.9639278691 -23.2145445354 -1.8500019151
16.7603081996 -21.5821795571 -1.8500019209
16.6109087158 -21.2261509724 -1.8500019209
16.9913735933 -23.4289285975 -1.8500019266
16.9701281927 -22.2907419047 -1.8500019266
16.6914139300 -21.3442608906 -1.8500019266
16.5803409026 -21.1102509217 -1.8500019266
16.9492891174 -23.9149645295 -1.8500019382
17.0281008585 -23.5176196058 -1.8500019382
17.0353385458 -22.4008347785 -1.8500019382
16.5260335100 -20.9103884098 -1.8500019382
17.0618183286 -23.4498514068 -1.8500019439
17.0857943218 -23.4529315097 -1.8500019497
16.9678896152 -24.1197341152 -1.8500019555
14.2625886561 -19.0175829677 -1.8500019555
14.2509997162 -19.0139876716 -1.8500019555
14.2394001916 -19.0104266734 -1.8500019555
16.7203905454 -21.0655619946 -1.8500019612
16.5973370776 -20.8407674324 -1.8500019612
14.3394994771 -19.0169276910 -1.8500019612
14.2930674771 -19.0018424197 -1.8500019612
16.9996880884 -24.1806407031 -1.8500019670
17.1476886108 -23.5351453459 -1.8500019670
14.4052268139 -19.0137246072 -1.8500019670
14.3936258363 -19.0097073786 -1.8500019670
14.3820130257 -19.0057244852 -1.8500019670
17.1679528144 -23.5630754520 -1.8500019727
17.2103267249 -23.1455531213 -1.8500019727
16.7634990168 -21.0436759071 -1.8500019727
14.4945085203 -19.0201424488 -1.8500019727
14.4829261372 -19.0158610806 -1.8500019727
17.1252196502 -23.9079341405 -1.8500019785
14.5377944434 -19.0106062756 -1.8500019785
14.5029232195 -18.9974812899 -1.8500019785
14.6045984889 -19.0107115822 -1.8500019843
14.5697255689 -18.9969937439 -1.8500019843
14.5580743786 -18.9924899714 -1.8500019843
14.2866417147 -18.8984972823 -1.8500019843
17.2860713006 -22.7975950095 -1.8500019900
14.6717248192 -19.0119397441 -1.8500019900
14.6601173956 -19.0071341739 -1.8500019900
14.6368601551 -18.9976261490 -1.8500019900
14.6252105418 -18.9929237774 -1.8500019900
14.7275540257 -19.0092952380 -1.8500019958
14.6926636946 -18.9944862941 -1.8500019958
14.6810045489 -18.9896188593 -1.8500019958
14.7720514741 -19.0022892757 -1.8500020016
17.3337726521 -22.4512697614 -1.8500020073
14.8284456662 -19.0010349177 -1.8500020073
14.8851104514 -19.0005678071 -1.8500020131
14.8734684538 -18.9951310534 -1.8500020131
17.3571559860 -23.6050178374 -1.8500020189
14.9303937776 -18.9952890066 -1.8500020189
14.9187359663 -18.9897183197 -1.8500020189
16.3737569774 -20.0726043633 -1.8500020246
14.9642430173 -18.9848005880 -1.8500020246
17.1947378158 -24.4338001877 -1.8500020304
15.0099843709 -18.9803816763 -1.8500020304
15.0793298426 -18.9884532480 -1.8500020361
15.0676511582 -18.9824420112 -1.8500020361
14.8064167052 -18.8590319409 -1.8500020361
15.1255432658 -18.9853165723 -1.8500020419
16.8826290568 -20.6112529741 -1.8500020477
15.1836494637 -18.9890109617 -1.8500020477
15.1719719726 -18.9826911262 -1.8500020477
15.1602758375 -18.9764058624 -1.8500020477
15.3124950738 -18.9779175426 -1.8500020650
17.6483121009 -23.0859308210 -1.8500020765
15.5025373872 -18.9789197841 -1.8500020880
15.4908286494 -18.9716566646 -1.8500020880
15.5751854095 -18.9675769254 -1.8500020995
15.6234747875 -18.9699647424 -1.8500021053
15.6601930075 -18.9651347437 -1.8500021111
15.6484428012 -18.9574053107 -1.8500021111
15.9330141270 -18.9482484285 -1.8500021514
15.9826354639 -18.9546281829 -1.8500021572
15.9708527665 -18.9459449527 -1.8500021572
16.0851271568 -18.9408937608 -1.8500021745
16.2828729243 -27.4112762037 -1.8500022955
15.9461104449 -21.8035803413 -1.8500009775
16.2619001890 -21.8442056912 -1.8500009775
15.7113680916 -25.6799724871 -1.8500009775
16.9267907285 -22.4865929736 -1.8500009775
16.5130023571 -21.3784573272 -1.8500009775
17.0184454982 -22.9591715555 -1.8500009775
16.5762504202 -21.3429791642 -1.8500009775
16.8553889838 -21.7554809666 -1.8500009775
17.1750972006 -23.1976551172 -1.8500009775
16.8435069441 -21.6049773988 -1.8500009775
16.5449451008 -20.9273203087 -1.8500009775
16.7187093567 -21.1073538153 -1.8500009775
16.5917542820 -20.9100878574 -1.8500009775
16.2975511431 -20.5291518546 -1.8500009775
16.1730082120 -20.3920685223 -1.8500009775
16.2843921683 -20.4413056303 -1.8500009775
16.7277625072 -20.9844515399 -1.8500009775
16.4253048504 -20.5679186543 -1.8500009775
17.2741426633 -22.1699119484 -1.8500009775
16.0173174227 -20.1047116476 -1.8500009775
17.2520214307 -22.0049228200 -1.8500009775
13.7315028100 -19.0117609773 -1.8500009775
13.7189128045 -19.0100488442 -1.8500009775
13.7063177892 -19.0083739621 -1.8500009775
13.6811131705 -19.0051360091 -1.8500009775
13.7980204408 -18.9969834799 -1.8500009775
13.7853864298 -18.9950746403 -1.8500009775
13.7474512905 -18.9895724787 -1.8500009775
13.9157381473 -18.9920515155 -1.8500009775
13.8651023986 -18.9832479689 -1.8500009775
13.8524274619 -18.9811407488 -1.8500009775
13.8270591651 -18.9770388386 -1.8500009775
13.7889623272 -18.9711675652 -1.8500009775
14.0215226485 -18.9877700058 -1.8500009775
14.0088604043 -18.9852000465 -1.8500009775
13.9708288335 -18.9777150677 -1.8500009775
13.9581370668 -18.9752951139 -1.8500009775
14.0899097533 -18.9775723796 -1.8500009775
14.0518072995 -18.9693684336 -1.8500009775
14.0390904877 -18.9667089674 -1.8500009775
14.1714999058 -18.9714802768 -1.8500009775
14.1587888175 -18.9684667289 -1.8500009775
14.1206028439 -18.9596518784 -1.8500009775
14.0695693859 -18.9484265458 -1.8500009775
14.2536017557 -18.9669405015 -1.8500009775
14.2026452294 -18.9541409538 -1.8500009775
14.3234517447 -18.9604685800 -1.8500009775
14.3107074169 -18.9570055793 -1.8500009775
14.4064835179 -18.9588359033 -1.8500009775
14.3809735613 -18.9514564018 -1.8500009775
13.8760020691 -18.8380313220 -1.8500009775
13.7051865827 -18.8132560235 -1.8500009775
13.6920094787 -18.8116226071 -1.8500009775
14.4388725169 -18.9432057759 -1.8500009775
14.3619313941 -18.9209483044 -1.8500009775
14.5227396042 -18.9437914025 -1.8500009775
14.5099450704 -18.9397389452 -1.8500009775
14.4971386046 -18.9357243542 -1.8500009775
14.5814013305 -18.9374336575 -1.8500009775
14.6532224119 -18.9363004806 -1.8500009775
13.8917184738 -18.7426250374 -1.8500009775
14.6997406267 -18.9270838157 -1.8500009775
14.6868958944 -18.9225078305 -1.8500009775
14.7722398626 -18.9278964214 -1.8500009775
14.8064978446 -18.9150056118 -1.8500009775
14.6510002408 -18.8588302004 -1.8500009775
14.8924893955 -18.9227251447 -1.8500009775
14.8538685989 -18.9074009144 -1.8500009775
13.8253242326 -18.6344399530 -1.8500009775
14.9144138759 -18.9055069581 -1.8500009775
14.3394786116 -18.6895360243 -1.8500009775
15.0589129557 -18.8876592393 -1.8500009775
14.3516722228 -18.6427529400 -1.8500009775
14.3914792679 -18.6032543639 -1.8500009775
14.4254222792 -18.5873843504 -1.8500009775
14.7621607846 -18.6670936222 -1.8500009775
15.3175256395 -18.8746987727 -1.8500009775
14.9736242200 -18.7208630677 -1.8500009775
15.3803114910 -18.8791538003 -1.8500009775
14.7308430330 -18.5795971795 -1.8500009775
14.9772867139 -18.5922855637 -1.8500009775
15.7851055712 -18.8544603436 -1.8500009775
15.8236938817 -18.8494762263 -1.8500009775
16.0581234962 -18.8547966233 -1.8500009775
15.6677244051 -18.4562709982 -1.8500009775
19.2934298553 -24.1120929068 -1.8500009775
19.1783674767 -24.9155269308 -1.8500009775
19.2201173605 -24.7543693522 -1.8500009775
19.1208191516 -25.3456294913 -1.8500009775
16.2434772676 -21.6320007429 -1.8500008583
16.2922714169 -21.6625820296 -1.8500008583
17.1759507767 -22.2871566859 -1.8500008583
13.3781653424 -18.9923958539 -1.8500008583
13.3103481393 -18.9918559423 -1.8500008583
13.2560932561 -18.9921462480 -1.8500008583
13.5420643273 -18.9736413537 -1.8500008583
13.5148246373 -18.9723356664 -1.8500008583
13.4875776991 -18.9711911610 -1.8500008583
13.4739518100 -18.9706793643 -1.8500008583
13.4058029341 -18.9687251093 -1.8500008583
13.3376326084 -18.9677790163 -1.8500008583
13.2830909257 -18.9677481650 -1.8500008583
13.6663986943 -18.9574097065 -1.8500008583
13.5980325045 -18.9526105392 -1.8500008583
13.7643458362 -18.9417695321 -1.8500008583
13.7231919258 -18.9379000731 -1.8500008583
13.6957376083 -18.9355233995 -1.8500008583
13.9901574592 -18.9207283865 -1.8500008583
13.9488079283 -18.9148558045 -1.8500008583
13.9350133710 -18.9129798518 -1.8500008583
13.8383045419 -18.9009918778 -1.8500008583
13.7967858403 -18.8964676824 -1.8500008583
13.7690851069 -18.8936563277 -1.8500008583
13.5886801099 -18.8793823155 -1.8500008583
14.0628108513 -18.9074676340 -1.8500008583
14.0351705414 -18.9030821935 -1.8500008583
14.1636892855 -18.9003247296 -1.8500008583
14.1498508024 -18.8978131827 -1.8500008583
14.2235999774 -18.8870550307 -1.8500008583
14.1958360856 -18.8817186650 -1.8500008583
13.0702423990 -18.8043771690 -1.8500008583
14.3256378990 -18.8833999438 -1.8500008583
14.2978505967 -18.8774599514 -1.8500008583
14.2561049661 -18.8688584693 -1.8500008583
14.3586523710 -18.8659110495 -1.8500008583
14.0923376335 -18.8143153863 -1.8500008583
13.6386439473 -18.7614795361 -1.8500008583
13.1391702405 -18.7530697699 -1.8500008583
14.3358841423 -18.8361521330 -1.8500008583
14.4674763942 -18.8417224647 -1.8500008583
13.4402947308 -18.7035808226 -1.8500008583
13.3249342780 -18.7018091422 -1.8500008583
14.5294539578 -18.8323668670 -1.8500008583
14.6199139721 -18.8314983519 -1.8500008583
14.2799707390 -18.7503729979 -1.8500008583
13.4270487736 -18.6548782048 -1.8500008583
14.6263560986 -18.8081995474 -1.8500008583
14.7176422723 -18.8091726813 -1.8500008583
14.5163971172 -18.7044016089 -1.8500008583
13.9474496477 -18.5976625479 -1.8500008583
13.9653279617 -18.5756098962 -1.8500008583
14.6151584299 -18.6799102046 -1.8500008583
14.0427351393 -18.5619651971 -1.8500008583
13.6552145830 -18.5203178844 -1.8500008583
13.3106216067 -18.5083954599 -1.8500008583
13.2806334164 -18.5084672080 -1.8500008583
13.4612687062 -18.4865358306 -1.8500008583
13.3560597658 -18.4602766004 -1.8500008583
13.5703263718 -18.4183804951 -1.8500008583
13.4481807352 -18.4136117008 -1.8500008583
13.4340769624 -18.3648870236 -1.8500008583
14.5236076651 -18.4822526031 -1.8500008583
14.0433235901 -18.3422637915 -1.8500008583
15.6856632431 -18.6940092989 -1.8500008583
15.2952147458 -18.3669603132 -1.8500008583
15.7363092435 -18.3967260151 -1.8500008583
19.2686548397 -23.7392096698 -1.8500008583
16.0594712601 -21.4142147493 -1.8500009775
16.0254041347 -20.6677882258 -1.8500009775
15.3467539445 -20.0473040406 -1.8500009775
13.0410496539 -18.9300542633 -1.8500009775
13.0264840352 -18.9314941230 -1.8500009775
12.9973658944 -18.9345030737 -1.8500009775
12.9828136272 -18.9360721384 -1.8500009775
12.7362487287 -18.9693189054 -1.8500009775
12.6929254236 -18.9764711068 -1.8500009775
13.2293223842 -18.8911301775 -1.8500009775
12.7178984704 -18.9478042502 -1.8500009775
12.4578853126 -18.9974750942 -1.8500009775
13.4789934698 -18.8585958693 -1.8500009775
13.4051050800 -18.8597563085 -1.8500009775
13.3755558878 -18.8605264654 -1.8500009775
13.0510770121 -18.8805253128 -1.8500009775
12.7431818913 -18.9192629756 -1.8500009775
12.6702712773 -18.9312997164 -1.8500009775
13.6272955281 -18.8353863417 -1.8500009775
13.5678983058 -18.8344741106 -1.8500009775
13.3748545855 -18.8363636126 -1.8500009775
13.0911225476 -18.8283846828 -1.8500009775
12.6326491452 -18.8888247930 -1.8500009775
13.9597446344 -18.7807080614 -1.8500009775
13.2673746020 -18.7680258010 -1.8500009775
12.9794750825 -18.7662403397 -1.8500009775
12.7094279648 -18.8022468387 -1.8500009775
12.4564815654 -18.8494053298 -1.8500009775
13.9639142932 -18.7325421494 -1.8500009775
13.7689735495 -18.6709908062 -1.8500009775
12.4665667062 -18.7485018754 -1.8500009775
13.4305048407 -18.6174663937 -1.8500009775
14.0387077633 -18.5938077535 -1.8500009775
13.1467970748 -18.5573396712 -1.8500009775
13.1608392123 -18.5321393314 -1.8500009775
12.9564726099 -18.5499025387 -1.8500009775
14.0300385115 -18.5201073135 -1.8500009775
14.4996091107 -18.4140161597 -1.8500009775
12.6404602862 -18.3726329531 -1.8500009775
19.1209781246 -23.8743438853 -1.8500009775
12.8296100611 -18.2968763747 -1.8500009775
13.0878070895 -18.1981041791 -1.8500009775
19.3627069034 -23.8751957887 -1.8500009775
15.9474897953 -20.9273558074 -1.8500009775
15.8815207890 -20.8831167480 -1.8500009775
15.6333574384 -20.6508657696 -1.8500009775
16.6550699804 -21.3744156601 -1.8500009775
15.7030505951 -20.4962218097 -1.8500009775
18.6358686277 -24.7295737672 -1.8500009775
18.6395621709 -24.7008228842 -1.8500009775
18.6447833885 -24.6576568450 -1.8500009775
18.6511487320 -24.6000332810 -1.8500009775
18.6704575643 -24.6459832536 -1.8500009775
18.6980980026 -24.2829893025 -1.8500009775
18.6167036240 -25.1252200178 -1.8500009775
18.6875321645 -24.7068412596 -1.8500009775
18.6992330568 -24.6050571082 -1.8500009775
18.7088239165 -24.5030525016 -1.8500009775
18.7111760070 -24.4738739551 -1.8500009775
18.7256389124 -24.1522501940 -1.8500009775
18.5419151494 -25.5148925924 -1.8500009775
18.7363932454 -24.4610792978 -1.8500009775
18.7498766024 -24.0348876359 -1.8500009775
18.7476507804 -23.9319566511 -1.8500009775
18.6442306537 -25.4208878493 -1.8500009775
18.8266826607 -24.5429968516 -1.8500009775
18.8339921964 -23.4775871196 -1.8500009775
18.8475344536 -24.7879373027 -1.8500009775
18.9182401812 -24.2002671661 -1.8500009775
19.0485831549 -24.5000680746 -1.8500009775
19.1074020895 -24.3305545400 -1.8500009775
19.1328812746 -24.2999639247 -1.8500009775
12.7104520547 -18.8395785939 -1.8500009775
12.8464394316 -18.7892079233 -1.8500009775
12.4572582935 -18.8725434608 -1.8500009775
18.9559640387 -22.5328416869 -1.8500009775
13.4295847903 -18.6950320984 -1.8500009775
12.7748413617 -18.7530899272 -1.8500009775
11.7643553430 -19.0207341829 -1.8500009775
13.7650701372 -18.6112799720 -1.8500009775
13.5220165077 -18.6172552458 -1.8500009775
13.6673319227 -18.5882076630 -1.8500009775
12.7774501962 -18.6788349636 -1.8500009775
19.3141711375 -23.6674261616 -1.8500009775
12.8129662870 -18.5987426859 -1.8500009775
12.3474930825 -18.5762703858 -1.8500009775
11.8643658429 -18.7247728454 -1.8500009775
15.2014578456 -18.4246884417 -1.8500009775
15.4013272212 -18.3529630450 -1.8500009775
15.5775963142 -18.3804266047 -1.8500009775
15.4600230431 -21.2268838276 -1.8500009775
15.4807486623 -20.6847182023 -1.8500009775
15.6275686078 -20.7193452084 -1.8500009775
15.5248267029 -20.5721770614 -1.8500009775
18.5207769005 -24.6639625137 -1.8500009775
18.5329697419 -24.7849524582 -1.8500009775
18.5399662119 -24.7189329519 -1.8500009775
18.5481192393 -24.6263471672 -1.8500009775
18.5519167949 -24.5733715728 -1.8500009775
18.5535804408 -24.5468678521 -1.8500009775
18.5543534545 -24.5336124167 -1.8500009775
18.5581678011 -24.4540370624 -1.8500009775
18.5586661844 -24.4407684629 -1.8500009775
18.5614905476 -24.3080237381 -1.8500009775
18.5640228129 -24.7213025993 -1.8500009775
18.5751423414 -24.5882767018 -1.8500009775
18.5828234940 -24.4416400589 -1.8500009775
18.5837072311 -24.4149557894 -1.8500009775
18.5855567856 -24.3215294803 -1.8500009775
18.5856630677 -24.3081804390 -1.8500009775
18.5838583638 -24.1480053858 -1.8500009775
18.5834513377 -24.1346621280 -1.8500009775
18.5762910049 -24.8303884319 -1.8500009775
18.5983186869 -24.6033218036 -1.8500009775
18.6013382308 -23.9998311951 -1.8500009775
18.6288730936 -24.4973053287 -1.8500009775
18.6291174409 -24.0657070401 -1.8500009775
18.6277762219 -24.0387554594 -1.8500009775
18.6237257795 -23.9714153504 -1.8500009775
18.6208175876 -23.9310426341 -1.8500009775
18.6151747921 -23.8638172280 -1.8500009775
18.6582484941 -24.2950867225 -1.8500009775
18.6339900341 -23.8076168744 -1.8500009775
18.6325758579 -23.7941268074 -1.8500009775
18.6742300423 -24.5540828167 -1.8500009775
18.6823840266 -24.2542655601 -1.8500009775
18.6420153552 -23.6697264533 -1.8500009775
18.7055745793 -24.3774917727 -1.8500009775
18.6834687666 -23.8162839292 -1.8500009775
18.6791815177 -23.7753871363 -1.8500009775
18.6659763329 -23.6665316403 -1.8500009775
18.6584086545 -23.6122286990 -1.8500009775
18.6543839927 -23.5851117583 -1.8500009775
18.7307827289 -24.2677853098 -1.8500009775
18.6674654264 -23.5134550561 -1.8500009775
18.6866766593 -23.4821725843 -1.8500009775
18.6691901006 -23.3868141870 -1.8500009775
18.7785871781 -24.3511960261 -1.8500009775
18.7151541309 -23.5055097056 -1.8500009775
18.6929202480 -23.3822081706 -1.8500009775
18.7831932534 -24.7147701770 -1.8500009775
18.8031518745 -24.2396261950 -1.8500009775
18.7499859985 -23.5706334642 -1.8500009775
18.8097723689 -24.6889805051 -1.8500009775
18.8270071561 -24.2112980799 -1.8500009775
18.8051135191 -23.8182124157 -1.8500009775
18.7020994568 -23.1942208494 -1.8500009775
18.8512938843 -24.3381749690 -1.8500009775
18.8419287834 -24.8486043341 -1.8500009775
18.8151184361 -23.5176614379 -1.8500009775
18.7587103890 -23.2247321506 -1.8500009775
18.8994380659 -24.3530520877 -1.8500009775
18.7268915553 -22.9978022710 -1.8500009775
18.7230813945 -22.9840409278 -1.8500009775
18.9137312062 -24.5971574986 -1.8500009775
18.9325898272 -24.6706607672 -1.8500009775
18.8820645966 -23.4777009789 -1.8500009775
18.8387703259 -23.2510672585 -1.8500009775
18.9708630649 -24.1512727026 -1.8500009775
18.8081638521 -23.0205270680 -1.8500009775
18.9964799487 -24.3254089981 -1.8500009775
18.8315259512 -23.0143183960 -1.8500009775
18.9329893798 -23.3505205671 -1.8500009775
18.8836207544 -23.1216198570 -1.8500009775
19.0396096448 -24.0464964408 -1.8500009775
18.9332890803 -23.2306817343 -1.8500009775
19.0892035844 -24.0739101186 -1.8500009775
19.0620236735 -23.7185955822 -1.8500009775
19.0389940456 -23.5418855615 -1.8500009775
19.1172443390 -24.2220933809 -1.8500009775
19.0966289148 -23.8198167660 -1.8500009775
19.1494436461 -24.6881415866 -1.8500009775
19.1898555548 -24.3272346536 -1.8500009775
19.0991950626 -23.3187699794 -1.8500009775
18.8167198877 -22.2966016537 -1.8500009775
19.2350708506 -24.4651731507 -1.8500009775
19.2141210878 -23.7783914999 -1.8500009775
19.1286812032 -23.2198030487 -1.8500009775
18.8211613586 -22.2450640978 -1.8500009775
19.3794618135 -22.8181611862 -1.8500009775
13.5069125001 -18.4641814769 -1.8500009775
13.4381493636 -18.4712871716 -1.8500009775
12.7065261867 -18.5987497649 -1.8500009775
13.9895896271 -18.4131081434 -1.8500009775
12.4798545649 -18.5576787080 -1.8500009775
12.0449609578 -18.6970078546 -1.8500009775
14.4705523087 -18.2321828457 -1.8500009775
15.0441730947 -18.2729651673 -1.8500009775
15.3586465124 -21.2268625228 -1.8500009775
15.4300625427 -21.0970694224 -1.8500009775
16.2782845275 -21.0428326939 -1.8500009775
16.1275054519 -20.9359120166 -1.8500009775
15.7911106038 -20.7878170090 -1.8500009775
15.1967374918 -20.6120607996 -1.8500009775
16.1698530532 -20.9030684916 -1.8500009775
16.0547255845 -20.8472159079 -1.8500009775
15.8733911989 -20.7683436793 -1.8500009775
16.8686636358 -21.3238714930 -1.8500009775
14.4102033677 -20.3836180456 -1.8500009775
17.1900575810 -21.4429713417 -1.8500009775
16.6820847109 -21.0363525428 -1.8500009775
16.3315009203 -20.8238748793 -1.8500009775
16.2352744792 -20.7736231086 -1.8500009775
18.5162437326 -24.1955839845 -1.8500009775
18.5125795219 -24.1346679631 -1.8500009775
18.5108616263 -24.1103178490 -1.8500009775
18.5089996974 -24.0859783248 -1.8500009775
15.9120467477 -20.5755196921 -1.8500009775
18.5382805651 -24.1575406980 -1.8500009775
18.5330967446 -24.0840632277 -1.8500009775
18.5266096493 -24.0106893344 -1.8500009775
16.2240272297 -20.6870096861 -1.8500009775
18.5469155229 -23.9714925594 -1.8500009775
18.5414025274 -23.9224080648 -1.8500009775
18.5353091274 -23.8733922387 -1.8500009775
18.5303586970 -23.8366795617 -1.8500009775
18.5286361759 -23.8244519440 -1.8500009775
18.5507989788 -23.8087513017 -1.8500009775
18.5394228099 -23.7351065906 -1.8500009775
18.5332450099 -23.6983628524 -1.8500009775
14.6714184814 -20.2234243525 -1.8500009775
18.5764995208 -23.8176371553 -1.8500009775
18.5459818172 -23.6327841567 -1.8500009775
18.5412940239 -23.6082452073 -1.8500009775
18.5364611319 -23.5837344218 -1.8500009775
14.3609193314 -20.1903546791 -1.8500009775
18.5576786503 -23.5666733657 -1.8500009775
18.5551572825 -23.5543661120 -1.8500009775
18.5525995186 -23.5420663708 -1.8500009775
18.5500053811 -23.5297742498 -1.8500009775
18.6207270344 -23.7858165725 -1.8500009775
18.5628490688 -23.4753781710 -1.8500009775
18.5572297136 -23.4507421840 -1.8500009775
18.5543654024 -23.4384367657 -1.8500009775
18.5720300970 -23.4081974420 -1.8500009775
18.5660131173 -23.3835083128 -1.8500009775
18.5629498777 -23.3711772057 -1.8500009775
18.6704064191 -23.7913604334 -1.8500009775
18.5955325560 -23.4025432665 -1.8500009775
18.5925254961 -23.3901247523 -1.8500009775
18.5801302937 -23.3405412785 -1.8500009775
18.5704493449 -23.3034518217 -1.8500009775
18.7214983049 -24.0175336394 -1.8500009775
18.5803171152 -23.2476508972 -1.8500009775
18.7443760329 -24.0024685127 -1.8500009775
18.7319103156 -23.8868582901 -1.8500009775
18.6932221951 -23.6314005650 -1.8500009775
18.6001196189 -23.2287244783 -1.8500009775
18.5894455716 -23.1914620307 -1.8500009775
16.8447131269 -20.7961520454 -1.8500009775
18.7343893456 -23.7295444064 -1.8500009775
18.5978269261 -23.1348949436 -1.8500009775
18.6014862367 -23.0655130453 -1.8500009775
18.5893637258 -23.0282448967 -1.8500009775
18.6402403079 -23.1082661189 -1.8500009775
18.6081810176 -23.0081991443 -1.8500009775
18.8463583587 -24.0591669664 -1.8500009775
18.8353658424 -23.9408218279 -1.8500009775
18.8158162452 -23.7835632117 -1.8500009775
18.7456434032 -23.4071791306 -1.8500009775
18.6269162063 -22.9880300124 -1.8500009775
18.6141050755 -22.9505392383 -1.8500009775
18.8691487500 -23.8164214960 -1.8500009775
18.6141984948 -22.8092382825 -1.8500009775
18.6555732873 -22.8509400235 -1.8500009775
18.6223193594 -22.7630772319 -1.8500009775
18.6249151388 -22.7041291108 -1.8500009775
18.9209761758 -23.5345478821 -1.8500009775
18.8989254970 -23.4277184131 -1.8500009775
18.9135733593 -23.3824207072 -1.8500009775
18.8128329820 -23.0121953968 -1.8500009775
18.7784520157 -22.9080712159 -1.8500009775
18.6444199851 -22.5632108114 -1.8500009775
18.7546474516 -22.7705847385 -1.8500009775
18.6555086033 -22.5283277948 -1.8500009775
18.6499151935 -22.5157356856 -1.8500009775
18.9582266594 -23.2580133958 -1.8500009775
18.7799465564 -22.7015459748 -1.8500009775
18.6572705088 -22.3592625155 -1.8500009775
18.6851339003 -22.3614471097 -1.8500009775
18.6667599051 -22.3234643602 -1.8500009775
19.0032075295 -23.0561503858 -1.8500009775
18.9150555824 -22.6488048973 -1.8500009775
18.9859436939 -22.6989238932 -1.8500009775
19.0186989066 -22.7177874161 -1.8500009775
18.9885927684 -22.4456060928 -1.8500009775
19.0619040179 -22.4953703869 -1.8500009775
18.6974977343 -21.7776103784 -1.8500009775
19.1322271543 -22.2330898987 -1.8500009775
19.1168311680 -21.9808639142 -1.8500009775
19.1598143286 -22.0119750284 -1.8500009775
19.3186912862 -22.2349159970 -1.8500009775
13.4306299470 -18.2835806643 -1.8500009775
12.7072569283 -18.4171370987 -1.8500009775
12.7774944266 -18.3227293145 -1.8500009775
11.7760437980 -18.4434154072 -1.8500009775
15.1546721051 -21.1623443729 -1.8500008583
15.5891994970 -20.7733861287 -1.8500008583
18.4981886651 -23.6191436315 -1.8500008583
18.4929783418 -23.5969084794 -1.8500008583
15.9083286641 -20.8105328923 -1.8500008583
15.1725116845 -20.6532417940 -1.8500008583
11.7381790814 -22.0586748147 -1.8500008583
18.5191354464 -23.6025071710 -1.8500008583
18.5083850237 -23.5578213946 -1.8500008583
18.5056148591 -23.5466700709 -1.8500008583
18.4912698985 -23.4910390532 -1.8500008583
18.5055745828 -23.4513486057 -1.8500008583
18.5194686187 -23.4113261994 -1.8500008583
18.5162650464 -23.4001427294 -1.8500008583
18.4963501708 -23.3332453682 -1.8500008583
18.5194562718 -23.3261430179 -1.8500008583
18.5160007122 -23.3149599572 -1.8500008583
18.5054357576 -23.2814727926 -1.8500008583
18.5018481168 -23.2703314025 -1.8500008583
15.8256199699 -20.6845445982 -1.8500008583
15.9337674217 -20.6918074865 -1.8500008583
18.5057053500 -23.1321259172 -1.8500008583
18.6630506384 -23.5810259378 -1.8500008583
18.5078497141 -23.0680157838 -1.8500008583
14.1104558043 -20.5084904298 -1.8500008583
18.5132939009 -23.0147107805 -1.8500008583
18.5088973913 -22.9387384070 -1.8500008583
18.6983947636 -23.4234382487 -1.8500008583
18.5125419908 -22.8847678711 -1.8500008583
13.9557723081 -20.4620565742 -1.8500008583
18.5189358798 -22.7210858845 -1.8500008583
18.5248899522 -22.6217895380 -1.8500008583
15.4236973765 -20.3221915906 -1.8500008583
18.6460319464 -22.8280536583 -1.8500008583
18.5510201955 -22.1677814595 -1.8500008583
18.4391484148 -23.0797458884 -1.8500009775
18.4571405881 -23.0603167424 -1.8500009775
18.4528549512 -23.0503526230 -1.8500009775
18.4485398573 -23.0404012250 -1.8500009775
18.4398214502 -23.0205369409 -1.8500009775
18.4530334984 -22.9908135499 -1.8500009775
18.4440216352 -22.9709235478 -1.8500009775
18.4394716145 -22.9609986278 -1.8500009775
18.4348922539 -22.9510872110 -1.8500009775
18.4428164191 -22.9110694176 -1.8500009775
18.4333329417 -22.8912412588 -1.8500009775
18.4405703716 -22.8509178032 -1.8500009775
18.4372744634 -22.7904864694 -1.8500009775
18.4536797979 -22.7695118763 -1.8500009775
18.4489796900 -22.7085153154 -1.8500009775
15.2578995536 -20.6962149049 -1.8500009775
18.4432071823 -22.6472808131 -1.8500009775
15.7772308307 -20.7308644741 -1.8500009775
15.1455687168 -20.6686464086 -1.8500009775
14.6022010599 -20.6989124579 -1.8500009775
18.4476446044 -22.6056781954 -1.8500009775
18.4363542455 -22.5858268163 -1.8500009775
15.7703473588 -20.7050473439 -1.8500009775
15.4650584300 -20.6626113331 -1.8500009775
16.0885489586 -20.7512797565 -1.8500009775
15.9547283019 -20.7180868487 -1.8500009775
15.6498919393 -20.6608982306 -1.8500009775
18.4492100697 -22.5118502720 -1.8500009775
14.4557515887 -20.6469362158 -1.8500009775
14.2400696933 -20.6884699810 -1.8500009775
18.4338970656 -22.4397964055 -1.8500009775
15.9995148022 -20.6789138267 -1.8500009775
11.5981242643 -22.6888322837 -1.8500009775
18.4359074948 -22.3973020639 -1.8500009775
15.7644212898 -20.6058059201 -1.8500009775
14.1839508706 -20.6516835788 -1.8500009775
16.1929079068 -20.6799449748 -1.8500009775
16.1815906067 -20.6766892804 -1.8500009775
16.1702637251 -20.6734670788 -1.8500009775
15.3713042054 -20.5333442142 -1.8500009775
14.1669741037 -20.6308517907 -1.8500009775
14.0755785647 -20.6536995641 -1.8500009775
11.6054050326 -22.5731585577 -1.8500009775
11.5716831716 -22.6352489636 -1.8500009775
16.6241749969 -20.8058506027 -1.8500009775
14.6749856200 -20.5201987808 -1.8500009775
14.0402604683 -20.6130617480 -1.8500009775
11.5983682565 -22.4874798725 -1.8500009775
11.5924180746 -22.4978077485 -1.8500009775
18.4389939560 -22.2254064955 -1.8500009775
15.3286294714 -20.4578645875 -1.8500009775
16.7846571624 -20.7968148955 -1.8500009775
15.8563145918 -20.4997559609 -1.8500009775
13.6828775134 -20.6757264709 -1.8500009775
11.5995259657 -22.3906258731 -1.8500009775
11.5870831385 -22.4112940274 -1.8500009775
18.4445022477 -22.1483072428 -1.8500009775
18.4375187770 -22.1383845004 -1.8500009775
16.5599103281 -20.6759921528 -1.8500009775
14.4005962075 -20.4600766587 -1.8500009775
11.5978582702 -22.3470505992 -1.8500009775
11.5725796272 -22.3884829456 -1.8500009775
15.1622257090 -20.3788096925 -1.8500009775
11.5960273801 -22.2593203722 -1.8500009775
18.4388367964 -22.0165397969 -1.8500009775
15.3604921200 -20.3387620306 -1.8500009775
14.2549412992 -20.4134737203 -1.8500009775
11.5891150770 -22.2255128458 -1.8500009775
15.2752731180 -20.3098368627 -1.8500009775
14.2379576336 -20.3922780814 -1.8500009775
14.1288003077 -20.4163286476 -1.8500009775
13.3879740220 -20.6645955345 -1.8500009775
11.5893375366 -22.1811894857 -1.8500009775
18.4476490162 -21.9477820874 -1.8500009775
11.5970912525 -22.1263584407 -1.8500009775
15.3777836006 -20.2672417329 -1.8500009775
11.6056556680 -22.0713875609 -1.8500009775
11.5984745778 -22.0816957000 -1.8500009775
17.2787085485 -20.8385053734 -1.8500009775
16.4782530869 -20.4661400481 -1.8500009775
11.6003773502 -22.0368713356 -1.8500009775
11.6015480193 -21.9117841618 -1.8500009775
14.3777072436 -20.1698165316 -1.8500009775
11.5940175555 -21.8414171518 -1.8500009775
17.4550916323 -20.7482730822 -1.8500009775
11.6039036369 -21.7498596171 -1.8500009775
11.5957714166 -21.7601743459 -1.8500009775
11.6030397140 -21.5599919456 -1.8500009775
11.5943458346 -21.5703100608 -1.8500009775
18.3456917270 -22.5659581201 -1.8500009775
18.3400802552 -22.5573512059 -1.8500009775
18.3374524166 -22.5096202091 -1.8500009775
18.3360523242 -22.4221401359 -1.8500009775
18.3322577754 -22.3338942779 -1.8500009775
18.3173586062 -22.1553541930 -1.8500009775
18.3155591840 -22.1145990920 -1.8500009775
18.3144493398 -21.9999788487 -1.8500009775
18.3033571879 -21.9501526721 -1.8500009775
15.2213854196 -20.6527778372 -1.8500009775
14.9295853567 -20.6803167857 -1.8500009775
14.4870780327 -20.7662080951 -1.8500009775
14.4591096865 -20.7484909038 -1.8500009775
18.3094981354 -21.8841247943 -1.8500009775
15.4469608592 -20.5985568921 -1.8500009775
15.1275568160 -20.6106655011 -1.8500009775
14.8215213057 -20.6473317190 -1.8500009775
14.5972355561 -20.6901778238 -1.8500009775
14.4308987904 -20.7309762257 -1.8500009775
15.8026851392 -20.5919578377 -1.8500009775
15.3091841624 -20.5763454213 -1.8500009775
14.4357214048 -20.7046649761 -1.8500009775
15.8854638053 -20.5764231553 -1.8500009775
14.9282685325 -20.5829617771 -1.8500009775
16.0381039671 -20.5727898434 -1.8500009775
15.8882600019 -20.5524123959 -1.8500009775
15.2146638354 -20.5320997433 -1.8500009775
16.1036504903 -20.5345034210 -1.8500009775
13.8658801309 -20.7992546555 -1.8500009775
15.5540836864 -20.4553145587 -1.8500009775
16.2756498617 -20.5183419942 -1.8500009775
15.0429143233 -20.4482842391 -1.8500009775
14.3180606767 -20.5867556103 -1.8500009775
15.9141492359 -20.4337632414 -1.8500009775
15.2788917750 -20.3839026398 -1.8500009775
14.0295711453 -20.6302347487 -1.8500009775
13.3135335166 -20.9753078894 -1.8500009775
11.5335421406 -23.2676658103 -1.8500009775
16.4090744854 -20.4745411875 -1.8500009775
13.7184911049 -20.7324835529 -1.8500009775
13.2906107494 -20.9609815487 -1.8500009775
11.5212089412 -23.2258390498 -1.8500009775
11.5175793766 -23.2374173027 -1.8500009775
15.2039093006 -20.3390147930 -1.8500009775
11.5169241140 -23.1605064816 -1.8500009775
11.5131013025 -23.1720976957 -1.8500009775
14.4626351430 -20.4235815394 -1.8500009775
11.5218583691 -23.0716130951 -1.8500009775
11.5097038114 -23.1063801211 -1.8500009775
16.6996745252 -20.4809918924 -1.8500009775
15.3245966836 -20.2857008342 -1.8500009775
11.4990752338 -23.0635344795 -1.8500009775
11.5150464386 -22.9506138272 -1.8500009775
11.4974777428 -22.9970827356 -1.8500009775
11.4931715794 -23.0087321906 -1.8500009775
11.4179468277 -23.2323655881 -1.8500009775
14.2405458002 -20.4079136299 -1.8500009775
11.5061010586 -22.9070182308 -1.8500009775
11.4880171457 -22.9535960371 -1.8500009775
11.4976226264 -22.8631458000 -1.8500009775
11.4929202527 -22.8747954125 -1.8500009775
14.8939400202 -20.2217927483 -1.8500009775
11.5092917320 -22.7724519316 -1.8500009775
11.4993846872 -22.7956975649 -1.8500009775
14.5153934881 -20.2626598796 -1.8500009775
11.5074224926 -22.7163332168 -1.8500009775
11.5063349747 -22.6599355606 -1.8500009775
11.4957622970 -22.6832006564 -1.8500009775
14.4799732223 -20.2209972868 -1.8500009775
16.6842651784 -20.2738602633 -1.8500009775
11.4841786700 -22.5929442258 -1.8500009775
13.1612727073 -20.7001242756 -1.8500009775
13.0729714729 -20.7549417892 -1.8500009775
11.4905024540 -22.5240907768 -1.8500009775
11.4847971254 -22.5357629355 -1.8500009775
11.4920940812 -22.4666688489 -1.8500009775
16.7427382055 -20.2158318777 -1.8500009775
11.3636223503 -22.5653619643 -1.8500009775
11.4805770597 -22.2813954380 -1.8500009775
11.4779141437 -22.1875108778 -1.8500009775
11.4778666067 -22.0452491336 -1.8500009775
11.4657290803 -21.9729479186 -1.8500009775
11.3820322482 -21.9703028821 -1.8500009775
11.4605978652 -21.8029476547 -1.8500009775
10.0298557163 -22.1745300407 -1.8500009775
14.2155566850 -20.8189704549 -1.8500009775
15.4534113789 -20.4092642841 -1.8500009775
11.5275515374 -23.8344350953 -1.8500009775
11.5134951275 -23.7559129748 -1.8500009775
11.5117457575 -23.7684978603 -1.8500009775
13.2652957655 -20.8323808504 -1.8500009775
11.5008980245 -23.6767294230 -1.8500009775
11.4775571836 -23.4100909148 -1.8500009775
11.4511610577 -23.4176605193 -1.8500009775
11.4636689155 -23.2591237885 -1.8500009775
11.4535651116 -23.2020477657 -1.8500009775
11.3535899119 -23.6801005994 -1.8500009775
11.4551121110 -23.1062666695 -1.8500009775
11.4374184943 -22.9185993349 -1.8500009775
11.4318469051 -22.8595955174 -1.8500009775
11.4270686603 -22.8002600380 -1.8500009775
11.4179547052 -22.8259629825 -1.8500009775
11.3973602858 -22.6719541571 -1.8500009775
11.3874877500 -22.6978351119 -1.8500009775
11.2226486676 -23.2264061549 -1.8500009775
11.3986153732 -22.4765733900 -1.8500009775
11.0938273848 -22.7276228941 -1.8500009775
13.9929245114 -20.9432174963 -1.8500008583
13.8158501704 -20.8865742547 -1.8500008583
13.5044286457 -21.1227065857 -1.8500008583
15.4820271949 -20.1827280683 -1.8500008583
12.9602934879 -21.3793015554 -1.8500008583
11.5183707268 -24.3380471682 -1.8500008583
11.5198441687 -24.3784976661 -1.8500008583
11.5216765280 -24.4189334951 -1.8500008583
11.4919630389 -24.1625131675 -1.8500008583
11.4918673915 -24.1896409476 -1.8500008583
11.4919322429 -24.2167688187 -1.8500008583
11.4934230666 -24.3117033760 -1.8500008583
11.4723475172 -23.9851644113 -1.8500008583
11.4717550873 -23.9987870328 -1.8500008583
11.4706911348 -24.0260372353 -1.8500008583
11.4697884223 -24.0532932556 -1.8500008583
11.4678990984 -24.1487213661 -1.8500008583
11.4677595607 -24.2168981138 -1.8500008583
11.4689231585 -24.2987017790 -1.8500008583
11.4526225534 -23.9019565053 -1.8500008583
11.4509860539 -23.9293215970 -1.8500008583
11.4460164783 -23.6945252101 -1.8500008583
11.4379123331 -23.7767970551 -1.8500008583
11.4367036656 -23.7905224538 -1.8500008583
11.4240502737 -23.9829924521 -1.8500008583
11.4298907047 -23.6231457360 -1.8500008583
11.4266050648 -23.6506501967 -1.8500008583
11.4234822080 -23.6781736149 -1.8500008583
11.4052595923 -23.8851061825 -1.8500008583
11.3977402785 -24.0372640802 -1.8500008583
11.4167852860 -23.5373920635 -1.8500008583
11.4111573632 -23.5787756038 -1.8500008583
11.4058969177 -23.6202074591 -1.8500008583
11.4042251700 -23.6340282504 -1.8500008583
11.3745844619 -24.0086389902 -1.8500008583
11.4143652273 -23.3957674758 -1.8500008583
11.4120295085 -23.4095641983 -1.8500008583
11.4074805611 -23.4371780698 -1.8500008583
11.4052673724 -23.4509949772 -1.8500008583
11.4003378549 -23.3362996216 -1.8500008583
11.3813929831 -23.4472069935 -1.8500008583
11.3843795308 -23.2902668978 -1.8500008583
11.2991877463 -24.2743435038 -1.8500008583
11.2798178144 -23.9622843151 -1.8500008583
11.2783155213 -24.3883688731 -1.8500008583
11.2795598513 -24.4167567107 -1.8500008583
11.3659245576 -23.1413364685 -1.8500008583
11.3652153285 -23.0382626306 -1.8500008583
11.2153217488 -23.8292601499 -1.8500008583
11.2018600564 -24.2183203601 -1.8500008583
11.3471686959 -22.9144785207 -1.8500008583
11.3434095313 -22.9284761285 -1.8500008583
11.1787260550 -24.0880152261 -1.8500008583
11.2074995803 -23.3158860173 -1.8500008583
11.1333983329 -24.3942915973 -1.8500008583
11.2243655286 -23.1097593967 -1.8500008583
11.1073577877 -24.0423628550 -1.8500008583
11.3031051810 -22.7189004204 -1.8500008583
11.2944719411 -22.7471708126 -1.8500008583
11.2387428755 -22.9464242300 -1.8500008583
11.0947920697 -23.8202613437 -1.8500008583
11.0887584345 -23.6262563792 -1.8500008583
11.0586079739 -24.0557505029 -1.8500008583
11.0573442499 -24.1151412865 -1.8500008583
11.0351572514 -24.3535019423 -1.8500008583
11.1468556941 -23.0156589732 -1.8500008583
11.0664143084 -23.4275947717 -1.8500008583
11.0224742622 -23.8148620599 -1.8500008583
10.9844087819 -24.2345493278 -1.8500008583
10.9458003672 -23.2687894038 -1.8500008583
10.9140902560 -23.4667552012 -1.8500008583
10.8756330395 -23.8348309121 -1.8500008583
10.8374066881 -23.7073924361 -1.8500008583
10.9176542990 -23.0413424079 -1.8500008583
10.9081042420 -22.9748322781 -1.8500008583
11.1939146053 -21.7060991055 -1.8500008583
11.1926901765 -21.5018940439 -1.8500008583
16.9413621095 -18.4142833650 -1.8500008583
17.0424425045 -18.3322917850 -1.8500008583
15.9916085079 -18.1814012505 -1.8500008583
17.3087995010 -18.2589418092 -1.8500008583
16.6376882069 -18.1341552043 -1.8500008583
14.1932115092 -20.8398202506 -1.8500009775
13.3757224679 -21.3386480395 -1.8500009775
14.2497247827 -20.5437250944 -1.8500009775
11.4410138616 -24.5608078909 -1.8500009775
11.4427549863 -24.5753405758 -1.8500009775
11.4463661681 -24.6043901759 -1.8500009775
11.4946284880 -24.9078964602 -1.8500009775
11.5179583386 -25.0226389399 -1.8500009775
11.3861419972 -24.1678357420 -1.8500009775
11.3867208793 -24.1825324672 -1.8500009775
11.3873432344 -24.1972274156 -1.8500009775
11.3938863712 -24.3147076131 -1.8500009775
11.3959564161 -24.3440508979 -1.8500009775
11.4018907172 -24.4173510365 -1.8500009775
11.4170082489 -24.5636479335 -1.8500009775
11.4322137876 -24.6803235567 -1.8500009775
11.4408509006 -24.7385182625 -1.8500009775
11.3586232360 -23.9323232454 -1.8500009775
11.4338123604 -24.8442824825 -1.8500009775
11.3353635958 -23.8726977884 -1.8500009775
11.3343330300 -23.9469456766 -1.8500009775
11.3359316499 -24.1102932241 -1.8500009775
11.3372900294 -24.1548257954 -1.8500009775
11.3397158539 -24.2141804714 -1.8500009775
11.4599366694 -25.0959218927 -1.8500009775
11.3138950293 -23.7826895093 -1.8500009775
11.3128188765 -23.8125153610 -1.8500009775
11.3121776767 -24.1258400024 -1.8500009775
11.3170526011 -24.2451188525 -1.8500009775
11.3861960343 -24.8526506735 -1.8500009775
11.2978052755 -23.6320273506 -1.8500009775
11.2909990011 -23.7517845733 -1.8500009775
11.2858822659 -23.9766203066 -1.8500009775
11.2889734655 -24.1565142222 -1.8500009775
11.3055742715 -24.4258661293 -1.8500009775
11.3408018346 -24.7236289928 -1.8500009775
11.3966703593 -25.0334589107 -1.8500009775
11.2847836353 -23.4952379080 -1.8500009775
11.2661958160 -23.7657500367 -1.8500009775
11.2856751074 -24.4729980565 -1.8500009775
11.2593030979 -23.5080101046 -1.8500009775
11.2729745729 -24.5806881895 -1.8500009775
11.2533549094 -23.3394791025 -1.8500009775
11.2807882620 -24.8094096494 -1.8500009775
11.2544879841 -24.7982283194 -1.8500009775
11.1260113850 -23.6668159526 -1.8500009775
11.1200764276 -23.7906286397 -1.8500009775
11.1167028061 -23.9610296258 -1.8500009775
11.0933798969 -23.8831186225 -1.8500009775
11.1784671351 -22.7926889538 -1.8500009775
17.7214958852 -18.7979846831 -1.8500009775
10.9990740823 -24.1666447830 -1.8500009775
17.9419811205 -18.8359235019 -1.8500009775
17.1508927572 -18.6557698204 -1.8500009775
11.0253751247 -24.7382476355 -1.8500009775
16.9959489322 -18.6105437751 -1.8500009775
18.2753394610 -18.8991719697 -1.8500009775
17.0466502897 -18.5924709693 -1.8500009775
10.9391068585 -24.3937482891 -1.8500009775
15.9528084240 -18.5146014564 -1.8500009775
10.8885245817 -24.3651034141 -1.8500009775
18.1247880939 -18.7426030286 -1.8500009775
10.8277150057 -24.0908219290 -1.8500009775
10.8150537201 -24.3538213527 -1.8500009775
16.0444866381 -18.4117889688 -1.8500009775
10.7828992675 -24.2072106455 -1.8500009775
10.8188302230 -24.6510276982 -1.8500009775
10.7299178821 -23.9929437129 -1.8500009775
10.6607667878 -23.4186310598 -1.8500009775
16.8884342568 -18.2102498448 -1.8500009775
10.5610582557 -24.0447651285 -1.8500009775
15.4154114788 -18.2377323986 -1.8500009775
15.2628955699 -18.2647684711 -1.8500009775
15.1279721038 -18.2922015919 -1.8500009775
14.9880814940 -18.2993172801 -1.8500009775
13.7791812567 -21.1841907659 -1.8500009775
14.1269385465 -20.7819525274 -1.8500009775
13.5989653121 -21.2829205059 -1.8500009775
14.3957603198 -20.4298330636 -1.8500009775
13.2020103271 -21.3683531895 -1.8500009775
14.3548611469 -19.9980800328 -1.8500009775
17.6945390657 -18.9730318341 -1.8500009775
17.4969807678 -18.9314113815 -1.8500009775
17.3121352228 -18.9001184247 -1.8500009775
17.0114048439 -18.8646455320 -1.8500009775
17.3013738291 -18.8740885262 -1.8500009775
17.2583251513 -18.8679746570 -1.8500009775
17.2152239115 -18.8622430615 -1.8500009775
17.0279273758 -18.8418339307 -1.8500009775
17.3192870209 -18.8523042750 -1.8500009775
17.5822629822 -18.8742875486 -1.8500009775
16.4766453279 -18.7752809031 -1.8500009775
16.6819854376 -18.7506215595 -1.8500009775
16.4025811977 -18.7533566515 -1.8500009775
16.5641962810 -18.7256862765 -1.8500009775
17.0978426446 -18.7270988357 -1.8500009775
16.7571013014 -18.7041924622 -1.8500009775
16.3265708254 -18.7084069311 -1.8500009775
17.0878044405 -18.6775079510 -1.8500009775
16.0251995494 -18.6847662038 -1.8500009775
16.8347674896 -18.6347630826 -1.8500009775
15.8247202215 -18.6624400797 -1.8500009775
17.5704621042 -18.6255117911 -1.8500009775
17.2583455483 -18.5265791824 -1.8500009775
11.3103204451 -24.6337414902 -1.8500009775
11.3396038159 -24.7895300159 -1.8500009775
11.3427853373 -24.8050597252 -1.8500009775
16.5143576712 -18.3393909768 -1.8500009775
11.2552022975 -24.4332387498 -1.8500009775
11.3066049409 -24.7474914157 -1.8500009775
11.3289756602 -24.8566878423 -1.8500009775
11.4271823366 -25.3257549258 -1.8500009775
11.2138626934 -24.4873770619 -1.8500009775
11.2622294239 -24.7724713711 -1.8500009775
11.1356504561 -23.7671302489 -1.8500009775
11.2513751006 -24.8404060311 -1.8500009775
11.4579253358 -25.5696060695 -1.8500009775
11.1118435518 -23.7997486116 -1.8500009775
11.1730342008 -24.6904947846 -1.8500009775
15.5975632462 -18.2592226210 -1.8500009775
11.0483106922 -23.1095386171 -1.8500009775
16.7946043019 -18.0766158984 -1.8500009775
10.9881222321 -23.0020232533 -1.8500009775
10.9670676001 -24.2525540783 -1.8500009775
10.9182649853 -23.7857191009 -1.8500009775
10.9012679423 -22.2926354105 -1.8500009775
13.8229188522 -22.0624742451 -1.8500008583
13.7879105223 -21.6142084064 -1.8500008583
13.5607723807 -21.3842582691 -1.8500008583
13.8724000298 -20.8502691695 -1.8500008583
12.9327038938 -22.4001452781 -1.8500008583
17.2794846052 -19.0150704959 -1.8500008583
17.1880253568 -19.0056516220 -1.8500008583
17.1356816516 -19.0011203393 -1.8500008583
17.2953298172 -18.9925598221 -1.8500008583
17.2165458119 -18.9840928423 -1.8500008583
17.1902526133 -18.9815814203 -1.8500008583
17.1507861066 -18.9781060695 -1.8500008583
17.1376239424 -18.9770254687 -1.8500008583
16.8606709671 -18.9633397178 -1.8500008583
16.6354173690 -18.9407123297 -1.8500008583
17.1282006498 -18.9277827871 -1.8500008583
16.8882492018 -18.9155696794 -1.8500008583
16.6479878298 -18.9161446192 -1.8500008583
16.5946228420 -18.9180095775 -1.8500008583
16.5812853350 -18.9185744712 -1.8500008583
16.6338717758 -18.8923909859 -1.8500008583
16.4596384668 -18.9013200634 -1.8500008583
16.4194884561 -18.9043316639 -1.8500008583
16.3906797287 -18.8824519979 -1.8500008583
16.3235070523 -18.8886912216 -1.8500008583
16.2430326415 -18.8974886867 -1.8500008583
16.4291812833 -18.8550829872 -1.8500008583
16.2536649357 -18.8719093695 -1.8500008583
16.2401925477 -18.8734830801 -1.8500008583
16.2132620325 -18.8767500277 -1.8500008583
16.3322492288 -18.8392453707 -1.8500008583
16.2915533565 -18.8433899236 -1.8500008583
16.0752349980 -18.8715816896 -1.8500008583
16.9048800373 -18.7950923846 -1.8500008583
16.7541185592 -18.7934461756 -1.8500008583
16.3435512480 -18.8138780396 -1.8500008583
16.0715447160 -18.8476920035 -1.8500008583
16.0580014856 -18.8498045646 -1.8500008583
16.0038928341 -18.8586551596 -1.8500008583
17.0982014727 -18.7801632359 -1.8500008583
17.0019171427 -18.7745483387 -1.8500008583
17.3204957308 -18.7764630043 -1.8500008583
16.0368014502 -18.8042223097 -1.8500008583
17.0737325189 -18.7301044529 -1.8500008583
16.3644649813 -18.7391457065 -1.8500008583
15.8548734208 -18.8124696189 -1.8500008583
15.7731200304 -18.8295964835 -1.8500008583
15.7595245759 -18.8325919179 -1.8500008583
16.5577790376 -18.7018594246 -1.8500008583
16.9924971562 -18.6773145126 -1.8500008583
16.5145107601 -18.6798723174 -1.8500008583
15.9006078684 -18.7543450330 -1.8500008583
15.7216092599 -18.7915679212 -1.8500008583
15.6942031832 -18.7979044153 -1.8500008583
16.5837638775 -18.6523280914 -1.8500008583
16.3721614652 -18.6656843071 -1.8500008583
15.6886881990 -18.7743689053 -1.8500008583
15.6003529384 -18.7710173343 -1.8500008583
17.1098008446 -18.6113500747 -1.8500008583
16.8244783199 -18.6002106730 -1.8500008583
15.5115571322 -18.7693430515 -1.8500008583
15.4840232420 -18.7769226735 -1.8500008583
15.4702732337 -18.7807735390 -1.8500008583
15.4775385517 -18.7536356799 -1.8500008583
16.8251628731 -18.5276948200 -1.8500008583
16.1313708190 -18.5704563771 -1.8500008583
15.6188237695 -18.6667990520 -1.8500008583
16.5778408060 -18.5074109172 -1.8500008583
16.3850175183 -18.4705847494 -1.8500008583
17.3421635662 -18.4626352398 -1.8500008583
16.9295109427 -18.4330546221 -1.8500008583
15.8124133857 -18.5251593665 -1.8500008583
16.1595847847 -18.4449591241 -1.8500008583
15.0142540589 -18.7011605427 -1.8500008583
16.9466835055 -18.3610426184 -1.8500008583
16.7817783945 -18.3582661404 -1.8500008583
16.7667842463 -18.3582798433 -1.8500008583
16.6168702503 -18.3608562037 -1.8500008583
16.7215305988 -18.3344155879 -1.8500008583
15.9528911851 -18.3770299069 -1.8500008583
15.4792661566 -18.4777150951 -1.8500008583
15.9108988665 -18.3105078379 -1.8500008583
16.0371872593 -18.2174190159 -1.8500008583
14.4734636616 -18.6430784988 -1.8500008583
14.9544194488 -18.3112842571 -1.8500008583
15.4125523617 -18.0954522128 -1.8500008583
15.3274998425 -18.0929194516 -1.8500008583
11.0978040357 -24.5645936039 -1.8500008583
11.0336120988 -24.6128445516 -1.8500008583
10.8401069498 -23.3884742118 -1.8500008583
10.8400672303 -23.4587476247 -1.8500008583
10.9178719145 -24.3856628363 -1.8500008583
10.8235182995 -23.1238484530 -1.8500008583
10.9219722669 -24.7811371480 -1.8500008583
10.7570238023 -23.8339005842 -1.8500008583
10.7756002118 -22.6015208001 -1.8500008583
10.8335830382 -24.5992212583 -1.8500008583
10.7160876391 -22.9201865395 -1.8500008583
10.6890701332 -24.1474545742 -1.8500008583
10.6838927775 -24.2947657999 -1.8500008583
13.8294096294 -21.6695638199 -1.8500009775
13.7381520893 -21.6950994300 -1.8500009775
13.7217039321 -21.7327626886 -1.8500009775
13.6276768753 -21.6460728133 -1.8500009775
13.4755212833 -21.8275914923 -1.8500009775
13.6911286061 -20.9778383233 -1.8500009775
13.2417021646 -21.9112472112 -1.8500009775
