44.3450614796 -16.0339883414 -2.9214668274
46.8924072001 -18.4767747432 -2.9214668274
46.9193626100 -18.4755128233 -2.9214668274
46.7714506631 -18.5046485241 -2.9214668274
46.7850122862 -18.5043951883 -2.9214668274
46.8121329876 -18.5037681694 -2.9214668274
46.8256918285 -18.5033944918 -2.9214668274
46.8392495047 -18.5029807064 -2.9214668274
46.8663608883 -18.5020328267 -2.9214668274
46.8934661895 -18.5009245635 -2.9214668274
46.6082489835 -18.5287279819 -2.9214668274
46.6218825521 -18.5289573208 -2.9214668274
46.8127631949 -18.5279329811 -2.9214668274
46.9217663087 -18.5237990881 -2.9214668274
46.3750318718 -18.5427779935 -2.9214668274
46.6352174180 -18.5533175030 -2.9214668274
46.8277968937 -18.5758830167 -2.9214668274
46.1373262941 -18.5689755532 -2.9214668274
46.1648404102 -18.5721793319 -2.9214668274
46.4673456270 -18.6207982679 -2.9214668274
46.6337208106 -18.6741733767 -2.9214668274
46.9149292327 -18.6693363742 -2.9214668274
45.7906984262 -18.6128296589 -2.9214668274
45.8184780645 -18.6180834370 -2.9214668274
46.0697546475 -18.6579472212 -2.9214668274
45.7025699153 -18.6197373985 -2.9214668274
46.1626819964 -18.7178816890 -2.9214668274
46.5471688646 -18.7448658518 -2.9214668274
46.4460706067 -18.7649621528 -2.9214668274
46.8764379049 -18.7677451201 -2.9214668274
45.5049487987 -18.6485337896 -2.9214668274
45.5750142938 -18.6655822854 -2.9214668274
46.8773539974 -18.7919007832 -2.9214668274
45.4569367772 -18.6611995499 -2.9214668274
45.3524535450 -18.6578582325 -2.9214668274
46.2513595149 -18.8482089179 -2.9214668274
45.3110127513 -18.6962887048 -2.9214668274
44.5005054220 -18.4902596347 -2.9214668274
44.5956045779 -18.5346687973 -2.9214668274
44.2487782219 -18.3883228822 -2.9214668274
41.1524174908 -11.9187219132 -2.9214668274
44.5168630412 -15.1667625893 -2.9186358452
44.3620766481 -15.0764929592 -2.9186358452
43.9844981256 -14.4702853205 -2.9186358452
44.0893612016 -14.7378866872 -2.9186358452
44.3491387134 -15.4210914866 -2.9186358452
46.8996909216 -18.5769297080 -2.9186358452
47.2338851683 -18.5369486880 -2.9186358452
47.2772512176 -18.5300603992 -2.9186358452
47.1648104554 -18.5715153226 -2.9186358452
46.4609208230 -18.6431255428 -2.9186358452
46.9773797156 -18.6182793249 -2.9186358452
46.9650097882 -18.6437903911 -2.9186358452
47.0683687883 -18.6326639612 -2.9186358452
47.6094531375 -18.5384928200 -2.9186358452
46.2519021210 -18.6863737672 -2.9186358452
46.2668105650 -18.6870246656 -2.9186358452
46.4010546115 -18.6908974824 -2.9186358452
46.3706960862 -18.7145132211 -2.9186358452
46.5506153294 -18.7151782963 -2.9186358452
46.2183924762 -18.7573643712 -2.9186358452
45.8535929557 -18.7499693466 -2.9186358452
45.6992820377 -18.7531229787 -2.9186358452
45.8051762157 -18.7681810356 -2.9186358452
45.6349851144 -18.7673858166 -2.9186358452
45.8020210318 -18.7921472638 -2.9186358452
47.4173936440 -18.8984681192 -2.9186358452
41.1224549129 -13.1183710862 -2.9186358452
41.3371531720 -11.9753287647 -2.9186358452
41.2810646991 -12.1588837969 -2.9186358452
41.1987082958 -12.4844763151 -2.9186358452
41.1206335795 -12.9253563316 -2.9186358452
41.2712957750 -12.1059515564 -2.9186358452
41.2405041508 -12.2141197603 -2.9186358452
41.2087645983 -12.2389006992 -2.9186358452
44.6782131578 -15.2900474813 -2.9208025932
44.6516658327 -15.2994803768 -2.9208025932
44.6610542635 -15.3694142936 -2.9208025932
44.1939302754 -14.9220234328 -2.9208025932
44.3561672143 -15.1179912967 -2.9208025932
44.8017816258 -15.5320091013 -2.9208025932
44.2256492684 -15.0410963334 -2.9208025932
45.0514447269 -15.7063367794 -2.9208025932
43.9438709207 -14.6680280067 -2.9208025932
44.0774933727 -14.8840508172 -2.9208025932
44.3289233194 -15.1951783077 -2.9208025932
45.1274538442 -15.7967750464 -2.9208025932
44.1546997182 -15.0687313212 -2.9208025932
45.0536092729 -15.7884962960 -2.9208025932
45.1675312368 -15.8411024963 -2.9208025932
43.8113700498 -14.5695469399 -2.9208025932
44.9375763005 -15.7555402611 -2.9208025932
44.1270470360 -15.1114305931 -2.9208025932
44.1783371566 -15.1726436036 -2.9208025932
44.5764857368 -15.5791825199 -2.9208025932
43.6077558628 -14.4016779824 -2.9208025932
41.3999108049 -12.5398599913 -2.9208025932
41.3867865871 -12.4782997336 -2.9208025932
41.3661329970 -12.5929727968 -2.9208025932
41.3031549251 -13.1864441595 -2.9208025932
41.2846829396 -13.0830576909 -2.9208025932
41.2748225188 -13.3170140295 -2.9208025932
41.2740470051 -13.4341016768 -2.9208025932
41.2749694408 -13.5072782885 -2.9208025932
41.2775048457 -13.5950602393 -2.9208025932
41.2530651638 -13.2283532716 -2.9208025932
41.2552099471 -13.6400575195 -2.9208025932
41.3353241945 -12.2567339396 -2.9208025932
41.2072522451 -13.1672517428 -2.9208025932
41.1981587729 -13.8667291667 -2.9208025932
41.2009587615 -13.8964427931 -2.9208025932
41.1768991633 -13.8987818136 -2.9208025932
41.1485239219 -12.7405829712 -2.9208025932
41.1114209170 -13.1474900301 -2.9208025932
41.1593347011 -12.5119835683 -2.9208025932
41.1407257079 -12.3528067395 -2.9208025932
46.9798249534 -18.7376405961 -2.9208025932
47.1214254533 -18.7155733798 -2.9208025932
47.1841602901 -18.7045572554 -2.9208025932
47.2042151866 -18.7254580038 -2.9208025932
47.2513630636 -18.7165303899 -2.9208025932
47.4702545448 -18.6693527659 -2.9208025932
47.0978077801 -18.7685159773 -2.9208025932
47.4080036830 -18.7580417483 -2.9208025932
48.2589029898 -18.4952482576 -2.9208025932
48.2376249231 -18.5297046533 -2.9208025932
48.2829949047 -18.5116138162 -2.9208025932
47.0487870374 -18.8741099039 -2.9208025932
40.7963739711 -11.7506728882 -2.9208025932
48.2383361032 -18.7625554815 -2.9208025932
47.3388139160 -19.1674155031 -2.9208025932
44.7271009447 -15.3111048063 -2.9196074986
44.7519112629 -15.3251557590 -2.9196074986
44.1436619463 -15.0507176057 -2.9196075331
44.6308084445 -15.4788105381 -2.9196075447
45.0700681549 -15.8324853452 -2.9196075793
41.4925527791 -12.7049490121 -2.9196079884
41.4840851279 -12.7837329453 -2.9196079884
41.4815734818 -12.8100261225 -2.9196079884
41.4770170818 -12.8626547546 -2.9196079884
41.4670882696 -13.0208125169 -2.9196079884
41.4489675753 -12.9136763572 -2.9196079942
41.4408672301 -13.0727974746 -2.9196079942
41.4310515592 -12.8321636684 -2.9196080000
41.4106193953 -12.7899817088 -2.9196080057
41.4026547129 -12.8835886407 -2.9196080057
41.3933155555 -13.3932317477 -2.9196080057
41.3986510679 -13.5004644064 -2.9196080057
41.3920057400 -12.7339892906 -2.9196080115
41.3802200898 -13.5827044680 -2.9196080115
41.3495822685 -13.4898986134 -2.9196080173
41.3303369385 -12.8781889140 -2.9196080230
41.3037357531 -12.6552152403 -2.9196080346
41.3217016294 -13.9188028327 -2.9196080346
41.2926458128 -14.4823731904 -2.9196080691
41.0674045632 -12.8296323201 -2.9196080864
47.9139046990 -18.7410795465 -2.9196083227
44.7670875908 -14.9286954657 -2.9201815238
44.7570872055 -14.9507029093 -2.9201815353
44.7791984548 -14.9605930556 -2.9201815353
44.7852938041 -15.3533579762 -2.9201817082
44.8042244527 -15.3857169403 -2.9201817197
44.3883275725 -15.2788411164 -2.9201817543
44.4425940879 -15.3353145638 -2.9201817658
45.1292581349 -15.5972362628 -2.9201817773
45.2860129131 -15.6218647295 -2.9201817773
45.1698152192 -15.6290940292 -2.9201817889
45.2300905788 -15.6386555440 -2.9201817889
44.0197439691 -15.1524836920 -2.9201818004
43.9348874967 -15.1471436421 -2.9201818234
44.2459280454 -15.4203372900 -2.9201818465
44.3500480459 -15.5865725834 -2.9201818926
45.3524680945 -15.8963962731 -2.9201819041
46.0834881020 -15.9646422523 -2.9201819502
46.2035436945 -15.9914260311 -2.9201819733
48.0420211731 -16.2340120780 -2.9201824574
41.5078778405 -13.3031304997 -2.9201825150
41.5092281115 -13.3273605266 -2.9201825150
41.5099569987 -13.3394724382 -2.9201825150
41.5123585894 -13.3757944943 -2.9201825150
41.4837383870 -13.3044041043 -2.9201825266
41.4874042686 -13.3653200251 -2.9201825266
41.4909854287 -13.4140095653 -2.9201825266
41.4940492417 -13.4504970482 -2.9201825266
41.4974367399 -13.4869559047 -2.9201825266
41.4784266614 -13.5381458703 -2.9201825381
41.4811678777 -13.5625460271 -2.9201825381
41.4840534056 -13.5869295388 -2.9201825381
41.4855502551 -13.5991147861 -2.9201825381
41.4886520593 -13.6234717302 -2.9201825381
41.4713561240 -13.6755364846 -2.9201825496
41.4786090329 -13.7243941968 -2.9201825496
41.4407116008 -13.6297210156 -2.9201825611
41.4625953090 -13.7771360649 -2.9201825611
41.4289408306 -13.7194284599 -2.9201825727
41.4308298769 -13.7317761604 -2.9201825727
41.4429304418 -13.8057400994 -2.9201825727
41.4448424261 -13.9456230440 -2.9201825842
41.3530815524 -13.5010147089 -2.9201825957
41.4343974734 -14.0122809185 -2.9201825957
41.4163770334 -14.0423096027 -2.9201826073
41.2664833058 -13.3158665450 -2.9201826303
41.2712688354 -13.6387790386 -2.9201826418
41.4021842888 -14.3650953827 -2.9201826534
41.1757200382 -13.4127211536 -2.9201826764
41.1516121309 -13.4144943121 -2.9201826879
41.2140264116 -13.8988846608 -2.9201826879
41.3859111964 -14.5494515344 -2.9201826879
41.1216465850 -13.3235081722 -2.9201826995
41.3807666904 -14.6074473343 -2.9201826995
41.0989926810 -13.3514393156 -2.9201827110
41.0714066764 -13.9252604318 -2.9201827571
44.8174373295 -15.4041384340 -2.9199269537
44.5804502431 -15.4230950226 -2.9199270055
44.0520241589 -15.2884248095 -2.9199270574
44.6982840860 -15.5772567387 -2.9199270920
45.3979319319 -15.9013281755 -2.9199272822
48.2784524211 -15.3817832319 -2.9199279565
41.5123737460 -13.9253785521 -2.9199279738
41.5150939782 -13.9364685469 -2.9199279738
41.5178470048 -13.9475504463 -2.9199279738
41.5087411753 -14.0090440747 -2.9199279911
41.5117089212 -14.0201444493 -2.9199279911
41.5147094911 -14.0312359962 -2.9199279911
41.5208089973 -14.0533922187 -2.9199279911
41.4944368557 -14.0487346538 -2.9199280084
41.5037913339 -14.0821345772 -2.9199280084
41.5101921643 -14.1043545044 -2.9199280084
41.5134418493 -14.1154501696 -2.9199280084
41.5002606966 -14.1557129869 -2.9199280257
41.4297865247 -13.9936951138 -2.9199280429
41.5017856705 -14.2408825178 -2.9199280429
41.4899362905 -14.2819247983 -2.9199280602
41.4937113492 -14.2930796072 -2.9199280602
41.4975193894 -14.3042231999 -2.9199280602
41.5052342804 -14.3264763471 -2.9199280602
41.4983385609 -14.3790988405 -2.9199280775
41.3423985475 -13.9422685823 -2.9199280948
41.4921652464 -14.4320674965 -2.9199280948
41.4820145519 -14.5390041130 -2.9199281294
41.3186451485 -14.3787005900 -2.9199281986
41.4810822683 -14.7789974976 -2.9199281986
41.4804863822 -14.8341136379 -2.9199282158
41.4702598192 -14.9227119585 -2.9199282504
41.4716851195 -14.9785855858 -2.9199282677
41.1733094452 -14.4020398532 -2.9199283023
41.4597017173 -15.1594448692 -2.9199283369
41.1931570360 -14.7261681122 -2.9199283715
44.8888530304 -14.9703145408 -2.9200155674
44.9297399036 -14.9703981480 -2.9200155674
45.1361868621 -15.5166140115 -2.9200157000
44.5204742061 -15.5202315184 -2.9200157058
44.7910185980 -15.5476891672 -2.9200157058
44.4826334589 -15.5630859831 -2.9200157173
43.9697073000 -15.4478267154 -2.9200157230
45.4291861999 -15.5719968619 -2.9200157230
45.6019054226 -15.5563390058 -2.9200157288
45.6848426062 -15.5325813770 -2.9200157288
46.1644933640 -15.4968441360 -2.9200157634
45.6155315679 -15.8772292752 -2.9200158037
46.3737528351 -15.8515126606 -2.9200158614
41.5514672782 -14.4595704758 -2.9200159709
41.5601856139 -14.4794347912 -2.9200159709
41.5559852505 -14.5290481692 -2.9200159766
41.5605352356 -14.5389731056 -2.9200159766
41.5697231852 -14.5587823822 -2.9200159766
41.5666736575 -14.6087304966 -2.9200159824
41.5643410514 -14.6589681293 -2.9200159882
41.5426905362 -14.6697194305 -2.9200159939
41.5526523374 -14.6896319941 -2.9200159939
41.5576773730 -14.6995660872 -2.9200159939
41.5618520941 -14.7602718048 -2.9200159997
41.5723492981 -14.7800694175 -2.9200159997
41.5670931080 -14.8212242718 -2.9200160054
41.5623059151 -14.8626120213 -2.9200160112
48.4178535802 -14.7801336600 -2.9200160343
48.4069786965 -14.8533994646 -2.9200160400
48.4124581954 -14.8430565041 -2.9200160400
48.4059635026 -14.9062076096 -2.9200160458
48.4172043285 -14.8855106066 -2.9200160458
48.4227787732 -14.8751372563 -2.9200160458
48.4041847908 -14.9592501769 -2.9200160516
48.4075871101 -15.0021886018 -2.9200160573
41.5677655868 -15.2844720491 -2.9200160631
48.4165478807 -15.0349868745 -2.9200160631
48.4021463725 -15.1529457316 -2.9200160746
48.4085120045 -15.1426157553 -2.9200160746
48.4098086249 -15.1863824370 -2.9200160804
41.5791277738 -15.5474302556 -2.9200160977
41.2677641078 -15.1267712382 -2.9200161034
48.3923124598 -15.4734272741 -2.9200161149
48.3797429839 -15.7706936956 -2.9200161553
44.9308176146 -15.3989632479 -2.9200125373
44.9837383337 -15.4147256035 -2.9200125114
44.4754046849 -15.5703163650 -2.9200123817
44.5577286005 -15.5719462358 -2.9200123817
43.8394674554 -15.6413951117 -2.9200122002
46.0377616200 -15.3051541351 -2.9200122002
41.6625552254 -14.9903827275 -2.9200113443
41.5529711132 -14.9999050972 -2.9200112406
41.5562439879 -15.0488382161 -2.9200112146
41.7115397164 -15.5667863559 -2.9200110071
48.4751369656 -14.2857513095 -2.9200106959
48.4788007989 -14.2741838549 -2.9200106959
48.4824303975 -14.2626056126 -2.9200106959
48.4781509193 -14.4284098077 -2.9200106441
48.4862883139 -14.4052437824 -2.9200106441
48.4883987215 -14.4713481147 -2.9200106181
48.4804844690 -14.5609935734 -2.9200105922
48.4849624953 -14.5494090956 -2.9200105922
48.4894062330 -14.5378114216 -2.9200105922
48.4938156432 -14.5262006531 -2.9200105922
48.5023860512 -14.6368771737 -2.9200105403
48.4857115934 -14.7391717282 -2.9200105144
48.4907166800 -14.7275710080 -2.9200105144
48.6286373975 -14.3611386980 -2.9200105144
48.4991170953 -14.9420520673 -2.9200104106
45.4645897176 -15.3571076820 -2.9200086352
44.7320019062 -15.6765969604 -2.9200085027
44.9028630135 -15.6368262717 -2.9200085027
41.7769982399 -15.6363380670 -2.9200059841
48.4932786581 -13.6937198599 -2.9200037970
48.4948790004 -13.6811151567 -2.9200037970
48.4991017051 -13.8232732348 -2.9200037307
48.5033370709 -13.9410180621 -2.9200036644
48.5124400650 -13.8904352886 -2.9200036644
48.5209439030 -13.8397483454 -2.9200036644
48.5428489940 -13.6871335321 -2.9200036644
48.5148148103 -14.0088623998 -2.9200035981
48.5173473071 -13.9961926099 -2.9200035981
48.5198423132 -13.9835153838 -2.9200035981
48.5317542320 -13.9200215960 -2.9200035981
48.5252146615 -14.0772190438 -2.9200035318
48.5279493240 -14.0645181901 -2.9200035318
48.5875081304 -13.7189239272 -2.9200035318
48.5488385684 -14.0823421584 -2.9200034656
48.5770031555 -13.9414379683 -2.9200034656
48.5458738128 -14.2026472393 -2.9200033993
48.6742346133 -13.7972850195 -2.9200032667
48.7399402517 -13.8478236220 -2.9200030679
48.5592377573 -14.6660285066 -2.9200030016
48.4764299896 -15.2909987445 -2.9200025377
48.9144484398 -14.2197787408 -2.9200024051
48.8412128665 -14.5835012565 -2.9200023388
48.7513239222 -14.9779850147 -2.9200022063
45.0996683184 -14.9233391303 -2.9200129523
45.0837739581 -15.3917287626 -2.9200125373
45.1083512409 -15.3778467952 -2.9200125373
45.2699248933 -15.4213660166 -2.9200124076
45.2127685232 -15.4848687968 -2.9200123817
45.3639566400 -15.3878846084 -2.9200123817
45.4607605961 -15.3173736276 -2.9200123817
44.7810720711 -15.7140087373 -2.9200123558
44.8659312307 -15.6820353924 -2.9200123558
44.9357440228 -15.6531038851 -2.9200123558
44.9909590511 -15.6284797961 -2.9200123558
44.6367228110 -15.7858731384 -2.9200123298
44.4867355314 -15.8490080217 -2.9200123039
44.6655835398 -15.8026089666 -2.9200123039
44.9478377330 -15.7005304265 -2.9200123039
45.6647236278 -15.2421575450 -2.9200123039
45.7488157975 -15.1629890133 -2.9200123039
45.0456143003 -15.7097156571 -2.9200122520
45.4530509273 -15.5025908719 -2.9200122261
45.6836462133 -15.3223111111 -2.9200122261
44.2717831799 -15.9848615423 -2.9200122002
44.2908813940 -16.0067019654 -2.9200121742
46.0922774324 -15.0337975761 -2.9200121223
46.1959961543 -14.9777392713 -2.9200120705
44.4489319120 -16.1526593456 -2.9200119927
48.5069121195 -13.2018524731 -2.9200101772
48.5057917860 -13.1611760498 -2.9200101772
48.5048443702 -13.1340646500 -2.9200101772
48.5037365708 -13.1069593299 -2.9200101772
48.5024684267 -13.0798610383 -2.9200101772
48.5321492284 -13.2694626511 -2.9200101513
48.5320157867 -13.2558278067 -2.9200101513
48.5307436075 -13.1876627866 -2.9200101513
48.5299524594 -13.1604032999 -2.9200101513
48.5504905331 -13.5433000441 -2.9200101254
48.5539421384 -13.4611315223 -2.9200101254
48.5555415910 -13.2144396614 -2.9200101254
48.5545310467 -13.1733311832 -2.9200101254
48.5723478892 -13.5858011132 -2.9200100994
48.6028567540 -13.1719286333 -2.9200100735
48.5983322119 -13.0612234216 -2.9200100735
48.5888448301 -13.9212203143 -2.9200100476
48.6102431296 -13.7275110540 -2.9200100476
48.6289711508 -13.3243450574 -2.9200100476
48.6265951530 -13.1573123000 -2.9200100476
48.6250748375 -13.1155755109 -2.9200100476
48.6146151419 -13.9104950719 -2.9200100216
48.6303900431 -13.7714617942 -2.9200100216
48.6480021473 -13.0866291794 -2.9200100216
48.6270961359 -13.9971748636 -2.9200099957
48.6714704972 -13.0714509849 -2.9200099957
48.6576264891 -14.2468831220 -2.9200099179
48.7412573212 -13.5959022324 -2.9200099179
48.7952375094 -13.1374890306 -2.9200098660
48.8174379533 -13.5278631556 -2.9200098401
48.6836840896 -14.5636771177 -2.9200098141
48.7737865675 -14.1511435551 -2.9200098141
48.7455860013 -14.4135256211 -2.9200097882
48.8118766086 -14.0686335243 -2.9200097882
48.8558868130 -13.6907292889 -2.9200097882
48.8832074076 -13.6485937594 -2.9200097623
48.8923625606 -13.1488120504 -2.9200097623
48.9189717210 -13.3401471144 -2.9200097363
48.3829288708 -15.8161939683 -2.9200096067
41.8061924557 -18.8566716673 -2.9200087249
41.8226164176 -18.8629089730 -2.9200087249
45.1568673286 -15.3347216729 -2.9200198820
45.1736295252 -15.4457121912 -2.9200200780
45.3936084974 -15.3501090585 -2.9200202249
45.1655280321 -15.6335990218 -2.9200203719
45.3831906908 -15.8335899051 -2.9200209598
48.6029509211 -13.1412798703 -2.9200251727
48.5847055381 -12.9509585617 -2.9200251727
48.5718537102 -12.8488088067 -2.9200251727
48.5423867049 -12.6598993308 -2.9200251727
48.5235173306 -12.5586882216 -2.9200251727
48.6120185844 -12.9775640730 -2.9200252217
48.5636151339 -12.6411624775 -2.9200252217
48.6657657692 -13.5084987930 -2.9200252707
48.6197565590 -12.8422774819 -2.9200252707
48.6871888307 -13.6874822893 -2.9200253197
48.6891070171 -13.6128943721 -2.9200253197
48.6600783243 -12.9723102617 -2.9200253197
48.7050869554 -13.8230805364 -2.9200253687
48.7821153716 -13.7362766342 -2.9200255156
48.8099518839 -13.6151080129 -2.9200255646
48.7845046866 -14.2426249488 -2.9200256136
48.7898294883 -14.3679593624 -2.9200256626
48.8768638513 -13.2601703487 -2.9200257116
42.9343883486 -18.8075112179 -2.9200259075
42.6028291673 -18.7768815154 -2.9200259565
42.6495176250 -18.7859269699 -2.9200259565
42.9154587208 -18.8293324199 -2.9200259565
48.9090211378 -12.5149930003 -2.9200259565
42.8019036241 -18.8369541359 -2.9200260055
42.4994559565 -18.8047972167 -2.9200260545
42.7309155799 -18.8742568279 -2.9200261035
42.5207730778 -18.8587922557 -2.9200261525
41.9780494386 -18.8670507755 -2.9200264464
45.2019560504 -14.9087816062 -2.9200206555
45.5334367850 -15.0146814776 -2.9200215431
45.4677186330 -15.2078105509 -2.9200216699
45.5369805788 -15.1025194486 -2.9200216699
45.5045072377 -15.1969040670 -2.9200217333
45.3307235105 -15.4615714921 -2.9200217967
45.5578238868 -15.1599970117 -2.9200217967
45.9121953159 -14.9697549649 -2.9200223672
45.9593080469 -15.0387818910 -2.9200225574
42.6556413705 -18.6193945809 -2.9200279461
42.9844334524 -18.6834992622 -2.9200280095
42.2748012488 -18.5942491493 -2.9200280729
43.1416489454 -18.7429940244 -2.9200281363
43.4650974363 -18.7498756450 -2.9200281363
42.0775926190 -18.5936765641 -2.9200281997
42.5532748194 -18.7005229766 -2.9200281997
43.7459283291 -18.7629957770 -2.9200281997
43.1079512090 -18.8137147042 -2.9200283265
42.2033551217 -18.7013892174 -2.9200283899
42.3641665114 -18.7380102689 -2.9200283899
43.2862701948 -18.8453954459 -2.9200283899
43.9599053838 -18.8168645009 -2.9200283899
43.2245780074 -18.8919022272 -2.9200285167
41.9657991518 -18.7126625242 -2.9200285801
42.4237400115 -18.8240971322 -2.9200285801
48.7907547722 -13.2542170006 -2.9200292774
48.7687684510 -13.0635472118 -2.9200292774
48.7452864166 -12.9053333882 -2.9200292774
48.7317929673 -12.8265042589 -2.9200292774
48.6508751149 -12.4513251660 -2.9200292774
48.8385304720 -13.6366662358 -2.9200293408
48.7377804626 -12.7275094219 -2.9200293408
48.6274515706 -12.1063379572 -2.9200294676
48.5361125406 -11.7768058754 -2.9200295310
48.5283363287 -11.6920717238 -2.9200295944
48.8450670252 -12.3335164299 -2.9200298480
48.8116152533 -12.0473362962 -2.9200299748
45.4795557452 -15.2144719241 -2.9200157000
42.7177792091 -18.5089511218 -2.9200161611
42.8623650395 -18.5229772729 -2.9200161611
42.8755303424 -18.5240189373 -2.9200161611
43.2185384844 -18.5615841407 -2.9200161668
43.5862456338 -18.6679624711 -2.9200161956
43.7897089774 -18.6472414061 -2.9200161956
43.7881972578 -18.8665760360 -2.9200162475
44.0607674614 -18.8509561324 -2.9200162533
45.2799892933 -14.7173817819 -2.9200127188
45.3253290052 -14.9793819488 -2.9200126151
45.3320749956 -14.9528576717 -2.9200126151
45.3055891749 -15.2048872960 -2.9200125632
45.2978863822 -15.2921938971 -2.9200125373
45.3385541407 -15.2548416844 -2.9200125114
45.7216245608 -14.6949213489 -2.9200122520
43.3653091151 -18.5125799109 -2.9200106700
43.4990914128 -18.5013502455 -2.9200106700
43.5137186789 -18.5241586054 -2.9200106441
43.5381347014 -18.5215625004 -2.9200106441
43.5898296376 -18.5399342613 -2.9200106181
43.6388272326 -18.5336959587 -2.9200106181
43.6510648296 -18.5320458275 -2.9200106181
43.6666340434 -18.5543011547 -2.9200105922
43.7280733262 -18.5452751826 -2.9200105922
43.7403447861 -18.5433609947 -2.9200105922
43.8671928748 -18.5459829078 -2.9200105663
43.6608619699 -18.6039000799 -2.9200105403
43.3133034489 -18.6852204676 -2.9200104885
43.5286271318 -18.6684285198 -2.9200104885
43.6993766381 -18.6961587390 -2.9200104366
43.4030025456 -18.8734354299 -2.9200102810
43.4978435440 -18.8900077790 -2.9200102550
44.1332351914 -18.8603283615 -2.9200101772
45.2993529088 -14.6777185592 -2.9200137324
45.3242543365 -14.7523461761 -2.9200137180
45.3242231038 -14.7181354294 -2.9200137180
45.3484755889 -14.7386755374 -2.9200137036
45.3483276305 -14.7110212031 -2.9200137036
45.3204784578 -15.2309728870 -2.9200136892
45.3377493637 -15.1418280983 -2.9200136892
45.3638503508 -14.9410075987 -2.9200136892
45.3846303692 -14.9782208698 -2.9200136748
45.6040044386 -14.9695265528 -2.9200135451
45.6340430704 -14.5834914021 -2.9200135307
45.6624126809 -14.7780685011 -2.9200135163
45.6465130102 -14.2742359032 -2.9200135019
43.8864632699 -18.4720670121 -2.9200128103
43.9030919626 -18.4929809542 -2.9200127959
43.9363859430 -18.4849191387 -2.9200127959
43.9585416164 -18.4793805838 -2.9200127959
44.0311533876 -18.4853047742 -2.9200127815
44.0422360465 -18.4822715410 -2.9200127815
44.0486517995 -18.5055776216 -2.9200127671
44.0931665722 -18.4930397003 -2.9200127671
44.1042718410 -18.4898229870 -2.9200127671
44.1667550640 -18.4963535556 -2.9200127527
44.1778698139 -18.4929191397 -2.9200127527
45.5850967344 -11.7640024139 -2.9200127527
44.2407997526 -18.4982311351 -2.9200127383
44.2818418895 -18.5100810124 -2.9200127239
44.3455558804 -18.5136691688 -2.9200127094
44.3678744875 -18.5057093239 -2.9200127094
44.1266219335 -18.6091823749 -2.9200126950
44.4319846147 -18.5078538759 -2.9200126950
44.4431322241 -18.5036348127 -2.9200126950
44.1563378435 -18.6257046869 -2.9200126806
44.4964530836 -18.5089214461 -2.9200126806
45.7712984768 -11.7687016254 -2.9200126806
44.1284081377 -18.6589611349 -2.9200126662
44.2668852843 -18.6168444302 -2.9200126662
44.2512179887 -18.6472470272 -2.9200126518
44.7016740703 -18.5276398067 -2.9200126230
44.7352441815 -18.5124896581 -2.9200126230
44.8888980099 -18.5465776501 -2.9200125654
44.4302037047 -18.7913912659 -2.9200125365
44.4261227784 -18.8184103247 -2.9200125221
44.6385365253 -18.7645445808 -2.9200125077
45.3392310942 -14.7953758864 -2.9200153782
45.3274162805 -14.7123943838 -2.9200153782
45.3913429828 -14.8248119350 -2.9200153839
45.3889247364 -14.8035644334 -2.9200153839
44.4202632006 -18.4391518464 -2.9200155309
44.4400726308 -18.4306664276 -2.9200155309
44.4794721464 -18.4398250245 -2.9200155338
44.5290855294 -18.4440253291 -2.9200155366
44.6590054796 -18.4356693741 -2.9200155424
44.6996034454 -18.4423330043 -2.9200155453
44.7914937498 -18.4489840160 -2.9200155511
44.9560316536 -18.4400731535 -2.9200155597
45.0179209660 -18.4314026776 -2.9200155626
44.7691955126 -11.6036985697 -2.9200155626
45.2276302672 -11.6163645692 -2.9200155885
45.2613177494 -11.6093746360 -2.9200155914
45.3289006987 -14.9541444972 -2.9200156539
45.3633701258 -15.0040129498 -2.9200156596
45.3451461790 -14.9150581000 -2.9200156596
45.3227744762 -14.6575568205 -2.9200156712
45.4008339651 -14.8361195406 -2.9200156769
45.3990568876 -14.8291425467 -2.9200156769
45.3917424213 -14.8012880552 -2.9200156769
45.3740833255 -14.7389449420 -2.9200156769
45.3613912474 -14.6976535908 -2.9200156769
45.3479683221 -14.6565940047 -2.9200156769
45.3441213713 -14.5735067725 -2.9200156827
45.4626450663 -14.5455353693 -2.9200157115
45.6530752635 -15.1478532278 -2.9200157230
45.6680947342 -15.7945262096 -2.9200157288
45.6292443771 -14.7538087106 -2.9200157346
45.4377926044 -13.9456842126 -2.9200157692
45.8808040452 -15.2583556933 -2.9200157749
45.8603863276 -15.9665393101 -2.9200157807
45.6915162372 -14.2136971017 -2.9200157922
45.7053403430 -14.1300823027 -2.9200158037
44.9512319726 -18.3344429974 -2.9200159248
45.0778527662 -18.3360519513 -2.9200159420
45.2233187420 -18.3197988092 -2.9200159593
45.3275357110 -18.3309343930 -2.9200159766
44.2553776542 -11.5406560427 -2.9200160688
44.2438570114 -11.5370819347 -2.9200160688
44.2323258463 -11.5335419225 -2.9200160688
44.3318800360 -11.5398694029 -2.9200160746
44.3203567315 -11.5360689905 -2.9200160746
44.2972766478 -11.5285705126 -2.9200160746
44.4087903726 -11.5405792565 -2.9200160804
44.3857354254 -11.5325574966 -2.9200160804
44.2930531720 -11.5018386050 -2.9200160804
44.4745642056 -11.5385432178 -2.9200160861
44.4283785594 -11.5218581151 -2.9200160861
44.5291646654 -11.5331880517 -2.9200160919
44.5060638827 -11.5244542463 -2.9200160919
44.6071662988 -11.5377782113 -2.9200160977
44.5956356037 -11.5331634616 -2.9200160977
44.5840913078 -11.5285828418 -2.9200160977
44.5609623178 -11.5195241527 -2.9200160977
44.6717105141 -11.5119359294 -2.9200161092
45.4115427427 -11.6500942424 -2.9200161611
45.3004444026 -11.4988770572 -2.9200161783
44.7954522902 -11.2492557827 -2.9200161783
45.8437517868 -11.4735043141 -2.9200162533
45.3461020404 -14.9082206967 -2.9200150967
45.3251674334 -14.8564097175 -2.9200150967
45.3420670329 -14.7167503653 -2.9200150967
45.3479455622 -14.6736396063 -2.9200150967
45.6484356159 -15.3879637211 -2.9200150967
45.3365553931 -14.3157850475 -2.9200150967
45.7975178654 -15.8075918580 -2.9200150967
45.4721665407 -14.4441386097 -2.9200150967
45.8398629272 -15.1104680272 -2.9200150967
45.1451317084 -13.8457735303 -2.9200150967
45.8633485661 -15.1047443879 -2.9200150967
44.9924490030 -13.6342604879 -2.9200150967
45.7113690453 -18.1799600893 -2.9200150967
46.0092285466 -18.3199848390 -2.9200150967
43.6781049476 -11.5291086096 -2.9200150967
43.6655665298 -11.5275543638 -2.9200150967
43.8320302473 -11.5267848145 -2.9200150967
43.7818114860 -11.5189693176 -2.9200150967
43.7566683050 -11.5152845386 -2.9200150967
43.9114576556 -11.5158299669 -2.9200150967
43.8988789361 -11.5135854798 -2.9200150967
43.7980213945 -11.4969710822 -2.9200150967
43.9788814867 -11.5038850804 -2.9200150967
43.9410170256 -11.4966654198 -2.9200150967
43.8904342479 -11.4875624493 -2.9200150967
43.8397473007 -11.4790586349 -2.9200150967
44.0468250063 -11.4930098417 -2.9200150967
43.8308480373 -11.4531520413 -2.9200150967
44.3616234363 -11.4710711707 -2.9200150967
44.5355230479 -11.4478692928 -2.9200150967
43.8515397524 -11.2361767820 -2.9200150967
44.4142621525 -11.2849888674 -2.9200150967
43.9347540487 -11.1517895674 -2.9200150967
44.9658969878 -11.4267194901 -2.9200150967
44.2794150491 -11.1991894087 -2.9200150967
45.3174756080 -11.5642473953 -2.9200150967
45.3564193448 -11.3941265891 -2.9200150967
45.3418877642 -14.8309342235 -2.9200150967
45.3999174326 -14.7868560372 -2.9200150967
45.3073582524 -14.6476047536 -2.9200150967
45.3466877074 -14.6194882976 -2.9200150967
45.5606791723 -14.8221120524 -2.9200150967
43.2159047209 -11.5169610160 -2.9200150967
43.0810670944 -11.5216731585 -2.9200150967
43.3374873636 -11.4919591658 -2.9200150967
43.2561047002 -11.4921538774 -2.9200150967
43.1882971580 -11.4934194866 -2.9200150967
43.1340692302 -11.4951539827 -2.9200150967
43.1069639118 -11.4962618226 -2.9200150967
43.2012987069 -11.4689195529 -2.9200150967
43.6664101384 -11.4574173359 -2.9200150967
43.5995583039 -11.4284926218 -2.9200150967
43.0625007486 -11.4258057414 -2.9200150967
43.7529416069 -11.4163832566 -2.9200150967
43.6701521699 -11.4092163159 -2.9200150967
43.1719330667 -11.3971415421 -2.9200150967
43.7967972844 -11.3964753118 -2.9200150967
43.0877635925 -11.3761428762 -2.9200150967
44.2421844399 -11.3660813071 -2.9200150967
44.4198767820 -11.3551539438 -2.9200150967
44.4814908582 -11.3451814804 -2.9200150967
43.3682104898 -11.2021612144 -2.9200150967
43.5712949393 -11.1847058256 -2.9200150967
44.6967571450 -11.3282314438 -2.9200150967
44.6328096693 -11.2849083724 -2.9200150967
45.0608050369 -11.3985684057 -2.9200150967
47.3374829259 -19.1116814182 -2.9200150967
45.2884872160 -14.7530965542 -2.9200150967
45.3135024185 -14.5688927189 -2.9200150967
45.6395061615 -14.8014990025 -2.9200150967
42.8085745486 -11.4582347644 -2.9200150967
43.3027507113 -11.3873473390 -2.9200150967
42.9188154747 -11.3947653896 -2.9200150967
42.4475375282 -11.4502270037 -2.9200150967
43.6427132547 -11.3115392066 -2.9200150967
43.5681112508 -11.3102830863 -2.9200150967
43.9597293756 -11.2806889879 -2.9200150967
42.6241248109 -11.3412143678 -2.9200150967
43.5990678438 -11.2381425879 -2.9200150967
44.2543699951 -11.2415925783 -2.9200150967
44.2241069556 -11.2373401763 -2.9200150967
43.5692522693 -11.1894233323 -2.9200150967
42.7470423506 -11.2474278734 -2.9200150967
44.2729971353 -11.2198683587 -2.9200150967
44.1969703413 -11.2093001235 -2.9200150967
43.8762360191 -11.1772278047 -2.9200150967
44.3679396510 -11.2101812223 -2.9200150967
43.7393004303 -11.1454406951 -2.9200150967
42.3707875089 -11.2444090093 -2.9200150967
44.1319804823 -11.1038144887 -2.9200150967
42.8342125513 -11.0886860106 -2.9200150967
48.7339112392 -17.4851815229 -2.9200150967
48.7060227599 -17.7061589665 -2.9200150967
48.7216521619 -17.6447067007 -2.9200150967
48.7291939110 -17.6139122920 -2.9200150967
48.8105579882 -17.2099679971 -2.9200150967
48.8203089101 -17.1473135584 -2.9200150967
42.5149731857 -11.0909911766 -2.9200150967
48.8571796797 -17.7962537004 -2.9200150967
45.3560427200 -14.6435456491 -2.9200150967
45.5010324095 -14.7045502779 -2.9200150967
45.1075886096 -14.3529279128 -2.9200150967
44.9247891776 -14.2539969819 -2.9200150967
45.5093895335 -14.6147335874 -2.9200150967
44.9811626628 -14.2281271829 -2.9200150967
46.0259709700 -15.1396280063 -2.9200150967
44.6427362725 -14.0333468926 -2.9200150967
48.5505247192 -17.7000091089 -2.9200150967
48.6077538012 -17.4158856787 -2.9200150967
48.6480827624 -17.1288754587 -2.9200150967
48.6630064572 -16.9701529189 -2.9200150967
48.6133755245 -17.5202710533 -2.9200150967
48.6161035304 -17.5059637033 -2.9200150967
48.6187892006 -17.4916483460 -2.9200150967
48.6955122553 -16.8412115679 -2.9200150967
48.6975397361 -16.7975634441 -2.9200150967
48.7014992135 -16.6519714832 -2.9200150967
48.5874864532 -17.7536784178 -2.9200150967
48.6779167424 -17.2794060536 -2.9200150967
48.7038796553 -17.2682016116 -2.9200150967
48.7304073930 -17.0343936485 -2.9200150967
48.7501524963 -16.5643238119 -2.9200150967
48.7699949287 -16.8006068967 -2.9200150967
48.6027956475 -18.0642526848 -2.9200150967
48.8118102535 -15.9954068754 -2.9200150967
48.7212953196 -17.8170290026 -2.9200150967
48.8637166128 -16.8648580456 -2.9200150967
48.8666018521 -16.8046648335 -2.9200150967
48.8849224314 -17.1856399839 -2.9200150967
48.9625418158 -16.8240599711 -2.9200150967
48.8668906401 -17.7260301445 -2.9200150967
48.8938348579 -17.7161649266 -2.9200150967
43.1774080129 -11.2416111988 -2.9200150967
42.7838039516 -11.3006248665 -2.9200150967
42.5191283516 -11.3572999754 -2.9200150967
43.1588173268 -11.2193979921 -2.9200150967
43.3799721676 -11.1742512069 -2.9200150967
42.1978032211 -11.3946516946 -2.9200150967
42.0830376045 -11.4055129775 -2.9200150967
42.6229401041 -11.2344526542 -2.9200150967
42.6447380172 -11.1803925701 -2.9200150967
45.3026153999 -14.6226698571 -2.9200150967
45.2383009572 -14.5872454270 -2.9200150967
45.2952190076 -14.5907387147 -2.9200150967
45.2144780458 -14.5204392167 -2.9200150967
44.8615396232 -14.1968843197 -2.9200150967
48.5043143996 -17.3215641700 -2.9200150967
48.5250262209 -17.1112982766 -2.9200150967
48.5309539859 -17.0190450089 -2.9200150967
48.5847415560 -16.8749112124 -2.9200150967
48.5810123535 -17.2903933107 -2.9200150967
48.6001634847 -17.0765334928 -2.9200150967
48.6815425399 -17.2604151751 -2.9200150967
48.7063337130 -16.7267136576 -2.9200150967
48.6641494294 -16.1529380327 -2.9200150967
48.6584134229 -16.1122191622 -2.9200150967
48.6628609964 -15.9862767244 -2.9200150967
48.7375282702 -17.1827164705 -2.9200150967
48.8004341382 -16.6137124148 -2.9200150967
48.7810590188 -16.3205452857 -2.9200150967
48.7028162870 -15.8090103444 -2.9200150967
48.7293391756 -15.8178238236 -2.9200150967
48.6877071756 -15.5379044412 -2.9200150967
48.8658477193 -16.4692847704 -2.9200150967
48.7073408016 -15.5179120697 -2.9200150967
48.8944762194 -17.0100269223 -2.9200150967
48.8882150593 -17.3685760379 -2.9200150967
48.9807843331 -17.1745358570 -2.9200150967
42.4257939140 -11.1233382270 -2.9200150967
41.8896768009 -11.2818917085 -2.9200150967
45.0853759051 -14.5031620165 -2.9200150967
44.6351124552 -14.1509235330 -2.9200150967
48.4914559433 -16.6847447116 -2.9200150967
48.5155915605 -16.6834003658 -2.9200150967
48.5125881050 -16.6346717778 -2.9200150967
48.5080233236 -16.5738166148 -2.9200150967
48.5300245713 -16.5473657031 -2.9200150967
48.5241665921 -16.4862621978 -2.9200150967
48.5202182245 -16.4496440362 -2.9200150967
48.5159450468 -16.4130623561 -2.9200150967
48.5286447590 -16.3244557587 -2.9200150967
48.5250912402 -16.3000160774 -2.9200150967
48.5213931903 -16.2755978475 -2.9200150967
48.6114208946 -16.6655519906 -2.9200150967
48.5816257079 -16.3547638708 -2.9200150967
48.5526081017 -16.0420701855 -2.9200150967
48.5543739854 -15.9384405804 -2.9200150967
48.7237700396 -16.5431353894 -2.9200150967
48.8278160422 -16.6396991128 -2.9200150967
48.8519432833 -16.6382119961 -2.9200150967
48.8430529092 -16.5196904011 -2.9200150967
48.6320146153 -15.2881141610 -2.9200150967
48.6249237219 -15.2041329255 -2.9200150967
45.3349350348 -14.5794973416 -2.9200150967
45.7018801107 -14.6491710955 -2.9200150967
45.5618592547 -14.5962330344 -2.9200150967
45.7805256399 -14.6566568880 -2.9200150967
45.8595636875 -14.6667671488 -2.9200150967
44.8227118320 -14.4112123510 -2.9200150967
44.7616966152 -14.4099143303 -2.9200150967
45.8839287910 -14.6517453936 -2.9200150967
45.8422718611 -14.6317639451 -2.9200150967
45.4787977522 -14.3676114709 -2.9200150967
44.7630654319 -14.2648826217 -2.9200150967
45.3277117469 -14.3047480644 -2.9200150967
45.4600586057 -14.0377192974 -2.9200150967
41.7405819100 -14.6331701207 -2.9200150967
41.7336269983 -14.6420454330 -2.9200150967
48.4903295934 -16.0857968384 -2.9200150967
48.4876422812 -16.0746988205 -2.9200150967
48.4849221508 -16.0636088006 -2.9200150967
48.4821692260 -16.0525268760 -2.9200150967
41.7453863375 -14.5498076279 -2.9200150967
48.4853075087 -15.9688413549 -2.9200150967
48.4993771206 -15.9290669706 -2.9200150967
48.4962261335 -15.9179428742 -2.9200150967
48.4930422531 -15.9068281477 -2.9200150967
48.4865759242 -15.8846271931 -2.9200150967
48.5130341274 -15.8889630631 -2.9200150967
48.4963558928 -15.8332396461 -2.9200150967
48.5089961465 -15.7926190247 -2.9200150967
48.5138249542 -15.7293187421 -2.9200150967
48.4947854320 -15.6736010911 -2.9200150967
48.6050260372 -15.9485438167 -2.9200150967
48.5136709822 -15.6544387790 -2.9200150967
48.5057110720 -15.6321201952 -2.9200150967
48.5016816349 -15.6209786611 -2.9200150967
48.5161946059 -15.5903424544 -2.9200150967
41.7783002572 -14.2539166997 -2.9200150967
48.6866080709 -16.0755748309 -2.9200150967
48.5180071131 -15.4610735386 -2.9200150967
48.6665845955 -15.7298402845 -2.9200150967
48.6276321399 -15.6141741967 -2.9200150967
48.5189416018 -15.2210801625 -2.9200150967
48.5354027906 -15.0885927905 -2.9200150967
48.8038250396 -15.6058232992 -2.9200150967
48.4771828721 -14.8762981995 -2.9200150967
48.5780502796 -14.3110712452 -2.9200150967
44.9656768690 -14.5732385014 -2.9200150967
45.4831831010 -14.5047984348 -2.9200150967
45.3644901575 -14.4888363077 -2.9200150967
45.5018917400 -14.4833365898 -2.9200150967
45.3971702927 -14.4683060651 -2.9200150967
45.3596313661 -14.4639907905 -2.9200150967
44.6966423963 -14.4793107700 -2.9200150967
44.5924447394 -14.4976232383 -2.9200150967
45.8398440180 -14.5376314441 -2.9200150967
45.7951926498 -14.4993045140 -2.9200150967
45.4945466610 -14.4331752050 -2.9200150967
46.0375215303 -14.5549557998 -2.9200150967
45.7492742297 -14.4617790909 -2.9200150967
45.6434481215 -14.4365247344 -2.9200150967
45.4983345144 -14.4093007951 -2.9200150967
44.8862590090 -14.3844996154 -2.9200150967
44.5099789794 -14.4409170937 -2.9200150967
46.1549638839 -14.5774212729 -2.9200150967
45.9579450954 -14.4999211867 -2.9200150967
45.2449176305 -14.3574002991 -2.9200150967
44.3376787077 -14.4606582868 -2.9200150967
44.9220511289 -14.3335677461 -2.9200150967
46.0189471305 -14.4704074968 -2.9200150967
45.9360225995 -14.4414172911 -2.9200150967
44.4241551225 -14.3868751433 -2.9200150967
46.2719713289 -14.5515720761 -2.9200150967
46.2062644340 -14.5208874671 -2.9200150967
44.9673562535 -14.2827673014 -2.9200150967
44.2173011516 -14.4226080940 -2.9200150967
44.1329389867 -14.4267802254 -2.9200150967
46.1205235624 -14.4318034857 -2.9200150967
46.2460077047 -14.4327407885 -2.9200150967
46.2001886431 -14.4125693969 -2.9200150967
45.8784666084 -14.2968820425 -2.9200150967
44.2658988874 -14.3055161672 -2.9200150967
44.4126750555 -14.1656911174 -2.9200150967
45.5647563174 -14.1017112799 -2.9200150967
43.6704617443 -14.3709310027 -2.9200150967
47.2238964281 -14.6777687630 -2.9200150967
48.4391245729 -15.5797458884 -2.9200150967
48.4441715024 -15.5304626352 -2.9200150967
48.4397976083 -15.5205369409 -2.9200150967
48.4353943713 -15.5106242287 -2.9200150967
48.4309618300 -15.5007245855 -2.9200150967
48.4485184345 -15.4808618842 -2.9200150967
48.4439977934 -15.4709235478 -2.9200150967
48.4394477726 -15.4609986278 -2.9200150967
48.4348684120 -15.4510872110 -2.9200150967
48.4302597517 -15.4411893841 -2.9200150967
48.4474902830 -15.4210044506 -2.9200150967
48.4427925772 -15.4110694176 -2.9200150967
48.4380655024 -15.4011483247 -2.9200150967
48.4550852760 -15.3807468110 -2.9200150967
48.4356415254 -15.3410036177 -2.9200150967
48.4307072145 -15.3311039855 -2.9200150967
48.4473301292 -15.3103397109 -2.9200150967
48.4587723671 -15.2794796646 -2.9200150967
48.4328888854 -15.1787474851 -2.9200150967
48.4595291468 -15.1771412400 -2.9200150967
48.4363304036 -15.0858268163 -2.9200150967
48.4515824781 -15.0638515190 -2.9200150967
48.4342316018 -15.0340660754 -2.9200150967
48.4550648681 -15.0218059653 -2.9200150967
48.4432781626 -15.0019120123 -2.9200150967
41.6142225096 -15.2102545756 -2.9200150967
41.6089312660 -15.2205345066 -2.9200150967
48.4460275907 -14.9596358029 -2.9200150967
41.6143470328 -15.1579448034 -2.9200150967
41.6089010469 -15.1682245950 -2.9200150967
48.4421012057 -14.9072189070 -2.9200150967
41.6152262688 -15.1053884107 -2.9200150967
41.6096248077 -15.1156658312 -2.9200150967
48.4437456970 -14.8645319975 -2.9200150967
41.6111084146 -15.0628687697 -2.9200150967
41.5957967064 -15.0407461612 -2.9200150967
41.6163779050 -14.9566024864 -2.9200150967
41.6103363033 -14.9668771513 -2.9200150967
41.6016668336 -14.9340006795 -2.9200150967
48.4374949351 -14.6383845004 -2.9200150967
41.6097488306 -14.7826708568 -2.9200150967
48.4412172612 -14.5606185330 -2.9200150967
41.6228088514 -14.7181745126 -2.9200150967
41.6160619084 -14.7284311968 -2.9200150967
48.6134470630 -14.7710209176 -2.9200150967
41.6231745853 -14.6740317680 -2.9200150967
41.6094499003 -14.6945636589 -2.9200150967
41.6198185904 -14.0031574337 -2.9200150967
48.4462307712 -13.8129306778 -2.9200150967
45.0040076529 -14.6366164441 -2.9200150967
45.2347949100 -14.4600945529 -2.9200150967
44.7395948455 -14.5501469142 -2.9200150967
45.4572428579 -14.4281564888 -2.9200150967
45.3599382572 -14.4291090438 -2.9200150967
44.8196464878 -14.5035906930 -2.9200150967
44.6970151671 -14.5375443521 -2.9200150967
45.6461569682 -14.4127489583 -2.9200150967
45.6235557828 -14.4109607313 -2.9200150967
44.6972147529 -14.5122289863 -2.9200150967
44.4903133673 -14.5842996826 -2.9200150967
45.3039747787 -14.3587420832 -2.9200150967
44.6391620123 -14.4796385929 -2.9200150967
44.3801661650 -14.5781000594 -2.9200150967
45.0322801299 -14.3621467047 -2.9200150967
44.8112871703 -14.4060601924 -2.9200150967
44.6688794217 -14.4450362749 -2.9200150967
44.5654673764 -14.4788430281 -2.9200150967
44.3138304422 -14.5818200993 -2.9200150967
44.2718236534 -14.6020640278 -2.9200150967
45.1374254156 -14.3237453603 -2.9200150967
45.1062695675 -14.3274314174 -2.9200150967
44.8743605641 -14.3667752663 -2.9200150967
44.2121452342 -14.6051634626 -2.9200150967
45.9193841795 -14.3029418711 -2.9200150967
44.7014275591 -14.3599428982 -2.9200150967
45.8840527628 -14.2722039831 -2.9200150967
44.7649321276 -14.3179455578 -2.9200150967
44.4503563831 -14.4182155920 -2.9200150967
45.1402398228 -14.2018529938 -2.9200150967
46.1306524647 -14.2504712159 -2.9200150967
46.0905222441 -14.2404541728 -2.9200150967
45.5755051406 -14.1657556029 -2.9200150967
44.7071158919 -14.2580898045 -2.9200150967
44.2642231385 -14.4182653265 -2.9200150967
46.3761470550 -14.2745621359 -2.9200150967
43.7652604501 -14.6541806855 -2.9200150967
43.6778967639 -14.7200176557 -2.9200150967
43.5904684183 -14.7597889910 -2.9200150967
43.8005261047 -14.5410342924 -2.9200150967
44.0551305021 -14.2239075153 -2.9200150967
45.3063208718 -13.8504861684 -2.9200150967
45.3887610372 -13.8240352854 -2.9200150967
48.3400745332 -15.0573454839 -2.9200150967
48.3546282944 -15.0354633994 -2.9200150967
48.3431993748 -15.0182138365 -2.9200150967
48.3374466946 -15.0096144871 -2.9200150967
48.3316686011 -15.0010321928 -2.9200150967
48.3420580704 -14.9307300042 -2.9200150967
48.3313702876 -14.8738146483 -2.9200150967
48.3447716947 -14.8510765767 -2.9200150967
48.3385245854 -14.8424733074 -2.9200150967
48.3262353407 -14.7852165823 -2.9200150967
48.3186574305 -14.6959497160 -2.9200150967
48.3241536353 -14.6638899293 -2.9200150967
48.3105268956 -14.6468271679 -2.9200150967
48.2946384154 -14.5891077981 -2.9200150967
48.3132563409 -14.5736900119 -2.9200150967
48.2959185154 -14.4416679636 -2.9200150967
41.5406505429 -15.7446082817 -2.9200150967
41.5335364185 -15.7676600883 -2.9200150967
41.5398639171 -15.6681058997 -2.9200150967
41.5360635026 -15.6796292035 -2.9200150967
41.5212032192 -15.7258333277 -2.9200150967
41.5365458525 -15.6027171036 -2.9200150967
41.5246667977 -15.6373525106 -2.9200150967
41.5385377581 -15.5254217299 -2.9200150967
41.5343152639 -15.5369495810 -2.9200150967
41.5301268895 -15.5484898726 -2.9200150967
41.5218526470 -15.5716073730 -2.9200150967
41.5331826020 -15.4708212690 -2.9200150967
41.5287986131 -15.4823652006 -2.9200150967
41.5331580241 -15.4043503307 -2.9200150967
41.5195187088 -15.4390236142 -2.9200150967
41.5105970128 -15.4622057921 -2.9200150967
41.5247291136 -15.3606519404 -2.9200150967
41.5200192610 -15.3722213610 -2.9200150967
41.5119305059 -15.3282754165 -2.9200150967
41.5071249336 -15.3398828392 -2.9200150967
41.5244040091 -15.2376886762 -2.9200150967
41.5193304103 -15.2492595964 -2.9200150967
41.5224458880 -15.1251504964 -2.9200150967
41.5115353178 -15.0916542924 -2.9200150967
41.5136625766 -14.9775667237 -2.9200150967
41.5816414223 -14.7013799329 -2.9200150967
41.5102440941 -14.8278877065 -2.9200150967
41.2764402856 -15.3304811270 -2.9200150967
41.3645076554 -15.0068791702 -2.9200150967
41.6916545922 -14.3928260438 -2.9200150967
40.9132723118 -15.2649160891 -2.9200150967
41.4720900251 -13.9938766870 -2.9200150967
44.7972334598 -15.0507049707 -2.9200150967
44.7865840808 -15.0564732109 -2.9200150967
45.2773418993 -14.3708351102 -2.9200150967
44.6079765068 -14.6039972407 -2.9200150967
44.7401548050 -14.5142553293 -2.9200150967
44.6171066081 -14.5722147893 -2.9200150967
44.5567832314 -14.6036305394 -2.9200150967
44.4452132569 -14.6673035002 -2.9200150967
44.3297835016 -14.7122118445 -2.9200150967
44.9726743551 -14.3746291966 -2.9200150967
45.3504381780 -14.2595558081 -2.9200150967
45.3271578377 -14.1653750540 -2.9200150967
45.6140420876 -14.1097302019 -2.9200150967
44.0871758707 -14.6177926678 -2.9200150967
48.1975403536 -14.5447735534 -2.9200150967
48.1633859899 -14.3062372644 -2.9200150967
41.5306894852 -16.3093610051 -2.9200150967
41.5290981546 -16.3218947702 -2.9200150967
41.5275439080 -16.3344331879 -2.9200150967
41.5227923412 -16.1930672909 -2.9200150967
41.5208570272 -16.2056249260 -2.9200150967
41.5134874981 -16.2559110675 -2.9200150967
41.5117381281 -16.2684959530 -2.9200150967
41.5158195275 -16.0885420614 -2.9200150967
41.4969606351 -16.2019783212 -2.9200150967
41.4950517946 -16.2146123322 -2.9200150967
41.5114300500 -15.9833193304 -2.9200150967
41.5038746454 -16.0211182295 -2.9200150967
41.4897716293 -16.0969097301 -2.9200150967
41.4811179076 -16.1475712991 -2.9200150967
41.4929994112 -15.9531747092 -2.9200150967
41.4826447241 -16.0038081479 -2.9200150967
41.4728898802 -16.0545605634 -2.9200150967
41.4832065691 -15.8847284680 -2.9200150967
41.4747773373 -15.9227817171 -2.9200150967
41.4091731645 -16.3068488796 -2.9200150967
41.4838872682 -15.7777453156 -2.9200150967
41.4435082122 -15.7403694202 -2.9200150967
41.3459224254 -16.2323658929 -2.9200150967
41.3149055629 -16.2816399529 -2.9200150967
41.4519869789 -15.4517063306 -2.9200150967
41.4397161478 -15.4900536878 -2.9200150967
41.4317248655 -15.5156784387 -2.9200150967
41.2993443481 -16.0632213254 -2.9200150967
41.2925063804 -16.1028992197 -2.9200150967
41.2686833620 -16.2621706860 -2.9200150967
41.4374108649 -15.4185974275 -2.9200150967
41.2719033372 -15.9481801148 -2.9200150967
41.3772760338 -15.3697857070 -2.9200150967
41.4175562200 -15.1203678307 -2.9200150967
41.4073781399 -15.1461301572 -2.9200150967
41.1942457476 -15.8477734092 -2.9200150967
41.4958284245 -14.8204030736 -2.9200150967
41.1966518049 -15.6334598387 -2.9200150967
41.4676711207 -14.7125928113 -2.9200150967
41.2619926519 -15.1198586865 -2.9200150967
41.3912736872 -14.5437504883 -2.9200150967
41.3767818735 -14.5194688141 -2.9200150967
40.9466653180 -15.3659817628 -2.9200150967
44.9583287778 -14.4224568226 -2.9200150967
45.3265109296 -14.2502921425 -2.9200150967
41.5179574525 -16.8245628672 -2.9200150967
41.5188200793 -16.8515340081 -2.9200150967
41.5223651423 -16.9324102019 -2.9200150967
41.4918932456 -16.6760788942 -2.9200150967
41.4921556833 -16.7438977387 -2.9200150967
41.4975314671 -16.9201368274 -2.9200150967
41.4677576533 -16.7169000212 -2.9200150967
41.4683720596 -16.7714382518 -2.9200150967
41.4534996018 -16.3882796173 -2.9200150967
41.4473836671 -16.8814609355 -2.9200150967
41.4499466609 -16.9362287204 -2.9200150967
41.4315926252 -16.1094028231 -2.9200150967
41.3996639797 -16.8972727949 -2.9200150967
41.3289457036 -16.1535105845 -2.9200150967
41.2550080144 -16.4753925021 -2.9200150967
41.3392258537 -15.6500864784 -2.9200150967
41.2052873992 -16.8769212286 -2.9200150967
