45.7608549549 -22.1679418489 -3.0500153060
45.8165552143 -22.5882661398 -3.0500153089
44.4202632006 -25.9391470780 -3.0500154069
44.4301741910 -25.9349190186 -3.0500154069
44.4496564329 -25.9528536853 -3.0500154098
44.4794721464 -25.9398202561 -3.0500154098
44.4893848692 -25.9354170430 -3.0500154098
44.4992305868 -25.9574941154 -3.0500154127
44.5091955056 -25.9530323759 -3.0500154127
44.5191471821 -25.9485411779 -3.0500154127
44.5390104604 -25.9394705639 -3.0500154127
44.5489218882 -25.9348912272 -3.0500154127
44.5988607667 -25.9380884378 -3.0500154156
44.6490912823 -25.9405695862 -3.0500154184
44.6996034454 -25.9423282359 -3.0500154213
44.7095226241 -25.9372738236 -3.0500154213
44.7503871551 -25.9433580871 -3.0500154242
44.7702157214 -25.9329194704 -3.0500154242
44.8113548533 -25.9382973322 -3.0500154271
44.8527282661 -25.9432068875 -3.0500154300
44.8626493740 -25.9376995005 -3.0500154300
44.9042649260 -25.9420139354 -3.0500154328
44.9141822794 -25.9363540988 -3.0500154328
44.9240828466 -25.9306649496 -3.0500154328
44.9560316536 -25.9400683851 -3.0500154357
44.9980970666 -25.9433020599 -3.0500154386
44.7897709568 -19.1142459050 -3.0500154386
45.0503019714 -25.9399891025 -3.0500154415
45.1290771369 -25.8904373165 -3.0500154415
44.8318009502 -19.1089245435 -3.0500154415
45.1027070328 -25.9359078024 -3.0500154444
44.8946371193 -19.1152499168 -3.0500154444
44.8843597122 -19.1096484310 -3.0500154444
44.8740657799 -19.1040773722 -3.0500154444
44.9474295571 -19.1168898276 -3.0500154472
44.9371567702 -19.1111321650 -3.0500154472
44.9268669960 -19.1054049165 -3.0500154472
44.9165603246 -19.0997081319 -3.0500154472
44.9695974003 -19.1016436825 -3.0500154501
44.9463372412 -26.1124251426 -3.0500154530
44.9775495034 -26.0949776661 -3.0500154530
45.0331483905 -19.1103602850 -3.0500154530
45.0228559129 -19.1043490793 -3.0500154530
45.0968706340 -19.1201989263 -3.0500154559
45.1402629472 -19.1184193334 -3.0500154588
45.1299938411 -19.1120912281 -3.0500154588
45.1093996947 -19.0995262893 -3.0500154588
45.3715266501 -25.9305069388 -3.0500154617
45.1735782224 -19.1106814728 -3.0500154617
45.4053846732 -25.9360167165 -3.0500154645
45.2481227516 -19.1296239367 -3.0500154645
45.3259937428 -19.1231992726 -3.0500154703
45.7249130594 -19.1147781615 -3.0500154991
46.2404015101 -25.9621746337 -3.0500155308
45.3316958811 -22.4676902709 -3.0500155299
45.3968772330 -22.7671913442 -3.0500155357
45.4438490905 -23.1198744248 -3.0500155472
45.4496075502 -22.8492048543 -3.0500155472
45.4335402687 -22.6431746079 -3.0500155472
45.3781509100 -22.2527617976 -3.0500155530
45.3289415567 -22.1022345733 -3.0500155530
45.2244647286 -21.8573306621 -3.0500155530
45.4566036998 -23.3901724105 -3.0500155587
45.4993389321 -22.9129404334 -3.0500155587
45.3565870974 -22.1076626544 -3.0500155587
45.5208829134 -22.8173255819 -3.0500155645
45.2062670547 -21.7190166041 -3.0500155645
45.4686018202 -23.5583306601 -3.0500155702
45.5183914557 -22.5507407024 -3.0500155702
45.4989807255 -22.4412427775 -3.0500155702
45.2487678213 -21.7461801515 -3.0500155702
45.4882352516 -23.5788457761 -3.0500155760
45.5705564086 -23.0171232995 -3.0500155760
45.3715180023 -21.8859319655 -3.0500155818
45.4844908744 -23.7591832537 -3.0500155875
45.4678553768 -22.0598795708 -3.0500155875
45.4735200488 -23.8611171672 -3.0500155933
45.4943884917 -21.9925117181 -3.0500155991
45.2603089476 -21.4820224893 -3.0500156048
45.5180116007 -23.9458516291 -3.0500156106
45.5239584564 -23.9311814935 -3.0500156106
45.6159555196 -23.6616497897 -3.0500156106
45.6040615568 -23.7827403850 -3.0500156164
45.6196383266 -22.1325189871 -3.0500156164
45.7560353591 -22.5058054523 -3.0500156279
45.7170238813 -22.3063978786 -3.0500156279
45.7963511698 -22.6239442736 -3.0500156336
45.7970554737 -22.4574744018 -3.0500156394
45.7397365406 -22.1991395794 -3.0500156394
45.7308599240 -22.1672631092 -3.0500156394
45.3798509362 -21.3133416093 -3.0500156509
44.9340347837 -25.8456951952 -3.0500158008
44.9512319726 -25.8344468121 -3.0500158008
44.9645237840 -25.8546374791 -3.0500158065
44.9731570167 -25.8489357745 -3.0500158065
44.9903726932 -25.8374558745 -3.0500158065
44.9989549864 -25.8316777794 -3.0500158065
45.0211091348 -25.8458661890 -3.0500158123
45.0778527662 -25.8360557660 -3.0500158181
45.1175905635 -25.8375338715 -3.0500158238
45.2147705959 -25.8262444795 -3.0500158354
45.2233187420 -25.8198026239 -3.0500158354
45.2635956326 -25.8194791136 -3.0500158411
45.4024048209 -25.8016443223 -3.0500158584
44.2668876736 -19.0442680298 -3.0500159449
44.2553776542 -19.0406598574 -3.0500159449
44.2323258463 -19.0335457372 -3.0500159449
44.3318800360 -19.0398732176 -3.0500159506
44.3203567315 -19.0360728052 -3.0500159506
44.3088222351 -19.0323064975 -3.0500159506
44.3972688315 -19.0365551410 -3.0500159564
44.3857354254 -19.0325613113 -3.0500159564
44.3741902554 -19.0286016169 -3.0500159564
44.3626334223 -19.0246760925 -3.0500159564
44.4630363537 -19.0343245403 -3.0500159622
44.4514960613 -19.0301361681 -3.0500159622
44.5176207331 -19.0288078796 -3.0500159679
44.5060638827 -19.0244580610 -3.0500159679
44.6508894306 -19.0294824122 -3.0500159794
44.7507263355 -19.0193396341 -3.0500159910
44.7275397206 -19.0092952380 -3.0500159910
44.8068551268 -19.0178024343 -3.0500159967
44.8850961462 -19.0005678071 -3.0500160083
45.1599297771 -19.1138726381 -3.0500160140
44.5010860620 -18.8168136991 -3.0500160140
45.2394834788 -19.1311465144 -3.0500160198
44.4969133462 -18.7897067856 -3.0500160198
44.4600833725 -18.7769531685 -3.0500160198
44.7125140675 -18.8457351883 -3.0500160256
45.2887955974 -18.9922154503 -3.0500160544
44.5829082645 -18.6663770925 -3.0500160544
45.6468641096 -18.9853103950 -3.0500161005
45.4438747914 -22.7213651946 -3.0500149727
45.3233259848 -22.2336278158 -3.0500149727
45.0940283330 -21.7673236877 -3.0500149727
43.8194842818 -19.0247876378 -3.0500149727
43.8737018537 -19.0092205824 -3.0500149727
43.8358887740 -19.0029341225 -3.0500149727
44.0040882216 -19.0088971445 -3.0500149727
43.7669714828 -18.9435134977 -3.0500149727
44.0772179972 -18.9748001635 -3.0500149727
43.7152796354 -18.8389044046 -3.0500149727
44.5610514488 -18.9561756157 -3.0500149727
45.0231604838 -19.0039556212 -3.0500149727
45.3803124447 -18.8791538003 -3.0500149727
45.2327533093 -22.2095185131 -3.0500149727
45.1673653638 -22.0829476493 -3.0500149727
45.6911070848 -22.4716540529 -3.0500149727
45.6862733404 -22.3517843466 -3.0500149727
43.0675922963 -19.0223560773 -3.0500149727
43.2967955999 -18.9918683323 -3.0500149727
43.5420757714 -18.9736413537 -3.0500149727
44.0904361758 -18.9120165272 -3.0500149727
44.0766325998 -18.9097216588 -3.0500149727
44.1498622465 -18.8978131827 -3.0500149727
44.2236114215 -18.8870550307 -3.0500149727
43.6494426183 -18.8107017528 -3.0500149727
43.2533811598 -18.7504313115 -3.0500149727
44.5094659622 -18.8522008183 -3.0500149727
44.5575154367 -18.8396778919 -3.0500149727
44.5013726036 -18.8252219235 -3.0500149727
44.1898116645 -18.7576562705 -3.0500149727
44.7039444700 -18.8555342785 -3.0500149727
45.2937692270 -18.9925972221 -3.0500149727
45.3807240396 -22.4397603660 -3.0500149727
45.2339689774 -22.2651884561 -3.0500149727
44.8850035794 -21.8392457159 -3.0500149727
45.1181759328 -21.9866592098 -3.0500149727
44.9045709917 -21.8233145217 -3.0500149727
45.9036495097 -23.1604878879 -3.0500149727
45.4691854690 -22.3171301499 -3.0500149727
45.3990675460 -22.2322027916 -3.0500149727
45.1942154347 -21.9890024598 -3.0500149727
44.9743784342 -21.8130278157 -3.0500149727
45.5214283851 -22.2662854182 -3.0500149727
44.9115910351 -21.5126933354 -3.0500149727
43.0119074808 -18.9329789715 -3.0500149727
42.9391703075 -18.9410394312 -3.0500149727
42.6640639608 -18.9814546224 -3.0500149727
42.5203027636 -19.0089176171 -3.0500149727
43.2586778151 -18.8894962257 -3.0500149727
42.4722429767 -18.9943548353 -3.0500149727
43.4641992893 -18.8587424320 -3.0500149727
43.3903146555 -18.8601214413 -3.0500149727
43.6272802693 -18.8353882491 -3.0500149727
43.3154713404 -18.8384402189 -3.0500149727
43.4483893172 -18.7864190584 -3.0500149727
42.4372050026 -18.9030189676 -3.0500149727
44.0522245805 -18.7652627261 -3.0500149727
42.8441965944 -18.7824479793 -3.0500149727
44.1454056857 -18.7515079071 -3.0500149727
44.0698604990 -18.7428233401 -3.0500149727
43.9790490874 -18.7338781558 -3.0500149727
43.4775723286 -18.6893924212 -3.0500149727
43.4470139266 -18.6897367290 -3.0500149727
42.6715900871 -18.7594470656 -3.0500149727
43.1706025812 -18.6768493885 -3.0500149727
42.9539021773 -18.6717455015 -3.0500149727
42.8589520404 -18.6586382815 -3.0500149727
43.6791053761 -18.5949131793 -3.0500149727
48.6769256521 -25.3132609014 -3.0500149727
48.7178129988 -25.1601080188 -3.0500149727
48.7674077673 -24.9438050621 -3.0500149727
48.6869788492 -25.3657499754 -3.0500149727
48.6824219373 -25.4644044802 -3.0500149727
48.6501462566 -25.6394358567 -3.0500149727
48.7149747405 -25.4408966541 -3.0500149727
48.6727583258 -24.3110097983 -3.0500149727
48.5805803979 -25.1770685906 -3.0500149727
48.6498401811 -24.8048580490 -3.0500149727
48.7254672752 -24.1668873052 -3.0500149727
48.7983460504 -24.1383009236 -3.0500149727
48.6636053195 -25.4417207089 -3.0500149727
48.7994002640 -25.1953739493 -3.0500149727
42.5134742230 -18.8337784316 -3.0500149727
42.1437361670 -18.9367387179 -3.0500149727
42.9331913212 -18.7257508429 -3.0500149727
42.6488435383 -18.7783288243 -3.0500149727
45.4679019539 -22.4036567291 -3.0500149727
45.3020953011 -22.2910381733 -3.0500149727
45.6128382093 -22.4569442778 -3.0500149727
45.3928676645 -22.2918046642 -3.0500149727
45.8445277416 -22.6454204519 -3.0500149727
45.2666923875 -22.1856739524 -3.0500149727
44.7904411428 -21.9785246899 -3.0500149727
45.0536993577 -22.0513937332 -3.0500149727
45.0140102698 -22.0343396769 -3.0500149727
44.8660435930 -21.9778961807 -3.0500149727
44.8250796153 -21.9641842492 -3.0500149727
45.8197938259 -22.5495637434 -3.0500149727
45.3158210768 -22.1582330101 -3.0500149727
45.2589267240 -22.1259010797 -3.0500149727
44.6081847634 -21.8798711400 -3.0500149727
45.9564101808 -22.6620837232 -3.0500149727
44.7132884538 -21.8807296495 -3.0500149727
45.9355867040 -22.6017943898 -3.0500149727
44.5169614123 -21.8121900820 -3.0500149727
44.6697836657 -21.7451956365 -3.0500149727
46.3719610817 -23.0072013919 -3.0500149727
44.9069761906 -21.7875660091 -3.0500149727
45.8061152557 -22.2405092601 -3.0500149727
44.8847030948 -21.7294364954 -3.0500149727
46.4165286541 -22.8904749530 -3.0500149727
44.5237398251 -21.5925515356 -3.0500149727
46.4289967967 -22.8641899593 -3.0500149727
46.5523544257 -23.0385817615 -3.0500149727
48.5074473259 -24.7953453947 -3.0500149727
48.5146003319 -24.7297023083 -3.0500149727
48.5171895475 -24.7034166564 -3.0500149727
48.5184258257 -24.6902682010 -3.0500149727
48.5229818263 -24.6376395343 -3.0500149727
48.5269147811 -24.5849606432 -3.0500149727
48.5481240076 -24.6263452598 -3.0500149727
48.5581725695 -24.4540351551 -3.0500149727
48.5700792486 -24.6548288610 -3.0500149727
48.5751471098 -24.5882747944 -3.0500149727
48.5853061005 -24.2147346168 -3.0500149727
48.5880841823 -24.7236703393 -3.0500149727
48.6004975705 -23.9864349696 -3.0500149727
48.6316094295 -24.4298969313 -3.0500149727
48.6324228479 -24.4029242615 -3.0500149727
48.6340434309 -24.2545223138 -3.0500149727
48.6338192316 -24.2275383129 -3.0500149727
48.6572442310 -24.3764614559 -3.0500149727
48.6427758445 -23.9021543029 -3.0500149727
48.6311265501 -23.7806390754 -3.0500149727
48.6783935878 -24.4723747396 -3.0500149727
48.6800987966 -24.1315691243 -3.0500149727
48.6786096768 -24.0906898646 -3.0500149727
48.6657265952 -23.8865802840 -3.0500149727
48.6566181600 -23.7915690729 -3.0500149727
48.6364338917 -23.6292014000 -3.0500149727
48.6983647310 -24.5555239023 -3.0500149727
48.6978519805 -23.9938810909 -3.0500149727
48.6842972556 -23.6223867451 -3.0500149727
48.6651856882 -23.4998653426 -3.0500149727
48.6628609964 -23.4862843538 -3.0500149727
48.6480701204 -23.4049482386 -3.0500149727
48.7528463031 -24.4200544879 -3.0500149727
48.7367832004 -23.8666095970 -3.0500149727
48.6791568601 -23.3139744645 -3.0500149727
48.7056651900 -23.3227179332 -3.0500149727
48.8274921728 -24.2816166524 -3.0500149727
48.8216167455 -24.0426166679 -3.0500149727
48.8176022377 -23.9724092306 -3.0500149727
48.8146952484 -23.9303159726 -3.0500149727
48.8077612095 -23.8462151359 -3.0500149727
48.7507779617 -23.4282838489 -3.0500149727
48.6922957817 -23.1531813081 -3.0500149727
48.8506967326 -24.1826844221 -3.0500149727
48.7020683618 -23.0926018347 -3.0500149727
48.6949686602 -23.0652357111 -3.0500149727
48.6424885336 -22.8000678698 -3.0500149727
48.8922353898 -24.5528129926 -3.0500149727
48.6566132551 -22.7654801692 -3.0500149727
48.9188819620 -24.8142211298 -3.0500149727
42.2666797542 -18.6975402668 -3.0500149727
42.1679048614 -18.7304790035 -3.0500149727
42.0287548637 -18.7544437232 -3.0500149727
41.9059475499 -18.7754646065 -3.0500149727
41.8970908589 -18.7529725122 -3.0500149727
45.2681522908 -22.1665479893 -3.0500149727
44.6819174222 -21.7526009184 -3.0500149727
48.5108702094 -24.1103178490 -3.0500149727
48.5090082805 -24.0859783248 -3.0500149727
48.5070023833 -24.0616502423 -3.0500149727
48.5321146002 -24.0718264280 -3.0500149727
48.5241665921 -23.9862583831 -3.0500149727
48.5174055092 -23.9252482034 -3.0500149727
48.5645312924 -24.1930380998 -3.0500149727
48.5368954281 -23.8856393821 -3.0500149727
48.5987960190 -24.0036619121 -3.0500149727
48.5832583404 -23.8671442684 -3.0500149727
48.5447166592 -23.5052132984 -3.0500149727
48.6555179445 -24.0996828654 -3.0500149727
48.6545728872 -24.0870838786 -3.0500149727
48.6172613112 -23.6193873365 -3.0500149727
48.7750859222 -24.0778648525 -3.0500149727
48.8127063791 -23.9564410740 -3.0500149727
48.7523519332 -23.5538998941 -3.0500149727
48.6094448328 -22.7967671470 -3.0500149727
45.3801708196 -22.2416736996 -3.0500149727
45.6138798458 -22.2700595336 -3.0500149727
46.0050030269 -22.3545967965 -3.0500149727
46.1912420795 -22.4471008223 -3.0500149727
46.1450531075 -22.3278943405 -3.0500149727
41.7356541347 -22.1004368097 -3.0500149727
48.4903295934 -23.5858025605 -3.0500149727
48.4821692260 -23.5525325980 -3.0500149727
41.7453863375 -22.0498133500 -3.0500149727
48.4971123328 -23.5132659505 -3.0500149727
48.4883079766 -23.4799386514 -3.0500149727
48.4853075087 -23.4688470769 -3.0500149727
48.4822742430 -23.4577644270 -3.0500149727
48.4898255073 -23.3957286103 -3.0500149727
48.4963558928 -23.3332453682 -3.0500149727
48.4929214444 -23.3221306284 -3.0500149727
48.5160064343 -23.3149599572 -3.0500149727
48.4982332555 -23.2592006741 -3.0500149727
48.5138249542 -23.2293244642 -3.0500149727
48.5025001185 -23.1958600312 -3.0500149727
48.4986592325 -23.1847277168 -3.0500149727
48.5161946059 -23.0903481764 -3.0500149727
48.5219540678 -23.0370763157 -3.0500149727
48.5134716353 -22.9499021010 -3.0500149727
48.5125477129 -22.8847678711 -3.0500149727
48.5077865161 -22.8736071953 -3.0500149727
48.5154400505 -22.8304953980 -3.0500149727
48.5326243814 -22.8095460074 -3.0500149727
48.5302555990 -22.6883782968 -3.0500149727
48.4016891957 -22.3902529942 -3.0500149727
48.7700288096 -23.1571296057 -3.0500149727
48.7429009329 -23.0064567612 -3.0500149727
49.2233031604 -23.0661038956 -3.0500149727
45.1640053164 -22.1681986022 -3.0500149727
45.3389677910 -22.1562640538 -3.0500149727
44.9187728146 -22.1244869566 -3.0500149727
45.5414723693 -22.1377111401 -3.0500149727
45.1307762803 -22.0948031360 -3.0500149727
44.7328802658 -22.1205102396 -3.0500149727
45.8660214991 -22.1983850963 -3.0500149727
45.1744009011 -22.0718083879 -3.0500149727
44.5876047947 -22.1219396472 -3.0500149727
44.5454049534 -22.1311720859 -3.0500149727
45.8392354589 -22.1640980331 -3.0500149727
45.7975867062 -22.1511096662 -3.0500149727
45.8186235061 -22.1322588660 -3.0500149727
45.6628253573 -22.0896769267 -3.0500149727
44.1225718677 -22.1382547394 -3.0500149727
44.4872551245 -21.9461318857 -3.0500149727
44.4512372401 -21.9299347417 -3.0500149727
44.4070946841 -21.9162340407 -3.0500149727
46.0488613620 -21.9816123716 -3.0500149727
43.7139469500 -22.1233791901 -3.0500149727
48.4348964896 -23.0698310934 -3.0500149727
48.4485160154 -23.0403974103 -3.0500149727
48.4441715024 -23.0304588205 -3.0500149727
48.4397976083 -23.0205331262 -3.0500149727
48.4485184345 -22.9808580695 -3.0500149727
48.4439977934 -22.9709197331 -3.0500149727
48.4302597517 -22.9411855694 -3.0500149727
48.4521585786 -22.9309495221 -3.0500149727
48.4427925772 -22.9110656029 -3.0500149727
48.4405465298 -22.8509139885 -3.0500149727
48.4356415254 -22.8409998030 -3.0500149727
48.4473301292 -22.8103358962 -3.0500149727
48.4485100809 -22.7595554523 -3.0500149727
48.4376759295 -22.6373559037 -3.0500149727
48.4363304036 -22.5858230016 -3.0500149727
48.4249227949 -22.5660387675 -3.0500149727
41.6142225096 -22.7102507609 -3.0500149727
41.6089312660 -22.7205306919 -3.0500149727
41.6036704555 -22.7308262305 -3.0500149727
48.4399650794 -22.4497033008 -3.0500149727
41.6143470328 -22.6579409887 -3.0500149727
41.6034854943 -22.6785166370 -3.0500149727
41.6096248077 -22.6156620165 -3.0500149727
41.6168660523 -22.5525921542 -3.0500149727
41.6111084146 -22.5628649550 -3.0500149727
41.6016198538 -22.5304243477 -3.0500149727
48.4256642029 -22.2488592370 -3.0500149727
41.6224498746 -22.4463419240 -3.0500149727
41.6057693380 -22.3803156777 -3.0500149727
41.6106571526 -22.3264435038 -3.0500149727
48.4240372091 -21.9967470240 -3.0500149727
41.6150113133 -22.0162845726 -3.0500149727
48.4296181994 -21.7688756571 -3.0500149727
44.9473744750 -22.1725211140 -3.0500149727
45.4696150481 -22.0975409673 -3.0500149727
45.5757540517 -22.0773433769 -3.0500149727
44.5988698875 -22.2238099337 -3.0500149727
45.6624748954 -22.0598338122 -3.0500149727
44.9882095924 -22.0903903755 -3.0500149727
44.4911082709 -22.2407776794 -3.0500149727
45.7220402721 -22.0419247883 -3.0500149727
44.9202283335 -22.0794500196 -3.0500149727
44.3059645726 -22.3016031659 -3.0500149727
44.5666933928 -22.1584264334 -3.0500149727
45.6401163384 -21.9850236503 -3.0500149727
44.9964798092 -22.0151461872 -3.0500149727
46.1437437364 -22.0298092722 -3.0500149727
45.3193585461 -21.8580297439 -3.0500149727
44.6245096733 -21.9843883335 -3.0500149727
44.1143016633 -22.1864917100 -3.0500149727
45.3250775706 -21.8093981703 -3.0500149727
43.7910656424 -22.3770484289 -3.0500149727
44.8437820512 -21.7250048131 -3.0500149727
44.3743114568 -21.7922521469 -3.0500149727
44.1877982877 -21.7938412973 -3.0500149727
48.3400745332 -22.5573531133 -3.0500149727
48.3313702876 -22.3738222777 -3.0500149727
48.3127550616 -22.3481861327 -3.0500149727
48.3322520533 -22.3338961852 -3.0500149727
48.3259541534 -22.3253300265 -3.0500149727
48.2946384154 -22.0891154275 -3.0500149727
41.5442587174 -23.2331058923 -3.0500149727
41.5406505429 -23.2446159111 -3.0500149727
41.5370764328 -23.2561365531 -3.0500149727
41.5335364185 -23.2676677177 -3.0500149727
41.5475669267 -23.1451009005 -3.0500149727
41.5248670185 -23.2142734918 -3.0500149727
41.5405737848 -23.0912031926 -3.0500149727
41.5365458525 -23.1027247330 -3.0500149727
41.5325520207 -23.1142581383 -3.0500149727
41.5207754756 -23.1489285341 -3.0500149727
41.5093070746 -23.1837020749 -3.0500149727
41.5427943354 -23.0139140495 -3.0500149727
41.5385377581 -23.0254293593 -3.0500149727
41.5301268895 -23.0484975020 -3.0500149727
41.5244487925 -22.9939296796 -3.0500149727
41.5158518078 -23.0170817286 -3.0500149727
41.5247291136 -22.8606595698 -3.0500149727
41.3828702297 -23.1822513463 -3.0500149727
41.5224458880 -22.6251581258 -3.0500149727
41.5121984555 -22.5347402415 -3.0500149727
41.2811587766 -23.0276209294 -3.0500149727
45.0934164243 -22.1155510776 -3.0500149727
45.3787981549 -22.0243546794 -3.0500149727
45.2009754160 -22.0610587882 -3.0500149727
45.5849179295 -21.9750239033 -3.0500149727
44.8797336844 -22.1391672493 -3.0500149727
44.7375998672 -22.2015491135 -3.0500149727
45.2240537683 -22.0058363331 -3.0500149727
45.0248909313 -22.0609796402 -3.0500149727
44.4898839143 -22.3100896336 -3.0500149727
45.4737667166 -21.9374419398 -3.0500149727
45.4309309932 -21.9430245321 -3.0500149727
45.3668800435 -21.9528216370 -3.0500149727
45.2115961293 -21.9839168414 -3.0500149727
44.9357377217 -22.0660374361 -3.0500149727
45.4925220228 -21.9109139802 -3.0500149727
44.9548776469 -22.0335472831 -3.0500149727
44.7128743367 -22.1330000284 -3.0500149727
44.3850845330 -22.3207128835 -3.0500149727
44.3079490146 -22.3753412441 -3.0500149727
45.7021932623 -21.8722253688 -3.0500149727
45.7831130001 -21.8472622577 -3.0500149727
45.5018666914 -21.8612585429 -3.0500149727
45.4429646285 -21.8682272385 -3.0500149727
44.1740057886 -22.4184649529 -3.0500149727
44.8097951423 -21.9849130468 -3.0500149727
45.7912115772 -21.7748054247 -3.0500149727
45.4196397410 -21.7493914101 -3.0500149727
45.3350984129 -21.7620668572 -3.0500149727
44.2121674334 -22.2058224493 -3.0500149727
45.7356319457 -21.5814822930 -3.0500149727
44.3326619311 -21.9811244286 -3.0500149727
46.3837606993 -21.6260248417 -3.0500149727
46.7985539852 -21.6247835025 -3.0500149727
44.1729899384 -21.8526463149 -3.0500149727
48.1976835400 -21.9752668979 -3.0500149727
48.1161839608 -21.2907764343 -3.0500149727
41.5152740888 -23.7433333193 -3.0500149727
41.5134874981 -23.7559129748 -3.0500149727
41.5117381281 -23.7684978603 -3.0500149727
41.4950517946 -23.7146142395 -3.0500149727
41.5088743134 -23.4959134023 -3.0500149727
41.5014307578 -23.5337344862 -3.0500149727
41.4875520084 -23.6095673745 -3.0500149727
41.4903545820 -23.4658234341 -3.0500149727
41.4877471759 -23.4784780203 -3.0500149727
41.4860913176 -23.3720627675 -3.0500149727
41.4141965992 -23.7682002137 -3.0500149727
41.4735433449 -23.2209783354 -3.0500149727
41.4572614825 -23.2846021627 -3.0500149727
41.4435082122 -23.2403713276 -3.0500149727
41.3983841891 -23.4332436225 -3.0500149727
41.4663433986 -23.0680512989 -3.0500149727
41.4442051472 -23.1445802743 -3.0500149727
41.4627716432 -22.9973205395 -3.0500149727
41.4587784415 -23.0100587709 -3.0500149727
41.4437686060 -22.9772610616 -3.0500149727
41.4546932038 -22.8674716364 -3.0500149727
41.4407540062 -22.8339741752 -3.0500149727
41.4001761597 -22.8775283841 -3.0500149727
49.1546408345 -21.1923789159 -3.0500149727
41.4248805199 -22.6677846557 -3.0500149727
41.2008120443 -23.4338626081 -3.0500149727
49.1899882659 -21.1593955834 -3.0500149727
41.4546457250 -22.4092762416 -3.0500149727
41.2387665795 -22.9854188681 -3.0500149727
41.5363237681 -22.1839366081 -3.0500149727
41.5109478105 -22.2341462673 -3.0500149727
41.4105724413 -22.3894044830 -3.0500149727
41.9132247077 -21.4871608346 -3.0500149727
41.4006729247 -22.1306565487 -3.0500149727
41.0061244403 -22.8379318789 -3.0500149727
44.8794984093 -22.1571558722 -3.0500149727
44.6365330005 -22.3212558408 -3.0500149727
45.0351293967 -22.0463461399 -3.0500149727
44.5829608385 -22.3326412383 -3.0500149727
45.5412453081 -21.8429120719 -3.0500149727
44.1491921904 -22.5531125226 -3.0500149727
44.5861454740 -21.9705947298 -3.0500149727
44.2098937923 -22.1431052257 -3.0500149727
41.5188200793 -24.3515321008 -3.0500149727
41.5204131746 -24.3919780629 -3.0500149727
41.5223651423 -24.4324082945 -3.0500149727
41.4930878312 -24.2981434832 -3.0500149727
41.4968773609 -24.4065867118 -3.0500149727
41.4751182278 -23.9306932383 -3.0500149727
41.4687348386 -24.0941861074 -3.0500149727
41.4502266170 -23.9430076539 -3.0500149727
41.4499466609 -24.4362268131 -3.0500149727
41.4298887973 -23.6231457360 -3.0500149727
41.4071565781 -23.8574713315 -3.0500149727
41.3929240898 -23.3778370424 -3.0500149727
41.3817299460 -23.3041527850 -3.0500149727
41.2777544366 -24.3741723178 -3.0500149727
41.3722226232 -23.1134819154 -3.0500149727
41.3214768337 -23.3654150000 -3.0500149727
41.2329843172 -23.9313054730 -3.0500149727
41.3486785153 -23.0045166428 -3.0500149727
41.3287855280 -22.9845759239 -3.0500149727
41.1839500621 -23.9431787403 -3.0500149727
41.1778337859 -24.1459824581 -3.0500149727
49.0680666925 -20.2204628427 -3.0500149727
41.5347155276 -22.1117313548 -3.0500149727
44.7385009446 -22.2578222729 -3.0500149727
45.1019974867 -21.8365272485 -3.0500149727
41.4625161368 -24.7203596862 -3.0500149727
41.3887068975 -24.2266114679 -3.0500149727
41.4261767282 -24.6366126870 -3.0500149727
41.3466620478 -24.3327829414 -3.0500149727
41.2806743140 -23.5402486093 -3.0500149727
41.2587599450 -24.4452000479 -3.0500149727
41.2139572567 -23.9005388431 -3.0500149727
41.1923288937 -24.1598910758 -3.0500149727
41.2410135748 -25.1140685604 -3.0500149727
47.2683537692 -18.7237353241 -3.0500149727
47.8132315280 -18.8230610315 -3.0500149727
44.7606359847 -22.2298582761 -3.0500149727
44.6162426404 -22.4270109257 -3.0500149727
44.7689407997 -22.1820057405 -3.0500149727
44.6789480983 -22.2552218930 -3.0500149727
45.1637912004 -21.7502840711 -3.0500149727
44.6186743072 -22.2548072360 -3.0500149727
44.5992784836 -22.2403802712 -3.0500149727
47.0544832525 -18.8685720677 -3.0500149727
47.9663391659 -19.0193296204 -3.0500149727
47.0567816969 -18.8445085593 -3.0500149727
47.0423517431 -18.8431518062 -3.0500149727
47.9311330427 -18.9840484656 -3.0500149727
47.8186470177 -18.9536613568 -3.0500149727
46.7538913586 -18.8008354094 -3.0500149727
47.6824125760 -18.8958569130 -3.0500149727
47.4095870489 -18.8421622070 -3.0500149727
46.7839456208 -18.7777310816 -3.0500149727
46.7546914601 -18.7766756263 -3.0500149727
46.5205378555 -18.7744652671 -3.0500149727
46.9186623542 -18.7363796345 -3.0500149727
46.6528628403 -18.7260025101 -3.0500149727
46.2835677441 -18.7350814743 -3.0500149727
46.1931958927 -18.7172248907 -3.0500149727
47.4402989149 -18.7492936827 -3.0500149727
47.6209991849 -18.6848283702 -3.0500149727
47.8669723544 -18.6416997390 -3.0500149727
41.2261756924 -24.1641268813 -3.0500149727
41.3264016621 -24.9554180482 -3.0500149727
41.3337922883 -24.9865431359 -3.0500149727
41.3693234320 -25.1260424946 -3.0500149727
41.3993444854 -25.3175787248 -3.0500149727
41.4185899018 -25.3788961832 -3.0500149727
41.4592505066 -25.5008265075 -3.0500149727
41.2416488089 -24.7929802169 -3.0500149727
41.4082846575 -25.5013388902 -3.0500149727
41.3963335705 -25.7495490961 -3.0500149727
44.8282572175 -22.1396569838 -3.0500149727
44.7486674318 -22.2692420541 -3.0500149727
44.7185676228 -22.3236988027 -3.0500149727
44.9935649068 -21.8815429209 -3.0500149727
45.0036736203 -21.7268728926 -3.0500149727
44.6872085710 -22.0905604086 -3.0500149727
44.4494347008 -22.5697981130 -3.0500149727
44.3826316026 -22.7796318225 -3.0500149727
44.3246962207 -22.4236301006 -3.0500149727
44.3909986138 -22.2201119288 -3.0500149727
45.0450179343 -21.2949328114 -3.0500149727
43.9607973695 -23.3085956158 -3.0500149727
44.4517195667 -21.4364780772 -3.0500149727
47.2794941420 -19.0150724032 -3.0500149727
47.2533831161 -19.0121880720 -3.0500149727
47.2403213181 -19.0108038498 -3.0500149727
47.2690948701 -18.9895840466 -3.0500149727
47.2296962609 -18.9854087846 -3.0500149727
47.2165553486 -18.9840947496 -3.0500149727
46.9266903430 -18.9650390981 -3.0500149727
47.0998569991 -18.9499080961 -3.0500149727
46.9407604672 -18.9413384331 -3.0500149727
46.8876730666 -18.9397375187 -3.0500149727
46.7681820709 -18.9384327613 -3.0500149727
46.7150723705 -18.9388740781 -3.0500149727
46.7017960518 -18.9390825973 -3.0500149727
46.6885204081 -18.9393303893 -3.0500149727
46.6479973665 -18.9161465266 -3.0500149727
46.4545446169 -18.8289826800 -3.0500149727
46.1022080433 -18.8675001255 -3.0500149727
46.6855992348 -18.7943216416 -3.0500149727
46.3162758171 -18.8165364330 -3.0500149727
46.0986591653 -18.8435890246 -3.0500149727
46.0580110223 -18.8498064720 -3.0500149727
46.0039023708 -18.8586570669 -3.0500149727
47.1119557002 -18.7811299866 -3.0500149727
46.8504454458 -18.7697578788 -3.0500149727
46.5600486898 -18.7501545303 -3.0500149727
46.3644745180 -18.7391476138 -3.0500149727
45.9506280094 -18.7943278169 -3.0500149727
45.7406416761 -18.8120459388 -3.0500149727
46.3322045481 -18.6935494939 -3.0500149727
46.0670056943 -18.7261189320 -3.0500149727
45.7079110722 -18.7947178075 -3.0500149727
45.4833898685 -18.8273108642 -3.0500149727
47.2072946929 -18.6433123722 -3.0500149727
45.4905174690 -18.8002115746 -3.0500149727
45.3542330539 -18.8403436963 -3.0500149727
45.2654739895 -18.8433976923 -3.0500149727
47.2258982547 -18.5964601002 -3.0500149727
41.2248673991 -25.3156882100 -3.0500149727
41.2534098020 -25.3976282447 -3.0500149727
41.3473210485 -25.8879272815 -3.0500149727
41.3326359378 -25.9140254119 -3.0500149727
40.9731437923 -25.3249505902 -3.0500149727
44.1311635616 -25.6387253677 -3.0500149727
46.6740613722 -19.0333603666 -3.0500149727
46.6620208189 -19.0340846119 -3.0500149727
46.6121091449 -19.0132297166 -3.0500149727
46.6000093125 -19.0141373159 -3.0500149727
46.5637266655 -19.0170748176 -3.0500149727
46.5395533342 -19.0192119854 -3.0500149727
46.6103366797 -18.9891217583 -3.0500149727
46.5859971530 -18.9909836549 -3.0500149727
46.4887619753 -18.9998701961 -3.0500149727
46.5351532174 -18.9710665795 -3.0500149727
46.3643635253 -18.9902488386 -3.0500149727
46.3521967953 -18.9918894148 -3.0500149727
46.1328030342 -18.9540009316 -3.0500149727
46.5979294235 -18.8203660508 -3.0500149727
46.5599272470 -18.8233296408 -3.0500149727
45.7974046357 -18.9561766508 -3.0500149727
46.6584886141 -18.7679134635 -3.0500149727
45.6735895674 -18.9410043510 -3.0500149727
45.6049143639 -18.9367254389 -3.0500149727
46.1654720185 -18.7761744245 -3.0500149727
46.6397145508 -18.6721759647 -3.0500149727
46.3752329868 -18.6720843774 -3.0500149727
45.3426976596 -18.8990152093 -3.0500149727
44.6097948674 -22.5850332420 -3.0500149727
44.5943631443 -22.4909789004 -3.0500149727
44.5890016138 -22.9819453382 -3.0500149727
44.5864925078 -22.2416959912 -3.0500149727
44.7052193469 -21.6170459685 -3.0500149727
44.2849489708 -22.4315442805 -3.0500149727
44.2432151312 -22.8829838654 -3.0500149727
46.0804243760 -19.0358367519 -3.0500149727
46.0694037975 -19.0385398141 -3.0500149727
46.0583912635 -19.0412754653 -3.0500149727
46.0636107413 -19.0150712014 -3.0500149727
45.9862126314 -19.0350287506 -3.0500149727
44.6303008897 -25.8184663547 -3.0500149727
45.9466869995 -19.0207847880 -3.0500149727
45.9356224798 -19.0238835354 -3.0500149727
45.9024845981 -19.0333759715 -3.0500149727
45.8846291389 -19.0134168798 -3.0500149727
45.8403439013 -19.0267428765 -3.0500149727
45.7888442587 -19.0175714761 -3.0500149727
45.7147825374 -19.0165701493 -3.0500149727
45.7037065647 -19.0203549305 -3.0500149727
45.4387346991 -18.9910883251 -3.0500149727
45.7122434489 -18.7375323504 -3.0500149727
45.0546844169 -22.5223672033 -3.0500149727
45.0303354121 -22.4923851513 -3.0500149727
44.1612204720 -22.4262963410 -3.0500149727
44.1602175466 -22.4746811431 -3.0500149727
44.1885498099 -22.0031508014 -3.0500149727
44.1511222298 -22.0672791703 -3.0500149727
44.1227579002 -22.7278689593 -3.0500149727
44.1323793736 -22.8119969841 -3.0500149727
44.1501103772 -21.8550560813 -3.0500149727
44.0949687596 -22.1081885002 -3.0500149727
44.0835282876 -22.1865516107 -3.0500149727
44.0949548173 -22.8895666525 -3.0500149727
44.1287178316 -23.0589931436 -3.0500149727
44.1899588010 -23.2735380273 -3.0500149727
44.0772111305 -22.0684674572 -3.0500149727
44.0833901767 -21.9204930608 -3.0500149727
43.9709192536 -22.3529834147 -3.0500149727
44.1257794177 -21.4856142191 -3.0500149727
44.1189023576 -23.5569317146 -3.0500149727
43.8715372052 -22.4095148706 -3.0500149727
43.8959024462 -22.8668219903 -3.0500149727
43.9938753597 -23.3724620002 -3.0500149727
43.8298825933 -22.7084013226 -3.0500149727
43.8543434514 -23.0500224447 -3.0500149727
43.8992314299 -23.4662840735 -3.0500149727
44.1108451545 -23.9097930093 -3.0500149727
44.1277063164 -23.9379311955 -3.0500149727
44.0778153203 -21.0490172316 -3.0500149727
43.8718089325 -23.5299131628 -3.0500149727
44.1150512143 -24.0539000451 -3.0500149727
44.9068386876 -19.0881306958 -3.0500149727
44.9067169700 -25.9096534277 -3.0500149727
44.8258894524 -19.1001003609 -3.0500149727
44.8358296234 -25.9026105247 -3.0500149727
44.8353663591 -25.9292649113 -3.0500149727
44.7538290447 -19.0821280362 -3.0500149727
44.7537071129 -25.9156506269 -3.0500149727
44.7123982482 -19.0763007199 -3.0500149727
44.6720251715 -19.0976594242 -3.0500149727
44.6920583576 -25.9108561067 -3.0500149727
44.7122761085 -25.9214764647 -3.0500149727
44.7325563392 -25.9319770217 -3.0500149727
44.6403781314 -19.0872856243 -3.0500149727
44.6604728694 -25.9214158324 -3.0500149727
44.5883336761 -19.0884020340 -3.0500149727
44.5882119683 -25.9093707232 -3.0500149727
44.5983090499 -25.9150030571 -3.0500149727
44.6084227487 -25.9206054973 -3.0500149727
44.5461492798 -19.0844887304 -3.0500149727
44.5036240611 -25.9167125359 -3.0500149727
44.5238797586 -25.9284476319 -3.0500149727
44.4712574547 -19.0721027959 -3.0500149727
44.4610070979 -25.9196571994 -3.0500149727
44.4081864490 -19.0818185428 -3.0500149727
43.8099515851 -19.4000369099 -3.0500149727
44.2011192450 -25.9269400529 -3.0500149727
44.1269545773 -19.0922661211 -3.0500149727
44.0828341335 -19.0937159836 -3.0500149727
44.0726502245 -25.8968812208 -3.0500149727
43.9148632004 -19.0970539435 -3.0500149727
43.1889940322 -19.0506220826 -3.0500149727
45.0466313058 -22.5243428830 -3.0500149727
44.0604054779 -22.1315018157 -3.0500149727
44.0506815897 -21.9012760280 -3.0500149727
44.0463163846 -21.9442528766 -3.0500149727
44.0362353299 -22.1311286819 -3.0500149727
44.1821870360 -22.9996436343 -3.0500149727
43.9953851517 -22.3651439611 -3.0500149727
44.0155539361 -22.5401753067 -3.0500149727
44.0201212470 -22.5691889338 -3.0500149727
44.1403657148 -23.0937058836 -3.0500149727
44.0184231295 -22.7967231102 -3.0500149727
44.3240731779 -23.5992684960 -3.0500149727
44.0231431914 -23.0574145987 -3.0500149727
44.2881684360 -23.6325473229 -3.0500149727
44.3740495294 -23.8319983685 -3.0500149727
43.7334623053 -21.5919933820 -3.0500149727
43.8046622656 -23.1636352194 -3.0500149727
44.3641714073 -19.1668937488 -3.0500149727
44.2793825307 -19.1981042692 -3.0500149727
44.3360720157 -19.0686768553 -3.0500149727
44.1328173851 -19.1880988582 -3.0500149727
44.1064582721 -19.2089555297 -3.0500149727
44.0825739557 -19.1971144837 -3.0500149727
43.9905043694 -19.2101254800 -3.0500149727
45.2618332699 -25.9619201010 -3.0500149727
45.2730595942 -25.9654768514 -3.0500149727
45.2842963908 -25.9690003767 -3.0500149727
45.2955435615 -25.9724906462 -3.0500149727
45.1757401431 -25.9589716945 -3.0500149727
45.1981873270 -25.9665613777 -3.0500149727
45.2094276594 -25.9703063840 -3.0500149727
45.2319413135 -25.9776965622 -3.0500149727
45.2432144382 -25.9813416694 -3.0500149727
45.1341415094 -25.9701447774 -3.0500149727
45.1566555250 -25.9779803765 -3.0500149727
45.1487775618 -26.0008336690 -3.0500149727
44.9936696085 -25.9697450872 -3.0500149727
45.0274599023 -25.9826951263 -3.0500149727
44.9849188311 -25.9922785995 -3.0500149727
44.8855746273 -25.9783912179 -3.0500149727
44.9307635995 -25.9968696601 -3.0500149727
44.7762541818 -25.9840252833 -3.0500149727
44.7875480218 -25.9890183677 -3.0500149727
44.4089199683 -25.9095796606 -3.0500149727
44.5097796854 -26.0177301436 -3.0500149727
44.3962962544 -26.0128229212 -3.0500149727
43.5022452313 -26.0368259163 -3.0500149727
45.0834281320 -22.5950291701 -3.0500149727
44.4801238877 -22.5953285009 -3.0500149727
44.2903277572 -22.5587285436 -3.0500149727
44.2751133899 -22.9229859875 -3.0500149727
44.0453341824 -22.2114303403 -3.0500149727
44.0675056054 -22.3564111050 -3.0500149727
44.0727475691 -22.3838557398 -3.0500149727
44.0872698828 -22.4521791765 -3.0500149727
44.1653505543 -22.7202871545 -3.0500149727
44.1113336951 -22.6346918698 -3.0500149727
44.1750497333 -22.8142006475 -3.0500149727
44.2404812287 -22.9626980350 -3.0500149727
44.3089163801 -23.0941145391 -3.0500149727
43.9852895120 -22.0895249519 -3.0500149727
44.0799525769 -22.6145825112 -3.0500149727
44.1270856920 -22.7566364408 -3.0500149727
44.1858211022 -22.9020133300 -3.0500149727
44.1887146148 -22.9085278878 -3.0500149727
44.3163162377 -23.1553417153 -3.0500149727
43.9558263185 -21.8968857838 -3.0500149727
43.9670851721 -22.1629056544 -3.0500149727
44.1043900726 -22.7649577474 -3.0500149727
44.1637146976 -22.9117930109 -3.0500149727
44.2192750027 -23.0288575503 -3.0500149727
43.9403796280 -22.1362830945 -3.0500149727
43.9527552244 -22.4000270168 -3.0500149727
43.9694304338 -22.4790538174 -3.0500149727
44.1862244027 -23.0703399730 -3.0500149727
44.2293573428 -23.1982412015 -3.0500149727
44.4590460910 -23.5256546655 -3.0500149727
43.8768194229 -21.6269037190 -3.0500149727
43.8590597122 -21.9031694326 -3.0500149727
43.8723422257 -22.1871692365 -3.0500149727
43.9004180426 -22.5025442168 -3.0500149727
44.3333858994 -23.4433803781 -3.0500149727
43.8317890130 -21.4432937324 -3.0500149727
43.7213396873 -21.7278537977 -3.0500149727
44.4117624846 -23.7291655791 -3.0500149727
43.6950649205 -22.3269542686 -3.0500149727
43.7503809208 -21.0782495184 -3.0500149727
43.8997118965 -23.2003638730 -3.0500149727
43.5908936761 -22.8327777075 -3.0500149727
45.8578279760 -25.9699337854 -3.0500149727
45.8817558446 -25.9730084650 -3.0500149727
45.7825827435 -25.9837680980 -3.0500149727
45.7945856575 -25.9855456621 -3.0500149727
45.8065937775 -25.9872877116 -3.0500149727
45.8186069981 -25.9889942313 -3.0500149727
45.8306252144 -25.9906652063 -3.0500149727
45.8546762132 -25.9939004638 -3.0500149727
45.6345691601 -25.9834381320 -3.0500149727
45.6585808323 -25.9878334495 -3.0500149727
45.6705963150 -25.9899778159 -3.0500149727
45.6826180886 -25.9920866289 -3.0500149727
45.6946460477 -25.9941598701 -3.0500149727
45.7066800873 -25.9961975214 -3.0500149727
45.6180800444 -26.0049389985 -3.0500149727
45.6301463055 -26.0072030987 -3.0500149727
45.6422192116 -26.0094314948 -3.0500149727
45.4926124079 -26.0039472764 -3.0500149727
45.5046762844 -26.0065825369 -3.0500149727
45.6701940483 -26.0635335376 -3.0500149727
45.3848910114 -26.0285408357 -3.0500149727
45.2575781793 -26.0203317503 -3.0500149727
45.7238743786 -26.1214681753 -3.0500149727
45.8200897939 -26.1600013722 -3.0500149727
45.1470519821 -26.0386803394 -3.0500149727
45.0029650441 -26.0689015813 -3.0500149727
44.9093569258 -26.0620635828 -3.0500149727
44.9215952728 -26.0664239643 -3.0500149727
44.8643716921 -26.0714511792 -3.0500149727
44.8068247898 -26.0757005767 -3.0500149727
45.5383649056 -26.2850011311 -3.0500149727
44.4841018864 -25.9911967571 -3.0500149727
44.5444193696 -26.0189335023 -3.0500149727
45.3474432246 -26.2930510816 -3.0500149727
43.9526638089 -25.8682069856 -3.0500149727
44.2245220097 -22.8221098176 -3.0500149727
44.2274718255 -22.8763495905 -3.0500149727
44.2065645840 -22.8884831199 -3.0500149727
43.9622148496 -22.3851072050 -3.0500149727
43.9627640605 -22.6070319516 -3.0500149727
43.7535688431 -22.1329270011 -3.0500149727
46.3556613623 -25.9854020506 -3.0500149727
46.3937675434 -25.9844707908 -3.0500149727
46.4318639594 -25.9832013967 -3.0500149727
46.4953281376 -25.9803346139 -3.0500149727
46.3944653450 -26.0086337450 -3.0500149727
46.1374903110 -26.0567759808 -3.0500149727
45.9551206417 -26.0716663588 -3.0500149727
46.4744537709 -26.0781810225 -3.0500149727
45.8622540389 -26.0882818298 -3.0500149727
45.5474256788 -26.0721469449 -3.0500149727
45.3519073394 -26.1094861136 -3.0500149727
45.1972757785 -26.1242752613 -3.0500149727
45.6412337025 -26.2574544012 -3.0500149727
44.9748005730 -26.1652171816 -3.0500149727
45.9635616612 -26.3387793580 -3.0500149727
46.2110523058 -26.3726608654 -3.0500149727
44.1875830914 -25.9653534130 -3.0500149727
44.3862197593 -22.9913245467 -3.0500149727
44.0400087978 -22.6219279397 -3.0500149727
44.3043143351 -23.0072334271 -3.0500149727
44.5326425753 -23.2427699163 -3.0500149727
43.9515736995 -22.5015337025 -3.0500149727
46.3789447412 -26.0869610382 -3.0500149727
46.3925557875 -26.0861448225 -3.0500149727
46.5013450913 -26.0781663981 -3.0500149727
46.6776330506 -26.0597182661 -3.0500149727
46.7722261331 -26.0469808188 -3.0500149727
46.8665351967 -26.0322874752 -3.0500149727
47.0541396560 -25.9970591359 -3.0500149727
46.4367670785 -26.1316814565 -3.0500149727
46.1617326575 -26.1670549576 -3.0500149727
45.8558513577 -26.1846571611 -3.0500149727
45.9114728279 -26.1873334112 -3.0500149727
46.8347970227 -26.1842649683 -3.0500149727
46.5743656973 -26.2656898643 -3.0500149727
45.4373036903 -26.2653003542 -3.0500149727
45.6357810359 -26.2890463366 -3.0500149727
46.9670354467 -26.2847764295 -3.0500149727
41.2327883786 -20.6514240529 -3.0500149727
41.2040887475 -20.6763594276 -3.0500149727
41.1902025856 -20.6141536308 -3.0500149727
44.6063752971 -22.8477237439 -3.0500149727
44.4080704850 -23.0915868954 -3.0500149727
44.1024756730 -22.8179428198 -3.0500149727
44.8798453377 -23.5352494818 -3.0500149727
43.9544268327 -22.8266057388 -3.0500149727
44.8035418305 -23.5252073317 -3.0500149727
43.7320118283 -22.5834313208 -3.0500149727
43.6596670794 -22.5031993717 -3.0500149727
43.8472682401 -22.8044712705 -3.0500149727
43.5048195038 -22.3480363756 -3.0500149727
41.4378699924 -20.4452989222 -3.0500149727
41.4799813134 -20.1497358669 -3.0500149727
41.4193341174 -20.4141091406 -3.0500149727
41.3656767285 -20.7488585921 -3.0500149727
41.4272098193 -20.2627832976 -3.0500149727
41.3804103321 -20.4897885095 -3.0500149727
41.2846435674 -21.1939193561 -3.0500149727
41.2838251318 -21.2350321076 -3.0500149727
41.2852065094 -21.4406157598 -3.0500149727
41.2459737932 -20.9852340960 -3.0500149727
41.3962516049 -19.9984342599 -3.0500149727
41.2133477418 -21.1504071136 -3.0500149727
41.2342167281 -21.7760658126 -3.0500149727
41.2473129217 -20.5511249560 -3.0500149727
41.2160760323 -21.8341355000 -3.0500149727
41.3162452732 -20.1070399892 -3.0500149727
41.1638142332 -21.1909775778 -3.0500149727
41.1634927084 -21.2050384492 -3.0500149727
41.1521127082 -21.6706510014 -3.0500149727
41.3005044416 -19.8964027005 -3.0500149727
41.2089199642 -20.2413472456 -3.0500149727
46.4394543079 -26.2268590488 -3.0500149727
46.5992516305 -26.2072521320 -3.0500149727
46.7294651085 -26.1873497738 -3.0500149727
46.9451622729 -26.1464999252 -3.0500149727
46.7769276594 -26.2037547729 -3.0500149727
46.9696623412 -26.1906973403 -3.0500149727
47.5121524121 -26.0923339957 -3.0500149727
47.6249495189 -26.0532440781 -3.0500149727
46.3776129191 -26.3544149958 -3.0500149727
47.3337371088 -26.1733392339 -3.0500149727
47.6048878026 -26.0860597865 -3.0500149727
47.6352540953 -26.1265838347 -3.0500149727
47.5937981597 -26.1923066393 -3.0500149727
47.9545697937 -26.1844302422 -3.0500149727
44.6555888063 -23.2861967853 -3.0500149727
44.3119112485 -23.1094126721 -3.0500149727
41.5043441333 -20.6530300263 -3.0500149727
41.4972114492 -20.7150776825 -3.0500149727
41.4898647571 -20.7896639685 -3.0500149727
41.4838429929 -20.8643688968 -3.0500149727
41.4821305065 -20.8892928378 -3.0500149727
41.4616023917 -20.8375845856 -3.0500149727
41.4597318295 -20.8626405783 -3.0500149727
41.4526042328 -20.9880624139 -3.0500149727
41.4495751722 -21.0885174347 -3.0500149727
41.4491894235 -21.1136401927 -3.0500149727
41.4365426354 -20.8483115625 -3.0500149727
41.4253209318 -21.2396794656 -3.0500149727
41.4308370230 -20.6568295247 -3.0500149727
41.4187866304 -20.7705424790 -3.0500149727
41.3845257336 -21.4320071245 -3.0500149727
41.3931273851 -21.5466781951 -3.0500149727
41.3318218645 -20.6711702790 -3.0500149727
41.3573080305 -21.8495936248 -3.0500149727
41.2823225615 -20.6787734528 -3.0500149727
41.2619056930 -20.9274678808 -3.0500149727
41.2316488842 -21.1109436054 -3.0500149727
41.3182117439 -22.0428676224 -3.0500149727
41.2421467528 -21.8947600006 -3.0500149727
41.1847612064 -20.6814992897 -3.0500149727
41.1934432647 -21.7259787556 -3.0500149727
41.3041722606 -22.3056031791 -3.0500149727
41.3109897448 -22.3315648886 -3.0500149727
41.1416728890 -21.4199399051 -3.0500149727
41.3548574545 -22.7871963184 -3.0500149727
47.0748251084 -26.2945007353 -3.0500149727
47.5871979806 -26.2317666349 -3.0500149727
47.7842935280 -26.2061067184 -3.0500149727
44.7856193299 -22.9492772909 -3.0500149727
44.7383346882 -23.0093007076 -3.0500149727
44.5729806925 -23.2564483714 -3.0500149727
44.6908381793 -23.3002085934 -3.0500149727
44.7372741030 -23.3155219475 -3.0500149727
44.4282686360 -23.2193814093 -3.0500149727
44.9273669338 -23.3921966445 -3.0500149727
44.1382638646 -23.0844993688 -3.0500149727
44.1622462193 -23.0999210363 -3.0500149727
44.8527508688 -23.3990252619 -3.0500149727
44.9708142400 -23.4262757577 -3.0500149727
44.5392610763 -23.3210416911 -3.0500149727
44.4505186161 -23.3623623881 -3.0500149727
45.2920561399 -23.6392737514 -3.0500149727
45.5208069598 -23.6434575729 -3.0500149727
44.3731277775 -23.5395857392 -3.0500149727
48.0867217869 -23.9209007598 -3.0500149727
41.5029305950 -21.2855999803 -3.0500149727
41.5066187650 -21.3440070085 -3.0500149727
41.4781571934 -21.2751859233 -3.0500149727
41.4787950110 -21.2869449206 -3.0500149727
41.4794676110 -21.2987019797 -3.0500149727
41.4801749875 -21.3104569977 -3.0500149727
41.4825057132 -21.3457087763 -3.0500149727
41.4860998090 -21.3926763340 -3.0500149727
41.4902493951 -21.4395980766 -3.0500149727
41.4949538906 -21.4864674345 -3.0500149727
48.1349093500 -24.0078982988 -3.0500149727
41.4684801505 -21.4654539419 -3.0500149727
41.4721868476 -21.5008034022 -3.0500149727
41.4790613223 -21.5596416025 -3.0500149727
41.4805406072 -21.5713966806 -3.0500149727
41.4820546593 -21.5831473313 -3.0500149727
41.4851870118 -21.6066349392 -3.0500149727
41.4319205785 -21.3134324197 -3.0500149727
41.4565612310 -21.5744503343 -3.0500149727
41.4679573125 -21.6571020156 -3.0500149727
41.4715274525 -21.6806717337 -3.0500149727
41.4733647994 -21.6924485689 -3.0500149727
41.4790857541 -21.7277457418 -3.0500149727
41.4458245494 -21.6725097441 -3.0500149727
41.4698942529 -21.8143643617 -3.0500149727
41.3815993653 -21.2802800714 -3.0500149727
41.3907441719 -21.4126442137 -3.0500149727
41.4553322310 -21.8661953168 -3.0500149727
41.4601396581 -21.8898360697 -3.0500149727
41.4364658066 -21.8947231992 -3.0500149727
41.4491704146 -21.9540466392 -3.0500149727
41.3576317028 -21.5624408508 -3.0500149727
41.3254113314 -21.4921529418 -3.0500149727
41.2864156120 -21.3100326347 -3.0500149727
41.2954727965 -21.4331790434 -3.0500149727
41.3013664104 -21.4946383098 -3.0500149727
41.3142629934 -21.6050193608 -3.0500149727
41.4224979504 -22.1496340752 -3.0500149727
41.2630301468 -21.3238463968 -3.0500149727
41.2638128521 -21.3362415660 -3.0500149727
41.2713937460 -21.4353085059 -3.0500149727
41.3924782266 -22.2223821550 -3.0500149727
41.2133035864 -21.3017392643 -3.0500149727
41.3397032925 -22.1198661921 -3.0500149727
41.4169848949 -22.3851741903 -3.0500149727
41.1891680023 -21.3030842047 -3.0500149727
41.1922782798 -21.3535256543 -3.0500149727
41.4059469660 -22.4286599157 -3.0500149727
41.1791677225 -21.6870544942 -3.0500149727
41.1950737002 -21.7880261822 -3.0500149727
41.3938989200 -22.5405684530 -3.0500149727
41.1609628047 -21.7286536286 -3.0500149727
41.3845040825 -22.5849941668 -3.0500149727
41.1208499647 -21.6172014857 -3.0500149727
41.1760534395 -21.9484816241 -3.0500149727
41.2192297291 -22.2312116570 -3.0500149727
41.1135413484 -21.8813572416 -3.0500149727
41.2093506613 -22.3701480653 -3.0500149727
41.2449618159 -22.6941031534 -3.0500149727
44.8843233016 -22.9826384309 -3.0500149727
44.8569175193 -23.0026224064 -3.0500149727
44.3253934324 -23.2549125037 -3.0500149727
45.1601556097 -23.4421558050 -3.0500149727
43.9766548941 -23.2251555546 -3.0500149727
43.8272654955 -23.3627801439 -3.0500149727
41.5098736343 -21.8727396617 -3.0500149727
41.5176876009 -21.9054313351 -3.0500149727
41.5203566903 -21.9163129906 -3.0500149727
41.5230579579 -21.9271867028 -3.0500149727
41.5257913801 -21.9380523766 -3.0500149727
41.5079562220 -21.9658297765 -3.0500149727
41.5108040235 -21.9767399549 -3.0500149727
41.5136840868 -21.9876416612 -3.0500149727
41.5195408978 -22.0094192762 -3.0500149727
41.4992115691 -22.0267109491 -3.0500149727
41.5052997804 -22.0485735045 -3.0500149727
41.5083923644 -22.0594911791 -3.0500149727
41.5115172313 -22.0703996575 -3.0500149727
41.4472308111 -21.9226027737 -3.0500149727
