0.3215027335 -11.1798240928 -2.9944899082
-0.2004221818 -10.9596306526 -2.9944899082
-0.7882441716 -11.0208747827 -2.9944899082
-0.8747453668 -11.0191013252 -2.9944899082
-0.5004560069 -7.3615517670 -3.0008981228
-0.4909608930 -7.3962754096 -3.0008981228
-0.6539018587 -6.6830868057 -3.0008981228
-0.8370504672 -6.4955617352 -3.0008981228
-0.8749762452 -6.2372648835 -3.0008981228
1.1778595574 -10.9789202007 -3.0008981228
1.2280994690 -10.9865985638 -3.0008981228
1.3036208914 -10.9970001712 -3.0008981228
1.0984623534 -10.9900918561 -3.0008981228
1.1110471538 -10.9923019931 -3.0008981228
1.1866882388 -11.0047801675 -3.0008981228
1.2372335195 -11.0123522552 -3.0008981228
0.8440881770 -11.0116357370 -3.0008981228
0.6866200247 -11.0465902421 -3.0008981228
1.0951093786 -11.1612637458 -3.0008981228
0.4235320351 -11.0431566484 -3.0008981228
1.2594564274 -11.2350202412 -3.0008981228
1.2740201887 -11.3343837413 -3.0008981228
0.0663505357 -11.0650628705 -3.0008981228
-0.1969659840 -10.9736751792 -3.0008981228
-0.3690123127 -7.5210629119 -3.0014672279
-0.3903351795 -7.5324502132 -3.0014672279
-0.4312710665 -7.5063142557 -3.0014672279
-0.3378347197 -7.6723045684 -3.0014672279
-0.5279998817 -7.3558070731 -3.0014672279
-0.4124995505 -7.5927707174 -3.0014672279
-0.3768935704 -7.6545204965 -3.0014672279
-0.3695540499 -7.6667425466 -3.0014672279
-0.3317789544 -7.7271897401 -3.0014672279
-0.5899913839 -7.2647748567 -3.0014672279
-0.5746402480 -7.3051531574 -3.0014672279
-0.4476196099 -7.6289818681 -3.0014672279
-0.3957330521 -7.7165551281 -3.0014672279
-0.7353528165 -6.9362676526 -3.0014672279
-0.4354033293 -7.6979712355 -3.0014672279
-0.1568894724 -8.0756117781 -3.0014672279
-0.7784745434 -6.8393458432 -3.0014672279
-0.6199731323 -7.3865176003 -3.0014672279
-0.5779774765 -7.4814346747 -3.0014672279
-0.2187388434 -8.0414287152 -3.0014672279
-0.1040886978 -8.1676193793 -3.0014672279
-0.6092955801 -7.4712845963 -3.0014672279
-0.0684371538 -8.2373551115 -3.0014672279
0.0083125977 -8.3087075166 -3.0014672279
-0.8522057499 -6.6451124415 -3.0014672279
-0.8478111919 -6.6902421736 -3.0014672279
-0.4328939180 -7.8374556322 -3.0014672279
-0.2309508949 -8.1013368078 -3.0014672279
-0.8775837665 -6.6320394350 -3.0014672279
-0.0521446060 -8.3191923828 -3.0014672279
-0.0238653139 -8.3447896885 -3.0014672279
-0.2210550354 -8.1847203396 -3.0014672279
-0.7344779410 -7.4259466921 -3.0014672279
-0.0367337283 -8.4299215496 -3.0014672279
0.0418166705 -8.4949220719 -3.0014672279
-0.6258817865 -7.8499519794 -3.0014672279
-1.0545048203 -6.3454240496 -3.0014672279
-0.5382341880 -8.0249302802 -3.0014672279
-1.0733814286 -6.6070439036 -3.0014672279
-1.1565091172 -6.7572082149 -3.0014672279
1.9328170126 -10.9748277868 -3.0014672279
1.6900502017 -11.0053317120 -3.0014672279
1.7036141850 -11.0053191103 -3.0014672279
1.8392291199 -11.0029864284 -3.0014672279
1.8798939737 -11.0015044628 -3.0014672279
1.8536301443 -11.0266908060 -3.0014672279
1.4160477996 -11.0454198538 -3.0014672279
1.4008524707 -11.0687071772 -3.0014672279
1.4283603527 -11.0703517308 -3.0014672279
1.6211205215 -11.0773034099 -3.0014672279
1.8140032246 -11.0762683264 -3.0014672279
1.8152636391 -11.1245979496 -3.0014672279
1.0482992030 -11.1062895801 -3.0014672279
1.0621646459 -11.1081749521 -3.0014672279
1.8298815741 -11.1483772637 -3.0014672279
0.8505490070 -11.0993875787 -3.0014672279
0.8782480358 -11.1042873754 -3.0014672279
1.0589430902 -11.1321323489 -3.0014672279
1.1342855092 -11.2146683124 -3.0014672279
0.9182979451 -11.2090475037 -3.0014672279
1.2313827581 -11.2492637357 -3.0014672279
1.6755533956 -11.2712058606 -3.0014672279
0.5049284139 -11.1485395117 -3.0014672279
0.9392107280 -11.2613156670 -3.0014672279
1.0539809061 -11.2777870527 -3.0014672279
1.2267865871 -11.2973908210 -3.0014672279
1.6463972319 -11.3193641777 -3.0014672279
0.3664542141 -11.1618075985 -3.0014672279
0.4367310962 -11.1809027299 -3.0014672279
1.3696635615 -11.3331547270 -3.0014672279
0.2335691300 -11.1479234136 -3.0014672279
1.3096818713 -11.3530905165 -3.0014672279
1.5874023537 -11.3668099680 -3.0014672279
1.6166706469 -11.3673456125 -3.0014672279
1.9103896351 -11.3873274114 -3.0014672279
-0.1568914568 -11.0613545849 -3.0014672279
0.1629275996 -11.1763532748 -3.0014672279
-2.3178817606 -3.4001179176 -3.0014672279
-0.4114190867 -10.9782917713 -3.0014672279
-0.8701108108 -10.7932358258 -3.0014672279
-0.9727617903 -10.7598341624 -3.0014672279
-0.3409416775 -7.5739402948 -2.9986357689
-0.3153287169 -7.6060230690 -2.9986357689
-0.3804692564 -7.6407917618 -2.9986357689
-0.3722385017 -7.6890351152 -2.9986357689
-0.6677037337 -7.2930807922 -2.9986357689
-0.5296600934 -7.5207588251 -2.9986357689
-0.2905107388 -7.8176060125 -2.9986357689
-0.7656754912 -7.1477275273 -2.9986357689
-0.2574031451 -7.8863299070 -2.9986357689
-0.6674896451 -7.3928265920 -2.9986357689
-0.7225874045 -7.4422757565 -2.9986357689
-0.6588359266 -7.5450078478 -2.9986357689
-0.8383728252 -7.3318143874 -2.9986357689
-0.9985317889 -7.1562213638 -2.9986357689
2.3349732071 -11.0202650050 -2.9986357689
1.8870864732 -11.1022302150 -2.9986357689
1.6087016166 -11.1414730465 -2.9986357689
1.6825581973 -11.1390141317 -2.9986357689
1.8301218699 -11.1308207837 -2.9986357689
1.3420383453 -11.1654406320 -2.9986357689
2.3182434164 -11.0967412181 -2.9986357689
1.1460151022 -11.2046908861 -2.9986357689
0.9792682040 -11.2152235618 -2.9986357689
1.5509539394 -11.2393360629 -2.9986357689
0.9166749419 -11.2329775225 -2.9986357689
0.9317227530 -11.2346198764 -2.9986357689
2.0496358477 -11.2321382543 -2.9986357689
2.2447235810 -11.2064542233 -2.9986357689
1.0350952639 -11.2689515968 -2.9986357689
2.2633732671 -11.2280584097 -2.9986357689
2.3983568249 -11.2053876328 -2.9986357689
1.2617161833 -11.3077695661 -2.9986357689
1.3380703083 -11.3104245099 -2.9986357689
2.4974743935 -11.2356874487 -2.9986357689
2.3318223481 -11.3640409226 -2.9986357689
-3.7707127135 -5.2012056212 -2.9986357689
-3.7737007315 -5.0879235106 -2.9986357689
-3.8027262448 -5.2437602846 -2.9986357689
-3.8079774531 -5.2750268547 -2.9986357689
-3.7170418059 -4.7422271239 -2.9986357689
-3.7332995188 -4.8038120369 -2.9986357689
-3.7672075952 -4.9430524979 -2.9986357689
-3.8420830324 -5.1883489066 -2.9986357689
-3.6572068951 -4.2385906049 -2.9986357689
-0.3280968646 -7.6251952868 -3.0008025169
-0.3975313225 -7.6599861502 -3.0008025169
-0.4243805013 -7.6680276078 -3.0008025169
-0.2619417328 -7.8070037381 -3.0008025169
-3.6430035995 -5.3264982785 -3.0008025169
-3.6617763856 -5.5139658955 -3.0008025169
-3.6974793247 -5.7009987602 -3.0008025169
-3.7255288192 -5.9780126830 -3.0008025169
-3.7630447411 -6.2444752044 -3.0008025169
-3.7579180365 -5.1024086842 -3.0008025169
-3.8172297340 -6.1434407674 -3.0008025169
-3.8843534077 -5.1283827965 -3.0008025169
2.4801619449 -11.1421367101 -3.0008025169
2.6534450297 -11.1726056870 -3.0008025169
2.6975279815 -11.2106193891 -3.0008025169
2.9930587334 -11.1193470643 -3.0008025169
2.5093238918 -11.3339952897 -3.0008025169
-0.2180484281 -7.6752434194 -2.9996076261
-0.3138380868 -7.7019765619 -2.9996076434
-0.1535978540 -7.8752102962 -2.9996076607
-0.0699917477 -7.9151624490 -2.9996076607
0.8615384245 -8.4203579883 -2.9996077299
-3.5042985386 -5.1787250154 -2.9996081506
-3.5074316640 -5.2049513963 -2.9996081506
-3.5104095705 -5.2311958548 -2.9996081506
-3.5118402839 -5.2443245761 -2.9996081506
-3.5184109614 -5.3100285067 -2.9996081506
-3.5218866485 -5.3494949838 -2.9996081506
-3.5286335759 -5.4416919619 -2.9996081506
-3.5328961736 -5.5208149011 -2.9996081506
-3.5615138249 -5.7453860751 -2.9996081563
-3.5751330196 -5.4120214827 -2.9996081621
-3.5855494884 -5.6787686251 -2.9996081621
-3.5857227659 -5.7054669623 -2.9996081621
-3.5855954422 -5.7588643759 -2.9996081621
-3.5778915660 -5.1832335895 -2.9996081679
-3.6284615101 -5.9480675219 -2.9996081736
-3.6570475597 -5.8272773349 -2.9996081794
-3.6668582592 -6.1001275827 -2.9996081852
-3.6695165523 -6.3065817279 -2.9996081909
-3.6564145672 -6.4016303154 -2.9996081909
-3.6583126600 -6.6678047524 -2.9996082024
-3.7791343621 -5.7187054472 -2.9996082082
-3.8184786848 -6.0138485852 -2.9996082197
-3.8156965473 -6.0559502796 -2.9996082197
-3.7176370719 -6.7374919551 -2.9996082197
-3.7115442748 -6.7649532374 -2.9996082197
-3.8461721302 -5.4925744192 -2.9996082255
-3.8753418655 -5.7896855148 -2.9996082313
-3.8781269061 -5.2624002225 -2.9996082370
-3.5769254259 -7.5878557794 -2.9996082485
-0.1779983706 -7.7123509840 -3.0001813243
-0.1527956437 -7.7214549521 -3.0001813243
-0.1337363350 -7.8809786775 -3.0001813935
-0.7679968645 -7.6265016919 -3.0001814165
-0.4916802647 -7.7873230677 -3.0001814165
-0.4524561926 -7.8064225036 -3.0001814165
-0.1349377493 -7.9566664637 -3.0001814280
-1.0474960993 -7.4723427286 -3.0001814396
3.2466855427 -8.6285705427 -3.0001821657
-3.4900229741 -5.8394657625 -3.0001822003
-3.4884577283 -5.8636828523 -3.0001822003
-3.4876213834 -5.8757878186 -3.0001822003
-3.5162415858 -5.8043974285 -3.0001822119
-3.5133809546 -5.8531346096 -3.0001822119
-3.5117344305 -5.8774896538 -3.0001822119
-3.5080092536 -5.9261683872 -3.0001822119
-3.5358474776 -5.8791914891 -3.0001822234
-3.5310732183 -5.9403892074 -3.0001822234
-3.5277743721 -5.9770715871 -3.0001822234
-3.5241501204 -6.0137232469 -3.0001822234
-3.5215533115 -6.0381391946 -3.0001822234
-3.5173873639 -6.0747332412 -3.0001822234
-3.5638516570 -5.8192748595 -3.0001822349
-3.5529827967 -5.9670481487 -3.0001822349
-3.5384180139 -6.1020908824 -3.0001822349
-3.5320333829 -6.1510696249 -3.0001822349
-3.5250696597 -6.1999693927 -3.0001822349
-3.5232383582 -6.2121811923 -3.0001822349
-3.5857490356 -5.8578120434 -3.0001822464
-3.5452605179 -6.2280785029 -3.0001822464
-3.6121228176 -5.8219648752 -3.0001822580
-3.5612288960 -6.2811027851 -3.0001822580
-3.5436381469 -6.3794709496 -3.0001822580
-3.6481044925 -5.9884313488 -3.0001822810
-3.5813474437 -6.4381263266 -3.0001822810
-3.5543424867 -6.5615456928 -3.0001822810
-3.6838038286 -5.8386850457 -3.0001822925
-3.6822398103 -5.8640486218 -3.0001822925
-3.6744840427 -5.9653970817 -3.0001822925
-3.5629251170 -6.6288054883 -3.0001822925
-3.7017705017 -5.9293289537 -3.0001823041
-3.6498328983 -6.4651651512 -3.0001823156
-3.5857840913 -6.8209208746 -3.0001823271
-3.8113192508 -6.0566117851 -3.0001823617
-3.6140687765 -7.0494448587 -3.0001823732
-3.6222779182 -7.2369070903 -3.0001824078
-3.8810333847 -6.4164618324 -3.0001824193
-3.4810315795 -7.7222810733 -3.0001824424
-4.4277423695 -6.5175689546 -3.0001826844
-4.3980173881 -6.6659878414 -3.0001826844
-4.3639155464 -6.8134626016 -3.0001826844
-4.4516319750 -6.6462898612 -3.0001827075
-4.4845357155 -6.6061294584 -3.0001827190
-4.4268737582 -6.8606304302 -3.0001827190
-4.4186138992 -6.9858056812 -3.0001827306
-4.5263057038 -6.7573562915 -3.0001827536
-4.5663624695 -6.7987196607 -3.0001827767
-0.0921985196 -7.7480283098 -2.9999267564
-0.1402608182 -7.7889850903 -2.9999267909
-0.4274798429 -7.8453186057 -2.9999268774
-0.8452364860 -7.7864969717 -2.9999269465
0.2227031971 -8.1141171558 -2.9999269984
-3.4746312802 -6.3755011114 -2.9999278802
-3.4720586724 -6.3865528707 -2.9999278802
3.2714229217 -7.8907013032 -2.9999278802
-3.4903178405 -6.4142877114 -2.9999278975
-3.4876304264 -6.4253857046 -2.9999278975
-3.4821571675 -6.4475575989 -2.9999278975
-3.4941978930 -6.4979421222 -2.9999279148
-3.4912629970 -6.5090512273 -2.9999279148
-3.4852946813 -6.5312431488 -2.9999279148
-3.4822613137 -6.5423257709 -2.9999279148
-3.5318472775 -6.4480623869 -2.9999279321
-3.5116388055 -6.5264296389 -2.9999279321
-3.4898120081 -6.6043616569 -2.9999279321
-3.5097507820 -6.6222859861 -2.9999279494
-3.5031122078 -6.6445853057 -2.9999279494
-3.5100678818 -6.7819319509 -2.9999279839
-3.4986437947 -6.8153626316 -2.9999279839
-3.5826462399 -6.6314018106 -2.9999280012
-3.5793161590 -6.6427719780 -2.9999280012
-3.5136552661 -6.8456459852 -2.9999280012
-3.5036197277 -6.9432222073 -2.9999280185
-3.5132826230 -6.9853797024 -2.9999280358
-3.7153213428 -6.6064861252 -2.9999280877
-3.7969109053 -6.8385396105 -2.9999281914
-3.5224830656 -7.4897984893 -2.9999281914
-3.7291526832 -7.0969281649 -2.9999282087
-4.5892781186 -6.8008721161 -2.9999287274
-0.0150525436 -7.7352211011 -3.0000157930
-0.0678612226 -7.7604611332 -3.0000157987
-0.0744309218 -7.7846795684 -3.0000158045
-0.0338113275 -7.7841017083 -3.0000158045
-0.1221956284 -7.8086126333 -3.0000158102
-0.0606176448 -7.8087385505 -3.0000158102
-0.0264128412 -7.8081001307 -3.0000158102
-0.1778548806 -7.8312791909 -3.0000158160
-0.2079392654 -7.8783203991 -3.0000158275
-0.1374203276 -7.8808646949 -3.0000158275
-0.0668569887 -7.8813221011 -3.0000158275
-0.2305200448 -7.9012803728 -3.0000158333
-0.2162865381 -7.9020892962 -3.0000158333
-0.0880406547 -7.9055770859 -3.0000158333
-0.2247754860 -7.9258294448 -3.0000158391
-0.4790307406 -7.9224073652 -3.0000158448
-0.4215019666 -7.9310122745 -3.0000158448
-0.2421780141 -7.9732209758 -3.0000158506
0.3284957430 -7.9431291327 -3.0000158506
0.0601062242 -7.9979677423 -3.0000158564
-1.0512053312 -7.8354146104 -3.0000158621
-0.2452067294 -8.0214720692 -3.0000158621
-0.4346731195 -8.0268031156 -3.0000158679
0.5986506654 -7.9569761673 -3.0000158679
0.8352560965 -7.8784632819 -3.0000158679
-0.4681713996 -8.0464153626 -3.0000158736
-1.2608253979 -7.8191094253 -3.0000158794
-0.9566196751 -7.9492911524 -3.0000158794
-1.3313734442 -7.8369872864 -3.0000158909
-1.1621691266 -7.9193844406 -3.0000158909
0.3645290534 -8.1086332751 -3.0000158909
-1.3217068021 -7.8693847544 -3.0000158967
-0.5097303926 -8.1623013634 -3.0000159025
1.0347689353 -7.9517144717 -3.0000159025
-1.5930601068 -7.8231947295 -3.0000159197
-1.6515437868 -7.9292995251 -3.0000159486
1.3658776593 -7.9979641523 -3.0000159486
0.7704570803 -8.2844519865 -3.0000159543
-1.6703680460 -7.9746587444 -3.0000159601
1.6661866793 -7.8580571926 -3.0000159601
-0.8239313003 -8.4681782475 -3.0000159889
-3.4391524254 -6.9202225083 -3.0000161272
-3.4614007753 -6.9296748208 -3.0000161330
-3.4528590675 -6.9496157243 -3.0000161330
-3.4441995322 -6.9695057433 -3.0000161330
-3.4398256737 -6.9794314534 -3.0000161330
-3.4354224723 -6.9893441814 -3.0000161330
-3.4485466426 -7.0191064787 -3.0000161388
-3.4394760521 -7.0389697677 -3.0000161388
-3.4348967271 -7.0488812010 -3.0000161388
-3.4521869661 -7.0690150130 -3.0000161445
-3.4475187062 -7.0789639159 -3.0000161445
-3.4428210362 -7.0888989658 -3.0000161445
-3.4380939970 -7.0988200757 -3.0000161445
-3.4333376301 -7.1087271587 -3.0000161445
-3.4599011598 -7.1092499814 -3.0000161503
-3.4356702363 -7.1589647914 -3.0000161503
-3.4671645688 -7.1497449401 -3.0000161560
-3.4473589503 -7.1896286562 -3.0000161560
-3.4372795141 -7.2094819340 -3.0000161560
-3.4321957929 -7.2193861234 -3.0000161560
-3.4381591936 -7.2602684670 -3.0000161618
-3.4329181796 -7.3212209339 -3.0000161676
-3.4321686729 -7.3725134626 -3.0000161733
-3.4363600319 -7.4141415904 -3.0000161791
-3.4458579745 -7.4460624293 -3.0000161849
-3.4492161221 -7.4881180885 -3.0000161906
-3.4373706897 -7.5079771298 -3.0000161906
-3.4314039654 -7.5178802829 -3.0000161906
-3.4339033771 -7.5601720100 -3.0000161964
3.4178422925 -7.2801303222 -3.0000161964
-3.4421314762 -7.5927494789 -3.0000162021
3.4069674089 -7.3533961268 -3.0000162021
3.4124469077 -7.3430531663 -3.0000162021
-3.4374323210 -7.6453579263 -3.0000162079
-3.4117644609 -7.6848551408 -3.0000162079
-3.2835476410 -7.8681884022 -3.0000162079
3.4059522149 -7.4062042718 -3.0000162079
3.4115879343 -7.3958640834 -3.0000162079
3.4171930408 -7.3855072687 -3.0000162079
3.4227674855 -7.3751339185 -3.0000162079
3.4041735032 -7.4592468390 -3.0000162137
3.4214595669 -7.4281901820 -3.0000162137
3.4016256034 -7.5125131186 -3.0000162194
-3.6041753783 -7.5102429306 -3.0000162252
-3.4457270400 -7.7646351520 -3.0000162252
3.4044114269 -7.5556740399 -3.0000162252
3.4104893116 -7.5453377554 -3.0000162252
3.4225532185 -7.5246114743 -3.0000162252
3.4004675460 -7.6093671138 -3.0000162310
3.4085007169 -7.6426124175 -3.0000162367
3.4148357631 -7.6322636557 -3.0000162367
3.4033022298 -7.6967127195 -3.0000162425
-3.4194325060 -7.9690235760 -3.0000162483
3.3906237876 -7.7612851568 -3.0000162483
3.2626730869 -7.9872199560 -3.0000162540
3.4228778067 -7.8872461246 -3.0000162713
-0.0084336030 -7.7658336308 -3.0000128291
-0.0438660709 -7.7968454268 -3.0000128032
-0.0105501531 -7.7908379057 -3.0000128032
0.0293062113 -7.7829794341 -3.0000128032
-0.0834107880 -7.8522277621 -3.0000127513
-0.0629175009 -7.8490311336 -3.0000127513
-0.1282089608 -7.8829487338 -3.0000127254
0.0607174027 -7.8998981338 -3.0000126735
0.2130526563 -7.8627732250 -3.0000126735
0.2748361866 -7.8699539369 -3.0000126476
0.4045250712 -7.8264931593 -3.0000126476
-0.7204957845 -8.0069512130 -3.0000125957
-0.7681299865 -8.1472370280 -3.0000124401
0.2714143942 -8.0723563002 -3.0000124401
-3.3326643010 -7.7062120498 -3.0000113768
3.4751232566 -6.7857498790 -3.0000108581
3.4787870898 -6.7741824244 -3.0000108581
3.4824166884 -6.7626041821 -3.0000108581
3.4860120206 -6.7510152534 -3.0000108581
3.4753232521 -6.8626632314 -3.0000108321
3.4792146081 -6.8510948486 -3.0000108321
3.4830717257 -6.8395150051 -3.0000108321
3.4944373120 -6.8047077242 -3.0000108321
3.4822230399 -6.9168313825 -3.0000108062
3.4902918697 -6.8936413868 -3.0000108062
3.4804707600 -7.0609921428 -3.0000107543
3.5902926811 -6.8224157447 -3.0000107284
3.5006100838 -7.2043239732 -3.0000106765
3.5102792941 -7.4187515790 -3.0000105728
3.2107786653 -8.1203576548 -3.0000104690
3.5088389415 -7.8831099920 -3.0000103394
0.0253217693 -7.7679811510 -3.0000092880
0.0628505984 -7.7535867876 -3.0000092880
0.0815177293 -7.7461403888 -3.0000092880
-0.0235854056 -7.8111810231 -3.0000092217
0.0147178460 -7.7976478685 -3.0000092217
0.0401172987 -7.7882490039 -3.0000092217
0.0654037616 -7.7785502591 -3.0000092217
0.0842923288 -7.7710802194 -3.0000092217
0.0550395980 -7.8084476884 -3.0000091555
0.0678164159 -7.8035470783 -3.0000091555
0.0869267208 -7.7960546434 -3.0000091555
0.0377220930 -7.8407170745 -3.0000090892
0.0506901305 -7.8359183558 -3.0000090892
0.1306790805 -7.8305187469 -3.0000090229
0.1757099247 -7.8114657447 -3.0000090229
0.1918252703 -7.8308028551 -3.0000089566
-0.3708682999 -8.0233384653 -3.0000088903
0.2080631846 -7.8500633735 -3.0000088903
0.1315427505 -7.9083835887 -3.0000088241
-0.1637102665 -8.0292932890 -3.0000087578
0.2342690553 -7.8913238243 -3.0000087578
-0.4918837960 -8.1619808948 -3.0000085590
-3.3507533221 -8.1447351786 -3.0000056427
-3.3495497958 -8.2491776110 -3.0000054439
3.5010782906 -6.3106540769 -3.0000036544
3.5030245014 -6.2980257687 -3.0000036544
3.5068048105 -6.2727521569 -3.0000036544
3.5086388756 -6.2601070744 -3.0000036544
3.5121947466 -6.2348009097 -3.0000036544
3.5146152696 -6.3777763796 -3.0000035881
3.5167599811 -6.3651077329 -3.0000035881
3.5188672072 -6.3524327971 -3.0000035881
3.5229691292 -6.3270645023 -3.0000035881
3.5249637893 -6.3143713652 -3.0000035881
3.5374553212 -6.6333455191 -3.0000033893
3.5427234873 -6.7154038504 -3.0000033230
3.5557797667 -6.8554257440 -3.0000031904
3.5913223153 -6.9071740462 -3.0000030579
3.5725460114 -7.1275801701 -3.0000029253
3.6596847248 -6.8422335796 -3.0000029253
3.7490665933 -6.5699602495 -3.0000028591
3.8083543916 -6.2067060059 -3.0000028591
3.5863684107 -7.2336750600 -3.0000027928
3.8455656528 -6.2945471046 -3.0000027265
3.7601756141 -6.8406875337 -3.0000026602
3.7739896628 -6.7870376658 -3.0000026602
3.8313078533 -6.9471658773 -3.0000023951
3.6055898949 -7.6334806972 -3.0000023288
3.9112458236 -6.7336255873 -3.0000023288
4.3094212971 -6.9375067036 -3.0000011358
0.0720375576 -7.7871797789 -3.0000128032
0.1069876648 -7.7664728873 -3.0000128032
0.1300811807 -7.7523250826 -3.0000128032
0.0420885466 -7.8595112909 -3.0000127513
0.1379103090 -7.8042610065 -3.0000127513
0.3364308581 -7.8481483292 -3.0000125957
0.3744746985 -7.8509861775 -3.0000125698
-0.7394618731 -8.3400566332 -3.0000125179
3.5053439695 -5.6476244176 -3.0000103394
3.5043163574 -5.6205159391 -3.0000103394
3.5319597630 -5.8649140311 -3.0000103134
3.5295022513 -5.6467801994 -3.0000103134
3.5549142711 -5.6870377612 -3.0000102875
3.5531615689 -5.6322380602 -3.0000102875
3.5608463511 -6.2369254076 -3.0000102616
3.5759575724 -6.0170082404 -3.0000102616
3.5798788966 -5.8930672491 -3.0000102616
3.5809045901 -6.2805085102 -3.0000102356
3.6282168431 -5.8939527183 -3.0000102097
3.6230225509 -6.3410415338 -3.0000101838
3.7008199640 -5.7256571305 -3.0000101319
3.6638426313 -6.8358960128 -3.0000100541
3.4712412048 -7.9894700788 -3.0000098466
3.4840693350 -7.9625223774 -3.0000098466
0.2069034127 -7.6939274014 -3.0000198972
0.2333725345 -7.7022356402 -3.0000199462
0.2563783090 -7.7469486441 -3.0000200441
0.3458100070 -7.7278785533 -3.0000201421
3.5478846428 -5.3520730386 -3.0000252859
3.5545620894 -5.2324200095 -3.0000253349
3.6302214854 -5.6836588941 -3.0000253838
3.5367287841 -4.8896000307 -3.0000254328
3.6401751968 -5.1579331296 -3.0000255308
3.6587802092 -5.1241429784 -3.0000255798
3.7420595478 -6.4769112649 -3.0000256288
3.7566425116 -5.1222409407 -3.0000257757
-2.7738058738 -11.2129976773 -3.0000261677
0.2168759998 -7.6819465978 -3.0000212614
0.2275442588 -7.7075557659 -3.0000213248
0.2608581236 -7.6641246230 -3.0000213248
0.2118580829 -7.7655701528 -3.0000213882
0.2741548146 -7.7264230513 -3.0000214516
0.0737655980 -8.0204228346 -3.0000215784
0.1883598674 -7.9032166521 -3.0000215784
0.3856557353 -7.7393617939 -3.0000217052
-0.0335521550 -8.3639879206 -3.0000220856
0.9171690348 -7.0603769065 -3.0000221490
-0.3797038135 -8.6639219712 -3.0000222758
-2.3872924912 -11.1125438509 -3.0000281082
-2.3443591063 -11.1194208070 -3.0000281082
-2.8327487305 -11.0426945982 -3.0000281716
-2.0880721275 -11.1767082885 -3.0000281716
-2.9377149456 -11.0392204335 -3.0000282350
-2.4672699975 -11.1478181471 -3.0000282350
-2.7164194240 -11.1211552453 -3.0000282984
-2.4860231664 -11.1689825280 -3.0000282984
-2.3555109664 -11.1910773039 -3.0000282984
-1.7113875878 -11.2487579440 -3.0000282984
-1.6378580456 -11.2499959527 -3.0000282984
-1.3878770678 -11.2460697440 -3.0000282984
-2.4175884517 -11.2055262647 -3.0000283618
-1.5494095993 -11.2742180308 -3.0000283618
-2.9001986279 -11.1248325306 -3.0000284252
-1.5042437119 -11.3219917979 -3.0000284886
-1.0872458618 -11.2975283742 -3.0000284886
-2.6211573217 -11.2411058269 -3.0000285520
-2.1027168074 -11.3210052168 -3.0000285520
-2.2846599238 -11.3236120605 -3.0000286154
-1.3678890146 -11.3661965411 -3.0000286154
-2.3927683474 -11.3320404093 -3.0000286788
3.7635151726 -5.7248973113 -3.0000293761
3.6388931214 -4.9048856213 -3.0000294395
3.6004811932 -4.7661518581 -3.0000294395
3.6498246711 -4.8521812079 -3.0000295029
3.6773638088 -4.8614127548 -3.0000295663
3.5994841044 -4.5983778757 -3.0000295663
3.7944082282 -5.2659351569 -3.0000296297
3.7602175358 -4.9908511537 -3.0000296931
3.6145782734 -4.4908216110 -3.0000296931
3.5181490860 -4.2314113457 -3.0000296931
3.8722702725 -5.4342984518 -3.0000297565
3.8357853207 -5.2248793666 -3.0000297565
3.8110405408 -4.9955172687 -3.0000298199
3.8025556270 -4.8619087310 -3.0000298833
3.7344222899 -4.6240576737 -3.0000298833
3.6557352997 -4.3190573739 -3.0000299467
3.6140446782 -4.2108410332 -3.0000299467
0.2047167330 -7.6656092701 -3.0000157987
0.1957842202 -7.7302494350 -3.0000158045
0.2061831156 -7.7601348018 -3.0000158102
0.2233723369 -7.7784697709 -3.0000158160
0.2404702721 -7.7969167168 -3.0000158218
0.2236800149 -7.8692448490 -3.0000158275
-2.3215629452 -11.0042980354 -3.0000163232
-2.2953365386 -11.0074309461 -3.0000163232
-2.2690920557 -11.0104086376 -3.0000163232
-2.2559633227 -11.0118392435 -3.0000163232
-2.2296934479 -11.0145839128 -3.0000163232
-2.1771072826 -11.0196067523 -3.0000163232
-2.1639517424 -11.0207652103 -3.0000163232
-2.1376306689 -11.0229653520 -3.0000163232
-2.0058554013 -11.0316282685 -3.0000163232
-2.2849416795 -11.0329581241 -3.0000163289
-2.1792633334 -11.0436834366 -3.0000163289
-2.1947138675 -11.0665497848 -3.0000163347
-2.2370158071 -11.0867323749 -3.0000163405
-1.5374717346 -11.1519036482 -3.0000163520
-1.7400169577 -11.2547955429 -3.0000163750
-0.9685172153 -11.1842871229 -3.0000163750
-1.3090323125 -11.2556132667 -3.0000163808
-0.8958676734 -11.1955402400 -3.0000163808
-0.7300271314 -11.2351143090 -3.0000163981
-0.2170715769 -11.1658701064 -3.0000164154
-0.0684733572 -11.1126251479 -3.0000164154
-0.0416454839 -11.1024261280 -3.0000164154
0.2420707837 -7.6673124161 -3.0000128032
0.2554547507 -7.7011712711 -3.0000127772
0.2625146615 -7.6818969879 -3.0000127772
0.2848073177 -7.6172109299 -3.0000127772
0.3196080450 -7.6653886216 -3.0000127254
0.3685608377 -7.5050862498 -3.0000127254
0.2871398799 -7.8182922672 -3.0000126994
0.3258849026 -7.7197963865 -3.0000126994
0.2597930153 -7.9381703420 -3.0000126735
0.2877775509 -7.9356233776 -3.0000126476
0.3345002748 -7.8303397106 -3.0000126476
0.3596423047 -7.9531732532 -3.0000125698
0.4731325745 -7.6634059028 -3.0000125698
0.5898732775 -7.0308240309 -3.0000125698
0.2968832310 -8.3170562112 -3.0000124401
-0.1631376304 -8.9836477690 -3.0000123363
1.1600224053 -4.4419383375 -3.0000110396
-1.6712217720 -11.0148888945 -3.0000108321
-1.6468573693 -11.0133871943 -3.0000108321
-1.5981573494 -11.0099514863 -3.0000108321
-1.5859889630 -11.0090025386 -3.0000108321
-1.5738234369 -11.0080175988 -3.0000108321
-1.5616608777 -11.0069966754 -3.0000108321
-1.5495013917 -11.0059397775 -3.0000108321
-1.5130424376 -11.0025533303 -3.0000108321
-1.5473725560 -11.0300188834 -3.0000108062
-1.5351450287 -11.0289196173 -3.0000108062
-1.4740591113 -11.0228809939 -3.0000108062
-1.4374527842 -11.0188243717 -3.0000108062
-1.4252588533 -11.0173999920 -3.0000108062
-1.4130691893 -11.0159395467 -3.0000108062
-1.5329449720 -11.0529923204 -3.0000107803
-1.4469528453 -11.0442346615 -3.0000107803
-1.4101580838 -11.0399366454 -3.0000107803
-1.3856500593 -11.0368899664 -3.0000107803
-1.3244626097 -11.0286393827 -3.0000107803
-1.5307449152 -11.0770650234 -3.0000107543
-1.4319146250 -11.0668521753 -3.0000107543
-1.1739087765 -11.0289488425 -3.0000107543
-1.1819538135 -11.0549248628 -3.0000107284
-1.6879571811 -11.1610833616 -3.0000106765
-1.4688758475 -11.1924758897 -3.0000106246
-0.8281793315 -11.0769437888 -3.0000106246
-0.8034625458 -11.0704532802 -3.0000106246
-0.5206764241 -11.1123221448 -3.0000104950
-1.5705007766 -11.3714906300 -3.0000104431
-1.4646922808 -11.3621360923 -3.0000104431
-1.0006251691 -11.3155746334 -3.0000104172
-0.3718130861 -11.1374597461 -3.0000104172
0.2630004396 -11.1505315174 -3.0000101319
0.2563882619 -7.6826588815 -3.0000138946
0.2729000200 -7.5893250694 -3.0000138946
0.2749428132 -7.5759386466 -3.0000138946
0.2778584170 -7.5558369373 -3.0000138946
0.2823209692 -7.5222791317 -3.0000138946
0.2760164675 -7.7074783440 -3.0000138801
0.2840035899 -7.6672100682 -3.0000138801
0.2953791066 -7.7326808690 -3.0000138657
0.2996849050 -7.7123916268 -3.0000138657
0.3127341412 -7.6444996152 -3.0000138657
0.3380484375 -7.7635962620 -3.0000138369
0.3627584737 -7.6390169077 -3.0000138369
0.3639363744 -7.6320591721 -3.0000138369
0.3773721254 -7.5413164971 -3.0000138369
0.2668828381 -8.1517001675 -3.0000138081
0.3735774289 -7.8232994968 -3.0000138081
0.2064300589 -8.3961272437 -3.0000137793
0.2386127508 -8.4385101442 -3.0000137505
0.3057390937 -8.3047105459 -3.0000137505
0.1146909888 -8.8115695944 -3.0000136928
0.6723030331 -6.6551988648 -3.0000136352
0.6332990003 -6.4144104650 -3.0000136208
0.2840839418 -4.2377853547 -3.0000130157
0.3253828951 -4.2389362739 -3.0000130012
0.3668392543 -4.2405854726 -3.0000129868
-1.0969131634 -10.9929833384 -3.0000129580
-1.0858072366 -10.9903289005 -3.0000129580
-1.0747092108 -10.9876416208 -3.0000129580
-1.0525372503 -10.9821686306 -3.0000129580
-1.0414635096 -10.9793829680 -3.0000129580
-1.1025119315 -11.0191404266 -3.0000129436
-1.0243969558 -10.9999808370 -3.0000129436
-1.0021528729 -10.9942099667 -3.0000129436
-0.9910437322 -10.9912752052 -3.0000129436
-0.9799433216 -10.9883075938 -3.0000129436
-0.9577690795 -10.9822739251 -3.0000129436
-0.9179532897 -10.9962259323 -3.0000129292
-0.8846375803 -10.9865758206 -3.0000129292
-0.8221353121 -10.9929215239 -3.0000129148
-0.8110307705 -10.9894542437 -3.0000129148
-0.7703361124 -11.0018540701 -3.0000129004
-0.7480853933 -10.9945800577 -3.0000129004
-0.7293292092 -11.0138253056 -3.0000128860
-0.7181632365 -11.0100833966 -3.0000128860
0.7034762509 -4.2720492212 -3.0000128716
-1.0466521193 -11.2046552197 -3.0000128283
-0.8021715266 -11.1385196444 -3.0000128283
-0.9468970532 -11.2046332359 -3.0000128139
-0.3847726123 -11.0125490736 -3.0000128139
-0.3416836671 -11.0203302333 -3.0000127995
0.9603007721 -4.2829852442 -3.0000127707
-0.5219314798 -11.2743210207 -3.0000126987
-0.3091541834 -11.1905359025 -3.0000126987
-0.5136766787 -11.2970409138 -3.0000126843
-0.6390252864 -11.3658563953 -3.0000126699
-0.5659644855 -11.3412522085 -3.0000126699
-0.1121138735 -11.3148024760 -3.0000125834
0.2603270664 -7.5544602140 -3.0000155288
0.2847150576 -7.5947394538 -3.0000155316
0.2844976483 -7.5541163313 -3.0000155316
0.2842649570 -7.5405769379 -3.0000155316
0.2841185734 -7.5338078167 -3.0000155316
0.2837657367 -7.5202710215 -3.0000155316
0.2822267978 -7.4796764772 -3.0000155316
0.2811872004 -7.4593910465 -3.0000155316
0.2808006677 -7.4526313851 -3.0000155316
0.3056932250 -7.4648789086 -3.0000155345
0.3571987528 -7.6019800608 -3.0000155403
0.3560413010 -7.5111850287 -3.0000155403
0.3531952771 -7.4483842605 -3.0000155403
0.3699322402 -7.8205196145 -3.0000155432
0.3793197605 -7.6867882952 -3.0000155432
0.3784728679 -7.4681076573 -3.0000155432
0.4055940152 -7.5880369998 -3.0000155460
0.4515821702 -7.4790297689 -3.0000155518
0.4781130877 -7.5880779411 -3.0000155547
0.4697191533 -7.3827105455 -3.0000155547
0.4406464168 -7.1570292462 -3.0000155547
0.4986585267 -7.7214835621 -3.0000155576
0.4831415950 -7.2774814691 -3.0000155576
0.4434790381 -6.9439602890 -3.0000155605
0.3988567682 -6.7932511609 -3.0000155605
0.5645274721 -7.8166906417 -3.0000155662
0.3977000850 -6.5830010871 -3.0000155691
0.3120032577 -8.8268787035 -3.0000155720
-0.5797565882 -10.9391499391 -3.0000156930
-0.5698455977 -10.9349218797 -3.0000156930
-0.5106349195 -10.9354199040 -3.0000156959
-0.4610093284 -10.9394734249 -3.0000156988
-0.4510979005 -10.9348940882 -3.0000156988
-0.3912519446 -10.9333349202 -3.0000157017
-0.2298040674 -10.9329223314 -3.0000157103
-0.1572288790 -10.9486877631 -3.0000157161
-0.0759369421 -10.9306678106 -3.0000157189
-0.0340767635 -10.9342582827 -3.0000157218
-0.0019227221 -10.9433049210 -3.0000157247
-0.2102488320 -4.1142487660 -3.0000157247
-0.1053826695 -4.1152527778 -3.0000157305
-0.1362643764 -4.0985396500 -3.0000157305
-0.1465910888 -4.0930295910 -3.0000157305
0.1981678193 -10.9319517372 -3.0000157362
0.0865871934 -4.1140020365 -3.0000157420
0.1426252001 -4.0914959401 -3.0000157478
0.2815962868 -7.4640599471 -3.0000158045
0.4509648579 -7.5902969808 -3.0000158391
-0.4823648426 -4.0288064491 -3.0000162540
-0.4158942678 -4.0285852260 -3.0000162598
0.2837404336 -7.3212784759 -3.0000152588
0.3681786472 -7.4670871086 -3.0000152588
0.6768028897 -8.2383716990 -3.0000152588
-1.3093630753 -4.0307056615 -3.0000152588
-1.3344352583 -4.0275600859 -3.0000152588
-1.1930693617 -4.0228085097 -3.0000152588
-1.2056269969 -4.0208731965 -3.0000152588
-1.2433334831 -4.0152902606 -3.0000152588
-1.2559131388 -4.0135036708 -3.0000152588
-1.2684980244 -4.0117543016 -3.0000152588
-1.0885441326 -4.0158356890 -3.0000152588
-1.1011228520 -4.0135912018 -3.0000152588
-1.1388980771 -4.0070811370 -3.0000152588
-1.2019803936 -3.9969768042 -3.0000152588
-1.2146144047 -3.9950679645 -3.0000152588
-0.9227837910 -3.9747934878 -3.0000152588
-1.3068509579 -3.9091893406 -3.0000152588
-0.2406036176 -3.9230992910 -3.0000152588
-0.0084588023 -3.9375657441 -3.0000152588
-1.1641611207 -3.5626806314 -3.0000152588
0.2396901315 -7.3052886527 -3.0000152588
0.6166089780 -7.8071632838 -3.0000152588
-1.6760819394 -3.9918893992 -3.0000152588
-1.7167737712 -3.9919265690 -3.0000152588
-1.7710259873 -3.9925378597 -3.0000152588
-1.6214574969 -3.9682313982 -3.0000152588
-1.3609332432 -3.9553744214 -3.0000152588
-1.2082320409 -3.9445577277 -3.0000152588
-1.3454630709 -3.9322687680 -3.0000152588
-1.0819317605 -3.9351172090 -3.0000152588
-1.1919472219 -3.9219751530 -3.0000152588
-1.2332785680 -3.9177186520 -3.0000152588
-1.9273486958 -3.8526691933 -3.0000152588
-0.7902720616 -3.8843720372 -3.0000152588
-0.6882453988 -3.8804151197 -3.0000152588
-0.9817615227 -3.8271448640 -3.0000152588
-0.6552828066 -3.8628286390 -3.0000152588
-1.1764490365 -3.7777673987 -3.0000152588
-1.5039289642 -3.7538052496 -3.0000152588
-1.0710251939 -3.7415242052 -3.0000152588
-1.3580359651 -3.7132529278 -3.0000152588
-0.4004973238 -3.8509609924 -3.0000152588
-1.1110954638 -3.7121993153 -3.0000152588
-1.1254892705 -3.7105014721 -3.0000152588
0.2666055450 -3.9809333182 -3.0000152588
0.3577413044 -3.9943572695 -3.0000152588
0.7284451374 -4.1513189733 -3.0000152588
0.2078865432 -7.3441973766 -3.0000152588
0.1898967551 -7.3243371852 -3.0000152588
0.4319580274 -7.4273807896 -3.0000152588
0.0165075960 -6.9042552018 -3.0000152588
0.4917246107 -7.3461012295 -3.0000152588
0.9003187350 -7.9256126100 -3.0000152588
-0.2507044852 -6.5598233385 -3.0000152588
0.1683741796 -6.8084141708 -3.0000152588
-0.0300808909 -6.4630938795 -3.0000152588
-2.0171892338 -3.9360549723 -3.0000152588
-2.2203690614 -3.9625342895 -3.0000152588
-1.9905648332 -3.9089149091 -3.0000152588
-2.0051927969 -3.9104483741 -3.0000152588
-1.5357883129 -3.8587233585 -3.0000152588
-1.5505667421 -3.8589117319 -3.0000152588
-1.6392197314 -3.8609599332 -3.0000152588
-1.6982954944 -3.8631994091 -3.0000152588
-1.7720961500 -3.8669814728 -3.0000152588
-1.3578600388 -3.8357070455 -3.0000152588
-1.5212102315 -3.8344065095 -3.0000152588
-1.4915662392 -3.8100746338 -3.0000152588
-1.0871745514 -3.8010931934 -3.0000152588
-1.9258757135 -3.8055805880 -3.0000152588
-1.0381733972 -3.7566079393 -3.0000152588
-1.6128220524 -3.7392782593 -3.0000152588
-0.9755129628 -3.7381301955 -3.0000152588
-1.1574175364 -3.7234666967 -3.0000152588
-0.8487054394 -3.7035012503 -3.0000152588
-2.2366284830 -3.6472572067 -3.0000152588
-2.4974332320 -3.6918998433 -3.0000152588
3.7405213670 -9.9543192847 -3.0000152588
-2.5424089120 -3.6269476312 -3.0000152588
3.7216645597 -10.1447086081 -3.0000152588
3.7973403309 -9.7881185089 -3.0000152588
0.3226887876 -7.2413124217 -3.0000152588
0.1054613213 -7.0797345639 -3.0000152588
0.3927559005 -7.2697153297 -3.0000152588
0.2652037984 -7.1641625651 -3.0000152588
0.9061998130 -7.8130791501 -3.0000152588
0.8752379317 -7.6745741873 -3.0000152588
-0.0694554736 -6.8108739075 -3.0000152588
1.0293942871 -7.7840099359 -3.0000152588
0.9856829228 -7.7114609260 -3.0000152588
0.9909902124 -7.5868431868 -3.0000152588
3.6148758266 -9.8729918247 -3.0000152588
3.5773375103 -10.1912872742 -3.0000152588
3.6539700547 -9.7760405404 -3.0000152588
3.6617353018 -9.7183002572 -3.0000152588
3.6847575470 -9.5010580126 -3.0000152588
3.6939366174 -9.3702976710 -3.0000152588
3.6947415376 -9.3557548245 -3.0000152588
3.5103105982 -10.5360105258 -3.0000152588
3.6425454795 -9.9960685748 -3.0000152588
3.7255411983 -9.0205436465 -3.0000152588
3.7058527767 -9.7536257295 -3.0000152588
3.7217478554 -9.6222143147 -3.0000152588
3.7498992522 -9.0349067094 -3.0000152588
3.7460671349 -8.8878807364 -3.0000152588
3.6202371639 -10.3224172980 -3.0000152588
3.7517517218 -9.5659812759 -3.0000152588
3.7616003926 -9.4481578552 -3.0000152588
3.7686582180 -9.3301343750 -3.0000152588
3.7949574004 -8.9007460154 -3.0000152588
3.8074797983 -9.7219062716 -3.0000152588
3.8267053105 -9.5430159251 -3.0000152588
3.8775192131 -9.7460213957 -3.0000152588
3.8448948988 -10.0958895863 -3.0000152588
-1.9016535689 -3.7510805653 -3.0000152588
-2.0907405121 -3.7785733366 -3.0000152588
-2.1221549732 -3.7838072832 -3.0000152588
-2.4188655960 -3.8427663734 -3.0000152588
-2.4343853670 -3.8463304867 -3.0000152588
-1.7139100524 -3.7062432506 -3.0000152588
-1.9997971626 -3.7400664026 -3.0000152588
-2.4921887270 -3.8102931274 -3.0000152588
-2.5078042389 -3.8140742859 -3.0000152588
-2.8329208624 -3.9040909687 -3.0000152588
-2.9094599432 -3.9284874939 -3.0000152588
-2.8708868047 -3.8906715294 -3.0000152588
-2.7744090733 -3.7602702371 -3.0000152588
-2.7946884005 -3.6906443337 -3.0000152588
-3.3626376869 -3.8373530515 -3.0000152588
0.7731248282 -7.5036732976 -3.0000152588
-0.0406120717 -6.9345212963 -3.0000152588
3.5089421179 -9.7822215416 -3.0000152588
3.5298891658 -9.8113243502 -3.0000152588
3.5470632244 -9.6395780329 -3.0000152588
3.5608233384 -9.3611254675 -3.0000152588
3.5613761326 -9.3212955513 -3.0000152588
3.5834426354 -9.1346564059 -3.0000152588
3.6018963001 -9.8199261029 -3.0000152588
3.6186710917 -8.9041367929 -3.0000152588
3.6151660898 -8.8638115060 -3.0000152588
3.6469005899 -8.9562481018 -3.0000152588
3.6325671556 -8.7941210853 -3.0000152588
3.6580263211 -8.8051264438 -3.0000152588
3.6728922415 -8.7209146024 -3.0000152588
3.6480376636 -8.5444764575 -3.0000152588
3.6782757919 -8.5814864627 -3.0000152588
3.6628475258 -8.4862805391 -3.0000152588
3.7844532455 -9.7008290487 -3.0000152588
3.8007144339 -9.4354940301 -3.0000152588
3.8013153379 -9.1416879721 -3.0000152588
3.9444654161 -9.8024631389 -3.0000152588
-2.9632292222 -3.7257213408 -3.0000152588
0.5765343873 -7.2844883252 -3.0000152588
-0.1454844144 -6.9487923810 -3.0000152588
-0.2679117880 -6.7341128595 -3.0000152588
-0.9981669164 -6.6443423299 -3.0000152588
-3.1220065414 -6.7143656561 -3.0000152588
3.5133850342 -9.1468505397 -3.0000152588
3.5080153366 -9.0738166148 -3.0000152588
3.5289173011 -9.0351381774 -3.0000152588
3.5336957834 -8.8611536308 -3.0000152588
3.5559970480 -8.8456502892 -3.0000152588
3.5543009405 -8.8333467912 -3.0000152588
3.5311139064 -8.6861311164 -3.0000152588
3.5527416857 -8.6696473240 -3.0000152588
3.6776796241 -9.0725764603 -3.0000152588
3.6684284986 -8.9713535433 -3.0000152588
3.5690404620 -8.3958522422 -3.0000152588
3.6336002120 -8.4594641460 -3.0000152588
3.5858147179 -8.1790662611 -3.0000152588
3.6553802858 -8.1585809177 -3.0000152588
3.6895917801 -8.1898073948 -3.0000152588
3.8682738234 -9.0307896110 -3.0000152588
-0.0541934971 -7.1608441859 -3.0000152588
0.5359413423 -7.2151876533 -3.0000152588
0.5022281611 -7.2036249483 -3.0000152588
0.4206479420 -7.1779186184 -3.0000152588
0.1921760851 -7.1223231358 -3.0000152588
0.3023068874 -7.1213146036 -3.0000152588
0.1329503128 -7.0872026170 -3.0000152588
0.7476740216 -7.2478996061 -3.0000152588
0.6134107751 -7.1920809143 -3.0000152588
0.4968579069 -7.1509468618 -3.0000152588
0.3924126507 -7.1195577590 -3.0000152588
0.2511822413 -7.0849699405 -3.0000152588
-0.1885583278 -7.0317813642 -3.0000152588
0.3846887775 -7.0923871608 -3.0000152588
0.2490525919 -7.0598066522 -3.0000152588
-0.1878297406 -7.0076193187 -3.0000152588
0.5258856472 -7.1095901747 -3.0000152588
0.9973708175 -7.2941488644 -3.0000152588
-0.1714092120 -6.9597907444 -3.0000152588
-0.2163067600 -6.9585698192 -3.0000152588
-0.7122886380 -6.9738539237 -3.0000152588
1.1450508723 -7.3278886185 -3.0000152588
0.2865543474 -6.9194971544 -3.0000152588
-0.8393170951 -6.9255241759 -3.0000152588
-0.8980588227 -6.9145455761 -3.0000152588
0.7498378673 -7.0120756612 -3.0000152588
1.4554702150 -7.4062032172 -3.0000152588
0.3484818900 -6.8590124179 -3.0000152588
-0.8785860493 -6.8601362614 -3.0000152588
0.8935730511 -7.0223274767 -3.0000152588
0.0844317243 -6.7869636264 -3.0000152588
0.7015880573 -6.9153039466 -3.0000152588
1.7074208316 -7.5382196364 -3.0000152588
-0.4429363773 -6.6980601893 -3.0000152588
1.1140569063 -6.9716167128 -3.0000152588
-3.2594203252 -7.1331701207 -3.0000152588
3.4903273582 -8.5857968384 -3.0000152588
3.4876400460 -8.5746988205 -3.0000152588
3.4793812958 -8.5414531434 -3.0000152588
-3.2473881813 -7.0409675055 -3.0000152588
3.4912733854 -8.4910333312 -3.0000152588
3.4853052735 -8.4688413549 -3.0000152588
-3.2441033459 -6.9990822347 -3.0000152588
3.5055780696 -8.4513428836 -3.0000152588
3.5024929516 -8.4402003396 -3.0000152588
3.4993748854 -8.4290669706 -3.0000152588
3.4930400179 -8.4068281477 -3.0000152588
-3.3496757388 -7.0916395000 -3.0000152588
3.5130318922 -8.3889630631 -3.0000152588
3.5064595175 -8.3666441425 -3.0000152588
3.5031238414 -8.3554993616 -3.0000152588
3.4929192092 -8.3221249063 -3.0000152588
-3.2283749752 -6.9061332301 -3.0000152588
3.5194597587 -8.3261372959 -3.0000152588
3.5125155732 -8.3037814455 -3.0000152588
3.5089939113 -8.2926190247 -3.0000152588
3.5054392445 -8.2814670705 -3.0000152588
3.5018516036 -8.2703256805 -3.0000152588
3.4945775261 -8.2480749826 -3.0000152588
3.5063058211 -8.2069979369 -3.0000152588
3.5024978833 -8.1958543091 -3.0000152588
3.6050238020 -8.4485438167 -3.0000152588
3.5214964738 -8.1768040657 -3.0000152588
-3.2279575627 -6.7965330319 -3.0000152588
3.5120393017 -8.0791700908 -3.0000152588
3.5078532010 -8.0680100617 -3.0000152588
3.5036341052 -8.0568624647 -3.0000152588
3.6324111098 -8.3666813058 -3.0000152588
3.5132973878 -8.0147050584 -3.0000152588
3.5312594913 -7.9295442304 -3.0000152588
3.5347938036 -7.8753097803 -3.0000152588
3.5344769091 -7.7547092004 -3.0000152588
3.5408382044 -7.7108441385 -3.0000152588
3.7548354013 -8.1884491438 -3.0000152588
3.5354005554 -7.5885927905 -3.0000152588
3.4350854528 -7.4000750076 -3.0000152588
-3.4417585117 -6.6365565334 -3.0000152588
-3.2114862649 -6.3657364188 -3.0000152588
3.8468295096 -8.1586758578 -3.0000152588
3.7324870104 -7.8468481395 -3.0000152588
3.2080747783 -6.4187864106 -3.0000152588
3.1898515142 -6.3983062001 -3.0000152588
-0.0984857861 -7.1742693767 -3.0000152588
0.1656273710 -7.1198837999 -3.0000152588
0.5484924786 -7.1390716953 -3.0000152588
0.2305106518 -7.0987005134 -3.0000152588
0.4609412010 -7.0991793635 -3.0000152588
-0.2635234060 -7.0955574245 -3.0000152588
-0.0209760954 -7.0484164202 -3.0000152588
0.7975681900 -7.1258612200 -3.0000152588
0.7552472853 -7.1136187850 -3.0000152588
0.6413982855 -7.0846635788 -3.0000152588
-0.3471608110 -7.0355448082 -3.0000152588
0.5540185932 -6.9924757826 -3.0000152588
-0.8510995990 -7.1017409717 -3.0000152588
0.4060067171 -6.8963256099 -3.0000152588
0.3519427148 -6.8902726909 -3.0000152588
-0.8334823639 -7.0174636741 -3.0000152588
1.3982386219 -7.0891585168 -3.0000152588
0.2948653840 -6.7153958523 -3.0000152588
0.6895774599 -6.7239103783 -3.0000152588
-0.6976882208 -6.7192981751 -3.0000152588
-1.2942763487 -6.7437221768 -3.0000152588
1.5388433816 -6.7531486553 -3.0000152588
3.4391465596 -8.0797468421 -3.0000152588
3.4349184763 -8.0698358618 -3.0000152588
3.4306610930 -8.0599374323 -3.0000152588
3.4354163580 -8.0106251824 -3.0000152588
3.4485404212 -7.9808628378 -3.0000152588
3.4394697593 -7.9609995815 -3.0000152588
3.4348903987 -7.9510881647 -3.0000152588
3.4614287628 -7.9508932741 -3.0000152588
3.4380874890 -7.9011492784 -3.0000152588
3.4454441714 -7.8608474088 -3.0000152588
3.4405685164 -7.8509187569 -3.0000152588
3.4372726082 -7.7904874231 -3.0000152588
3.4536779427 -7.7695128300 -3.0000152588
3.4381521051 -7.7397008869 -3.0000152588
3.4588154631 -7.6255969783 -3.0000152588
3.4363523903 -7.5858277699 -3.0000152588
3.4306632173 -7.5759272164 -3.0000152588
3.4400665758 -7.5439783868 -3.0000152588
3.4433001493 -7.5019129660 -3.0000152588
3.4373627107 -7.4919922269 -3.0000152588
-3.3857555037 -7.7102555293 -3.0000152588
-3.3963075578 -7.7308309988 -3.0000152588
3.4460495773 -7.4596367566 -3.0000152588
-3.3856309806 -7.6579457571 -3.0000152588
-3.4018775909 -7.6888332373 -3.0000152588
-3.4072321349 -7.6991609542 -3.0000152588
-3.3791199056 -7.5951285589 -3.0000152588
-3.3903532056 -7.6156667849 -3.0000152588
3.4437676836 -7.3645329512 -3.0000152588
-3.4002935823 -7.5834661965 -3.0000152588
3.4384465023 -7.3117280008 -3.0000152588
-3.3866204247 -7.5098450218 -3.0000152588
-3.3925045150 -7.5201283884 -3.0000152588
-3.3896417101 -7.4668781049 -3.0000152588
-3.3798032224 -7.4031558377 -3.0000152588
-3.3921722855 -7.4237014663 -3.0000152588
-3.3957474599 -7.3367404295 -3.0000152588
-3.3836426629 -7.2723962138 -3.0000152588
-3.2103803319 -6.9439563733 -3.0000152588
-3.3789120399 -6.8458100378 -3.0000152588
0.2424616497 -7.0564846584 -3.0000152588
0.5946033257 -7.0058589081 -3.0000152588
0.2096521827 -7.0107662562 -3.0000152588
0.1241685463 -6.9713636141 -3.0000152588
-0.1456709320 -7.0200218426 -3.0000152588
0.0470477884 -6.9577073466 -3.0000152588
-0.5446935077 -7.0985092809 -3.0000152588
-0.8753346927 -7.2645339158 -3.0000152588
-0.6224958053 -7.0528619162 -3.0000152588
1.0564446300 -6.8814324809 -3.0000152588
0.2991752502 -6.7621713913 -3.0000152588
-0.2523296434 -6.8473637009 -3.0000152588
-0.6266466723 -6.7666331621 -3.0000152588
-0.6914789208 -6.7668547922 -3.0000152588
3.3344440922 -7.5487571145 -3.0000152588
3.3374531617 -7.5096163944 -3.0000152588
3.3300162000 -7.4135585514 -3.0000152588
3.4295381044 -7.4734261641 -3.0000152588
3.3259606205 -7.3253243045 -3.0000152588
3.3128901931 -7.2278655313 -3.0000152588
3.3173593513 -7.1553503783 -3.0000152588
-3.4557348155 -8.2331001702 -3.0000152588
-3.4593429900 -8.2446101890 -3.0000152588
-3.4664571143 -8.2676619956 -3.0000152588
-3.4601296158 -8.1681078071 -3.0000152588
-3.4676963401 -8.1911656065 -3.0000152588
-3.4594197481 -8.0911974706 -3.0000152588
-3.4634476804 -8.1027190109 -3.0000152588
-3.4674415122 -8.1142524163 -3.0000152588
-3.4714012087 -8.1257975856 -3.0000152588
-3.4792180573 -8.1489228121 -3.0000152588
-3.4571991975 -8.0139083275 -3.0000152588
-3.4614557748 -8.0254236372 -3.0000152588
-3.4668109309 -7.9708231764 -3.0000152588
-3.4714161307 -7.9158965331 -3.0000152588
-3.4804748241 -7.9390255215 -3.0000152588
-3.4799742719 -7.8722232683 -3.0000152588
-3.5938326942 -8.1105578924 -3.0000152588
-3.4806631226 -7.7492615038 -3.0000152588
-3.4822003121 -7.6931327122 -3.0000152588
-3.6019415385 -7.9872685784 -3.0000152588
-3.3688561528 -7.2605043809 -3.0000152588
-3.4626163069 -7.4313276657 -3.0000152588
-3.6578844744 -7.6718660870 -3.0000152588
-3.5376586917 -6.8882631041 -3.0000152588
-3.5149939333 -6.6818677993 -3.0000152588
0.0316905018 -7.0587871377 -3.0000152588
-0.0156670955 -7.0745018723 -3.0000152588
-0.1630225117 -7.0521432161 -3.0000152588
0.1677085178 -6.8949877001 -3.0000152588
-0.6120291553 -7.2317232282 -3.0000152588
1.9663130785 -6.5621779986 -3.0000152588
3.1839919260 -6.8593148362 -3.0000152588
3.3629362309 -6.7985158314 -3.0000152588
-3.4724416677 -8.8344274659 -3.0000152588
-3.4771932345 -8.6930615689 -3.0000152588
-3.4791285485 -8.7056192040 -3.0000152588
-3.4899595815 -8.7810802364 -3.0000152588
-3.4948724191 -8.8188798701 -3.0000152588
-3.4841660482 -8.5885363394 -3.0000152588
-3.4864105362 -8.6011150586 -3.0000152588
-3.4929206035 -8.6388902833 -3.0000152588
-3.4950160971 -8.6514946798 -3.0000152588
-3.4990951806 -8.6767217936 -3.0000152588
-3.5030249406 -8.7019725991 -3.0000152588
-3.5068052395 -8.7272462125 -3.0000152588
-3.5009613793 -8.5463483805 -3.0000152588
-3.5056624395 -8.5716125089 -3.0000152588
-3.5173408516 -8.5038024258 -3.0000152588
-3.5160983075 -8.2777395935 -3.0000152588
-3.5162220416 -8.1829144528 -3.0000152588
-3.5336421771 -8.0680436695 -3.0000152588
-3.6816183715 -8.7553049322 -3.0000152588
-3.5396291887 -7.9261968548 -3.0000152588
-3.6982836888 -8.5500033168 -3.0000152588
-3.7180924694 -8.6691531555 -3.0000152588
-3.5583108620 -7.9057906651 -3.0000152588
-3.5501654105 -7.8083983946 -3.0000152588
-3.7570850764 -8.4701511081 -3.0000152588
-3.6950845686 -7.7117143799 -3.0000152588
-3.6155256044 -7.0566986738 -3.0000152588
-0.0200921832 -7.0468584222 -3.0000152588
-0.6217579029 -7.3167471234 -3.0000152588
0.2317548672 -6.7302764329 -3.0000152588
-3.4776405797 -9.4324073408 -3.0000152588
-3.5071033258 -9.0946993938 -3.0000152588
-3.5080445905 -9.1625122139 -3.0000152588
-3.5081124764 -9.1760760331 -3.0000152588
-3.5079827743 -9.2303315380 -3.0000152588
-3.5057975763 -9.3388189533 -3.0000152588
-3.5490215755 -8.9293206433 -3.0000152588
-3.5715106198 -8.9004411490 -3.0000152588
-3.6753511012 -9.3301701156 -3.0000152588
-3.6074387684 -8.2486561266 -3.0000152588
