29.5592935263 -0.0540315690 -3.0008981228
29.5781580786 -0.1707701764 -3.0008981228
29.5809303720 -0.1774922025 -3.0008981228
29.5212402317 -0.0909785624 -3.0008981228
29.5699955763 -0.2138104542 -3.0008981228
29.5758148195 -0.2272938150 -3.0008981228
29.5846930017 -0.2474537129 -3.0008981228
29.5876921102 -0.2541560720 -3.0008981228
29.5748468771 -0.2843107476 -3.0008981228
29.5873988864 -0.3111804663 -3.0008981228
29.8412312362 -0.8129725840 -3.0008981228
29.5927138782 -0.5300331166 -3.0008981228
29.6081721379 -0.5566742226 -3.0008981228
29.6120858739 -0.5633057732 -3.0008981228
29.6032549196 -0.5956315408 -3.0008981228
31.2691457021 -3.4680216902 -3.0008981228
31.1904213337 -3.4808972439 -3.0008981228
31.2155413994 -3.4847364422 -3.0008981228
31.2406837395 -3.4884269546 -3.0008981228
31.0858945173 -3.4878462292 -3.0008981228
31.0984727246 -3.4900935846 -3.0008981228
31.0519032337 -3.5307681287 -3.0008981228
30.7624261040 -3.5165035282 -3.0008981228
30.6929398696 -3.5232568935 -3.0008981228
30.9952766498 -3.6183950686 -3.0008981228
30.3648082690 -3.5488081708 -3.0008981228
31.2229705060 -3.8032791533 -3.0008981228
29.5584466313 0.1880505423 -3.0014672279
29.5691489339 0.1628611322 -3.0014672279
29.5256306663 0.2043085155 -3.0014672279
29.5841696270 0.0714701948 -3.0014672279
29.5932019947 0.0527991052 -3.0014672279
29.6023997022 0.0342089082 -3.0014672279
29.5807812560 0.0233932682 -3.0014672279
29.5870689265 0.0109177544 -3.0014672279
29.5902404129 0.0046940021 -3.0014672279
29.5998651428 -0.0139205831 -3.0014672279
29.6017758243 -0.0686558836 -3.0014672279
29.5944651280 -0.1052033130 -3.0014672279
29.6015133796 -0.1175956179 -3.0014672279
29.6122229173 -0.1361053462 -3.0014672279
29.3769834423 0.3304550411 -3.0014672279
29.6060335248 -0.1730805194 -3.0014672279
29.6134831583 -0.1854031937 -3.0014672279
29.6286004861 -0.2099152421 -3.0014672279
29.6119636831 -0.2288863611 -3.0014672279
29.6365364639 -0.4364299342 -3.0014672279
31.8788962957 -3.4773504233 -3.0014672279
31.9193320925 -3.4755173533 -3.0014672279
31.7036040522 -3.5053179182 -3.0014672279
31.7849817686 -3.5043997182 -3.0014672279
31.9205339418 -3.4996604857 -3.0014672279
31.6218520345 -3.5289618508 -3.0014672279
31.4707860688 -3.5483668262 -3.0014672279
31.0960613460 -3.5638693391 -3.0014672279
31.8561539063 -3.5991644159 -3.0014672279
31.0791761439 -3.5860512854 -3.0014672279
31.2867536557 -3.6086672397 -3.0014672279
31.0344292653 -3.6043620077 -3.0014672279
30.9019661485 -3.6328619206 -3.0014672279
30.8658171164 -3.6757336577 -3.0014672279
31.3190249359 -3.7325866284 -3.0014672279
31.9040255659 -3.7424272971 -3.0014672279
30.4909358707 -3.6450043654 -3.0014672279
31.4580592179 -3.8139653888 -3.0014672279
30.2475511652 -3.6522175303 -3.0014672279
29.8019826261 -3.5447576735 -3.0014672279
29.8156715031 -3.5503301146 -3.0014672279
29.8293768045 -3.5558620372 -3.0014672279
30.0089855815 -3.6240683017 -3.0014672279
29.5551563466 0.1589294555 -2.9986357689
29.5802937551 0.1193426453 -2.9986357689
29.5950242930 0.0969580316 -2.9986357689
29.6291294443 0.0472403942 -2.9986357689
29.5310552144 0.1519416823 -2.9986357689
29.5346167826 0.1461834133 -2.9986357689
29.5417909429 0.1346986085 -2.9986357689
29.5749102857 0.0835504968 -2.9986357689
29.5786739755 0.0779222582 -2.9986357689
29.5824542982 0.0723051780 -2.9986357689
29.6371064800 -0.0051349774 -2.9986357689
29.6411322454 -0.0105788403 -2.9986357689
29.6451740971 -0.0160107704 -2.9986357689
29.6340198799 -0.0414120436 -2.9986357689
29.6423021782 -0.0523054631 -2.9986357689
29.6506487808 -0.0631496910 -2.9986357689
29.6548461049 -0.0685532395 -2.9986357689
29.6590593953 -0.0739443479 -2.9986357689
29.6400350465 -0.0888577457 -2.9986357689
29.6604501551 -0.1527258731 -2.9986357689
29.6737206263 -0.2058624746 -2.9986357689
29.4038230090 0.0819646613 -2.9986357689
29.8645229746 -0.4679001439 -2.9986357689
29.6046466880 -0.2366781898 -2.9986357689
29.7737420770 -0.4168848727 -2.9986357689
29.9830466983 -0.5970441093 -2.9986357689
29.2033675161 0.3625859515 -2.9986357689
29.2692466688 0.2231966255 -2.9986357689
29.1531036706 0.3570404925 -2.9986357689
30.1678333560 -0.8393068307 -2.9986357689
28.9414169903 0.7745997304 -2.9986357689
29.8947531972 -0.7121107327 -2.9986357689
29.7856423387 -0.6868551128 -2.9986357689
28.8363259824 0.9372136616 -2.9986357689
30.3504399908 -1.0726968200 -2.9986357689
28.7713017923 0.8858384920 -2.9986357689
28.8192391880 0.6633879334 -2.9986357689
29.7871774357 -0.8122451917 -2.9986357689
30.1531386912 -1.0538467639 -2.9986357689
30.6268684746 -1.4369253641 -2.9986357689
32.2158009864 -3.5152492821 -2.9986357689
32.0016795203 -3.5671612712 -2.9986357689
32.5503030840 -3.4775199882 -2.9986357689
31.5933732911 -3.6176711043 -2.9986357689
31.7256556143 -3.6128752261 -2.9986357689
31.6677909929 -3.6395973563 -2.9986357689
31.9037977526 -3.6250921961 -2.9986357689
31.3271944565 -3.6650164217 -2.9986357689
31.4162796574 -3.6669272015 -2.9986357689
31.4459805285 -3.6672127210 -2.9986357689
31.7725385908 -3.6587577634 -2.9986357689
31.1011448104 -3.7015372745 -2.9986357689
31.1609793058 -3.7056589872 -2.9986357689
31.0693004372 -3.7233055243 -2.9986357689
31.0993409341 -3.7256429027 -2.9986357689
30.9016331278 -3.7312947148 -2.9986357689
31.4302004070 -3.7637795709 -2.9986357689
30.8989037978 -3.7553131669 -2.9986357689
31.2931298823 -3.7848139577 -2.9986357689
31.3083293758 -3.7853424661 -2.9986357689
31.2464516111 -3.8071071255 -2.9986357689
32.4069995238 -3.7529591478 -2.9986357689
32.3393156099 -3.8138104224 -2.9986357689
32.1739514840 -3.8630138246 -2.9986357689
26.2108312291 2.1898799423 -2.9986357689
26.1771374770 1.9396699305 -2.9986357689
26.2999445431 2.8191570559 -2.9986357689
26.2155610594 2.4792125819 -2.9986357689
26.1636826615 2.3431138734 -2.9986357689
26.3343940884 3.0931530966 -2.9986357689
26.2158987371 2.6926826999 -2.9986357689
26.3433307364 3.1923432342 -2.9986357689
26.1387026576 2.7798255474 -2.9986357689
25.9520702926 2.5184971414 -2.9986357689
25.9117130979 2.4412554430 -2.9986357689
25.8912463215 2.4624280020 -2.9986357689
29.5415700092 0.1837984930 -3.0008025169
29.5314924603 0.1582478263 -3.0008025169
29.5615350958 0.1235555073 -3.0008025169
29.5434263535 0.1075427393 -3.0008025169
29.6780800252 -0.0981455502 -3.0008025169
29.7495890577 -0.1922538220 -3.0008025169
29.6979939836 -0.2436858116 -3.0008025169
29.8117276590 -0.4510932525 -3.0008025169
29.0883335748 0.2763487394 -3.0008025169
28.9861826297 0.3553678579 -3.0008025169
28.8098368687 0.4906500487 -3.0008025169
30.3349499663 -1.1367643128 -3.0008025169
26.4736681375 2.8000024958 -3.0008025169
26.4337749301 2.6307256719 -3.0008025169
26.3829660795 2.3601119574 -3.0008025169
26.3359791167 1.9571372006 -3.0008025169
26.4612058268 2.8482613997 -3.0008025169
26.3383790607 2.2197378695 -3.0008025169
26.3329976448 2.1763753309 -3.0008025169
26.2992855822 1.6971017115 -3.0008025169
26.2740169128 1.6098076639 -3.0008025169
26.2747021817 1.5073554567 -3.0008025169
26.4582893201 3.0163323132 -3.0008025169
26.2530689785 1.7716463708 -3.0008025169
26.4309159339 3.0090925893 -3.0008025169
26.2785441053 2.3168368123 -3.0008025169
26.2341716698 1.2997788698 -3.0008025169
26.4119704364 3.0301851881 -3.0008025169
26.2149262619 1.2242725025 -3.0008025169
26.2171875585 1.1946564629 -3.0008025169
26.3447017053 2.9720545770 -3.0008025169
26.1640830677 1.9248875682 -3.0008025169
26.1533512034 1.6402382615 -3.0008025169
26.1290572190 1.6254047024 -3.0008025169
26.1289467857 1.5952736122 -3.0008025169
26.2074169134 2.7265349672 -3.0008025169
26.1350418016 2.3378881539 -3.0008025169
32.1371251290 -3.7128893115 -3.0008025169
32.1684926846 -3.7073812252 -3.0008025169
32.5944018852 -3.6383378428 -3.0008025169
32.6716056366 -3.6174647601 -3.0008025169
32.7944649336 -3.5816994734 -3.0008025169
32.8475494036 -3.5906041355 -3.0008025169
31.9580724140 -3.8138879556 -3.0008025169
31.8326475950 -3.8538188136 -3.0008025169
32.3287533865 -3.7750010933 -3.0008025169
33.1311542491 -3.5703459952 -3.0008025169
33.2829987194 -3.5116141738 -3.0008025169
33.2112361045 -3.6435845590 -3.0008025169
30.0849518240 -0.5307019581 -2.9996076722
28.8631551017 -0.0359816667 -2.9996077414
26.4956973487 2.3212746270 -2.9996081506
26.4925642232 2.2950482461 -2.9996081506
26.4910558610 2.2819282191 -2.9996081506
26.4840965720 2.2162643128 -2.9996081506
26.4740200677 2.0978376634 -2.9996081506
26.4677126108 1.9923769595 -2.9996081506
26.4685534895 2.2978446633 -2.9996081563
26.4641209985 2.2582582916 -2.9996081563
26.4387634383 1.8342797902 -2.9996081563
26.4445427558 2.3006410805 -2.9996081621
26.4288388178 2.1412274959 -2.9996081621
26.4143093794 1.7544844202 -2.9996081621
26.4157760523 1.6610513161 -2.9996081621
26.3998464037 2.0762446773 -2.9996081679
26.4003927851 1.4727467621 -2.9996081679
26.3865673512 2.2123142053 -2.9996081736
26.3697022656 1.5923679607 -2.9996081736
26.3725105547 2.3090303323 -2.9996081794
26.3205513906 1.9448286925 -2.9996081852
26.3196485111 1.9175726777 -2.9996081852
26.3435813201 1.0983693270 -2.9996081909
26.3497984211 1.0577211310 -2.9996081909
26.3157053908 1.1220909389 -2.9996081967
26.3280834532 1.0403528375 -2.9996081967
26.3281871722 0.9001165394 -2.9996082024
26.2430044183 1.3226000675 -2.9996082082
26.2853849050 0.7487725402 -2.9996082197
26.1488246068 1.7106577885 -2.9996082255
26.1814334426 1.2171928776 -2.9996082255
26.1278263511 1.9660004751 -2.9996082313
26.1167742035 2.1807111273 -2.9996082370
26.1830664981 0.8869322473 -2.9996082370
26.0836402456 2.0538905537 -2.9996082428
32.7332855124 -3.8028042491 -2.9996084848
32.9384902791 -3.7579003400 -2.9996084906
33.0123827189 -3.7563321739 -2.9996084964
29.4414658302 -0.1977226022 -3.0001813935
30.0516239542 -0.4325228184 -3.0001813935
26.4909873361 1.5859994946 -3.0001822119
26.4919726266 1.5738339970 -3.0001822119
26.4733794494 1.5107100212 -3.0001822234
26.4771121075 1.4740692430 -3.0001822234
26.4825945163 1.4252691430 -3.0001822234
26.4886539667 1.3765373297 -3.0001822234
26.4646837374 1.3734126870 -3.0001822349
26.4207381845 1.5554965960 -3.0001822464
26.4450766597 1.1819630214 -3.0001822580
26.3895989777 1.3889631856 -3.0001822695
26.3203693889 1.5979268578 -3.0001822925
26.3302745693 1.4840069941 -3.0001822925
26.4098212579 0.6100769180 -3.0001823386
26.1526022477 1.5723453246 -3.0001823732
26.0897367652 0.9810780800 -3.0001824424
26.0981847170 0.9410535443 -3.0001824424
29.4735877606 0.1522465701 -2.9999265662
29.6273619604 -0.3357884568 -2.9999268601
29.3952214228 -0.2853899731 -2.9999268774
30.1821089686 -0.4438782003 -2.9999268774
29.6005995306 -0.3785486997 -2.9999268947
29.0330907362 -0.1676309869 -2.9999269120
29.3165663348 -0.3061896174 -2.9999269120
29.1920812510 -0.2775881822 -2.9999269293
29.1614932335 -0.2897627822 -2.9999269465
28.9076049978 -0.2621904895 -2.9999270157
30.7403648561 -0.5947961714 -2.9999270157
33.2854418206 -0.3728571727 -2.9999278802
26.5044005148 1.1079334316 -2.9999278975
26.5178374681 1.0524439509 -2.9999278975
26.5206232649 1.0413702439 -2.9999278975
26.5234418075 1.0303048263 -2.9999278975
26.4782600345 1.1136092359 -2.9999279148
26.4943861668 1.0465812083 -2.9999279148
26.4971894093 1.0354381538 -2.9999279148
26.5028947221 1.0131771660 -2.9999279148
26.5057967425 1.0020594276 -2.9999279148
26.5087316386 0.9909503224 -2.9999279148
26.5116993845 0.9798499478 -2.9999279148
26.4975125394 0.9401172277 -2.9999279321
26.5006307079 0.9289838874 -2.9999279321
26.5069657797 0.9067451227 -2.9999279321
26.5101826275 0.8956398928 -2.9999279321
26.5002511599 0.8442814103 -2.9999279494
26.5070873666 0.8220418824 -2.9999279494
26.5105547814 0.8109373829 -2.9999279494
33.2587445094 -0.5586150613 -2.9999279494
33.2662666158 -0.5497408970 -2.9999279494
26.4874911712 0.8036982416 -2.9999279666
26.4981554481 0.7702425745 -2.9999279666
26.5017761337 0.7591118793 -2.9999279666
26.3894270713 1.0688955057 -2.9999279839
26.5013508409 0.6846389181 -2.9999279839
33.2493353911 -0.6433532598 -2.9999279839
26.3949816123 0.9484597628 -2.9999280012
26.4737796958 0.5481891345 -2.9999280358
26.4780573623 0.5369873030 -2.9999280358
26.4827368532 0.3958536129 -2.9999280704
26.4641404694 0.1441414155 -2.9999281568
26.2441142346 0.5419709129 -2.9999281914
26.2840492111 0.4355083420 -2.9999281914
26.2433299387 0.4741702749 -2.9999282087
26.2661690509 0.4148887829 -2.9999282087
26.2675239323 0.3467629145 -2.9999282260
26.4421181013 -0.8817132869 -2.9999285545
28.9143016274 -0.3208932039 -3.0000158621
28.6135811561 -0.3068784071 -3.0000158909
28.7561700400 -0.4083093319 -3.0000158967
26.5514596488 0.5404326237 -3.0000161330
26.5651069311 0.4511185606 -3.0000161388
26.5571826220 0.4111007957 -3.0000161445
26.5692676972 0.3311353202 -3.0000161503
26.5576697436 0.3004370123 -3.0000161560
26.5670784254 0.2298247251 -3.0000161618
26.5563448807 0.1986082579 -3.0000161676
26.5670854786 0.1787788276 -3.0000161676
26.5483914729 0.0638829287 -3.0000161849
33.4072285589 0.1991667509 -3.0000161964
33.4115915925 0.1041356782 -3.0000162079
33.4041771615 0.0407529226 -3.0000162137
33.4099697981 0.0510880813 -3.0000162137
33.4044150851 -0.0556742783 -3.0000162252
33.4004712043 -0.1093673522 -3.0000162310
33.4105944637 -0.2303370905 -3.0000162483
33.3829284698 -0.3600232237 -3.0000162598
29.5549277352 0.1532652750 -3.0000133219
29.4271592889 -0.4954841889 -3.0000126216
29.5288835205 -0.4991545359 -3.0000126216
30.7365899250 -0.3124930343 -3.0000125179
28.9235788551 -0.5388488769 -3.0000124920
30.6378693668 -0.3872930288 -3.0000124920
30.9461994698 -0.2202869199 -3.0000124920
29.5415989969 -0.6927104652 -3.0000124141
26.6625380592 0.0096157228 -3.0000115064
26.6740300605 -0.1746764008 -3.0000114027
26.6673322420 -0.2062150301 -3.0000113768
26.6805139697 -0.2636072725 -3.0000113508
26.6844301347 -0.3854054585 -3.0000112730
33.4664505559 0.7676413921 -3.0000108840
33.4714217637 0.7026905751 -3.0000108581
33.4824132313 0.7373928377 -3.0000108581
33.4753197950 0.6373337884 -3.0000108321
33.4792111510 0.6489021712 -3.0000108321
33.4830682686 0.6604820147 -3.0000108321
33.4868911140 0.6720732175 -3.0000108321
33.4906796539 0.6836756784 -3.0000108321
33.4781337531 0.5715886426 -3.0000108062
33.4822195828 0.5831656372 -3.0000108062
33.4862711478 0.5947546678 -3.0000108062
33.4902884126 0.6063556330 -3.0000108062
33.4755373801 0.4939033274 -3.0000107803
33.4798530284 0.5054729814 -3.0000107803
33.5009168647 0.5635099603 -3.0000107803
33.4804673029 0.4390048769 -3.0000107543
33.4849453292 0.4505893547 -3.0000107543
33.4893890668 0.4621870287 -3.0000107543
33.4846421967 0.3837859140 -3.0000107284
33.4984632437 0.4186180585 -3.0000107284
33.5006066267 0.2956730466 -3.0000106765
33.4883179982 0.1483020892 -3.0000106246
33.5042286873 0.1831761274 -3.0000106246
33.4934603321 0.0463217513 -3.0000105728
33.7016048316 0.4785633499 -3.0000105468
33.4960423838 -0.0566386645 -3.0000105209
33.3501811900 -0.3652562787 -3.0000104950
33.5220753885 -0.3125137034 -3.0000103653
33.9110128736 0.4180936786 -3.0000103134
29.9001954668 -0.4367543557 -3.0000089566
30.0011336194 -0.4049093459 -3.0000089566
29.5690489704 -0.5569751252 -3.0000088241
30.5235278785 -0.2668262973 -3.0000086915
30.6236227166 -0.2316930674 -3.0000086252
31.3819241788 0.1019838935 -3.0000078962
28.7746469671 -0.9295301200 -3.0000077636
28.8814534857 -1.0181068270 -3.0000075648
26.7820461111 -0.4335613177 -3.0000063055
26.8063704425 -0.5632680583 -3.0000061067
26.8109383311 -0.6019181185 -3.0000060404
33.4899547037 1.2810866421 -3.0000037207
33.4948675564 1.3188862738 -3.0000037207
33.5049288766 1.2146130099 -3.0000036544
33.5068003401 1.2272526115 -3.0000036544
33.5124286209 1.1095661419 -3.0000035881
33.5146107992 1.1222283888 -3.0000035881
33.5167555108 1.1348970355 -3.0000035881
33.5188627368 1.1475719712 -3.0000035881
33.5209324589 1.1602530851 -3.0000035881
33.5412191943 1.3001213176 -3.0000035881
33.5508128124 1.1946857709 -3.0000035218
33.5167739703 0.8847291410 -3.0000034556
33.5252032174 0.9227823867 -3.0000034556
33.5254719179 0.8157974061 -3.0000033893
33.6005571703 1.2003093755 -3.0000033893
33.5458623687 0.7973541912 -3.0000033230
33.6576561358 1.2585331839 -3.0000032567
33.5485468375 0.6190258580 -3.0000031904
33.5628524475 0.6701745095 -3.0000031904
33.5490752289 0.5355691454 -3.0000031242
33.5529552338 0.5483423111 -3.0000031242
33.5606018031 0.5739227961 -3.0000031242
33.7037719691 1.2388616294 -3.0000031242
33.5855150075 0.4109929237 -3.0000029253
33.5750997332 0.1677833980 -3.0000027265
33.5678697733 0.0212723600 -3.0000025939
33.5732710789 0.0341033736 -3.0000025939
33.7615225284 0.5725784422 -3.0000025939
33.5846681791 -0.0010200907 -3.0000025277
33.8208746404 0.7011891233 -3.0000025277
33.9049550239 1.1123333917 -3.0000025277
33.3842497687 -0.5135627211 -3.0000023951
33.4323732578 -0.4271025455 -3.0000023951
33.4331072419 -0.4760038353 -3.0000023288
33.8149701983 0.3349413384 -3.0000022626
33.6235536672 -0.5309351460 -3.0000017986
33.6226097971 -0.6323061983 -3.0000016661
33.5080791898 1.7167673793 -3.0000103394
33.5065883218 1.8117019360 -3.0000103394
33.5043200529 1.8794833457 -3.0000103394
33.5317742178 1.6214510695 -3.0000103134
33.5316374402 1.7714349161 -3.0000103134
33.5290095856 1.8668455455 -3.0000103134
33.5561346281 1.6347855186 -3.0000102875
33.5697068294 1.3729430530 -3.0000102616
33.5755718800 1.9099753035 -3.0000102616
33.5924021746 1.1063902737 -3.0000102097
33.5957865343 1.1340268519 -3.0000102097
33.6114738729 1.2863513269 -3.0000102097
33.6128211348 1.0756231207 -3.0000101838
33.6291245199 1.0167385514 -3.0000101578
33.6491153391 0.7111302770 -3.0000100800
33.6576805502 0.6360722536 -3.0000100541
33.6698461545 0.6921702786 -3.0000100541
33.7747391719 1.2143146937 -3.0000100281
33.9177535115 1.8076332642 -3.0000098985
33.5354642145 -0.2897429269 -3.0000098725
33.5030157316 -0.4219604163 -3.0000098466
33.5092498789 -0.4084023642 -3.0000098466
30.6250233310 -0.0576729563 -3.0000203381
33.5329765399 2.2492949059 -3.0000252859
33.5147553304 2.4845671073 -3.0000253349
33.6398767640 1.6096686238 -3.0000253838
33.6166069618 1.9783416660 -3.0000253838
33.6657145994 1.4618018293 -3.0000254328
33.6613931780 2.3610240633 -3.0000255798
33.7298155986 0.9026144709 -3.0000256288
33.7777870381 1.7805857467 -3.0000256778
33.7570364665 2.2227116190 -3.0000257268
33.8334333857 1.3537557097 -3.0000257757
27.6339115768 -3.7829549995 -3.0000261187
27.5045447750 -3.7811704566 -3.0000261677
27.5463618888 -3.8147560901 -3.0000262166
26.6708778039 -3.6061146012 -3.0000263146
27.0935273530 -3.8261957351 -3.0000264616
30.5297868644 -0.0209837930 -3.0000217052
30.6093715088 0.1260685997 -3.0000217052
30.6502982798 0.1549020679 -3.0000217686
30.6749168988 0.2082350444 -3.0000217686
29.8241808499 -0.8468698025 -3.0000218320
29.9110554139 -0.8147986738 -3.0000218954
30.8637901003 0.2854273280 -3.0000221490
29.6203138295 -1.1639192294 -3.0000222758
30.8005778526 0.0220068740 -3.0000222758
31.0458071622 0.6418221954 -3.0000223392
31.1403856830 0.7469310961 -3.0000225293
31.2383040039 0.6170063729 -3.0000228463
27.6843139680 -3.6237909122 -3.0000281082
27.8999689508 -3.6511712964 -3.0000281082
27.1531801309 -3.5389974670 -3.0000281716
27.5513677280 -3.6265830805 -3.0000281716
27.6807380609 -3.6476979859 -3.0000281716
27.7672774268 -3.6598579746 -3.0000281716
27.8974570388 -3.6752134590 -3.0000281716
27.9264383425 -3.6781547684 -3.0000281716
27.9844506186 -3.6835227465 -3.0000281716
28.3038485538 -3.7249222488 -3.0000282350
27.8631854250 -3.7201544988 -3.0000282984
28.6121405752 -3.7460670021 -3.0000282984
27.9340400360 -3.7517516342 -3.0000283618
28.4358287587 -3.7743162358 -3.0000283618
28.5688183822 -3.7718339723 -3.0000283618
27.5637867518 -3.7268844464 -3.0000284252
27.8431182842 -3.7665558278 -3.0000284252
28.6141149292 -3.7943727270 -3.0000284252
28.0335238244 -3.8087336206 -3.0000284886
28.5405312758 -3.8210212019 -3.0000284886
28.7789763391 -3.8091550098 -3.0000284886
28.9572956058 -3.7928581194 -3.0000284886
27.5812922660 -3.8033536657 -3.0000286154
28.1050824310 -3.8619980315 -3.0000286154
28.1652575198 -3.8652393396 -3.0000286154
27.7206202114 -3.8975114829 -3.0000288056
26.9318862595 -3.8286908928 -3.0000290592
26.8439897269 -3.9033345512 -3.0000293127
33.7426967308 1.9490154140 -3.0000293761
33.7051886292 2.1848887218 -3.0000293761
33.8069377693 1.5384631232 -3.0000294395
33.7576296429 2.0156230476 -3.0000294395
33.7478622759 2.0788538350 -3.0000294395
33.7453035828 2.0946431276 -3.0000294395
33.6624609681 2.5020810795 -3.0000294395
33.6547944256 2.5331393565 -3.0000294395
33.7927465921 1.9396241377 -3.0000295029
33.6743262034 2.5545831762 -3.0000295029
33.6124265745 2.9398828734 -3.0000296297
33.5586478947 3.2319607765 -3.0000297565
33.7621313160 2.6953972422 -3.0000298199
33.7374930019 2.9462845104 -3.0000299467
33.7756507417 2.9061689309 -3.0000300101
26.7451488678 -4.2270013550 -3.0000302003
30.3213483537 -0.2542725108 -3.0000158333
29.9778461180 -0.8265946690 -3.0000158506
30.3047618753 -0.4658943581 -3.0000158564
30.6498470008 0.2165844197 -3.0000158621
30.1722920574 -0.7220467077 -3.0000158679
30.0300401861 -0.9110297904 -3.0000158736
30.7895085699 0.5038694726 -3.0000158794
31.2350575271 0.9341847384 -3.0000159774
27.7074496684 -3.4834235273 -3.0000163174
27.7571595713 -3.5132343438 -3.0000163232
27.7702965385 -3.5145872506 -3.0000163232
27.8360382440 -3.5207685482 -3.0000163232
27.8755246203 -3.5240103542 -3.0000163232
27.9545759038 -3.5294420972 -3.0000163232
27.9677599527 -3.5302109398 -3.0000163232
27.7150483069 -3.5329614620 -3.0000163289
27.9531329253 -3.5535720183 -3.0000163289
28.0459637178 -3.5581593230 -3.0000163289
28.1388695923 -3.5608235069 -3.0000163289
27.7388606067 -3.5599118333 -3.0000163347
28.1117340376 -3.5844245622 -3.0000163347
28.2051696549 -3.5857212869 -3.0000163347
28.2318685502 -3.5857363864 -3.0000163347
27.7095979465 -3.5809993085 -3.0000163405
28.2859519901 -3.6336338750 -3.0000163462
27.7850898978 -3.6374939854 -3.0000163520
27.7985943253 -3.6387637256 -3.0000163520
28.6788897607 -3.6353554408 -3.0000163520
28.4229323645 -3.6780192197 -3.0000163578
28.8302743771 -3.6420064071 -3.0000163578
28.0403054814 -3.7030870792 -3.0000163635
28.9457426598 -3.6740686196 -3.0000163693
27.6519829949 -3.7202455102 -3.0000163750
27.9957513277 -3.7737364769 -3.0000163808
29.1177926904 -3.6929111276 -3.0000163808
29.1635727028 -3.7084596373 -3.0000163866
28.0918173389 -3.8257223191 -3.0000163923
28.1473200948 -3.8752593494 -3.0000164039
28.4172064448 -3.8718191142 -3.0000164039
28.4597853123 -3.8698895545 -3.0000164039
29.3582648924 -3.7392530412 -3.0000164039
28.1326718487 -3.8991891424 -3.0000164096
29.7829184096 -3.6658734443 -3.0000164154
29.8371537677 -3.6470714159 -3.0000164154
27.7431536900 -3.9248635318 -3.0000164212
29.9535280562 -3.6301441273 -3.0000164212
30.1141722110 -3.5657869414 -3.0000164212
30.1768494957 -3.5652359587 -3.0000164269
33.7866955141 2.8564346579 -3.0000166632
30.3360208889 -0.2614988281 -3.0000126735
30.1906138581 -0.6203540690 -3.0000126476
30.4310381710 -0.0515698320 -3.0000126476
30.0506803993 -0.8746519306 -3.0000126216
30.2151540981 -0.6262246050 -3.0000126216
30.2577919474 -0.5999875456 -3.0000125957
30.3036913114 -0.6168859458 -3.0000125438
30.6302777859 0.3610762383 -3.0000125179
30.8256861242 0.3750763892 -3.0000123104
28.3031373461 -3.4921053210 -3.0000108581
28.3409664275 -3.5141544537 -3.0000108321
28.4140159246 -3.5090009293 -3.0000108321
28.4626598021 -3.5048453049 -3.0000108321
28.4159309880 -3.5330979792 -3.0000108062
28.4404016060 -3.5310803641 -3.0000108062
28.4526323316 -3.5300172741 -3.0000108062
28.5381518676 -3.5215632753 -3.0000108062
28.5747460343 -3.5173983827 -3.0000108062
28.3069560720 -3.5645237915 -3.0000107803
28.6021030692 -3.5384298214 -3.0000107803
28.6266019739 -3.5353106565 -3.0000107803
28.6633146578 -3.5303602774 -3.0000107803
28.6999819642 -3.5250842889 -3.0000107803
28.7648876162 -3.5394245323 -3.0000107543
28.7194330304 -3.5710543322 -3.0000107284
28.9825043392 -3.5473769193 -3.0000107024
28.4400858194 -3.6766549451 -3.0000106506
29.0530651203 -3.6307628858 -3.0000105987
29.2151640131 -3.5904952293 -3.0000105987
29.2647160838 -3.5768543435 -3.0000105987
29.2339139227 -3.6104649407 -3.0000105728
29.2588279536 -3.6036065099 -3.0000105728
29.4023376042 -3.5863228984 -3.0000105468
28.3327294335 -3.8052115018 -3.0000105209
28.3457715596 -3.8044657261 -3.0000105209
28.4520038497 -3.8212026213 -3.0000104950
29.0982601367 -3.7691973030 -3.0000104431
29.7743580011 -3.6075152137 -3.0000103912
28.7300600523 -3.9115446087 -3.0000103653
29.1014460125 -3.8428724026 -3.0000103653
29.9201979388 -3.5725283772 -3.0000103653
30.2110976046 -3.4596668471 -3.0000103394
29.3236749647 -3.8364764164 -3.0000103134
29.9618858874 -3.6334059099 -3.0000102875
29.4209454815 -4.1857812762 -3.0000099244
29.7913228569 0.1984210112 -3.0000141971
29.8512555155 0.0373271250 -3.0000141539
29.8649175387 0.2451440053 -3.0000141539
29.8378807362 -0.1732567827 -3.0000141395
29.9225359204 0.0228576004 -3.0000141107
29.8294653483 -0.4432611654 -3.0000140963
29.9812204227 0.1272869605 -3.0000140819
30.3220698432 -0.4206549796 -3.0000138225
30.3568058387 -0.2897669213 -3.0000138225
30.4595290817 0.0434060834 -3.0000137937
30.1819559898 -0.9413317184 -3.0000137793
30.4966546652 0.5865448580 -3.0000137649
30.2278553301 -0.9582301827 -3.0000137505
30.5086570827 0.6711344301 -3.0000137505
30.1146808560 -1.3115709653 -3.0000136928
30.6281600587 1.2486268213 -3.0000135920
30.7582754437 -0.9177030732 -3.0000134767
30.8640104064 1.3762128582 -3.0000134335
29.7379632981 -2.4115796587 -3.0000133615
30.2840738090 3.2622132744 -3.0000130157
30.2751905959 3.2689233947 -3.0000130157
30.3164927732 3.2678946503 -3.0000130012
28.8808415365 -3.4981949675 -3.0000129580
28.9252806564 -3.4876429917 -3.0000129580
28.9474526169 -3.4821700015 -3.0000129580
28.9533150753 -3.5056213738 -3.0000129436
28.9978369943 -3.4942113376 -3.0000129436
29.0200465456 -3.4883089647 -3.0000129436
30.5009169626 3.2440957845 -3.0000129436
29.0820365775 -3.4962273032 -3.0000129292
29.0931513134 -3.4930434554 -3.0000129292
29.1153522869 -3.4865771915 -3.0000129292
30.5164107462 3.2626505130 -3.0000129292
29.1444800699 -3.5031274292 -3.0000129148
29.1556149444 -3.4997588321 -3.0000129148
29.1889590967 -3.4894556146 -3.0000129148
29.2073603896 -3.5089976834 -3.0000129004
29.2185123542 -3.5054430492 -3.0000129004
29.2407844938 -3.4982348902 -3.0000129004
29.2519044739 -3.4945814286 -3.0000129004
29.2630135978 -3.4908950880 -3.0000129004
29.1471291772 -3.5527995541 -3.0000128860
29.2594836649 -3.5175355381 -3.0000128860
29.2706606580 -3.5138266765 -3.0000128860
29.2818266307 -3.5100847675 -3.0000128860
29.2929814853 -3.5063098440 -3.0000128860
29.3152574499 -3.4986610855 -3.0000128860
30.6609554351 3.2336831817 -3.0000128860
29.2783077183 -3.5367582650 -3.0000128716
29.3567058119 -3.5097095071 -3.0000128716
29.3790007747 -3.5016836746 -3.0000128716
29.4319693559 -3.5078576310 -3.0000128572
29.4740979633 -3.5176457040 -3.0000128428
28.9650696184 -3.7018525452 -3.0000128283
29.0935468119 -3.6687239413 -3.0000128283
29.5389058494 -3.5180096212 -3.0000128283
29.5500830223 -3.5134741762 -3.0000128283
29.5723968737 -3.5043041933 -3.0000128283
29.5816513635 -3.5266355547 -3.0000128139
29.7240538409 -3.5175765576 -3.0000127851
30.9427599851 3.2344088349 -3.0000127707
29.3747775012 -3.7082673380 -3.0000127563
30.7213554108 3.4693298428 -3.0000127563
29.9001429133 -3.5410105402 -3.0000127275
30.0339475702 -3.4715781455 -3.0000127275
29.5526091507 -3.7205426022 -3.0000127131
29.5938614264 -3.7563382384 -3.0000126843
30.1244349968 -3.5045022073 -3.0000126843
30.4076441249 -3.3309991158 -3.0000126843
30.3240011019 -3.4139787963 -3.0000126699
30.3348670977 -3.4071213527 -3.0000126699
29.5841031087 -3.8379336478 -3.0000126410
29.8592450737 -3.7215185795 -3.0000126410
30.3084061815 -3.5371928940 -3.0000126122
29.8011928048 -0.1037164599 -3.0000154740
29.8011586167 -0.0663333606 -3.0000154740
29.8219810540 0.0258731720 -3.0000154769
29.8121311484 0.1336491929 -3.0000154769
29.7843234315 0.2990425451 -3.0000154769
29.8473281017 0.0054601037 -3.0000154798
29.8450234329 0.0437750659 -3.0000154798
29.8347752999 0.1474436283 -3.0000154798
29.8079098557 0.4063717043 -3.0000154826
29.8753415593 -0.3791662838 -3.0000154855
29.8958857528 0.0022430764 -3.0000154855
29.8834365852 0.1479671362 -3.0000154855
29.8807646921 -0.4837613608 -3.0000154884
29.8713379653 0.3527825203 -3.0000154884
29.8589747301 0.4025511266 -3.0000154884
29.9239913626 -0.3808985551 -3.0000154913
30.3801188709 -0.1656323330 -3.0000155432
30.3758305132 -0.4642707725 -3.0000155460
30.4293638248 -0.1312459615 -3.0000155489
30.4255944165 0.0558635942 -3.0000155489
30.3781066040 -0.6925408175 -3.0000155518
30.4588104221 -0.3956699940 -3.0000155547
30.3834555447 -0.9253203268 -3.0000155605
30.4169634849 0.6496661740 -3.0000155605
30.3371170367 -1.1091100863 -3.0000155633
30.4062624782 -0.9333315107 -3.0000155633
30.3892256318 0.8070044234 -3.0000155633
30.4528488460 0.7732285370 -3.0000155691
30.4477183626 0.7877494459 -3.0000155691
30.4398617804 0.8094732611 -3.0000155691
30.3780199425 -1.1948117125 -3.0000155720
30.5601366814 -0.6586562321 -3.0000155720
30.4906093265 0.8113736370 -3.0000155749
30.5356370448 -0.9284448376 -3.0000155777
30.2588541337 -1.6881203009 -3.0000155893
30.3683274965 -1.6123145627 -3.0000155950
30.5427015830 -1.2990280091 -3.0000155950
30.6622633234 0.9723698813 -3.0000156008
30.7937650560 -1.5007002521 -3.0000156325
30.8070839960 1.4575691067 -3.0000156411
30.8002105750 1.5192314327 -3.0000156440
30.7634082811 -2.1451748734 -3.0000156700
29.4202479418 -3.4391492089 -3.0000156930
29.4695311827 -3.4441962572 -3.0000156959
29.4794568877 -3.4398223870 -3.0000156959
29.4992692643 -3.4309866564 -3.0000156959
29.5290702706 -3.4440226916 -3.0000156988
29.5489066294 -3.4348933580 -3.0000156988
29.5789893594 -3.4475153015 -3.0000157017
29.5988455079 -3.4380905687 -3.0000157017
29.6186455491 -3.4285485252 -3.0000157017
29.6092754395 -3.4598977192 -3.0000157045
29.6292043165 -3.4502935870 -3.0000157045
29.6391473598 -3.4454473481 -3.0000157045
29.6896540995 -3.4473554143 -3.0000157074
29.6995881866 -3.4423303668 -3.0000157074
29.6704504909 -3.4839361411 -3.0000157103
29.7404345405 -3.4485354883 -3.0000157103
29.7503718963 -3.4433602180 -3.0000157103
29.7715545373 -3.4595456021 -3.0000157132
29.8014169425 -3.4436551090 -3.0000157132
29.8113395945 -3.4382994630 -3.0000157132
29.8328221332 -3.4541356270 -3.0000157161
29.8427756510 -3.4486870329 -3.0000157161
29.8527130073 -3.4432090184 -3.0000157161
29.8743977582 -3.4588192066 -3.0000157189
29.8843649490 -3.4532476039 -3.0000157189
29.9042496672 -3.4420160662 -3.0000157189
29.9141670206 -3.4363562296 -3.0000157189
29.9460878708 -3.4458541343 -3.0000157218
29.9980818078 -3.4433041908 -3.0000157247
30.0080025612 -3.4373667761 -3.0000157247
29.7897556980 3.3857519641 -3.0000157247
29.7794757797 3.3910432325 -3.0000157247
29.8214898477 3.3964889030 -3.0000157276
30.0927749160 -3.4421274621 -3.0000157305
30.1125901962 -3.4296630957 -3.0000157305
30.1421739814 -3.4107472792 -3.0000157305
29.8637401536 3.4014610801 -3.0000157305
29.9474142983 3.3831080415 -3.0000157334
29.9371415114 3.3888657041 -3.0000157334
29.9695821415 3.3983541867 -3.0000157362
30.0228406541 3.3956487899 -3.0000157391
30.0125304394 3.4016295224 -3.0000157391
30.2646605933 -3.4457228220 -3.0000157420
30.1838360493 3.3828593544 -3.0000157478
30.1735629636 3.3893163964 -3.0000157478
30.1632708218 3.3957430204 -3.0000157478
30.2276150084 3.3836380683 -3.0000157506
30.4389095671 3.3871295315 -3.0000157650
29.8047989989 -0.1822946610 -3.0000156835
29.8655992781 -0.2938189434 -3.0000156950
30.4397529297 -0.0191774500 -3.0000158391
30.3295283835 0.7028819019 -3.0000158679
30.2913501399 0.7767226369 -3.0000158679
30.5767737840 -0.9051336500 -3.0000158736
30.2046691702 1.1818591595 -3.0000159025
30.8507815511 -0.6849377989 -3.0000159313
29.9340385984 -3.3456924534 -3.0000160869
29.9426455116 -3.3400809800 -3.0000160869
29.9512357873 -3.3344440703 -3.0000160869
30.0383096260 -3.3340999000 -3.0000160984
30.0778565809 -3.3360530242 -3.0000161042
30.1347400694 -3.3251969118 -3.0000161099
30.3446425203 -3.3173592574 -3.0000161388
30.4263009787 -3.3132626992 -3.0000161503
29.2783907838 3.4520925066 -3.0000162310
29.2668914883 3.4557347120 -3.0000162310
29.2438608261 3.4629169924 -3.0000162310
29.2323296610 3.4664570046 -3.0000162310
29.3318838507 3.4601295242 -3.0000162367
29.3203605462 3.4639299366 -3.0000162367
29.2857238853 3.4751264144 -3.0000162367
29.3972726462 3.4634476008 -3.0000162425
29.3741940701 3.4714011249 -3.0000162425
29.3626372370 3.4753266493 -3.0000162425
29.4745680203 3.4614557093 -3.0000162483
29.4630401684 3.4656782015 -3.0000162483
29.4514998760 3.4698665737 -3.0000162483
29.4399472442 3.4740207893 -3.0000162483
29.4168053667 3.4822266057 -3.0000162483
29.5291684801 3.4668108755 -3.0000162540
29.5956394184 3.4668354656 -3.0000162598
29.5725373268 3.4759625348 -3.0000162598
29.6393378072 3.4752643840 -3.0000162655
29.6948862750 3.4783489522 -3.0000162713
29.7836622497 3.4925767535 -3.0000162828
29.9652571332 3.4877951018 -3.0000163001
30.1026231187 3.4994235091 -3.0000163174
29.7580732319 3.6615698002 -3.0000163174
30.5172148573 -0.3357547500 -3.0000152588
30.4087965925 0.0626895426 -3.0000152588
30.5961299055 -0.5649038529 -3.0000152588
30.6454872264 -0.5757131154 -3.0000152588
30.7292327506 -1.0909235755 -3.0000152588
30.8120426507 -0.3389574971 -3.0000152588
31.0191229511 -1.2750899018 -3.0000152588
28.6906348981 3.4692963651 -3.0000152588
28.8069286118 3.4771935169 -3.0000152588
28.7943709766 3.4791288300 -3.0000152588
28.7818076713 3.4810269869 -3.0000152588
28.7566644903 3.4847117659 -3.0000152588
28.7314999490 3.4882477249 -3.0000152588
28.9114538409 3.4841663376 -3.0000152588
28.8484954997 3.4950163823 -3.0000152588
28.9662633224 3.4985551109 -3.0000152588
28.9536417986 3.5009616715 -3.0000152588
28.9410132109 3.5033308847 -3.0000152588
28.9030861704 3.5102142352 -3.0000152588
28.8524246009 3.5188679535 -3.0000152588
28.7253537663 3.5378745560 -3.0000152588
29.3170757253 3.5162223580 -3.0000152588
29.2026423684 3.5458677485 -3.0000152588
29.1002928222 3.5696536245 -3.0000152588
28.8551775930 3.6163900287 -3.0000152588
29.7722370015 3.5721122809 -3.0000152588
29.4340351763 3.6842071292 -3.0000152588
28.7911751614 3.8216285043 -3.0000152588
29.7833497876 3.7226328206 -3.0000152588
29.7301131589 3.7416873564 -3.0000152588
30.7218985603 3.3441457096 -3.0000152588
30.8979741262 -0.6376683760 -3.0000152588
30.7874943664 -0.2092138539 -3.0000152588
31.0047783205 -1.1983824705 -3.0000152588
28.2158970915 3.4830425603 -3.0000152588
28.1214952904 3.4801628565 -3.0000152588
28.1080148947 3.4795919168 -3.0000152588
28.3103519540 3.5081400045 -3.0000152588
28.2018494208 3.5069174445 -3.0000152588
28.1611729992 3.5057970500 -3.0000152588
28.1476165993 3.5053433720 -3.0000152588
28.5692996304 3.5248877695 -3.0000152588
28.4875815138 3.5288047859 -3.0000152588
28.3921739224 3.5315407189 -3.0000152588
28.6253912535 3.5455870894 -3.0000152588
28.5159143841 3.5518089044 -3.0000152588
28.3514996832 3.5562803289 -3.0000152588
28.0637660062 3.5500583435 -3.0000152588
28.4206100819 3.5792924926 -3.0000152588
28.3103929741 3.5806590769 -3.0000152588
28.1588546407 3.5782790668 -3.0000152588
28.9180660937 3.5648844600 -3.0000152588
28.9521045289 3.6090878530 -3.0000152588
29.1498546171 3.6021827642 -3.0000152588
29.1541360807 3.6259736102 -3.0000152588
29.1123656027 3.6332995374 -3.0000152588
29.2978544114 3.6225359954 -3.0000152588
29.1952126663 3.6921791405 -3.0000152588
29.0679374383 3.7141134579 -3.0000152588
28.7833067338 3.7506792325 -3.0000152588
28.4402985455 3.7964151243 -3.0000152588
28.3249380927 3.7981868046 -3.0000152588
28.2095680187 3.7972281830 -3.0000152588
28.9320527940 3.7824534530 -3.0000152588
29.8921749376 3.6101920946 -3.0000152588
29.9875822914 3.7051510263 -3.0000152588
30.8981456359 -0.5617145089 -3.0000152588
30.9138784659 -0.5327952115 -3.0000152588
31.0673999146 -0.7099002243 -3.0000152588
31.1375926750 -0.7982443611 -3.0000152588
28.1869136453 3.5819846671 -3.0000152588
27.9101235080 3.5554496032 -3.0000152588
27.8230753121 3.5438431072 -3.0000152588
27.6496653888 3.5160049012 -3.0000152588
28.2586911665 3.6105180794 -3.0000152588
28.4789915625 3.6414165284 -3.0000152588
28.4494342115 3.6410834997 -3.0000152588
28.3017054592 3.6367958225 -3.0000152588
28.5381947791 3.6657308272 -3.0000152588
28.8530036217 3.7031904264 -3.0000152588
28.7492927178 3.7331394352 -3.0000152588
28.0719964350 3.7184937523 -3.0000152588
27.9644232346 3.7321493330 -3.0000152588
28.0071735564 3.7609361459 -3.0000152588
29.2089794851 3.7647121878 -3.0000152588
29.1331876560 3.7743350656 -3.0000152588
28.6914766545 3.8079697667 -3.0000152588
28.4623062244 3.8104723294 -3.0000152588
27.5212725118 3.7132297183 -3.0000152588
28.4620338792 3.8346438232 -3.0000152588
28.3085745767 3.8306441284 -3.0000152588
27.4864906216 3.7309175816 -3.0000152588
33.7060361113 -2.7061656422 -3.0000152588
33.7292072624 -2.6139189677 -3.0000152588
33.8356000806 -2.0374131795 -3.0000152588
33.6640767045 -2.9419847618 -3.0000152588
33.7637234979 -2.5731170173 -3.0000152588
33.6501596081 -3.1394215516 -3.0000152588
33.7510703288 -2.8175196279 -3.0000152588
33.8721602483 -3.3779271083 -3.0000152588
29.8978291542 0.6244065658 -3.0000152588
33.6705989713 -1.8544515374 -3.0000152588
33.7017608439 -1.6228375964 -3.0000152588
28.1457568158 3.7547456190 -3.0000152588
27.7212628782 3.6872434712 -3.0000152588
27.3211933337 3.6412959586 -3.0000152588
27.9096474489 3.8194467582 -3.0000152588
33.5058926290 -2.3084547151 -3.0000152588
33.5074396965 -2.2953391958 -3.0000152588
33.5184181963 -2.1902620021 -3.0000152588
33.5581649401 -1.9540289562 -3.0000152588
33.6092583009 -1.7009652558 -3.0000152588
33.6197657237 -1.4175828873 -3.0000152588
33.6151719311 -1.3638091218 -3.0000152588
33.6482695176 -2.3391950509 -3.0000152588
33.6786055510 -2.2876736272 -3.0000152588
33.6641418000 -1.1529394632 -3.0000152588
33.6740747759 -1.0542500836 -3.0000152588
33.6604885104 -0.9727041025 -3.0000152588
33.6583095894 -0.8324846946 -3.0000152588
33.7739941813 -1.5589187223 -3.0000152588
33.6762745789 -0.8003467610 -3.0000152588
33.7974659644 -1.5438119294 -3.0000152588
33.6704802248 -0.2306676369 -3.0000152588
30.3248069856 0.2844035328 -3.0000152588
30.8597156424 0.0918557235 -3.0000152588
31.4836591509 -0.1631344732 -3.0000152588
26.9097931602 1.0714022064 -3.0000152588
33.4892779142 -1.6484098571 -3.0000152588
33.4884777138 -1.6363024478 -3.0000152588
33.5141695364 -1.6590324639 -3.0000152588
33.5117547946 -1.6224962848 -3.0000152588
33.5048602175 -1.5373391023 -3.0000152588
33.5037313815 -1.5251860837 -3.0000152588
33.5277974679 -1.5229147915 -3.0000152588
33.5241742215 -1.4862630323 -3.0000152588
33.5144561610 -1.4008779023 -3.0000152588
33.5645389218 -1.6930427489 -3.0000152588
33.5414187399 -1.4224127140 -3.0000152588
33.5369030575 -1.3856440313 -3.0000152588
33.5303749095 -1.3366842109 -3.0000152588
33.5286523883 -1.3244565932 -3.0000152588
33.5268937033 -1.3122341245 -3.0000152588
33.5857688600 -1.6421759255 -3.0000152588
33.5471683944 -1.2841854217 -3.0000152588
33.5414257960 -1.2473711572 -3.0000152588
33.5650403708 -1.1036437736 -3.0000152588
33.5500215936 -1.0297788990 -3.0000152588
33.5628652813 -0.9753828201 -3.0000152588
33.6721939862 -1.5092870384 -3.0000152588
33.5749999968 -0.9205598972 -3.0000152588
33.7925244181 -1.4979305775 -3.0000152588
33.6132937489 -0.6028919560 -3.0000152588
33.5974983668 -0.5530830428 -3.0000152588
33.8542127825 -1.6777674405 -3.0000152588
33.6053959123 -0.4256138383 -3.0000152588
33.8621492939 -1.4646857980 -3.0000152588
33.6056091673 -0.3551292376 -3.0000152588
33.7772466913 -0.8313748373 -3.0000152588
33.6276971771 -0.0853749352 -3.0000152588
33.8086864642 -0.4991404257 -3.0000152588
33.8189208219 -0.4524569939 -3.0000152588
30.3798893273 0.3086557107 -3.0000152588
31.0444628583 0.4011354567 -3.0000152588
30.7283996904 0.7294156690 -3.0000152588
33.4720720778 -1.1135309153 -3.0000152588
33.4929859712 -1.0969021613 -3.0000152588
33.4903315007 -1.0857962424 -3.0000152588
33.4849240581 -1.0636082046 -3.0000152588
33.4971142401 -1.0132596324 -3.0000152588
33.4962280408 -0.9179422782 -3.0000152588
33.4898274146 -0.8957222922 -3.0000152588
26.7640025036 0.5850828980 -3.0000152588
33.5897495728 -1.0859557592 -3.0000152588
33.5054433870 -0.7814664745 -3.0000152588
33.5284571682 -0.6239319771 -3.0000152588
33.5180090205 -0.4610729425 -3.0000152588
33.5175754144 -0.2759249522 -3.0000152588
33.5241558428 -0.2322739084 -3.0000152588
33.7548395439 -0.6884485478 -3.0000152588
33.7391733618 -0.6410028875 -3.0000152588
33.7558990570 -0.5420557569 -3.0000152588
29.6253815479 -0.1588239377 -3.0000152588
30.0117923043 0.1383829601 -3.0000152588
30.3654027458 0.3894194503 -3.0000152588
30.2305058313 0.4012978177 -3.0000152588
30.8184570654 0.3424821172 -3.0000152588
30.7836705359 0.3530488286 -3.0000152588
30.6289015004 0.3933876043 -3.0000152588
29.6325872362 0.4116334147 -3.0000152588
30.9023568741 0.3402623311 -3.0000152588
30.6913703893 0.4033300946 -3.0000152588
30.8611097848 0.3796392932 -3.0000152588
29.3715575219 0.3981030769 -3.0000152588
30.8328973694 0.4139308840 -3.0000152588
31.1504912190 0.3185999606 -3.0000152588
29.4232024836 0.4629756984 -3.0000152588
29.1929857722 0.3892189487 -3.0000152588
29.2555471667 0.4882234615 -3.0000152588
31.2333648842 0.3865347963 -3.0000152588
30.7142212830 0.7706280673 -3.0000152588
28.5294660675 0.3766613349 -3.0000152588
28.4517787779 0.7553464364 -3.0000152588
32.3358544090 0.7057305327 -3.0000152588
33.4349136558 -0.5698375307 -3.0000152588
33.4398147744 -0.5205395635 -3.0000152588
33.4354115374 -0.5106268513 -3.0000152588
33.4795656349 -0.4909353098 -3.0000152588
33.4521757447 -0.4309559594 -3.0000152588
33.4475074491 -0.4210070732 -3.0000152588
33.4428097434 -0.4110720402 -3.0000152588
33.4380826685 -0.4011509473 -3.0000152588
33.4333262660 -0.3912438814 -3.0000152588
33.4454393509 -0.3608490778 -3.0000152588
33.4356586915 -0.3410062403 -3.0000152588
33.4473472953 -0.3103423335 -3.0000152588
33.4423222239 -0.3004082585 -3.0000152588
33.4536731222 -0.2695144989 -3.0000152588
33.4485272470 -0.2595618896 -3.0000152588
33.4433519527 -0.2496245463 -3.0000152588
33.4381472846 -0.2397025558 -3.0000152588
33.4382910509 -0.1886568603 -3.0000152588
33.4541271631 -0.1671742835 -3.0000152588
33.4476379287 -0.1056808180 -3.0000152588
33.4420074302 -0.0957467787 -3.0000152588
33.4363475697 -0.0858294389 -3.0000152588
33.4400617553 -0.0439800557 -3.0000152588
33.4342487680 -0.0340686980 -3.0000152588
33.4432953287 -0.0019146349 -3.0000152588
33.4373578902 0.0080061042 -3.0000152588
26.6198405704 -0.1476837896 -3.0000152588
26.6152434349 -0.1053910333 -3.0000152588
26.6096419739 -0.1156684538 -3.0000152588
26.5930203474 -0.1465995061 -3.0000152588
33.2276503729 0.5196539274 -3.0000152588
26.6163950712 0.0433948910 -3.0000152588
26.6103534694 0.0331202261 -3.0000152588
26.6078228940 0.0762968647 -3.0000152588
33.4316200128 0.3279221462 -3.0000152588
26.6120841791 0.1299656810 -3.0000152588
26.6057865042 0.1196778850 -3.0000152588
33.6339943265 0.0553211846 -3.0000152588
26.6171313360 0.1838231601 -3.0000152588
26.6042477195 0.1632579015 -3.0000152588
33.4288667670 0.4152703569 -3.0000152588
33.7002088814 0.0369802996 -3.0000152588
26.6163142247 0.3157098140 -3.0000152588
26.6240697463 0.3702808309 -3.0000152588
26.5215041780 0.3035330646 -3.0000152588
33.4399371703 0.9796626478 -3.0000152588
29.4517665118 -0.1072949787 -3.0000152588
30.3848326957 0.4506033529 -3.0000152588
29.7389491838 0.3740978770 -3.0000152588
30.3257199162 0.4970799439 -3.0000152588
30.5961920852 0.5182650355 -3.0000152588
29.5774704800 0.3971157728 -3.0000152588
31.0777020421 0.5135398409 -3.0000152588
30.7240979160 0.6038631201 -3.0000152588
30.5720742139 0.6165704154 -3.0000152588
29.1531763900 0.3079180024 -3.0000152588
31.1980412307 0.6558072848 -3.0000152588
28.9626156306 0.3341557154 -3.0000152588
31.1815691992 0.8110991042 -3.0000152588
32.1333624543 0.8463734115 -3.0000152588
33.3489361282 -0.0268290928 -3.0000152588
33.3432089116 -0.0182127636 -3.0000152588
33.3374562313 -0.0096134142 -3.0000152588
33.3458665515 0.0211230258 -3.0000152588
33.3399974972 0.0297300649 -3.0000152588
33.3341030074 0.0383197045 -3.0000152588
33.3259636902 0.1746786758 -3.0000152588
33.3326614163 0.2062173246 -3.0000152588
33.3390865286 0.2379093902 -3.0000152588
33.3260405223 0.2550621620 -3.0000152588
33.2919879272 0.4517746364 -3.0000152588
33.4435913559 0.5342355649 -3.0000152588
26.5479104617 -0.7215978952 -3.0000152588
26.5442682542 -0.7330971900 -3.0000152588
26.5406600796 -0.7446072088 -3.0000152588
26.5370859696 -0.7561278508 -3.0000152588
26.5335459553 -0.7676590154 -3.0000152588
26.5398734539 -0.6681048268 -3.0000152588
26.5323067295 -0.6911626263 -3.0000152588
26.5207850124 -0.6489198319 -3.0000152588
26.5343248006 -0.5369485081 -3.0000152588
26.5331921387 -0.4708201961 -3.0000152588
26.5244583292 -0.4939209773 -3.0000152588
26.5201427148 -0.5054906440 -3.0000152588
26.5285869390 -0.4158935529 -3.0000152588
26.5195282456 -0.4390225413 -3.0000152588
26.5247386504 -0.3606508676 -3.0000152588
26.5990524295 0.1830218641 -3.0000152588
26.3072193514 -0.4541436582 -3.0000152588
26.5843351256 0.2062049471 -3.0000152588
26.3120102153 -0.3724667683 -3.0000152588
26.5128432598 0.1258660633 -3.0000152588
26.2764498224 -0.3304800541 -3.0000152588
26.4870386865 0.2302948864 -3.0000152588
26.2562339163 -0.2508807059 -3.0000152588
31.9239288646 0.9294904116 -3.0000152588
33.2922616219 0.5310038960 -3.0000152588
26.5323407743 -1.2968337905 -3.0000152588
26.5291210427 -1.3218965584 -3.0000152588
26.5135103863 -1.2559128556 -3.0000152588
26.5158424156 -1.0885438495 -3.0000152588
26.5135979277 -1.1011225688 -3.0000152588
26.5113906596 -1.1137078727 -3.0000152588
26.4839101564 -0.7777471037 -3.0000152588
26.4803421716 -0.6955972845 -3.0000152588
26.4769354320 -0.7082827392 -3.0000152588
26.4604686583 -0.6765488031 -3.0000152588
26.3149284511 -1.2816417410 -3.0000152588
29.7603998061 0.0603765457 -3.0000152588
29.6789523336 -0.0038834877 -3.0000152588
29.8312074988 0.1407029777 -3.0000152588
30.2141601840 0.5576149896 -3.0000152588
30.1479925687 0.5311071091 -3.0000152588
30.0245611589 0.4754028881 -3.0000152588
30.0825949502 0.5556048471 -3.0000152588
30.1064979505 0.5923164057 -3.0000152588
30.0494915224 0.5937774597 -3.0000152588
29.2237892515 0.0307968396 -3.0000152588
29.1446717040 0.0517844107 -3.0000152588
30.3774814931 0.9403010757 -3.0000152588
28.9231169354 0.0529885172 -3.0000152588
26.5193016913 -1.8650117055 -3.0000152588
26.5216650839 -1.9189295612 -3.0000152588
26.5223556056 -1.9324043606 -3.0000152588
26.4946522604 -1.8523723738 -3.0000152588
26.4751086911 -1.4306893044 -3.0000152588
26.4711915142 -1.5124074133 -3.0000152588
26.4697769782 -1.5532893217 -3.0000152588
26.4442864207 -1.6073722534 -3.0000152588
26.4439778386 -1.7581424031 -3.0000152588
26.4268405284 -1.4279460218 -3.0000152588
26.4298792606 -1.1231418021 -3.0000152588
26.4167738419 -1.0373881296 -3.0000152588
26.4120180644 -0.9095602644 -3.0000152588
26.4028789107 -0.8224646998 -3.0000152588
26.2088367471 -1.4300012968 -3.0000152588
26.2769549071 -0.7105831573 -3.0000152588
26.2475585063 -0.8672720623 -3.0000152588
26.3163069590 -0.4363148223 -3.0000152588
26.1800892326 -1.1805914128 -3.0000152588
26.1717797424 -1.2675849732 -3.0000152588
26.4583212031 0.1483569763 -3.0000152588
26.3218752506 -0.2400854131 -3.0000152588
26.4637287029 0.2257489257 -3.0000152588
26.3681877267 -0.0225029387 -3.0000152588
29.6055143806 -0.0793839556 -3.0000152588
29.7236708028 0.0916777256 -3.0000152588
29.5700210502 -0.0852961274 -3.0000152588
29.5375293613 -0.1279157042 -3.0000152588
