36.7296575695 -26.0018593153 -2.2599988242
36.8263821796 -25.9947911918 -2.2599988097
36.9096407536 -26.0162006097 -2.2599987809
36.9319731706 -26.0078615053 -2.2599987809
36.9852781580 -26.0133058483 -2.2599987665
37.0165153129 -26.0269850945 -2.2599987521
37.1040463442 -26.0172824468 -2.2599987377
36.8973108169 -26.1235550495 -2.2599987233
37.1134327918 -26.0395586647 -2.2599987233
37.2677086802 -26.0241609881 -2.2599986945
38.3445884818 -19.0414354510 -2.2599986368
37.5345969893 -26.0261293650 -2.2599986224
37.6938248853 -26.0485357120 -2.2599985648
38.0325543314 -26.0672152059 -2.2599984495
38.0023798598 -22.0924698518 -2.2600014871
38.4846466314 -22.6679516762 -2.2600015390
38.4853991214 -22.6325820993 -2.2600015390
38.5066292808 -22.4457714102 -2.2600015419
38.8120949080 -22.3033746272 -2.2600015793
38.7424545781 -23.4226032222 -2.2600015822
38.7917743783 -23.1999516081 -2.2600015822
38.8298331879 -22.0514635763 -2.2600015851
38.8893683925 -22.8097553026 -2.2600015880
38.8645116703 -23.3276267618 -2.2600015937
38.7147946247 -23.8915107530 -2.2600015966
38.9434519379 -23.1755585410 -2.2600015995
38.7155368535 -24.2378472390 -2.2600016139
38.8134674402 -21.1423096884 -2.2600016139
38.7961448060 -21.1031561551 -2.2600016139
36.9202479418 -25.9391470780 -2.2600016168
39.0338683209 -23.4531322469 -2.2600016168
36.9794568877 -25.9398202561 -2.2600016197
37.0389952016 -25.9394705639 -2.2600016225
37.0690404619 -25.9521814422 -2.2600016254
37.0889244037 -25.9428154888 -2.2600016254
37.1087525853 -25.9333320592 -2.2600016254
37.1391473598 -25.9454452173 -2.2600016283
37.1589902208 -25.9356646057 -2.2600016283
37.1688898649 -25.9307303187 -2.2600016283
37.2194115487 -25.9321900907 -2.2600016312
37.3527130073 -25.9432068875 -2.2600016398
37.4781878264 -25.9550887175 -2.2600016485
37.4881435339 -25.9492101012 -2.2600016485
37.5080025612 -25.9373646453 -2.2600016485
37.2794757797 -19.1089546367 -2.2600016485
37.3534134412 -19.0930267300 -2.2600016542
37.6453833578 -25.9374261137 -2.2600016571
37.4798828551 -19.1074973518 -2.2600016600
37.4592641567 -19.0958205102 -2.2600016600
37.5331331317 -19.1103602850 -2.2600016629
37.6196908015 -19.1057935283 -2.2600016686
37.6529597139 -19.0978586988 -2.2600016715
37.7613024906 -19.1093698676 -2.2600016773
37.7510060849 -19.1026836999 -2.2600016773
38.2464217476 -25.9483526794 -2.2600017003
38.7968911790 -22.9737273083 -2.2600019588
38.7964808961 -22.8677913589 -2.2600019588
38.8213049895 -22.9255152938 -2.2600019645
38.0085336946 -25.8071670986 -2.2600020856
36.8088298645 -19.0323064975 -2.2600021605
36.7972842772 -19.0285743273 -2.2600021605
36.7625819804 -19.0175829677 -2.2600021605
36.9283861888 -19.0218619298 -2.2600021720
36.9829194615 -19.0158610806 -2.2600021778
36.9713244639 -19.0116139939 -2.2600021778
37.0725411415 -19.0240402070 -2.2600021836
37.0609699472 -19.0195279674 -2.2600021836
37.9115655768 -22.3124331920 -2.2600011826
37.9550178436 -21.9629232031 -2.2600011826
38.4569821933 -22.3203941918 -2.2600011826
38.4496721311 -22.0954451531 -2.2600011826
38.4356148123 -22.0623578645 -2.2600011826
38.5056639174 -22.1702139903 -2.2600011826
38.7991719203 -22.5575731243 -2.2600011826
38.7728863293 -22.2754333934 -2.2600011826
39.0401156218 -23.0476408326 -2.2600011826
39.0521656928 -22.9047649217 -2.2600011826
38.7841902973 -21.7775496556 -2.2600011826
38.3858822961 -21.1316901776 -2.2600011826
39.1403518508 -23.4240041373 -2.2600011826
39.1430913462 -23.3412824510 -2.2600011826
39.1436606010 -23.2274815656 -2.2600011826
38.9448784905 -21.4549601913 -2.2600011826
36.2282071815 -19.0357067831 -2.2600011826
36.2156880320 -19.0340042858 -2.2600011826
36.1906348981 -19.0307104298 -2.2600011826
36.1781011329 -19.0291191000 -2.2600011826
36.1655627151 -19.0275648543 -2.2600011826
36.2818076713 -19.0189798080 -2.2600011826
36.2314999490 -19.0117590700 -2.2600011826
36.4114538409 -19.0158404574 -2.2600011826
36.3988751214 -19.0135959702 -2.2600011826
36.3862898174 -19.0113887030 -2.2600011826
36.3484954997 -19.0049904126 -2.2600011826
36.4662633224 -19.0014516840 -2.2600011826
36.4283776699 -18.9943440649 -2.2600011826
36.3904304332 -18.9875729397 -2.2600011826
36.5594601301 -18.9957025605 -2.2600011826
36.4961877522 -18.9826656483 -2.2600011826
36.4708259724 -18.9777131603 -2.2600011826
36.2925353636 -18.9472585827 -2.2600011826
36.6405940592 -18.9890344411 -2.2600011826
36.6279350402 -18.9861122331 -2.2600011826
36.6152674321 -18.9832274855 -2.2600011826
36.2446710190 -18.9159682174 -2.2600011826
36.6841991629 -18.9745295058 -2.2600011826
36.6587859565 -18.9684648216 -2.2600011826
36.7917149486 -18.9769334484 -2.2600011826
36.3681410056 -18.8857325569 -2.2600011826
36.2642664032 -18.8698812326 -2.2600011826
36.2021745451 -18.8372391144 -2.2600011826
36.9192191511 -18.9625803117 -2.2600011826
36.9644274126 -18.9509260642 -2.2600011826
36.4850886491 -18.8327817047 -2.2600011826
37.0099422094 -18.9397370379 -2.2600011826
37.1069878816 -18.9459972951 -2.2600011826
37.0429204529 -18.9248676728 -2.2600011826
36.7444936391 -18.8399721681 -2.2600011826
37.1532195509 -18.9362985733 -2.2600011826
36.2306763973 -18.7190225394 -2.2600011826
36.2172204277 -18.7173141233 -2.2600011826
37.2253863398 -18.9363477694 -2.2600011826
37.2125689053 -18.9316958705 -2.2600011826
36.4762475170 -18.7327851865 -2.2600011826
36.3821872802 -18.7165751378 -2.2600011826
36.9208624135 -18.8120101637 -2.2600011826
36.2775986941 -18.6764910861 -2.2600011826
37.3193613856 -18.9199335266 -2.2600011826
37.3796280651 -18.9175770855 -2.2600011826
36.7466867312 -18.7160727919 -2.2600011826
36.6678013665 -18.6234407088 -2.2600011826
37.5847856316 -18.8990488671 -2.2600011826
37.7809157732 -18.8836619277 -2.2600011826
37.8528070374 -18.5964305860 -2.2600011826
41.6125492830 -25.6443890820 -2.2600011826
38.7237407254 -22.1290661399 -2.2600011826
38.6886590609 -22.0604699235 -2.2600011826
39.4072466530 -22.8784351708 -2.2600011826
35.6754319930 -19.0179481756 -2.2600011826
35.5945362469 -19.0210148448 -2.2600011826
35.5675846669 -19.0223560773 -2.2600011826
35.8239159148 -18.9918836771 -2.2600011826
36.0692996304 -18.9751081774 -2.2600011826
35.9875815138 -18.9711911610 -2.2600011826
35.8785403574 -18.9682256761 -2.2600011826
35.7012910775 -18.9689119235 -2.2600011826
35.6322301702 -18.9468349986 -2.2600011826
36.2369175061 -18.9391493105 -2.2600011826
36.2231957405 -18.9379000731 -2.2600011826
36.3630972401 -18.9282150090 -2.2600011826
36.3659644790 -18.9042126295 -2.2600011826
36.7374737771 -18.8897847882 -2.2600011826
36.7097257927 -18.8843663152 -2.2600011826
36.6262962989 -18.8690971934 -2.2600011826
36.4166521256 -18.8374224400 -2.2600011826
36.2480538409 -18.8187983068 -2.2600011826
37.0855140966 -18.8471547422 -2.2600011826
35.6221573021 -18.6811225479 -2.2600011826
36.5252130606 -18.6815529269 -2.2600011826
36.1615337629 -18.6419236485 -2.2600011826
36.5096912739 -18.5816424432 -2.2600011826
35.9598152291 -18.5348599181 -2.2600011826
36.0691014020 -18.4425222716 -2.2600011826
35.6586005257 -18.4380397137 -2.2600011826
37.6772761217 -18.7618915894 -2.2600011826
36.4537849601 -18.4278970298 -2.2600011826
36.8237924977 -18.2909033103 -2.2600011826
41.5307659079 -24.6245118971 -2.2600011826
41.5645310698 -24.8255207962 -2.2600011826
38.8272063813 -22.0658571044 -2.2600011826
38.2604528523 -21.3279523678 -2.2600011826
39.2254896440 -22.6470257182 -2.2600011826
39.0651749793 -22.2861163083 -2.2600011826
39.1153057299 -22.2253765054 -2.2600011826
37.8155381060 -20.8529344495 -2.2600011826
38.4712603416 -21.3256441971 -2.2600011826
38.2281566658 -21.0799052787 -2.2600011826
39.5725322818 -23.1651601248 -2.2600011826
37.7849081829 -20.6956337158 -2.2600011826
35.4391855663 -18.9410394312 -2.2600011826
35.4246528837 -18.9427805752 -2.2600011826
35.3520702259 -18.9521307177 -2.2600011826
35.3230772194 -18.9561711979 -2.2600011826
35.2651654573 -18.9647663958 -2.2600011826
35.1064777535 -18.9919293885 -2.2600011826
35.0777245076 -18.9974221798 -2.2600011826
35.9056634145 -18.8839247949 -2.2600011826
35.7880729279 -18.8880341621 -2.2600011826
35.6852857813 -18.8939116131 -2.2600011826
35.6706126094 -18.8949249544 -2.2600011826
35.2469428081 -18.9431435510 -2.2600011826
35.2178984704 -18.9478061576 -2.2600011826
35.8607831296 -18.8609790067 -2.2600011826
35.7574201958 -18.8653567339 -2.2600011826
35.3748387871 -18.9003211940 -2.2600011826
36.1124472995 -18.8350943016 -2.2600011826
35.1515268379 -18.9100301500 -2.2600011826
35.9785917892 -18.8102533894 -2.2600011826
36.3679659159 -18.7978296083 -2.2600011826
36.0833479738 -18.7862958441 -2.2600011826
35.7386293932 -18.7937499512 -2.2600011826
36.4747522221 -18.7820315224 -2.2600011826
36.2643440604 -18.7675739350 -2.2600011826
35.6470803339 -18.7754418942 -2.2600011826
36.4618294638 -18.7566270128 -2.2600011826
36.4467467814 -18.7553437981 -2.2600011826
35.7359408302 -18.7454787097 -2.2600011826
36.6938345458 -18.7332878759 -2.2600011826
35.3529713379 -18.7325289311 -2.2600011826
35.4412860686 -18.6974662359 -2.2600011826
35.4999347495 -18.6669214576 -2.2600011826
36.9482314431 -18.6995081998 -2.2600011826
37.0137267155 -18.6871078716 -2.2600011826
34.9720432390 -18.6980317141 -2.2600011826
35.6329008693 -18.5825782096 -2.2600011826
35.3683767132 -18.6087272990 -2.2600011826
35.6781440256 -18.5552233139 -2.2600011826
36.7158919259 -18.5655204749 -2.2600011826
35.4094185477 -18.5551188001 -2.2600011826
35.2998192959 -18.5689079723 -2.2600011826
41.2608871438 -24.9748285344 -2.2600011826
35.5643741950 -18.5152776821 -2.2600011826
41.3266018130 -24.7609718646 -2.2600011826
41.2101950798 -25.3725360040 -2.2600011826
41.4275150730 -23.8896593399 -2.2600011826
41.4355079064 -24.2749982163 -2.2600011826
41.4502072510 -23.9862041114 -2.2600011826
41.4315059403 -24.5497480544 -2.2600011826
41.3824470294 -24.9842380004 -2.2600011826
36.4284727235 -18.3901728540 -2.2600011826
36.3152396578 -18.3828970401 -2.2600011826
35.3445203119 -18.4168202117 -2.2600011826
35.2481159457 -18.4296742045 -2.2600011826
35.3738638500 -18.3889104266 -2.2600011826
41.5319099437 -24.2824823146 -2.2600011826
37.1760965653 -18.4487527026 -2.2600011826
36.1707897454 -18.3286619503 -2.2600011826
41.5619981631 -23.2322226118 -2.2600011826
41.5603291953 -23.0323939742 -2.2600011826
38.3567991222 -21.6165702072 -2.2600011826
38.9102350308 -21.9374053768 -2.2600011826
37.9746227092 -21.0324216933 -2.2600011826
41.0724507407 -25.1009357544 -2.2600011826
41.1171617156 -24.8586615814 -2.2600011826
41.1279877832 -24.7870074613 -2.2600011826
41.1358848401 -24.7295737672 -2.2600011826
41.1464548530 -24.6432580782 -2.2600011826
41.1606620905 -24.4990253766 -2.2600011826
41.0352550139 -25.3608998845 -2.2600011826
41.1476916193 -24.8192641706 -2.2600011826
41.1635633802 -24.7038320719 -2.2600011826
41.1766991955 -24.5880567181 -2.2600011826
41.1835164001 -24.5155516154 -2.2600011826
41.0392112839 -25.4376995269 -2.2600011826
41.1578374660 -24.9095737394 -2.2600011826
41.2049884163 -24.5467929527 -2.2600011826
41.2115333738 -24.7098504473 -2.2600011826
41.2425305482 -24.6541587799 -2.2600011826
41.2503182270 -24.5806727755 -2.2600011826
41.2693375637 -24.3153515907 -2.2600011826
41.2613303191 -24.7011304868 -2.2600011826
41.2954179188 -24.6151047627 -2.2600011826
41.2975908145 -24.7962031024 -2.2600011826
41.3876230671 -23.3325695465 -2.2600011826
41.2921606639 -25.4294860068 -2.2600011826
41.4178174167 -22.8544394153 -2.2600011826
35.5542443221 -18.7812565475 -2.2600011826
35.1019641125 -18.8628126388 -2.2600011826
35.4721721200 -18.7686443969 -2.2600011826
36.0094462249 -18.6904664316 -2.2600011826
35.7359032529 -18.6867512284 -2.2600011826
41.4585769708 -22.3804001727 -2.2600011826
34.3849123616 -18.9745001752 -2.2600011826
36.3464332930 -18.5875142541 -2.2600011826
35.5185213558 -18.6397714416 -2.2600011826
36.3794347158 -18.5638453001 -2.2600011826
36.2813371363 -18.5387460879 -2.2600011826
37.0675834421 -18.4730688236 -2.2600011826
36.7340239800 -18.4362224297 -2.2600011826
36.7863442390 -18.4164136164 -2.2600011826
37.3913303094 -18.4788622584 -2.2600011826
37.7499981200 -21.6890337956 -2.2600011826
37.8113427906 -21.6374797184 -2.2600011826
38.4714665759 -21.5452191924 -2.2600011826
37.9589765007 -21.2529776025 -2.2600011826
39.0318211699 -21.9295547833 -2.2600011826
38.9659843081 -21.7949508388 -2.2600011826
39.2518560175 -21.9929322742 -2.2600011826
39.5821133672 -21.8611955812 -2.2600011826
41.0043067702 -24.8215737067 -2.2600011826
41.0089479592 -24.7822272636 -2.2600011826
41.0218935839 -24.6508036048 -2.2600011826
41.0309463565 -24.5190545456 -2.2600011826
41.0329668808 -24.7849524582 -2.2600011826
41.0358826420 -24.7585571316 -2.2600011826
41.0500935121 -24.5998649869 -2.2600011826
41.0570504320 -24.4805695482 -2.2600011826
41.0586633234 -24.4407684629 -2.2600011826
41.0602642872 -24.3876810638 -2.2600011826
41.0615812781 -24.2814680199 -2.2600011826
41.0777075001 -24.5483108450 -2.2600011826
41.0857421149 -24.2681322466 -2.2600011826
41.0855992705 -24.2414337292 -2.2600011826
41.0850888414 -24.2013887059 -2.2600011826
41.1089014850 -24.3754349539 -2.2600011826
41.1093930741 -24.3485975399 -2.2600011826
41.1097714641 -24.2412328920 -2.2600011826
41.1043207506 -24.0534317181 -2.2600011826
41.1270429615 -24.0252827627 -2.2600011826
41.1237229185 -23.9714153504 -2.2600011826
41.1305517946 -24.7823734727 -2.2600011826
41.1361897550 -24.7284115414 -2.2600011826
41.1423386721 -24.6608715136 -2.2600011826
41.1580697769 -24.3222141011 -2.2600011826
41.1581777669 -24.3086505418 -2.2600011826
41.1438627763 -23.9156759639 -2.2600011826
41.1427682151 -23.9021562103 -2.2600011826
41.1311189207 -23.7806409828 -2.2600011826
41.1652717737 -24.6764715094 -2.2600011826
41.1814041600 -24.3769775680 -2.2600011826
41.1753142034 -24.0225942061 -2.2600011826
41.1700398542 -23.9409524591 -2.2600011826
41.1657189658 -23.8865821913 -2.2600011826
41.1633173434 -23.8594171818 -2.2600011826
41.1505230313 -23.7373700721 -2.2600011826
41.1489009800 -23.7238313964 -2.2600011826
41.1695162234 -23.6937157402 -2.2600011826
41.1677649516 -23.6801210703 -2.2600011826
41.2300119955 -24.3642301627 -2.2600011826
41.2307265296 -24.2540068991 -2.2600011826
41.2227988656 -24.0061496058 -2.2600011826
41.1697068668 -23.5270495608 -2.2600011826
41.2466169422 -24.5584117955 -2.2600011826
41.2477210662 -24.0185613712 -2.2600011826
41.2442446825 -24.8509561242 -2.2600011826
41.2831903923 -24.7147701770 -2.2600011826
41.3029486835 -24.3375755472 -2.2600011826
41.2971750188 -24.8149295989 -2.2600011826
41.3226852883 -24.4925149348 -2.2600011826
41.3240727963 -24.0988224843 -2.2600011826
41.2115404669 -23.2353439118 -2.2600011826
41.3494868472 -24.4229710271 -2.2600011826
41.3510948497 -24.3523096631 -2.2600011826
41.3464339819 -24.0555367228 -2.2600011826
41.3202023655 -23.7315301644 -2.2600011826
41.2157737985 -23.1474596059 -2.2600011826
41.3554009913 -24.7214520140 -2.2600011826
41.3753454598 -24.2106103911 -2.2600011826
41.3584013730 -23.8701216923 -2.2600011826
41.3781345025 -24.7378956623 -2.2600011826
41.3985873279 -24.3958807864 -2.2600011826
41.3996333632 -24.3387743909 -2.2600011826
41.3870115015 -23.9250005903 -2.2600011826
41.3477023507 -23.5702764068 -2.2600011826
41.4472473016 -24.3826338198 -2.2600011826
41.4458585663 -24.1230705166 -2.2600011826
41.4851142743 -24.6164469872 -2.2600011826
41.2707434822 -22.8044849957 -2.2600011826
41.5202860927 -24.3549081493 -2.2600011826
41.5123773302 -23.9891615666 -2.2600011826
41.4931360035 -23.7557894012 -2.2600011826
41.5435829168 -24.3993949531 -2.2600011826
41.5634857266 -24.5181380874 -2.2600011826
41.5678827145 -24.1635285967 -2.2600011826
41.6156970815 -24.4160697508 -2.2600011826
41.6164202099 -24.3862332527 -2.2600011826
41.6228479320 -24.7160833290 -2.2600011826
41.4355936538 -22.6092996254 -2.2600011826
41.7061527642 -23.7024076033 -2.2600011826
41.6495244933 -23.3247113896 -2.2600011826
41.3507207460 -22.3155131901 -2.2600011826
41.7469754768 -23.1950205953 -2.2600011826
35.8242785301 -18.5336187399 -2.2600011826
35.7563497928 -18.5428805497 -2.2600011826
36.2641257462 -18.4206533022 -2.2600011826
35.5405240118 -18.5040918965 -2.2600011826
36.1932711419 -18.4005958028 -2.2600011826
35.6801407449 -18.3830505168 -2.2600011826
34.6031625421 -18.6505855285 -2.2600011826
37.5786225695 -22.1776060162 -2.2600011826
38.5327252659 -21.5426431692 -2.2600011826
38.3620273758 -21.4248687200 -2.2600011826
38.6842196669 -21.5771751574 -2.2600011826
37.5333555152 -21.0969572318 -2.2600011826
38.7691805137 -21.5744576829 -2.2600011826
38.3121642254 -21.3209695611 -2.2600011826
37.2794128286 -21.0337710482 -2.2600011826
39.1223659515 -21.7785078130 -2.2600011826
37.7292923875 -20.9663521423 -2.2600011826
38.9966923718 -21.2903419480 -2.2600011826
34.4032142167 -21.4026335554 -2.2600011826
40.9921204566 -24.1968569269 -2.2600011826
40.9907708502 -24.1726268630 -2.2600011826
41.0125957344 -24.1346679631 -2.2600011826
41.0099648745 -24.0981467099 -2.2600011826
41.0048602175 -24.0373344531 -2.2600011826
41.0013658820 -24.0008856811 -2.2600011826
41.0358678884 -24.1207904618 -2.2600011826
41.0321222296 -24.0718264280 -2.2600011826
41.0289329175 -24.0351343627 -2.2600011826
41.0277974679 -24.0229101424 -2.2600011826
41.0228942087 -23.9740484537 -2.2600011826
41.0202258539 -23.9496402215 -2.2600011826
41.0174131385 -23.9252482034 -2.2600011826
41.0113550249 -23.8765162239 -2.2600011826
41.0599809821 -24.1190892880 -2.2600011826
41.0384445390 -23.8978911391 -2.2600011826
41.0320612515 -23.8489122214 -2.2600011826
41.0286523883 -23.8244519440 -2.2600011826
41.0250988696 -23.8000122627 -2.2600011826
41.0822726956 -24.0926152943 -2.2600011826
41.0490099639 -23.7964633401 -2.2600011826
41.0433762938 -23.7596322491 -2.2600011826
41.0374159903 -23.7228526040 -2.2600011826
41.1128178986 -24.1904922150 -2.2600011826
41.0549376691 -23.6819431111 -2.2600011826
41.0436722807 -23.6205112152 -2.2600011826
41.0500215936 -23.5297742498 -2.2600011826
41.0473911051 -23.5174898565 -2.2600011826
41.1573038581 -24.1248889502 -2.2600011826
41.0710207794 -23.5123934094 -2.2600011826
41.0628652813 -23.4753781710 -2.2600011826
41.1551769146 -23.8577723130 -2.2600011826
41.0946504537 -23.5072969623 -2.2600011826
41.0660293298 -23.3835083128 -2.2600011826
41.0598663863 -23.3588552141 -2.2600011826
41.1985859211 -24.0324598027 -2.2600011826
41.1362307743 -23.5898208760 -2.2600011826
41.0955487685 -23.4025432665 -2.2600011826
41.0833002972 -23.3529233425 -2.2600011826
41.1943441196 -23.7878822597 -2.2600011826
41.1220381614 -23.4093859956 -2.2600011826
41.0871538351 -23.2724270314 -2.2600011826
41.0837619045 -23.2600339202 -2.2600011826
41.0768681347 -23.2352780707 -2.2600011826
41.0698280216 -23.2105634404 -2.2600011826
41.1955312895 -23.6441159026 -2.2600011826
41.0894617841 -23.1914620307 -2.2600011826
41.0858303343 -23.1790624464 -2.2600011826
41.0747161277 -23.1419289076 -2.2600011826
41.1303740299 -23.2472022838 -2.2600011826
41.1162850540 -23.1971811659 -2.2600011826
41.2981804767 -24.0629971605 -2.2600011826
41.2859065496 -23.9329454691 -2.2600011826
41.2498490801 -23.6742153119 -2.2600011826
41.1864842291 -23.3672300512 -2.2600011826
41.1015024492 -23.0655130453 -2.2600011826
41.3212175488 -24.0479899632 -2.2600011826
41.2861733077 -23.7479843691 -2.2600011826
41.2645873313 -23.6184256418 -2.2600011826
41.1081972301 -23.0081991443 -2.2600011826
41.0998130935 -22.9833031347 -2.2600011826
41.3120320013 -23.7574251923 -2.2600011826
41.1097770371 -22.9380677609 -2.2600011826
41.2235982807 -23.2215390110 -2.2600011826
41.3966051325 -24.0819578925 -2.2600011826
41.1236284179 -22.8342225433 -2.2600011826
41.4234871701 -24.1203525157 -2.2600011826
41.3132721118 -23.3777714568 -2.2600011826
41.1555894997 -22.8509400235 -2.2600011826
41.1223355719 -22.7630772319 -2.2600011826
41.3810685330 -23.5835295873 -2.2600011826
41.3735321193 -23.5437600478 -2.2600011826
41.3683118971 -23.5172848547 -2.2600011826
41.4354908199 -23.7665262400 -2.2600011826
41.3522402582 -23.0575213390 -2.2600011826
41.1652650147 -22.4326839686 -2.2600011826
41.5215258114 -23.2128307943 -2.2600011826
41.5438970055 -22.8629037811 -2.2600011826
41.5622004779 -22.8414464062 -2.2600011826
41.6629284391 -22.9166833794 -2.2600011826
35.2363595602 -18.3839447158 -2.2600011826
34.9807939131 -18.4348087748 -2.2600011826
34.8002804370 -18.3676060903 -2.2600011826
38.1742729650 -21.3202341762 -2.2600011826
38.4419500676 -21.3860774602 -2.2600011826
38.3774497833 -21.3618006421 -2.2600011826
38.3310772388 -21.3452803321 -2.2600011826
38.1716819770 -21.2942754963 -2.2600011826
38.0003443077 -21.2490764015 -2.2600011826
37.9523457773 -21.2381459574 -2.2600011826
38.0114273853 -21.2020178579 -2.2600011826
37.9334373214 -21.1846212501 -2.2600011826
37.5285702502 -21.1246761009 -2.2600011826
38.7623365359 -21.4490073673 -2.2600011826
38.0658427414 -21.1903813571 -2.2600011826
37.3102065649 -21.0645239719 -2.2600011826
36.9761233662 -21.0737267974 -2.2600011826
38.3996598610 -21.2413144829 -2.2600011826
36.8929737774 -21.0568125668 -2.2600011826
38.6085641191 -21.2975266612 -2.2600011826
38.4944435883 -21.2508720592 -2.2600011826
38.0035596173 -21.1009677924 -2.2600011826
37.2600238130 -20.9913035573 -2.2600011826
37.0325265931 -20.9972335799 -2.2600011826
36.7238883925 -21.0291278734 -2.2600011826
36.6483222445 -21.0166689665 -2.2600011826
36.6029559894 -21.0000988457 -2.2600011826
38.1989284629 -21.0506472018 -2.2600011826
37.9939576073 -20.9998059498 -2.2600011826
39.4751074652 -21.6761437562 -2.2600011826
39.4564969527 -21.6307696373 -2.2600011826
38.7925805619 -21.2216473498 -2.2600011826
38.2016380561 -21.0012201168 -2.2600011826
38.5745404635 -21.0745388690 -2.2600011826
36.8750176579 -20.7670976777 -2.2600011826
39.8402994647 -21.7706743179 -2.2600011826
34.2321043784 -22.1835122159 -2.2600011826
34.2252984079 -22.1924123974 -2.2600011826
39.5032038517 -21.4235503691 -2.2600011826
38.1768866480 -20.7945839568 -2.2600011826
34.2197999058 -22.1598633070 -2.2600011826
40.9746464913 -23.6245890163 -2.2600011826
40.9929878786 -23.5969084794 -2.2600011826
40.9903334081 -23.5858025605 -2.2600011826
40.9876460959 -23.5747045425 -2.2600011826
40.9821730407 -23.5525325980 -2.2600011826
40.9793873456 -23.5414588655 -2.2600011826
41.0083945604 -23.5578213946 -2.2600011826
40.9912794352 -23.4910390532 -2.2600011826
40.9853113234 -23.4688470769 -2.2600011826
34.2339263271 -22.0256447716 -2.2600011826
40.9993809353 -23.4290726927 -2.2600011826
40.9930460678 -23.4068338697 -2.2600011826
40.9898293220 -23.3957286103 -2.2600011826
41.0097682606 -23.3778044643 -2.2600011826
41.0064655674 -23.3666498646 -2.2600011826
40.9894579463 -23.3110260969 -2.2600011826
41.0125216230 -23.3037871676 -2.2600011826
41.0054452943 -23.2814727926 -2.2600011826
41.0528020084 -23.3528558309 -2.2600011826
41.0138287689 -23.2293244642 -2.2600011826
41.0063118710 -23.2070036589 -2.2600011826
41.0025039332 -23.1958600312 -2.2600011826
40.9986630472 -23.1847277168 -2.2600011826
34.2351711032 -21.8743897536 -2.2600011826
41.0136747969 -23.1544445011 -2.2600011826
41.0097113475 -23.1432793224 -2.2600011826
41.0016854496 -23.1209843831 -2.2600011826
37.4291090318 -20.4881892128 -2.2600011826
34.2482739640 -21.8229602601 -2.2600011826
41.1344963008 -23.4653105613 -2.2600011826
41.0203184216 -23.1015327766 -2.2600011826
41.0262354461 -23.0482781864 -2.2600011826
41.0176472004 -23.0258871477 -2.2600011826
41.0133034376 -23.0147107805 -2.2600011826
41.1314351983 -23.2791066013 -2.2600011826
41.0269825923 -22.9834735855 -2.2600011826
41.1472529316 -23.2487820014 -2.2600011826
41.0172796883 -22.8959425826 -2.2600011826
41.0395558787 -22.8865560697 -2.2600011826
41.0154438652 -22.8304953980 -2.2600011826
41.0226274188 -22.7871213252 -2.2600011826
41.0175773218 -22.7759312703 -2.2600011826
34.2656064106 -21.5917518393 -2.2600011826
41.0293369461 -22.7434899385 -2.2600011826
41.0241577502 -22.7322802265 -2.2600011826
41.1393114426 -22.9388573165 -2.2600011826
41.0408442543 -22.7108498605 -2.2600011826
41.0355684527 -22.6996062507 -2.2600011826
41.0249171835 -22.6771660971 -2.2600011826
41.1188916646 -22.8260164852 -2.2600011826
41.0304055330 -22.6330019276 -2.2600011826
41.0465816866 -22.6111022751 -2.2600011826
41.0456528030 -22.5552181908 -2.2600011826
41.0399165938 -22.5439610373 -2.2600011826
41.0341471090 -22.5327209018 -2.2600011826
41.2244667981 -22.8913627350 -2.2600011826
41.0380295205 -22.4878429194 -2.2600011826
41.0565990993 -22.4199857756 -2.2600011826
41.0504628002 -22.4086968327 -2.2600011826
41.0380901525 -22.3861736505 -2.2600011826
41.0466671346 -22.3518979739 -2.2600011826
41.0549708441 -22.3174476276 -2.2600011826
41.0485312258 -22.3061639500 -2.2600011826
41.0420582565 -22.2948993713 -2.2600011826
41.0498819475 -22.2602294993 -2.2600011826
41.2083553153 -22.5020756730 -2.2600011826
34.0498163844 -21.3629517940 -2.2600011826
41.4472378269 -22.1272022745 -2.2600011826
37.9105501676 -21.2159095600 -2.2600011826
37.8933178301 -21.1899807154 -2.2600011826
37.2347596671 -21.1944809192 -2.2600011826
38.3358711060 -21.2364393630 -2.2600011826
38.2680515596 -21.2216270826 -2.2600011826
37.0944864282 -21.1879777274 -2.2600011826
38.3995670985 -21.2267889477 -2.2600011826
38.1847111672 -21.1808607478 -2.2600011826
37.1602012190 -21.1545181500 -2.2600011826
36.9432689071 -21.1893440428 -2.2600011826
38.4443852253 -21.2132453954 -2.2600011826
38.2285536224 -21.1644311582 -2.2600011826
37.0476200992 -21.1462987710 -2.2600011826
37.0277638409 -21.1495467373 -2.2600011826
37.0079271461 -21.1529121231 -2.2600011826
36.8598454897 -21.1818826984 -2.2600011826
38.5966443583 -21.2314332145 -2.2600011826
37.2648595952 -21.0942843101 -2.2600011826
38.1975553085 -21.1094881650 -2.2600011826
38.1573462927 -21.1024975265 -2.2600011826
37.0097564267 -21.1035498003 -2.2600011826
36.7997584695 -21.1459251196 -2.2600011826
36.9450286491 -21.0905676197 -2.2600011826
36.6747242654 -21.1526438944 -2.2600011826
36.4976466703 -21.2059296140 -2.2600011826
38.9483763344 -21.2825857322 -2.2600011826
38.7164242160 -21.1941061385 -2.2600011826
36.5887769112 -21.1519937470 -2.2600011826
38.2615940055 -21.0477199020 -2.2600011826
36.6118728237 -21.1200414982 -2.2600011826
38.4097287250 -21.0551145226 -2.2600011826
38.0488662570 -20.9885196245 -2.2600011826
37.3057511909 -20.9694123612 -2.2600011826
36.7572875239 -21.0566297160 -2.2600011826
38.1356434352 -20.9765555961 -2.2600011826
36.7619046455 -21.0306722613 -2.2600011826
36.5680857866 -21.0824891076 -2.2600011826
37.8224283683 -20.9176614260 -2.2600011826
36.5713834180 -21.0563024079 -2.2600011826
36.7403249130 -20.9861223592 -2.2600011826
36.5133299867 -21.0486110351 -2.2600011826
40.9391398317 -23.0797420737 -2.2600011826
40.9528463681 -23.0503488084 -2.2600011826
40.9485312742 -23.0403974103 -2.2600011826
40.9441867612 -23.0304588205 -2.2600011826
37.9676759028 -20.8572507363 -2.2600011826
36.0833223180 -21.1597612078 -2.2600011826
40.9619189448 -23.0107527064 -2.2600011826
40.9530249153 -22.9908097352 -2.2600011826
40.9485336933 -22.9808580695 -2.2600011826
40.9440130522 -22.9709197331 -2.2600011826
40.9705521048 -22.9708818558 -2.2600011826
40.9568126819 -22.9409121744 -2.2600011826
40.9521738374 -22.9309495221 -2.2600011826
40.9380807612 -22.9011445100 -2.2600011826
39.5121810743 -21.3270058428 -2.2600011826
38.8385695610 -21.0063452834 -2.2600011826
35.9639460391 -21.1621996265 -2.2600011826
35.9245170960 -21.1816344004 -2.2600011826
40.9502837064 -22.8707856721 -2.2600011826
40.9454374435 -22.8608426405 -2.2600011826
38.3358289426 -20.8406995917 -2.2600011826
40.9473453879 -22.8103358962 -2.2600011826
40.9423203166 -22.8004018212 -2.2600011826
40.9536712148 -22.7695080616 -2.2600011826
40.9485253396 -22.7595554523 -2.2600011826
40.9433500454 -22.7496181090 -2.2600011826
40.9381453773 -22.7396961185 -2.2600011826
40.9329113809 -22.7297895679 -2.2600011826
38.2022878392 -20.7669020998 -2.2600011826
40.9436448134 -22.6985730621 -2.2600011826
39.6861639254 -21.3226820926 -2.2600011826
39.3561144401 -21.1279522861 -2.2600011826
38.6024787156 -20.8302112407 -2.2600011826
36.5315788431 -20.8412994000 -2.2600011826
40.9486766377 -22.6572143415 -2.2600011826
40.9376911883 -22.6373559037 -2.2600011826
40.9321544530 -22.6274511444 -2.2600011826
40.9420055229 -22.5957403414 -2.2600011826
38.2815739870 -20.7070825677 -2.2600011826
40.9515977368 -22.5638477043 -2.2600011826
40.9342468606 -22.5340622607 -2.2600011826
40.9432934214 -22.5019081976 -2.2600011826
35.6122303979 -21.1030839332 -2.2600011826
34.0981156813 -22.6888284690 -2.2600011826
34.0927611372 -22.6991561858 -2.2600011826
34.0821438198 -22.7198589125 -2.2600011826
40.9421164645 -22.4072150923 -2.2600011826
40.9358989118 -22.3972982492 -2.2600011826
34.1040690325 -22.6259559623 -2.2600011826
34.0985284742 -22.6362663431 -2.2600011826
34.0930184400 -22.6465930688 -2.2600011826
40.9500754139 -22.3744684267 -2.2600011826
40.9374171202 -22.3546066618 -2.2600011826
37.7537267400 -20.5266591096 -2.2600011826
34.1053964495 -22.5731547430 -2.2600011826
34.0996996899 -22.5834614281 -2.2600011826
34.0827926926 -22.6144819636 -2.2600011826
40.9384397744 -22.3117232325 -2.2600011826
39.8711639867 -21.2144141018 -2.2600011826
37.1985541752 -20.5178289772 -2.2600011826
34.1016351126 -22.5304243477 -2.2600011826
40.9455616922 -22.2785798805 -2.2600011826
37.1606378971 -20.4973927357 -2.2600011826
34.1224651334 -22.4463419240 -2.2600011826
34.1163931638 -22.4565986717 -2.2600011826
34.1043403811 -22.4771658286 -2.2600011826
34.0864898873 -22.5081493664 -2.2600011826
40.9457114103 -22.2353294063 -2.2600011826
40.9389853729 -22.2254026808 -2.2600011826
34.1016820924 -22.4339968648 -2.2600011826
34.0955736948 -22.4443151465 -2.2600011826
34.0834486030 -22.4650056933 -2.2600011826
40.9589772102 -22.2118136512 -2.2600011826
40.9453564404 -22.1919020671 -2.2600011826
40.1254185620 -21.3131996048 -2.2600011826
34.0870745554 -22.4112902127 -2.2600011826
40.9444936646 -22.1483034281 -2.2600011826
35.1618835421 -21.1957425468 -2.2600011826
34.1106724114 -22.3264435038 -2.2600011826
34.0978496871 -22.3470467845 -2.2600011826
40.9360070967 -22.0946206086 -2.2600011826
35.5257018138 -20.9297280851 -2.2600011826
34.1163506093 -22.2723914454 -2.2600011826
34.0772890220 -22.3343348086 -2.2600011826
40.9484460202 -22.0705488123 -2.2600011826
34.1026744520 -22.2490004019 -2.2600011826
34.0960187971 -22.2593165575 -2.2600011826
40.9534866220 -22.0364120124 -2.2600011826
40.9461721169 -22.0264631567 -2.2600011826
34.1094651591 -22.1945598442 -2.2600011826
40.9433789746 -21.9822273331 -2.2600011826
34.1170592159 -22.1399661238 -2.2600011826
34.0962157631 -22.1708500675 -2.2600011826
40.9476404331 -21.9477782727 -2.2600011826
34.1112110960 -22.1057506699 -2.2600011826
40.9592606505 -21.9231564679 -2.2600011826
34.1056470849 -22.0713837462 -2.2600011826
40.9507892141 -21.8336475926 -2.2600011826
34.7409881936 -21.2868426650 -2.2600011826
34.1027939546 -21.9918872487 -2.2600011826
34.0981947046 -21.9570652208 -2.2600011826
34.0938862283 -21.9221013358 -2.2600011826
40.9526143963 -21.6829285073 -2.2600011826
39.3395944101 -20.4245263153 -2.2600011826
34.1159427729 -21.6578198378 -2.2600011826
34.1030311309 -21.5599881309 -2.2600011826
34.1198338492 -21.5031536190 -2.2600011826
34.1103302750 -21.4405412518 -2.2600011826
37.7777753590 -21.1339803986 -2.2600011826
37.5325547628 -21.1545642268 -2.2600011826
37.4350053032 -21.1678648615 -2.2600011826
38.1730662855 -21.1147485973 -2.2600011826
37.5394902999 -21.1293873985 -2.2600011826
38.1947163431 -21.0921247394 -2.2600011826
37.5438022252 -21.0802089991 -2.2600011826
36.9630716507 -21.1991816384 -2.2600011826
36.5207231092 -21.3651048671 -2.2600011826
37.4606313037 -21.0664317592 -2.2600011826
36.5106818575 -21.3431160393 -2.2600011826
40.8400859772 -22.5573531133 -2.2600011826
38.6191918900 -21.0536867016 -2.2600011826
37.7915243958 -20.9882008721 -2.2600011826
36.7569410282 -21.1906033493 -2.2600011826
36.7472788927 -21.1940977338 -2.2600011826
36.6703625458 -21.2230786035 -2.2600011826
40.8546397385 -22.5354710288 -2.2600011826
37.6150545124 -20.9756457657 -2.2600011826
36.8860143441 -21.1216344870 -2.2600011826
38.8114911512 -21.0481945279 -2.2600011826
38.7406879577 -21.0307434336 -2.2600011826
38.2809528991 -20.9298616525 -2.2600011826
36.8315807235 -21.0883080415 -2.2600011826
36.3657202071 -21.2781476053 -2.2600011826
40.8375361590 -22.3824042462 -2.2600011826
40.8259655975 -22.3253300265 -2.2600011826
40.8325781181 -22.2535132780 -2.2600011826
39.1912248188 -21.0401712164 -2.2600011826
37.6104571878 -20.8061656359 -2.2600011826
40.8173643283 -22.1553561004 -2.2600011826
35.9833001412 -21.2965370026 -2.2600011826
36.3400082687 -21.0758778492 -2.2600011826
38.6058054533 -20.6575567117 -2.2600011826
40.7952884648 -21.6914378204 -2.2600011826
34.0370878769 -23.2561365531 -2.2600011826
34.0437098471 -23.1566015181 -2.2600011826
34.0323086369 -23.1911713286 -2.2600011826
34.0285764646 -23.2027169152 -2.2600011826
34.0175850986 -23.2374192100 -2.2600011826
34.0365572966 -23.1027247330 -2.2600011826
34.0286037683 -23.1258033077 -2.2600011826
34.0259841159 -23.0600501330 -2.2600011826
34.0218640911 -23.0716150024 -2.2600011826
34.0177782953 -23.0831920090 -2.2600011826
34.0158632518 -23.0170817286 -2.2600011826
34.0285888463 -22.9159022552 -2.2600011826
34.0150521606 -22.9506157345 -2.2600011826
34.0247405577 -22.8606595698 -2.2600011826
34.0071363777 -22.8398904686 -2.2600011826
34.0193418544 -22.7492672258 -2.2600011826
34.0074282146 -22.7163351242 -2.2600011826
34.0022914999 -22.7279563892 -2.2600011826
33.8563111599 -23.1072724076 -2.2600011826
33.9957680191 -22.6832025637 -2.2600011826
34.0060412232 -22.6032715489 -2.2600011826
34.0065359734 -22.5463481560 -2.2600011826
34.0008964103 -22.5579728042 -2.2600011826
33.9952912598 -22.5696140844 -2.2600011826
33.9791320721 -22.5474538279 -2.2600011826
33.9945012887 -22.4090171683 -2.2600011826
33.9890132613 -22.3163583972 -2.2600011826
33.9855868338 -22.2228664294 -2.2600011826
33.9846554171 -22.1758217890 -2.2600011826
33.9568221540 -21.5552176792 -2.2600011826
37.2219377278 -21.4236471535 -2.2600011826
37.6181352258 -21.1138167689 -2.2600011826
36.7426736411 -21.3948581162 -2.2600011826
37.5504050984 -21.0786122354 -2.2600011826
37.4731094838 -21.0964835933 -2.2600011826
37.8900161364 -20.9980784090 -2.2600011826
36.5371649438 -21.4536706690 -2.2600011826
37.8973169870 -20.9729483717 -2.2600011826
40.7007674252 -21.9439198087 -2.2600011826
37.5349062346 -21.0077687265 -2.2600011826
37.8456973597 -20.8815695705 -2.2600011826
35.6857204293 -21.7154137491 -2.2600011826
37.8165863528 -20.6415985775 -2.2600011826
35.4869570426 -21.6755159324 -2.2600011826
34.0275629815 -23.8344350953 -2.2600011826
34.0228114147 -23.6930691983 -2.2600011826
34.0189779430 -23.7181901386 -2.2600011826
34.0092168161 -23.6262997702 -2.2600011826
34.0009094686 -23.6767294230 -2.2600011826
34.0088933869 -23.4959134023 -2.2600011826
34.0038937189 -23.5211201368 -2.2600011826
33.9903736555 -23.4658234341 -2.2600011826
33.9877662494 -23.4784780203 -2.2600011826
33.9890326000 -23.3594037486 -2.2600011826
33.9861103911 -23.3720627675 -2.2600011826
33.9803783799 -23.3974064615 -2.2600011826
33.9775686277 -23.4100909148 -2.2600011826
33.9747964108 -23.4227836244 -2.2600011826
33.9720617533 -23.4354844792 -2.2600011826
33.9839063417 -23.2777472229 -2.2600011826
33.9807426004 -23.2904217635 -2.2600011826
33.9714765303 -23.3285007619 -2.2600011826
33.9206752051 -23.5714181809 -2.2600011826
33.9803383569 -23.1955974037 -2.2600011826
33.9669367606 -23.2463989117 -2.2600011826
33.9636803596 -23.2591237885 -2.2600011826
33.9639655301 -23.1638148947 -2.2600011826
33.9406667211 -23.1573727844 -2.2600011826
33.9470442447 -23.0483435599 -2.2600011826
33.9437876794 -22.9772610616 -2.2600011826
33.9239044012 -23.0413519275 -2.2600011826
33.9332039761 -22.9314129325 -2.2600011826
33.9290159372 -22.9442389751 -2.2600011826
33.9407730797 -22.8339741752 -2.2600011826
33.9318583492 -22.8595955174 -2.2600011826
33.8698552756 -23.0533602271 -2.2600011826
33.8231171410 -23.2233739389 -2.2600011826
33.7404363690 -23.6216690378 -2.2600011826
33.9270801044 -22.8002600380 -2.2600011826
33.6933272560 -23.7797681839 -2.2600011826
33.9183498158 -22.7534602079 -2.2600011826
33.9199317307 -22.6806364177 -2.2600011826
33.9052565524 -22.7192790909 -2.2600011826
33.7002954743 -23.3207397473 -2.2600011826
33.8951196046 -22.6114211449 -2.2600011826
33.7422861772 -23.0591895213 -2.2600011826
33.8990439945 -22.5376718255 -2.2600011826
33.7583103926 -22.8444143498 -2.2600011826
33.6091242117 -23.2856263585 -2.2600011826
33.6718896659 -22.7242398986 -2.2600011826
33.5326887161 -22.6115503326 -2.2600011826
33.5224651935 -22.6395899317 -2.2600011826
33.4858757786 -22.5298085853 -2.2600011826
33.6029761325 -22.1333843362 -2.2600011826
37.1067024175 -21.5889842146 -2.2600011826
36.8871117009 -21.2411211434 -2.2600011826
34.0169551135 -24.2840977667 -2.2600011826
33.9923978995 -24.1218256528 -2.2600011826
33.9919227061 -24.2167707260 -2.2600011826
33.9942005163 -24.3388218143 -2.2600011826
33.9607770815 -23.7926092290 -2.2600011826
33.9544113887 -23.8746034819 -2.2600011826
33.9218905227 -24.0380661535 -2.2600011826
33.8396089168 -23.2671249756 -2.2600011826
33.7452893575 -23.7595501585 -2.2600011826
33.6591770543 -23.6489797010 -2.2600011826
33.6452602355 -23.7946774019 -2.2600011826
33.5327436331 -24.2341496317 -2.2600011826
33.3964816358 -22.6436323480 -2.2600011826
36.0985217982 -21.8263181761 -2.2600011826
36.0607408593 -21.8755728138 -2.2600011826
35.8542210580 -21.7888364565 -2.2600011826
33.9161401025 -24.2838693892 -2.2600011826
33.9561683619 -24.6769200726 -2.2600011826
33.9582528899 -24.6914074874 -2.2600011826
33.9789394566 -24.8214986849 -2.2600011826
33.8846891262 -24.1237400068 -2.2600011826
33.8887412297 -24.2266152826 -2.2600011826
33.9045907832 -24.4466489832 -2.2600011826
33.9059943534 -24.4612899813 -2.2600011826
33.9242887543 -24.6220345411 -2.2600011826
33.9281764943 -24.6511927120 -2.2600011826
33.9654736106 -24.8835261138 -2.2600011826
33.8601193606 -24.1096672498 -2.2600011826
33.8609768867 -24.1392140356 -2.2600011826
33.8678856083 -24.2868434297 -2.2600011826
33.8778344940 -24.4194836244 -2.2600011826
33.8896395187 -24.5371271375 -2.2600011826
33.8404549234 -24.2290181454 -2.2600011826
33.8862189225 -24.8526544882 -2.2600011826
33.7877779980 -23.8416936642 -2.2600011826
33.8412322477 -24.8758570693 -2.2600011826
33.7719096375 -23.3875749281 -2.2600011826
33.7766432526 -24.6107459887 -2.2600011826
33.7592584678 -23.2942375759 -2.2600011826
33.7366795178 -23.4906447185 -2.2600011826
33.7205175154 -24.2502140509 -2.2600011826
33.7054464787 -24.3887052429 -2.2600011826
33.7315800801 -23.1511224292 -2.2600011826
33.7105622268 -24.6653695603 -2.2600011826
33.7205890777 -23.0712303896 -2.2600011826
33.7127308665 -23.1168276817 -2.2600011826
33.6717428397 -24.5460794772 -2.2600011826
33.7023627770 -22.9099495486 -2.2600011826
33.5715718163 -24.1641159575 -2.2600011826
33.5691645516 -24.4940832730 -2.2600011826
39.6125358536 -18.6990111865 -2.2600011826
40.1908392890 -18.7899920716 -2.2600011826
39.9282840446 -18.7293831355 -2.2600011826
39.6786813246 -18.6844635321 -2.2600011826
33.5428353561 -24.6877330504 -2.2600011826
40.4572126809 -18.8406456305 -2.2600011826
39.9175217469 -18.7025328889 -2.2600011826
33.5299803124 -24.7697675587 -2.2600011826
33.5703139436 -22.8335294215 -2.2600011826
33.4745009602 -24.5193704726 -2.2600011826
40.5938476838 -18.8342072727 -2.2600011826
39.0665024464 -18.5523371165 -2.2600011826
38.8737547850 -18.5482358607 -2.2600011826
33.4690861972 -23.1086779884 -2.2600011826
33.6091732662 -22.3945945695 -2.2600011826
40.6016385121 -18.7603160782 -2.2600011826
38.4348232147 -18.4917150920 -2.2600011826
39.0702747776 -18.4557186192 -2.2600011826
33.6383583666 -22.0775885723 -2.2600011826
39.0227031994 -18.4056981192 -2.2600011826
38.7252568046 -18.3804848475 -2.2600011826
33.2476024358 -24.4250902574 -2.2600011826
39.4274307979 -18.3354658832 -2.2600011826
33.2480726642 -24.8455387777 -2.2600011826
39.5471105919 -18.3245429030 -2.2600011826
36.7814639988 -21.7107328647 -2.2600011826
36.1577059924 -22.0491755799 -2.2600011826
36.2143407161 -21.9078161774 -2.2600011826
37.7542952722 -20.3854297186 -2.2600011826
39.8691161055 -18.9089895731 -2.2600011826
39.8263744865 -18.9022729687 -2.2600011826
39.8121142420 -18.9001184247 -2.2600011826
39.7835749444 -18.8959359367 -2.2600011826
39.5401130489 -18.8672181938 -2.2600011826
40.3686643240 -18.9918548530 -2.2600011826
39.9729541998 -18.9023566579 -2.2600011826
39.5423402991 -18.8431479915 -2.2600011826
39.5279063950 -18.8418339307 -2.2600011826
39.2820481269 -18.8260365201 -2.2600011826
40.1628575560 -18.9162385768 -2.2600011826
40.0345511742 -18.8894058603 -2.2600011826
39.8624513832 -18.8589597636 -2.2600011826
39.5590686972 -18.8204412362 -2.2600011826
39.8373143010 -18.8305837924 -2.2600011826
39.7793869302 -18.8220944267 -2.2600011826
39.5322184677 -18.7936805595 -2.2600011826
39.4300831630 -18.7855994772 -2.2600011826
39.7973125212 -18.8002246861 -2.2600011826
39.5050678995 -18.7670668716 -2.2600011826
39.0643046596 -18.7498589584 -2.2600011826
39.7421797564 -18.7682439904 -2.2600011826
39.7188798256 -18.7165075702 -2.2600011826
39.6772321591 -18.6871210500 -2.2600011826
40.3760248793 -18.6689201389 -2.2600011826
38.2645041977 -18.5739692814 -2.2600011826
39.7614046844 -18.5026031910 -2.2600011826
39.1251735497 -18.4356494319 -2.2600011826
39.7207953000 -18.4488537049 -2.2600011826
38.8233591798 -18.3454995819 -2.2600011826
33.7415942726 -24.3226055681 -2.2600011826
33.8323349123 -24.8722486977 -2.2600011826
33.8499257265 -24.9498992430 -2.2600011826
39.2064390364 -18.2917290406 -2.2600011826
37.4491253880 -18.5445851817 -2.2600011826
37.3727319947 -18.5694341413 -2.2600011826
33.7031066656 -24.4077643739 -2.2600011826
37.3804019179 -18.5414198978 -2.2600011826
34.0103294260 -25.7746442303 -2.2600011826
33.5934067924 -23.4582884082 -2.2600011826
33.5938977525 -23.9953580748 -2.2600011826
33.5718276908 -23.4081399343 -2.2600011826
33.6611109132 -24.7590698904 -2.2600011826
33.5507076009 -23.3575878102 -2.2600011826
33.5261062116 -23.0904200514 -2.2600011826
33.4910632543 -23.6358006216 -2.2600011826
33.5067177067 -24.1489695770 -2.2600011826
33.5144846306 -22.8201207962 -2.2600011826
33.4095222834 -23.2976377651 -2.2600011826
33.4604902917 -24.5915406302 -2.2600011826
33.3516465753 -23.9903963578 -2.2600011826
33.3786400342 -24.6908944954 -2.2600011826
36.6473838999 -22.0078090028 -2.2600011826
36.6967665231 -21.8724234939 -2.2600011826
36.6395376012 -21.4393802345 -2.2600011826
36.5595091045 -21.5503625014 -2.2600011826
36.4233557423 -21.7648622944 -2.2600011826
36.8714751905 -21.0939718252 -2.2600011826
36.8304479302 -21.1370671821 -2.2600011826
36.6993318595 -21.2858503208 -2.2600011826
37.0802479330 -20.7070419938 -2.2600011826
35.9107293089 -22.4849291372 -2.2600011826
35.8440555391 -22.6500999351 -2.2600011826
35.9142182984 -22.2338833250 -2.2600011826
39.7533869308 -19.0121880720 -2.2600011826
39.7272592972 -19.0094582728 -2.2600011826
39.7011159705 -19.0068831013 -2.2600011826
39.7428370432 -18.9867616871 -2.2600011826
39.6113036636 -18.9749830060 -2.2600011826
39.5586024224 -18.9713618352 -2.2600011826
39.5322366562 -18.9697851611 -2.2600011826
39.4530898504 -18.9659914304 -2.2600011826
39.2814501732 -18.9625936510 -2.2600011826
39.6660431781 -18.9551445513 -2.2600011826
39.5733673980 -18.9480876991 -2.2600011826
39.5601167672 -18.9472362877 -2.2600011826
39.4672999494 -18.9423744237 -2.2600011826
39.3876768813 -18.9397375187 -2.2600011826
39.3478509320 -18.9389491242 -2.2600011826
39.3080195544 -18.9385141936 -2.2600011826
39.2681858856 -18.9384327613 -2.2600011826
39.2549080290 -18.9384841743 -2.2600011826
39.1354307204 -18.9407142371 -2.2600011826
39.4149515849 -18.9162974104 -2.2600011826
39.2814774990 -18.9142476027 -2.2600011826
39.2147323183 -18.9147034961 -2.2600011826
39.1613455843 -18.9157789615 -2.2600011826
39.1213159289 -18.9170000737 -2.2600011826
39.0412970086 -18.9205077519 -2.2600011826
39.0013140459 -18.9227940416 -2.2600011826
39.7503727745 -18.9146351989 -2.2600011826
39.4961437292 -18.8952767775 -2.2600011826
39.4425074288 -18.8930238124 -2.2600011826
39.2412286633 -18.8902304784 -2.2600011826
39.0802400636 -18.8944265421 -2.2600011826
39.0668328511 -18.8950341254 -2.2600011826
39.0400241113 -18.8963682611 -2.2600011826
39.0266228186 -18.8970948019 -2.2600011826
39.0132237338 -18.8978609830 -2.2600011826
38.9596518183 -18.9013219708 -2.2600011826
38.8793801042 -18.9077013620 -2.2600011826
39.4164088558 -18.8679733224 -2.2600011826
39.3894338971 -18.8672397227 -2.2600011826
39.0387512139 -18.8722287704 -2.2600011826
38.9310383950 -18.8791875050 -2.2600011826
39.5255513127 -18.8483651449 -2.2600011826
38.7267382255 -18.8750985449 -2.2600011826
38.6998174923 -18.8784451436 -2.2600011826
39.7985741622 -18.8469399340 -2.2600011826
39.6375690279 -18.8072821404 -2.2600011826
39.1307939407 -18.7957502056 -2.2600011826
38.8026431612 -18.8179251998 -2.2600011826
38.6529432900 -18.8358606908 -2.2600011826
38.8412933521 -18.7898138564 -2.2600011826
39.7929856565 -18.7733421209 -2.2600011826
38.7701289515 -18.7727639889 -2.2600011826
39.3929479287 -18.7222441305 -2.2600011826
38.9616323655 -18.7315711335 -2.2600011826
39.6450530492 -18.7108800972 -2.2600011826
39.5612933801 -18.7051248614 -2.2600011826
39.3515628298 -18.6972473450 -2.2600011826
39.2816141281 -18.6725173614 -2.2600011826
38.5531066577 -18.7282454804 -2.2600011826
39.5218360865 -18.6545214025 -2.2600011826
39.4520947370 -18.6272933989 -2.2600011826
39.4825171641 -18.5800984586 -2.2600011826
39.0951551529 -18.5793065712 -2.2600011826
37.8810657498 -18.7815855260 -2.2600011826
39.7137666359 -18.5710823172 -2.2600011826
39.1951540041 -18.5523712518 -2.2600011826
38.4350506165 -18.6252407614 -2.2600011826
39.4555810309 -18.5306641576 -2.2600011826
39.0064583069 -18.5350605067 -2.2600011826
38.3453555557 -18.6172442116 -2.2600011826
37.7702924156 -18.7655282139 -2.2600011826
38.8888609739 -18.5187807584 -2.2600011826
37.8532038448 -18.6889946044 -2.2600011826
39.1934925385 -18.4556934154 -2.2600011826
38.9420748790 -18.4421548497 -2.2600011826
38.8831158176 -18.4464896059 -2.2600011826
39.5786090254 -18.4155658016 -2.2600011826
39.1027421018 -18.3855179108 -2.2600011826
38.5530962308 -18.4349313283 -2.2600011826
39.4616820452 -18.3615629854 -2.2600011826
39.7071791182 -18.3036154304 -2.2600011826
39.3578730562 -18.2863543205 -2.2600011826
39.0689695501 -18.2900370633 -2.2600011826
38.5994358171 -18.3308485373 -2.2600011826
38.7935971584 -18.2844259533 -2.2600011826
37.8277090691 -18.4444423516 -2.2600011826
33.6345531312 -24.8379759584 -2.2600011826
33.4593869113 -23.9414727963 -2.2600011826
33.4283058130 -23.8571157250 -2.2600011826
33.3992912381 -24.2641015596 -2.2600011826
33.3643242217 -24.6295607720 -2.2600011826
33.4687957955 -25.2317026376 -2.2600011826
36.3364936711 -21.4916174868 -2.2600011826
39.0999978684 -19.0141373159 -2.2600011826
39.0879007738 -19.0150807047 -2.2600011826
39.0637152214 -19.0170748176 -2.2600011826
39.0516269752 -19.0181255241 -2.2600011826
39.0373418317 -18.9951392825 -2.2600011826
39.0130391840 -18.9974328680 -2.2600011826
38.9766117186 -19.0011427370 -2.2600011826
38.8521853513 -18.9918894148 -2.2600011826
38.7878078160 -18.9767312646 -2.2600011826
38.7268327362 -18.9864274373 -2.2600011826
38.6781600906 -18.9948330486 -2.2600011826
38.6616827935 -18.9732414141 -2.2600011826
38.6128586856 -18.9824188329 -2.2600011826
38.5348081811 -18.9736218844 -2.2600011826
39.1641399912 -18.8644396100 -2.2600011826
38.9138951723 -18.8865637917 -2.2600011826
38.4929521111 -18.9579776075 -2.2600011826
38.4561949827 -18.9663045112 -2.2600011826
38.4439592069 -18.9691525947 -2.2600011826
38.6819154216 -18.8714561253 -2.2600011826
