21.0285016369 -18.5469151863 -3.0000107803
21.1510819957 -18.5320448739 -3.0000107803
20.8330302266 -18.5872801669 -3.0000107543
21.0434057813 -18.5696212754 -3.0000107543
21.0680902626 -18.5668488375 -3.0000107543
21.2648876162 -18.5394228038 -3.0000107543
20.9861691149 -18.6240452052 -3.0000107024
20.9003111792 -18.6555088457 -3.0000106765
21.1390977804 -18.6311902052 -3.0000106765
21.4999471937 -18.5683228935 -3.0000106765
21.5246160031 -18.5628494259 -3.0000106765
21.1548186313 -18.6534998712 -3.0000106506
20.8783646955 -18.7055231403 -3.0000106246
20.9929828905 -18.6962434739 -3.0000106246
21.5850235024 -18.5985033081 -3.0000106246
21.6222789490 -18.5894822067 -3.0000106246
21.6155930228 -18.6160116105 -3.0000105987
20.8558372568 -18.7554251576 -3.0000105728
20.8313851214 -18.7810741542 -3.0000105468
22.1199369687 -18.6147365267 -3.0000104431
20.9712655468 -18.8923581059 -3.0000104172
21.4562336920 -18.8735161683 -3.0000103653
21.6596464307 -18.8540601515 -3.0000103394
21.7779418809 -18.8239297180 -3.0000103394
22.8294157394 -15.0351538216 -3.0000138657
22.8030668861 -15.4819226875 -3.0000138225
22.9127924094 -15.1329538610 -3.0000138081
22.9119426596 -15.2653979495 -3.0000137937
22.6967472302 -16.1064819492 -3.0000137217
21.3808472585 -18.4981912124 -3.0000129580
21.4363764063 -18.4849191387 -3.0000129580
21.5931570354 -18.4930397003 -3.0000129292
21.6042623043 -18.4898229870 -3.0000129292
21.6778602771 -18.4929191397 -3.0000129148
21.7296594768 -18.5018516859 -3.0000129004
21.7519101960 -18.4945776735 -3.0000129004
21.7706663801 -18.5138229214 -3.0000128860
21.7818323528 -18.5100810124 -3.0000128860
21.5176063473 -18.6638923961 -3.0000128428
22.0612524517 -18.5089019318 -3.0000128283
22.8072465388 -14.9990565008 -3.0000155345
22.8329757296 -15.1087388068 -3.0000155374
22.8326057355 -15.0396050892 -3.0000155374
22.8320959703 -15.0188702540 -3.0000155374
22.8571476807 -15.1089669754 -3.0000155403
22.8807256792 -15.1444735200 -3.0000155432
22.8850388761 -15.4007853945 -3.0000155460
22.8902373897 -15.3583335818 -3.0000155460
22.8939933749 -15.3228911311 -3.0000155460
22.8978079967 -15.2802926616 -3.0000155460
22.9004088985 -15.2447467751 -3.0000155460
22.8860243819 -15.5460645549 -3.0000155489
22.9187451513 -15.3180946266 -3.0000155489
22.9294125985 -15.0448560767 -3.0000155489
22.9153575878 -14.8221849736 -3.0000155489
22.9012436587 -14.7151238089 -3.0000155489
22.9031994656 -14.5897968129 -3.0000155518
22.9086047794 -15.6699946977 -3.0000155547
22.9232779354 -15.6055613087 -3.0000155547
22.8323727079 -15.9938065209 -3.0000155576
22.8506546278 -15.9452340836 -3.0000155576
22.9837075023 -15.3913238366 -3.0000155576
22.9851193818 -15.5422429022 -3.0000155605
23.0115745006 -15.5317190884 -3.0000155633
22.9692122712 -15.8983191878 -3.0000155691
22.8985138828 -14.0237070944 -3.0000155720
23.1473287866 -15.0881753783 -3.0000155749
22.8878297993 -13.9426797014 -3.0000155749
23.1726874732 -15.7087519561 -3.0000155864
23.2607318490 -14.8834044014 -3.0000155893
23.3123226585 -14.5400126122 -3.0000156008
22.9356985685 -13.5317740616 -3.0000156037
21.9301589322 -18.4349237870 -3.0000156930
21.9695311827 -18.4441988947 -3.0000156959
21.9794568877 -18.4398250245 -3.0000156959
21.9893696104 -18.4354218113 -3.0000156959
21.9992692643 -18.4309892939 -3.0000156959
22.0091802468 -18.4530371443 -3.0000156988
22.0191319234 -18.4485459463 -3.0000156988
22.0489066294 -18.4348959955 -3.0000156988
22.0588044674 -18.4302873591 -3.0000156988
22.0789893594 -18.4475179390 -3.0000157017
22.0889244037 -18.4428202571 -3.0000157017
22.1186455491 -18.4285511627 -3.0000157017
22.1292043165 -18.4502962245 -3.0000157045
22.1490760235 -18.4405743546 -3.0000157045
22.1896540995 -18.4473580518 -3.0000157074
22.1995881866 -18.4423330043 -3.0000157074
22.2602938993 -18.4381582113 -3.0000157103
22.2702004626 -18.4329242388 -3.0000157103
22.3014169425 -18.4436577465 -3.0000157132
22.3113395945 -18.4383021005 -3.0000157132
22.3212463601 -18.4329171250 -3.0000157132
22.3943156143 -18.4476491782 -3.0000157189
22.4141670206 -18.4363588671 -3.0000157189
22.4062039901 -18.4686967863 -3.0000157218
22.4361422811 -18.4516109945 -3.0000157218
22.4659277665 -18.4342601901 -3.0000157218
22.4682147725 -18.4609426256 -3.0000157247
22.4781878264 -18.4550934859 -3.0000157247
22.4881435339 -18.4492148696 -3.0000157247
22.3317856914 -11.6089293119 -3.0000157276
22.3214898477 -11.6035137346 -3.0000157276
22.3946218605 -11.6152546852 -3.0000157305
22.3843444534 -11.6096531994 -3.0000157305
22.6255215624 -18.4500891279 -3.0000157334
22.4371415114 -11.6111369334 -3.0000157334
22.4268517372 -11.6054096848 -3.0000157334
22.4165450658 -11.5997129003 -3.0000157334
22.4901662075 -11.6133862352 -3.0000157362
22.5434077819 -11.6164066799 -3.0000157391
22.5865917233 -11.6140039439 -3.0000157420
22.8279186171 -18.4316323071 -3.0000157449
22.6299785823 -11.6120959964 -3.0000157449
22.8813926605 -18.4234696762 -3.0000157478
22.7276150084 -11.6163645692 -3.0000157506
23.1774051726 -11.8560644318 -3.0000157593
22.8737116788 -15.2826846401 -3.0000158160
22.9001651811 -15.3229721585 -3.0000158218
22.8986938596 -15.2950701627 -3.0000158218
22.8947613298 -15.2393281629 -3.0000158218
22.8916340633 -15.2045426154 -3.0000158218
22.8879926471 -15.1698071263 -3.0000158218
22.8863922934 -15.1559286496 -3.0000158218
22.9214917849 -15.2725263480 -3.0000158275
22.9031023406 -15.0971093367 -3.0000158275
22.9493633059 -15.3420775197 -3.0000158333
22.9713451728 -15.5714576950 -3.0000158391
22.9994320221 -15.4274789179 -3.0000158448
23.0193515406 -15.2879915981 -3.0000158506
23.0094618420 -15.8699809789 -3.0000158564
22.8568316649 -14.4738143742 -3.0000158564
22.7557334875 -14.2084398205 -3.0000158621
22.7324236389 -14.0278712741 -3.0000158794
22.7652718667 -14.0344996173 -3.0000158852
22.7815474378 -14.0149958229 -3.0000158909
22.7028839171 -13.8977818287 -3.0000158909
23.2344127248 -14.8858064828 -3.0000159140
22.5383210701 -18.3340988271 -3.0000160984
22.6090056866 -18.3436590718 -3.0000161099
22.6661138823 -18.3322573863 -3.0000161157
22.7636108913 -18.3194752989 -3.0000161272
22.9517759943 -18.2919836712 -3.0000161503
23.1082048211 -18.2839057432 -3.0000161733
21.7784022279 -11.5479064205 -3.0000162310
21.7669029324 -11.5442642151 -3.0000162310
21.8318952948 -11.5398694029 -3.0000162367
21.8203719903 -11.5360689905 -3.0000162367
21.8088374939 -11.5323026828 -3.0000162367
21.8857506842 -11.5325574966 -3.0000162425
22.1948977191 -11.5216499749 -3.0000162713
21.9330073185 -11.3954339002 -3.0000162771
22.2934790101 -11.4853271277 -3.0000162886
22.4315170402 -11.5226546805 -3.0000162944
22.8450610337 -15.2241571562 -3.0000152588
22.8808870541 -15.2710999658 -3.0000152588
22.8779147572 -15.2578888050 -3.0000152588
22.9088434720 -15.2859226131 -3.0000152588
22.8804196164 -15.0801967218 -3.0000152588
22.9035257292 -15.0730944100 -3.0000152588
23.0634087958 -15.4809247214 -3.0000152588
22.8512922457 -14.7362758026 -3.0000152588
22.9591496160 -14.9343300962 -3.0000152588
23.0597556829 -15.1862872783 -3.0000152588
23.0395889985 -15.1080785660 -3.0000152588
22.6951364285 -14.3654383637 -3.0000152588
22.8008019028 -14.3938585359 -3.0000152588
23.2272665983 -16.1061940004 -3.0000152588
23.2487126724 -15.8299448823 -3.0000152588
23.2638275025 -16.1900975876 -3.0000152588
21.2440810200 -11.5134969950 -3.0000152588
21.2189061288 -11.5100354928 -3.0000152588
21.1937111988 -11.5067229942 -3.0000152588
21.4114500262 -11.5158290133 -3.0000152588
21.3736942243 -11.5092072310 -3.0000152588
21.3610960816 -11.5070744613 -3.0000152588
21.3484916850 -11.5049789685 -3.0000152588
21.3777643706 -11.4853793232 -3.0000152588
21.8043965889 -11.4803287431 -3.0000152588
21.8996908397 -11.4820235315 -3.0000152588
21.8870099813 -11.4783348876 -3.0000152588
22.0610438194 -11.4561622643 -3.0000152588
22.1325223544 -11.4547026416 -3.0000152588
22.2637514770 -11.4505192331 -3.0000152588
22.4947909895 -11.4652457013 -3.0000152588
22.1555796280 -11.2583007554 -3.0000152588
22.8360696488 -15.0698791125 -3.0000152588
22.8393300029 -15.0229050626 -3.0000152588
22.8726078284 -14.9822698344 -3.0000152588
22.8660942688 -14.9700726528 -3.0000152588
23.0701284044 -15.2475358883 -3.0000152588
22.9466114419 -14.9672357273 -3.0000152588
22.9613976810 -14.9433403638 -3.0000152588
22.7665343953 -14.6325358212 -3.0000152588
22.8766807035 -14.7499292942 -3.0000152588
22.6553472438 -14.3835119870 -3.0000152588
23.2715548658 -15.4997757743 -3.0000152588
20.6214952904 -11.5198426271 -3.0000152588
20.7289718669 -11.4925416744 -3.0000152588
20.6205081223 -11.4956897643 -3.0000152588
20.7829653978 -11.4435850198 -3.0000152588
21.2529339775 -11.4163851639 -3.0000152588
21.0042493036 -11.3992976083 -3.0000152588
21.4626006906 -11.4167820924 -3.0000152588
21.4350171857 -11.4129893886 -3.0000152588
21.5705317561 -11.3597509971 -3.0000152588
21.4446829750 -11.3411173491 -3.0000152588
21.9004239348 -11.3754322351 -3.0000152588
21.2382881129 -11.2693728212 -3.0000152588
22.0094583328 -11.3522103550 -3.0000152588
21.0267737059 -11.2067103408 -3.0000152588
22.8478684958 -11.5164270149 -3.0000152588
22.4635486655 -11.3632752317 -3.0000152588
26.3278328193 -18.2015224040 -3.0000152588
22.8180400546 -15.1864310947 -3.0000152588
22.7952375616 -15.1094878732 -3.0000152588
22.8117692998 -15.0088483890 -3.0000152588
22.9106409308 -14.8992638094 -3.0000152588
23.0253207113 -15.0177225637 -3.0000152588
22.8718709625 -14.7747073871 -3.0000152588
23.1380875873 -15.0138121280 -3.0000152588
22.9209165470 -14.6836509925 -3.0000152588
22.3829424097 -14.2221334572 -3.0000152588
22.3766776710 -14.1610944619 -3.0000152588
22.4350014667 -14.1406520538 -3.0000152588
22.4087061298 -14.1240700290 -3.0000152588
22.3947455182 -14.0871276848 -3.0000152588
23.0251326023 -14.4048388297 -3.0000152588
20.7161259422 -11.4161214343 -3.0000152588
20.4246509764 -11.4427595944 -3.0000152588
20.1352610860 -11.4865858265 -3.0000152588
20.0490023548 -11.5030640079 -3.0000152588
19.9630496680 -11.5210705291 -3.0000152588
19.9201965569 -11.5306451634 -3.0000152588
20.7586911665 -11.3894752449 -3.0000152588
20.1309361749 -11.4628028404 -3.0000152588
20.5952357715 -11.3765362106 -3.0000152588
19.9527171424 -11.4738415122 -3.0000152588
21.2471208357 -11.3151511360 -3.0000152588
21.2023897406 -11.3133384678 -3.0000152588
20.6208649722 -11.3259132118 -3.0000152588
21.3679640086 -11.2978086275 -3.0000152588
21.2032613333 -11.2891811581 -3.0000152588
21.5197487025 -11.2862414908 -3.0000152588
20.3772833865 -11.3024940578 -3.0000152588
21.5522379319 -11.2652417452 -3.0000152588
21.4618275564 -11.2566060319 -3.0000152588
20.7812907897 -11.2431335808 -3.0000152588
20.1006617976 -11.2963219379 -3.0000152588
21.6180126748 -11.2238682652 -3.0000152588
21.3745922982 -11.2013439692 -3.0000152588
21.0387059212 -11.1892252299 -3.0000152588
20.0813073112 -11.2752950358 -3.0000152588
20.9620338792 -11.1653495011 -3.0000152588
20.9466834304 -11.1655451658 -3.0000152588
20.7625668405 -11.1714341212 -3.0000152588
20.6689861613 -11.1527103827 -3.0000152588
20.6535996059 -11.1537729908 -3.0000152588
19.8911588193 -11.2646294667 -3.0000152588
26.3155394726 -17.1786552003 -3.0000152588
26.1824993653 -17.8810057948 -3.0000152588
26.3036665993 -17.3862567272 -3.0000152588
26.3144284282 -17.5683992142 -3.0000152588
26.3571930311 -17.7962537004 -3.0000152588
26.5150629054 -17.6658327001 -3.0000152588
26.5514423766 -17.5027434374 -3.0000152588
26.6685176207 -17.2678463034 -3.0000152588
22.4885899040 -14.4238537270 -3.0000152588
22.9701594943 -14.6127579665 -3.0000152588
26.0896236515 -17.5157083922 -3.0000152588
26.1101596894 -17.4015954155 -3.0000152588
26.1265786127 -17.4486554830 -3.0000152588
26.1539655248 -17.2760424477 -3.0000152588
26.2010385487 -16.6810982265 -3.0000152588
26.0470979362 -17.9095291846 -3.0000152588
26.2250336694 -16.4912766814 -3.0000152588
26.1464248400 -17.6015098417 -3.0000152588
26.2460626049 -16.3878826437 -3.0000152588
26.2630148729 -16.2540777248 -3.0000152588
26.2923513562 -16.3414006877 -3.0000152588
26.3154271889 -16.8622576702 -3.0000152588
26.3510523385 -17.4265891813 -3.0000152588
20.7565788584 -11.2333101818 -3.0000152588
20.1900539649 -11.3191071082 -3.0000152588
20.8498339498 -11.2007991883 -3.0000152588
20.7224057875 -11.2124450486 -3.0000152588
19.8276780209 -11.3819960427 -3.0000152588
19.6589769378 -11.4319452635 -3.0000152588
20.7678874580 -11.1836583917 -3.0000152588
20.1488301868 -11.2783478978 -3.0000152588
19.6211077903 -11.4185949618 -3.0000152588
23.0111752886 -14.8454616810 -3.0000152588
22.8402238457 -14.7293487008 -3.0000152588
22.7849081538 -14.6682432136 -3.0000152588
22.5865305078 -14.5661340904 -3.0000152588
23.3043703012 -15.0341227536 -3.0000152588
22.9329827959 -14.7313885783 -3.0000152588
22.3330237714 -14.4159378763 -3.0000152588
23.2522707995 -14.9182708094 -3.0000152588
23.2301372088 -14.8985315368 -3.0000152588
22.8004580340 -14.5659938245 -3.0000152588
23.5592736872 -15.1340861297 -3.0000152588
22.9998540638 -14.6307078176 -3.0000152588
22.8522186705 -14.4565044093 -3.0000152588
22.8499930805 -14.4277347013 -3.0000152588
23.5078994266 -14.4052657572 -3.0000152588
26.0043067702 -17.3215641700 -3.0000152588
26.0104174038 -17.2690932842 -3.0000152588
26.0184181963 -17.1902605716 -3.0000152588
26.0218935839 -17.1507940681 -3.0000152588
26.0344442820 -17.2717474145 -3.0000152588
26.0527653576 -17.0601114061 -3.0000152588
26.0564343169 -16.9938236655 -3.0000152588
26.0581649401 -16.9540275257 -3.0000152588
26.0602642872 -16.8876715271 -3.0000152588
26.0665585956 -17.1947151295 -3.0000152588
26.0857421149 -16.7681227098 -3.0000152588
26.0854686146 -16.7280753675 -3.0000152588
26.0845511312 -16.6746856848 -3.0000152588
26.1069779424 -16.9425021182 -3.0000152588
26.1097714641 -16.7412233553 -3.0000152588
26.1313185424 -16.6196221112 -3.0000152588
26.1438627763 -16.4156664271 -3.0000152588
26.1353614371 -16.3211015290 -3.0000152588
26.1482695176 -17.3391936204 -3.0000152588
26.1602463560 -17.2307716521 -3.0000152588
26.1777935485 -16.9859897326 -3.0000152588
26.1633173434 -16.3594076451 -3.0000152588
26.1991550936 -17.0418325156 -3.0000152588
26.1641418000 -16.1529380327 -3.0000152588
26.1622699520 -16.1393594396 -3.0000152588
26.2282409287 -16.9330898239 -3.0000152588
26.2250365092 -16.5474148798 -3.0000152588
26.1818791860 -15.9548811400 -3.0000152588
26.2174188664 -16.0192357801 -3.0000152588
26.1762745789 -15.8003453305 -3.0000152588
26.3028337126 -16.7116323876 -3.0000152588
26.1817333717 -15.7133549837 -3.0000152588
26.3156981207 -16.4443365423 -3.0000152588
26.2084330644 -15.7216173953 -3.0000152588
26.3195795105 -17.3316888202 -3.0000152588
26.3291699268 -16.3158604721 -3.0000152588
26.2586386863 -15.8406425426 -3.0000152588
26.2288368246 -15.7024643520 -3.0000152588
26.3654864236 -17.0939765051 -3.0000152588
26.2147125947 -15.5453522192 -3.0000152588
26.3978109339 -16.9244188064 -3.0000152588
26.4021980081 -17.2401845987 -3.0000152588
26.4227532594 -16.8964569441 -3.0000152588
19.9957018247 -11.1787456958 -3.0000152588
19.8328401174 -11.1765496744 -3.0000152588
19.5945743593 -11.1792201045 -3.0000152588
19.7266545180 -10.9565214556 -3.0000152588
25.9914654800 -16.6847447116 -3.0000152588
25.9867717903 -16.6120941610 -3.0000152588
26.0141714438 -16.6590316294 -3.0000152588
26.0134025580 -16.6468505397 -3.0000152588
26.0099667819 -16.5981505246 -3.0000152588
26.0048621249 -16.5373382678 -3.0000152588
26.0310972152 -16.5595964272 -3.0000152588
26.0202277613 -16.4496440362 -3.0000152588
26.0159545836 -16.4130623561 -3.0000152588
26.0144580684 -16.4008770678 -3.0000152588
26.0541132109 -16.5452368337 -3.0000152588
26.0414206472 -16.4224118795 -3.0000152588
26.0251007770 -16.3000160774 -3.0000152588
26.0232698104 -16.2878042276 -3.0000152588
26.1647847886 -16.1104599376 -3.0000152588
26.0858322416 -15.6790662611 -3.0000152588
26.0998150009 -15.4833069494 -3.0000152588
22.9751409263 -14.6947345916 -3.0000152588
22.6008648031 -14.6065862760 -3.0000152588
23.2508516470 -14.7758936946 -3.0000152588
22.8573049086 -14.6101283592 -3.0000152588
23.5808174497 -14.8157436522 -3.0000152588
22.4877868650 -14.4462762636 -3.0000152588
21.7235159033 -14.4615098485 -3.0000152588
23.5746975591 -14.6434391149 -3.0000152588
19.2252965005 -14.6924066753 -3.0000152588
25.9746445840 -16.1245832943 -3.0000152588
25.9956075768 -16.1080164802 -3.0000152588
25.9929859712 -16.0969027574 -3.0000152588
25.9876441885 -16.0746988205 -3.0000152588
25.9849240581 -16.0636088006 -3.0000152588
25.9793854383 -16.0414531434 -3.0000152588
25.9942123218 -16.0021424633 -3.0000152588
25.9912775279 -15.9910333312 -3.0000152588
25.9883098840 -15.9799329293 -3.0000152588
25.9853094160 -15.9688413549 -3.0000152588
26.0055822122 -15.9513428836 -3.0000152588
26.0024970941 -15.9402003396 -3.0000152588
25.9962280408 -15.9179428742 -3.0000152588
25.9898274146 -15.8957228882 -3.0000152588
25.9832954395 -15.8735411594 -3.0000152588
26.0031279839 -15.8554993616 -3.0000152588
25.9963578002 -15.8332396461 -3.0000152588
25.9982351628 -15.7591949520 -3.0000152588
26.0138268616 -15.7293187421 -3.0000152588
25.9947873393 -15.6736010911 -3.0000152588
19.2741640330 -14.3302664304 -3.0000152588
26.0097094401 -15.6432736004 -3.0000152588
26.0016835423 -15.6209786611 -3.0000152588
25.9976211642 -15.6098490955 -3.0000152588
26.0957188499 -15.8276372717 -3.0000152588
26.1454729830 -15.8252620414 -3.0000152588
26.0180090205 -15.4610735386 -3.0000152588
26.0175754144 -15.2759255483 -3.0000152588
26.0293350387 -15.2434842164 -3.0000152588
19.0253428494 -14.3226475465 -3.0000152588
26.2025142262 -15.4678161641 -3.0000152588
26.2913947387 -15.5697901411 -3.0000152588
26.2521864490 -15.4623724612 -3.0000152588
26.2747817400 -15.4537824609 -3.0000152588
25.8866950429 -14.6780440088 -3.0000152588
26.2597162042 -15.3495513702 -3.0000152588
26.0526097003 -14.1923577219 -3.0000152588
22.8203823980 -14.5571926837 -3.0000152588
21.8145984075 -14.5941958878 -3.0000152588
22.0504199702 -14.4815623177 -3.0000152588
21.7925862436 -14.5504933323 -3.0000152588
22.1816724575 -14.4327182366 -3.0000152588
22.6195367031 -14.3528763673 -3.0000152588
24.0290016391 -14.6082938602 -3.0000152588
23.0698106350 -14.2251473280 -3.0000152588
22.0116010492 -14.2180201817 -3.0000152588
20.2779483237 -14.2494971197 -3.0000152588
25.9306581798 -15.5599364786 -3.0000152588
25.9441905759 -15.5304626352 -3.0000152588
25.9485375080 -15.4808618842 -3.0000152588
25.9394668461 -15.4609986278 -3.0000152588
25.9333281733 -15.3912412588 -3.0000152588
25.9423241313 -15.3004056359 -3.0000152588
25.9321859383 -15.2805822982 -3.0000152588
25.9400636626 -15.0439774331 -3.0000152588
25.9342506753 -15.0340660754 -3.0000152588
25.9373597975 -14.9919912732 -3.0000152588
19.1142415831 -15.2102545756 -3.0000152588
19.1198424778 -15.1476811670 -3.0000152588
19.1089201204 -15.1682245950 -3.0000152588
19.1035045678 -15.1785204517 -3.0000152588
25.9359027265 -14.8973020639 -3.0000152588
19.0875427931 -15.1569398637 -3.0000152588
19.1111274880 -15.0628687697 -3.0000152588
19.1054002642 -15.0731585577 -3.0000152588
19.0997035045 -15.0834652428 -3.0000152588
19.1133766621 -15.0098440682 -3.0000152588
19.1163969785 -14.9566024864 -3.0000152588
19.1103553768 -14.9668771513 -3.0000152588
19.1078248013 -14.9237005126 -3.0000152588
19.1184141670 -14.8597625751 -3.0000152588
26.2122231133 -14.9844316984 -3.0000152588
19.1112149107 -14.6057544846 -3.0000152588
22.5195377426 -14.6829224695 -3.0000152588
22.5866506376 -14.5739830441 -3.0000152588
23.1960175487 -14.5146358795 -3.0000152588
22.0057786255 -14.6823049984 -3.0000152588
22.6417323447 -14.4935815395 -3.0000152588
21.9627607901 -14.6740250345 -3.0000152588
21.8956139868 -14.7037326866 -3.0000152588
22.2967900092 -14.5344046211 -3.0000152588
22.6986549445 -14.3904008358 -3.0000152588
21.9110501449 -14.5121954806 -3.0000152588
23.8835120684 -14.3285044409 -3.0000152588
22.5794403365 -14.1115359834 -3.0000152588
21.8733563973 -14.2666312548 -3.0000152588
23.8429914163 -14.1867125586 -3.0000152588
25.8400840699 -15.0573454839 -3.0000152588
25.8374562313 -15.0096144871 -3.0000152588
25.8341030074 -14.9616813683 -3.0000152588
25.8360561389 -14.9221344138 -3.0000152588
25.9267713609 -15.0132639167 -3.0000152588
25.8062818067 -14.7193552242 -3.0000152588
25.7968089822 -14.6298453254 -3.0000152588
19.0406600796 -15.7446082817 -3.0000152588
19.0370859696 -15.7561289237 -3.0000152588
19.0437079397 -15.6565938887 -3.0000152588
19.0323067295 -15.6911636992 -3.0000152588
19.0405833216 -15.5911955632 -3.0000152588
19.0365553893 -15.6027171036 -3.0000152588
19.0325615574 -15.6142505089 -3.0000152588
19.0343248006 -15.5369495810 -3.0000152588
19.0301364263 -15.5484898726 -3.0000152588
19.0244583292 -15.4939220502 -3.0000152588
19.0285869390 -15.4158946258 -3.0000152588
19.0240404873 -15.4274524207 -3.0000152588
19.0106065496 -15.4622057921 -3.0000152588
19.0153531901 -15.3838046634 -3.0000152588
19.0193399470 -15.2492595964 -3.0000152588
19.0224554247 -15.1251504964 -3.0000152588
19.0115448545 -15.0916542924 -3.0000152588
19.0294354516 -15.0000102859 -3.0000152588
19.1246612479 -14.7717597451 -3.0000152588
18.8120102153 -15.3724678412 -3.0000152588
19.0128432598 -14.8741350095 -3.0000152588
18.8333729775 -15.2540375467 -3.0000152588
18.8086106363 -15.3148644889 -3.0000152588
18.7989580647 -15.3392966992 -3.0000152588
19.1580760991 -14.5307688123 -3.0000152588
18.7588021503 -15.3093092215 -3.0000152588
18.9922177477 -14.5218836041 -3.0000152588
18.9621254153 -14.1305101641 -3.0000152588
22.4067254738 -14.7064832141 -3.0000152588
22.3997237762 -14.3992040700 -3.0000152588
19.0067363820 -16.3062808882 -3.0000152588
18.9625823038 -15.5807767476 -3.0000152588
18.9547160920 -15.3674697291 -3.0000152588
18.6190164179 -15.9744755618 -3.0000152588
19.0172448744 -16.7975870947 -3.0000152588
18.9711915142 -16.5124132546 -3.0000152588
18.9553693501 -16.3609301262 -3.0000152588
18.7293894142 -15.9817915901 -3.0000152588
18.6923048414 -16.3130105382 -3.0000152588
22.3428047965 -14.7289782172 -3.0000152588
22.3331216069 -14.6421964715 -3.0000152588
22.2954050093 -14.6740939962 -3.0000152588
22.2377695740 -14.5961238923 -3.0000152588
21.9540474994 -14.8828975931 -3.0000152588
21.9742247459 -14.8223889191 -3.0000152588
21.4989675221 -15.2625840596 -3.0000152588
18.9582547972 -17.1914036727 -3.0000152588
18.9789413639 -17.3214948702 -3.0000152588
18.9386518707 -17.2239792311 -3.0000152588
18.9576453190 -17.3400983869 -3.0000152588
18.9943534395 -17.5277352926 -3.0000152588
19.0038473652 -17.5708260520 -3.0000152588
18.8585977214 -16.5209998776 -3.0000152588
18.8589307108 -16.5505572290 -3.0000152588
18.8741277702 -16.8752964229 -3.0000152588
18.8913127124 -17.0518081536 -3.0000152588
18.9288069104 -17.3151544112 -3.0000152588
18.8390683525 -16.6993445583 -3.0000152588
18.8190755291 -16.1783601274 -3.0000152588
18.8205730273 -16.8047066660 -3.0000152588
18.7833980904 -16.0102374124 -3.0000152588
18.7675742597 -16.2356491658 -3.0000152588
18.7637127113 -15.9628109137 -3.0000152588
18.7607449280 -15.9929394059 -3.0000152588
18.7592603751 -15.7942337612 -3.0000152588
18.7150252386 -16.9952312639 -3.0000152588
24.7217120977 -11.2158329907 -3.0000152588
24.6125377609 -11.1990073718 -3.0000152588
24.5969138043 -11.1967883845 -3.0000152588
24.5656465403 -11.1924891134 -3.0000152588
24.5500035067 -11.1904088673 -3.0000152588
24.8972057074 -11.2231189705 -3.0000152588
25.4572145882 -11.3406418158 -3.0000152588
25.3962970860 -11.3220387874 -3.0000152588
25.6314989419 -11.3726713713 -3.0000152588
25.2183805788 -11.2471807268 -3.0000152588
24.9160180020 -11.1282745606 -3.0000152588
25.1895601219 -11.1649499196 -3.0000152588
25.7246541921 -11.3031142017 -3.0000152588
22.5485174424 -14.3704596840 -3.0000152588
22.0992651322 -14.7403974374 -3.0000152588
24.8833479508 -11.4113336809 -3.0000152588
24.7550094940 -11.3919433508 -3.0000152588
24.6835011255 -11.3826493718 -3.0000152588
24.5904974405 -11.2992682831 -3.0000152588
24.0058896959 -11.2747122929 -3.0000152588
24.8446056034 -11.2828119891 -3.0000152588
24.3891478353 -11.2345450396 -3.0000152588
23.8721080095 -11.2304291038 -3.0000152588
23.7540566600 -11.2370043352 -3.0000152588
24.1828479124 -11.2023045919 -3.0000152588
24.8703646177 -11.2134066667 -3.0000152588
24.7429220756 -11.1464801201 -3.0000152588
25.2695164330 -11.2175163758 -3.0000152588
25.1953719434 -11.2006317198 -3.0000152588
24.9756945121 -11.1327663971 -3.0000152588
25.0668034923 -10.9772361288 -3.0000152588
18.9052645406 -17.6658584370 -3.0000152588
18.8693100805 -17.6260596608 -3.0000152588
18.9464997064 -17.8867635148 -3.0000152588
18.9406711742 -18.0930581583 -3.0000152588
18.7593949137 -17.5881814800 -3.0000152588
18.7319423734 -17.5783357501 -3.0000152588
18.9008384438 -18.1249293120 -3.0000152588
18.9011249605 -18.1947973812 -3.0000152588
22.3481536457 -14.5259983519 -3.0000152588
22.1545696291 -14.5519336682 -3.0000152588
24.7794979566 -11.5150676348 -3.0000152588
24.5717816921 -11.4722038929 -3.0000152588
24.4266941577 -11.4650343297 -3.0000152588
24.2547786759 -11.4143067240 -3.0000152588
24.0812986864 -11.4185716102 -3.0000152588
24.0546289773 -11.4198197492 -3.0000152588
24.2272636047 -11.3420140911 -3.0000152588
23.8275777218 -11.2911239766 -3.0000152588
24.8480135507 -11.2797457173 -3.0000152588
23.9494450450 -11.2566386209 -3.0000152588
24.6114712492 -11.0872310478 -3.0000152588
18.7258882572 -17.7423217765 -3.0000152588
18.7418512436 -17.8648981946 -3.0000152588
22.1293177747 -14.9140245765 -3.0000152588
22.2074464552 -14.6330715267 -3.0000152588
22.1961125160 -14.6592349169 -3.0000152588
22.0958988228 -14.8588021929 -3.0000152588
22.3145524753 -14.3237670308 -3.0000152588
22.4212099281 -14.1225667376 -3.0000152588
22.3909628834 -14.1641229773 -3.0000152588
22.3740672799 -14.1881477451 -3.0000152588
22.5226958828 -13.9580396286 -3.0000152588
22.2771524855 -14.2922631731 -3.0000152588
22.2282997515 -14.3753442141 -3.0000152588
22.1247901730 -14.5230793855 -3.0000152588
22.4043372418 -14.0252585808 -3.0000152588
22.2164191643 -14.2993042988 -3.0000152588
21.8581481765 -15.6025451006 -3.0000152588
21.9834990290 -14.6690459674 -3.0000152588
22.4676950241 -13.8380117654 -3.0000152588
22.1288331393 -14.2104555746 -3.0000152588
22.4967922833 -13.5012519799 -3.0000152588
21.6517427896 -14.9191133054 -3.0000152588
21.6066080739 -16.2005529882 -3.0000152588
21.8409861141 -14.1273148113 -3.0000152588
24.1860906639 -11.5326898623 -3.0000152588
24.1726323155 -11.5092469497 -3.0000152588
24.1241982578 -11.5123760345 -3.0000152588
24.1120957935 -11.5132478364 -3.0000152588
24.0999959611 -11.5141554357 -3.0000152588
24.0878988665 -11.5150988245 -3.0000152588
24.0637133140 -11.5170929374 -3.0000152588
24.1712166102 -11.4851154131 -3.0000152588
24.1468522076 -11.4866171150 -3.0000152588
24.1224971160 -11.4882629385 -3.0000152588
24.0859838015 -11.4910017747 -3.0000152588
24.0373399244 -11.4951574023 -3.0000152588
23.9644748162 -11.5024693011 -3.0000152588
23.9402167034 -11.5051938531 -3.0000152588
24.0718319355 -11.4678954361 -3.0000152588
23.9984775443 -11.4745994586 -3.0000152588
23.9130640274 -11.4840647781 -3.0000152588
23.8765217038 -11.4886623808 -3.0000152588
23.8521834439 -11.4919075346 -3.0000152588
23.8157131177 -11.4970451094 -3.0000152588
23.8611553258 -11.4663059854 -3.0000152588
23.8000177608 -11.4749184342 -3.0000152588
24.1545720447 -11.4134665160 -3.0000152588
24.1297840345 -11.4150679467 -3.0000152588
24.0678592556 -11.4197128776 -3.0000152588
23.7351121079 -11.4605781950 -3.0000152588
23.8795388340 -11.4151554494 -3.0000152588
23.7065669388 -11.4408279769 -3.0000152588
23.5714953688 -11.4660104604 -3.0000152588
24.0219395158 -11.3266484819 -3.0000152588
23.3096660865 -11.4529131752 -3.0000152588
24.1343846014 -11.2936352068 -3.0000152588
23.3281741655 -11.4230605750 -3.0000152588
24.0303366946 -11.2773525864 -3.0000152588
23.9663859301 -11.2834834458 -3.0000152588
23.5600081047 -11.3450272995 -3.0000152588
23.2229211115 -11.4266501796 -3.0000152588
24.0797144567 -11.2490267316 -3.0000152588
24.0539548756 -11.2510739229 -3.0000152588
23.4920133060 -11.3344774169 -3.0000152588
24.1167456075 -11.2221237644 -3.0000152588
23.1100635598 -11.4098076270 -3.0000152588
23.0728938666 -11.4215343325 -3.0000152588
24.1672702730 -11.1947911968 -3.0000152588
24.0890537461 -11.1998443796 -3.0000152588
23.0530839882 -11.4025179423 -3.0000152588
23.0158518470 -11.4147505966 -3.0000152588
24.0349069468 -11.1798987670 -3.0000152588
23.9172693333 -11.1915277931 -3.0000152588
22.9460587961 -11.4130550844 -3.0000152588
23.5445532367 -11.2002245909 -3.0000152588
22.8092438994 -11.3858012772 -3.0000152588
23.6275545829 -11.1355735029 -3.0000152588
22.6883334576 -11.4076264965 -3.0000152588
22.3734987021 -11.4972289950 -3.0000152588
22.3371338294 -11.5154888579 -3.0000152588
22.5603719288 -11.3832045514 -3.0000152588
22.1875932289 -14.6337152591 -3.0000152588
22.1431923275 -14.7102374751 -3.0000152588
22.1223321582 -14.8078211081 -3.0000152588
22.1853230786 -14.4764550203 -3.0000152588
22.0579918897 -15.1389278433 -3.0000152588
22.0334912317 -15.1449614432 -3.0000152588
22.2228654855 -14.2490859242 -3.0000152588
22.1022333007 -14.5799370662 -3.0000152588
22.0886088295 -14.6294969144 -3.0000152588
22.0157482507 -15.0485688627 -3.0000152588
21.9823620624 -15.2760577822 -3.0000152588
21.9586664158 -15.3136126742 -3.0000152588
21.9636390152 -14.7384785465 -3.0000152588
21.9010501124 -15.5455263963 -3.0000152588
22.1799895879 -14.0087615188 -3.0000152588
21.8347797345 -15.8762493442 -3.0000152588
21.6439214690 -15.2526222669 -3.0000152588
21.7818484370 -14.1746789940 -3.0000152588
21.6744929478 -16.1185627003 -3.0000152588
21.6848175319 -16.1518016386 -3.0000152588
21.6755873680 -16.2753195327 -3.0000152588
21.6617862525 -16.3757944291 -3.0000152588
22.2248070964 -18.2689278020 -3.0000152588
22.1331685721 -18.2594175516 -3.0000152588
23.6135505788 -11.5279338250 -3.0000152588
23.5914700685 -11.5331767928 -3.0000152588
23.5804415421 -11.5358472423 -3.0000152588
22.0915604120 -18.2572671939 -3.0000152588
23.5525459744 -11.5178345826 -3.0000152588
23.5083011310 -11.5291736039 -3.0000152588
23.4972611264 -11.5320900997 -3.0000152588
23.4467041657 -11.5207952784 -3.0000152588
23.4245843414 -11.5270254905 -3.0000152588
23.4135383485 -11.5301896451 -3.0000152588
23.3846463050 -11.5134273703 -3.0000152588
23.3514175456 -11.5233727558 -3.0000152588
23.2888614248 -11.5175819666 -3.0000152588
23.2147997035 -11.5165806398 -3.0000152588
23.2037237309 -11.5203654209 -3.0000152588
23.1926590027 -11.5241829503 -3.0000152588
23.2853311516 -11.4679646820 -3.0000152588
23.0987507290 -11.5064784456 -3.0000152588
23.3619432396 -11.3941346172 -3.0000152588
23.0346240950 -11.5049029110 -3.0000152588
23.0235143658 -11.5092207353 -3.0000152588
22.8305088763 -11.4845615468 -3.0000152588
22.8081854655 -11.4944380113 -3.0000152588
21.0304357188 -17.6433359655 -3.0000152588
23.1410233690 -11.2608310939 -3.0000152588
23.0266485265 -11.2754294402 -3.0000152588
23.1661393241 -11.1761694075 -3.0000152588
23.0214892575 -11.1487700020 -3.0000152588
22.9004527751 -11.1939659808 -3.0000152588
22.0263628679 -14.6664743846 -3.0000152588
21.9767109516 -14.6703789973 -3.0000152588
21.9490600513 -14.6907115743 -3.0000152588
21.9328384299 -14.8306714991 -3.0000152588
21.5919953124 -14.8529362232 -3.0000152588
21.6008337547 -15.2515638382 -3.0000152588
21.5205432579 -14.8338840515 -3.0000152588
21.5581560215 -14.4221709241 -3.0000152588
21.5363473878 -15.4742994873 -3.0000152588
21.5547658157 -15.5613387608 -3.0000152588
21.6257579204 -15.8820320999 -3.0000152588
21.5545826030 -15.7473445212 -3.0000152588
21.4417621875 -14.0559893977 -3.0000152588
21.0746063898 -14.0845848634 -3.0000152588
22.4068291509 -11.5882289243 -3.0000152588
22.4067074332 -18.4097516561 -3.0000152588
22.3864660402 -11.5710704781 -3.0000152588
22.3561083527 -11.5855001141 -3.0000152588
22.3460177281 -11.5903697915 -3.0000152588
22.3359415530 -11.5952692976 -3.0000152588
22.3964910793 -18.4316596773 -3.0000152588
22.2849240108 -11.5935680970 -3.0000152588
22.2848024837 -18.4044081330 -3.0000152588
22.2842102770 -11.5668890015 -3.0000152588
22.2022717928 -11.5816938143 -3.0000152588
22.1720156348 -11.5977576526 -3.0000152588
22.2021498420 -18.4162794661 -3.0000152588
22.2223989215 -18.4268399698 -3.0000152588
22.1301629354 -18.4050789923 -3.0000152588
22.0882024316 -18.4094689517 -3.0000152588
22.0663748151 -11.5731033975 -3.0000152588
21.9508873126 -18.4137169096 -3.0000152588
21.7117883380 -11.6513207292 -3.0000152588
21.8217911423 -18.4192220842 -3.0000152588
21.9732242481 -14.7619375204 -3.0000152588
21.9738110512 -14.7737481481 -3.0000152588
21.9563777589 -14.8645225732 -3.0000152588
21.9569659648 -14.8704777072 -3.0000152588
21.9301157095 -14.8427410668 -3.0000152588
21.9406362657 -14.9390490750 -3.0000152588
21.6445939716 -15.3011492136 -3.0000152588
21.5411870553 -14.5088092913 -3.0000152588
21.5387325234 -14.5519374702 -3.0000152588
21.5377924060 -14.5735161981 -3.0000152588
21.5370438248 -14.5951024193 -3.0000152588
21.5282821984 -14.3841331277 -3.0000152588
21.5314171241 -14.9789078048 -3.0000152588
21.5669668296 -15.1866906382 -3.0000152588
21.4967672691 -14.1321523883 -3.0000152588
21.4568548552 -13.9895995476 -3.0000152588
21.3824815686 -14.3826465520 -3.0000152588
21.6029525163 -15.8090433396 -3.0000152588
21.5845904140 -15.8265968409 -3.0000152588
21.2855091330 -14.3799616689 -3.0000152588
21.4747717570 -13.5167183087 -3.0000152588
21.9448225786 -11.6700246766 -3.0000152588
21.6564902306 -11.7002285309 -3.0000152588
21.5737805698 -11.7041521020 -3.0000152588
21.4066671690 -11.7180587332 -3.0000152588
22.7506041649 -18.4582929634 -3.0000152588
22.7730462427 -18.4654396581 -3.0000152588
22.7842830393 -18.4689631835 -3.0000152588
22.8067876563 -18.4759104359 -3.0000152588
22.7657794380 -18.4884945671 -3.0000152588
22.6679164672 -18.4818109982 -3.0000152588
22.6792021531 -18.4856454448 -3.0000152588
22.5584532266 -18.4684640019 -3.0000152588
22.5696999087 -18.4726223189 -3.0000152588
22.7856018987 -18.5452659059 -3.0000152588
22.4623098766 -18.4833895049 -3.0000152588
22.4736011317 -18.4878321660 -3.0000152588
22.4849054796 -18.4922414062 -3.0000152588
22.3855612759 -18.4783540246 -3.0000152588
22.4307502480 -18.4968324668 -3.0000152588
22.3946830806 -18.5865460330 -3.0000152588
21.8849203567 -18.5066351458 -3.0000152588
21.9672165603 -14.9747086367 -3.0000152588
21.4764988588 -14.8954913169 -3.0000152588
21.3971734322 -14.6921287478 -3.0000152588
21.4056358566 -15.0246802100 -3.0000152588
23.3100422559 -18.4634296224 -3.0000152588
23.3817691961 -18.4730780833 -3.0000152588
23.3937398473 -18.4745623225 -3.0000152588
23.2226632867 -18.4744177326 -3.0000152588
23.2586063044 -18.4801761069 -3.0000152588
23.3426616726 -18.4923702401 -3.0000152588
23.1225865320 -18.4812568376 -3.0000152588
23.1465850971 -18.4857231667 -3.0000152588
23.2307793378 -18.5002356013 -3.0000152588
23.2548882941 -18.5040614932 -3.0000152588
23.0578654557 -18.4931532588 -3.0000152588
23.0939812302 -18.5003733836 -3.0000152588
23.0530215130 -18.5168359846 -3.0000152588
22.7454880627 -18.5170350870 -3.0000152588
22.9893181498 -18.5775234113 -3.0000152588
22.6592334687 -18.5424072964 -3.0000152588
22.6156326661 -18.5544252291 -3.0000152588
23.1746904549 -18.6869849078 -3.0000152588
22.5106520906 -18.5460485103 -3.0000152588
23.2911165355 -18.7781061692 -3.0000152588
23.3297519221 -18.7832451005 -3.0000152588
22.0344961668 -18.5410394580 -3.0000152588
22.0124406560 -14.8529182681 -3.0000152588
21.9852615524 -15.1437160681 -3.0000152588
21.5223854589 -15.0603322479 -3.0000152588
21.7337235193 -15.4798209035 -3.0000152588
21.7727325289 -15.5394792492 -3.0000152588
21.4454015239 -14.9126959131 -3.0000152588
21.4724770930 -14.9947360487 -3.0000152588
21.5324305832 -15.1490620149 -3.0000152588
21.4644307602 -15.0437685907 -3.0000152588
21.6889931738 -15.4995279747 -3.0000152588
21.8308901561 -15.7018468950 -3.0000152588
21.8672017879 -15.7852335366 -3.0000152588
21.2974596621 -14.6026116353 -3.0000152588
21.3455354738 -14.8272877925 -3.0000152588
21.5022301903 -15.2587571041 -3.0000152588
22.0200093319 -15.9855217988 -3.0000152588
22.0413646652 -16.0061005368 -3.0000152588
21.2813825488 -14.6508181912 -3.0000152588
21.4520920088 -15.2656586210 -3.0000152588
21.4715291405 -15.3066244942 -3.0000152588
21.7001598072 -15.6887675609 -3.0000152588
21.2155538494 -14.5466499019 -3.0000152588
21.2199400987 -14.5768480607 -3.0000152588
21.3678803562 -15.1943898405 -3.0000152588
21.1900397728 -14.8032304966 -3.0000152588
21.0426522923 -14.5296827114 -3.0000152588
23.8302761868 -18.4858054369 -3.0000152588
23.8556842505 -18.4853724867 -3.0000152588
23.8810893080 -18.4847892215 -3.0000152588
23.9191893125 -18.4836325291 -3.0000152588
23.9699704983 -18.4815644044 -3.0000152588
23.9826616934 -18.4809534973 -3.0000152588
23.7028471951 -18.5098852391 -3.0000152588
23.8178401489 -18.5101370718 -3.0000152588
23.8306165327 -18.5099760688 -3.0000152588
23.8433923844 -18.5097772716 -3.0000152588
23.8944882332 -18.5086041811 -3.0000152588
23.9072597471 -18.5082164459 -3.0000152588
23.9327990545 -18.5073276429 -3.0000152588
23.9455666245 -18.5068265829 -3.0000152588
23.9583326564 -18.5062877564 -3.0000152588
23.9966204066 -18.5044447259 -3.0000152588
23.6382453544 -18.5325844792 -3.0000152588
23.6639335395 -18.5332868293 -3.0000152588
23.7024724843 -18.5340553627 -3.0000152588
23.5084449946 -18.5509236036 -3.0000152588
23.5213433861 -18.5516776689 -3.0000152588
23.7537767756 -18.5587208676 -3.0000152588
23.9087983011 -18.5565380144 -3.0000152588
23.2482366777 -18.5518434567 -3.0000152588
23.3515729936 -18.5629643205 -3.0000152588
23.5069985091 -18.5750533147 -3.0000152588
23.9485176048 -18.5792856007 -3.0000152588
23.2713169600 -18.5788714189 -3.0000152588
23.3102759031 -18.5831224091 -3.0000152588
23.3882992914 -18.5905863635 -3.0000152588
23.1513208538 -18.5879838716 -3.0000152588
23.1643304389 -18.5897942125 -3.0000152588
23.4516797334 -18.6198586079 -3.0000152588
23.5828117010 -18.6273302380 -3.0000152588
23.0044535440 -18.5893495374 -3.0000152588
23.0435159833 -18.5959683782 -3.0000152588
23.1087456393 -18.6062286057 -3.0000152588
23.4236085593 -18.6419992159 -3.0000152588
23.9910474537 -18.6499567749 -3.0000152588
22.7814146949 -18.6189899870 -3.0000152588
22.7498291926 -18.6366257067 -3.0000152588
23.2415409563 -18.7214397108 -3.0000152588
23.7395749343 -18.7520343286 -3.0000152588
23.8879788305 -18.7506032611 -3.0000152588
22.6521065138 -18.6379971253 -3.0000152588
24.0105835958 -18.7699811613 -3.0000152588
24.0118529767 -18.7941208372 -3.0000152588
22.4748234612 -18.6651876177 -3.0000152588
22.8764570350 -18.7623533978 -3.0000152588
22.9035179427 -18.7675587220 -3.0000152588
23.5874168412 -18.8452543773 -3.0000152588
23.8629343733 -18.8478954159 -3.0000152588
23.3377385348 -18.8530209129 -3.0000152588
23.4205478044 -18.8599549436 -3.0000152588
24.0156611192 -18.8665398650 -3.0000152588
23.6968518227 -18.8966072164 -3.0000152588
23.9891216816 -18.8920593846 -3.0000152588
24.0030271113 -18.8913900287 -3.0000152588
23.9762694375 -18.9168375931 -3.0000152588
21.5537527835 -18.4792803634 -3.0000152588
21.6174195345 -18.5115875284 -3.0000152588
18.6604438277 -12.4967734227 -3.0000152588
18.6476582566 -12.4588302846 -3.0000152588
18.6840919544 -12.2846169442 -3.0000152588
18.7527368954 -11.9280907335 -3.0000152588
18.6633454356 -12.1377514671 -3.0000152588
18.6051228419 -12.2200864128 -3.0000152588
18.5645569145 -11.9352579064 -3.0000152588
22.1141826612 -14.9074242742 -3.0000152588
21.7619614261 -15.4163880265 -3.0000152588
21.7108492225 -15.4291933359 -3.0000152588
21.3017046795 -15.0804568162 -3.0000152588
24.0668159955 -18.5478340866 -3.0000152588
24.1207685813 -18.5421073845 -3.0000152588
24.6022199536 -18.4619830949 -3.0000152588
23.9605658047 -18.5814733454 -3.0000152588
24.3530756742 -18.5345193947 -3.0000152588
24.5407835245 -18.4998461775 -3.0000152588
24.5808098457 -18.4914066892 -3.0000152588
24.6473488893 -18.4765525967 -3.0000152588
24.3704978285 -18.5561458984 -3.0000152588
23.5236797541 -18.6423862150 -3.0000152588
24.1014551710 -18.6171645263 -3.0000152588
23.1870652842 -18.6967723031 -3.0000152588
23.5503211510 -18.7153277322 -3.0000152588
24.3863712442 -18.6515261856 -3.0000152588
24.4965690920 -18.6318440321 -3.0000152588
24.1256448250 -18.7118113103 -3.0000152588
24.2512809693 -18.6964049922 -3.0000152588
22.9440338946 -18.7174391986 -3.0000152588
23.0140950832 -18.7267689308 -3.0000152588
23.0842865985 -18.7350614105 -3.0000152588
24.4082487753 -18.6968750680 -3.0000152588
22.7821435909 -18.7409030662 -3.0000152588
22.6933058509 -18.7492018405 -3.0000152588
22.7638642468 -18.7622364631 -3.0000152588
23.4770627363 -18.8347501106 -3.0000152588
23.6779521127 -18.8360888057 -3.0000152588
23.9392693828 -18.8738248107 -3.0000152588
24.3425795143 -18.8298092778 -3.0000152588
18.7378021467 -13.1225977680 -3.0000152588
18.7062564157 -13.3250528580 -3.0000152588
18.6904965829 -13.2635682371 -3.0000152588
18.6516832893 -13.6143483646 -3.0000152588
18.6458783694 -13.7024048364 -3.0000152588
18.7634403040 -12.6752647748 -3.0000152588
18.8606652564 -12.2846170857 -3.0000152588
18.7167695752 -12.6626479528 -3.0000152588
18.7136296296 -12.5837695713 -3.0000152588
18.9512276512 -11.6987079348 -3.0000152588
18.6682420923 -12.2486216634 -3.0000152588
18.3200683800 -12.5554049656 -3.0000152588
22.1130571736 -15.3216188490 -3.0000152588
21.9149197152 -15.6600024303 -3.0000152588
21.6355664961 -15.4294940192 -3.0000152588
21.9438248723 -15.7744317551 -3.0000152588
21.3763230215 -15.2200038153 -3.0000152588
21.3821034724 -15.2701112983 -3.0000152588
22.2551829122 -16.0548266094 -3.0000152588
21.2946499145 -15.3140386044 -3.0000152588
20.9879062979 -15.0395314292 -3.0000152588
18.9834308588 -12.6366129824 -3.0000152588
18.9538538260 -12.7550480097 -3.0000152588
18.8454193775 -13.4512871377 -3.0000152588
18.9151796694 -12.8159771279 -3.0000152588
18.8235133019 -13.4222309083 -3.0000152588
18.8080028977 -13.7354031206 -3.0000152588
18.8692721736 -12.9181436850 -3.0000152588
18.7592067077 -13.7759882796 -3.0000152588
18.7365084689 -13.9281653617 -3.0000152588
18.7734272370 -13.0412437980 -3.0000152588
18.7689798386 -13.0687293396 -3.0000152588
18.7646951318 -13.0962407125 -3.0000152588
18.7690891305 -12.9270841189 -3.0000152588
18.7067563137 -13.3703329687 -3.0000152588
18.7022144787 -14.4206011724 -3.0000152588
18.6396559958 -13.6903863611 -3.0000152588
18.6637947737 -12.9652855542 -3.0000152588
18.6131950529 -13.3329848272 -3.0000152588
23.9566386545 -18.7493188847 -3.0000152588
24.3203600536 -18.6959264428 -3.0000152588
24.3925748493 -18.6820286184 -3.0000152588
24.8701358523 -18.5868470996 -3.0000152588
24.3482081038 -18.7645047756 -3.0000152588
24.9127275256 -18.6243370090 -3.0000152588
25.2367976749 -18.5114930966 -3.0000152588
24.2423277954 -18.8567244002 -3.0000152588
24.5798901072 -18.8394551574 -3.0000152588
25.0957208966 -18.7937784741 -3.0000152588
22.2763819145 -15.3589491427 -3.0000152588
21.3330258983 -15.4147043167 -3.0000152588
21.1099139952 -15.2236507196 -3.0000152588
19.0043517627 -13.1530243043 -3.0000152588
19.0013885658 -13.1778306525 -3.0000152588
18.9921741754 -13.2647818075 -3.0000152588
18.9910048836 -13.2772183247 -3.0000152588
18.9877178153 -13.3145478682 -3.0000152588
18.9847621551 -13.3519051126 -3.0000152588
18.9813371973 -13.4017527767 -3.0000152588
18.9773778004 -13.1750345070 -3.0000152588
18.9580171692 -13.3877014773 -3.0000152588
18.9543605195 -13.4504087701 -3.0000152588
18.9537405114 -13.4629563348 -3.0000152588
18.9248879669 -13.6259684788 -3.0000152588
18.9247874251 -13.6386024605 -3.0000152588
18.9247590021 -13.6891397028 -3.0000152588
18.9086606028 -13.9305142633 -3.0000152588
18.9083765539 -13.1412716951 -3.0000152588
18.8804962259 -13.8554443642 -3.0000152588
18.8779040534 -14.1383058495 -3.0000152588
18.8629824266 -14.2179174255 -3.0000152588
18.8303839670 -13.1840758123 -3.0000152588
18.7798121752 -13.7029793530 -3.0000152588
18.7567897088 -13.5587068416 -3.0000152588
18.8368399229 -14.5123418664 -3.0000152588
18.7457469998 -13.3075751161 -3.0000152588
18.7423827669 -13.9804572144 -3.0000152588
18.7168075026 -13.3718450928 -3.0000152588
18.7295717049 -14.1144512794 -3.0000152588
18.8108522394 -14.6255823110 -3.0000152588
18.6880855431 -14.3625836578 -3.0000152588
18.6191337254 -13.9483599331 -3.0000152588
18.7608087515 -14.8308625990 -3.0000152588
18.8102353127 -15.0856005071 -3.0000152588
18.8273364622 -15.1373918846 -3.0000152588
18.8668923632 -15.3856466891 -3.0000152588
18.5405610315 -13.1659958479 -3.0000152588
24.6790144258 -18.8156670105 -3.0000152588
24.7853188227 -18.7838496002 -3.0000152588
24.8834753789 -18.7777845909 -3.0000152588
25.2750465844 -18.6837696695 -3.0000152588
25.3533066866 -18.7032550214 -3.0000152588
25.8370392994 -18.5773622550 -3.0000152588
19.0029286877 -13.7855990266 -3.0000152588
19.0035972035 -13.7972846942 -3.0000152588
19.0058101184 -13.8323291155 -3.0000152588
19.0092442795 -13.8790218386 -3.0000152588
19.0111684867 -13.9023521448 -3.0000152588
18.9925304112 -13.9630387603 -3.0000152588
18.9790594149 -14.0596406488 -3.0000152588
18.9836015580 -14.0948924981 -3.0000152588
18.9536178872 -14.0507929763 -3.0000152588
18.9356797779 -14.1012834386 -3.0000152588
18.8927300086 -14.1437345858 -3.0000152588
18.9322762657 -14.6853637059 -3.0000152588
18.6292570313 -13.9736753984 -3.0000152588
18.7049952038 -14.4687451838 -3.0000152588
18.6055509467 -14.1846303925 -3.0000152588
22.4318687721 -15.4408083412 -3.0000152588
22.4375857442 -15.4415857575 -3.0000152588
19.0108230970 -14.4767437696 -3.0000152588
19.0178827778 -14.5921924586 -3.0000152588
19.0045169467 -14.6318386826 -3.0000152588
19.0112270139 -14.6536681227 -3.0000152588
19.0146304497 -14.6645678601 -3.0000152588
18.9985135737 -14.6937122794 -3.0000152588
19.0020355230 -14.7046494502 -3.0000152588
19.0127952784 -14.7373977817 -3.0000152588
18.9975881278 -15.0419589008 -3.0000152588
18.7415407946 -14.8408732439 -3.0000152588
18.7535197176 -14.8759279557 -3.0000152588
18.7098135899 -15.0381474080 -3.0000152588
22.3949518900 -15.7128310028 -3.0000152588
22.2774693909 -15.9013966755 -3.0000152588
22.7429299565 -15.9112706749 -3.0000152588
22.7026580971 -15.9403758462 -3.0000152588
22.9963260560 -15.8901079273 -3.0000152588
23.1293000185 -15.9053499364 -3.0000152588
21.1999638182 -15.7880388118 -3.0000152588
22.9466464394 -16.0493006450 -3.0000152588
21.6936388512 -16.2432562616 -3.0000152588
19.0693590931 -14.9506242921 -3.0000152588
19.0558836724 -14.9802292111 -3.0000152588
19.0647185909 -15.0001984393 -3.0000152588
19.0691803160 -15.0101633646 -3.0000152588
19.0583299257 -15.2115143281 -3.0000152588
19.0519099855 -15.3038485753 -3.0000152588
19.0535200974 -15.4071870851 -3.0000152588
19.0706058457 -15.4371254010 -3.0000152588
19.0671232933 -15.4791709412 -3.0000152588
25.9132876798 -15.3327787486 -3.0000152588
25.9187032722 -15.3224829127 -3.0000152588
25.9240883838 -15.3121711016 -3.0000152588
19.0555106265 -15.5539079599 -3.0000152588
25.9069622153 -15.3956149085 -3.0000152588
25.9168071689 -15.4278447995 -3.0000152588
25.9118516459 -15.5341261867 -3.0000152588
25.9164182769 -15.6206838632 -3.0000152588
25.9050731974 -15.6848290946 -3.0000152588
25.9124384073 -15.7183324835 -3.0000152588
22.6543977246 -15.4465702881 -3.0000152588
22.6545219507 -15.4714471035 -3.0000152588
22.5090608737 -15.6486241675 -3.0000152588
22.4552664609 -16.0216645126 -3.0000152588
21.9423658547 -16.0507325419 -3.0000152588
21.6289693470 -16.0512597867 -3.0000152588
23.5799734641 -15.8082915107 -3.0000152588
19.1630649016 -15.5785998923 -3.0000152588
19.1691353628 -15.5875023480 -3.0000152588
19.1730327271 -15.6774276889 -3.0000152588
19.1791438584 -15.7270942553 -3.0000152588
19.1952642521 -15.9841266258 -3.0000152588
25.9688469521 -14.7386197652 -3.0000152588
