37.4205468214 -7.3363850348 -3.5000132959
37.4507429476 -7.5521405556 -3.5000130625
37.4745077644 -7.5474548513 -3.5000130625
37.5100468760 -7.5398998825 -3.5000130625
37.5218627571 -7.5372415331 -3.5000130625
37.5277647480 -7.5358861549 -3.5000130625
37.5454463028 -7.5317153492 -3.5000130625
38.3769318694 -7.1142051131 -3.5000130625
37.3888833163 -7.5874514735 -3.5000130366
37.4009826492 -7.5855091361 -3.5000130366
37.4311788541 -7.5803404177 -3.5000130366
37.5511003813 -7.5552178316 -3.5000130366
37.3005060532 -7.6237539006 -3.5000130106
37.3865196214 -7.6122854841 -3.5000130106
37.4293298743 -7.6052180464 -3.5000130106
37.4902130726 -7.5935874973 -3.5000130106
37.6893904714 -7.5674690600 -3.5000129847
34.1655491508 -7.4512405857 -3.5000115324
34.1837285402 -7.5639782496 -3.5000114805
34.1482370595 -7.6803971338 -3.5000113768
34.1746476973 -7.7955009638 -3.5000113249
34.1329267977 -7.8985907300 -3.5000112211
40.9787855401 -6.7741824244 -3.5000108581
40.9792130584 -6.8510948486 -3.5000108321
40.9841363400 -6.9829416685 -3.5000107803
40.9925962669 -6.9597391869 -3.5000107803
40.9799684624 -7.1277943946 -3.5000107284
40.9883199055 -7.3516949306 -3.5000106246
40.9863239907 -7.5224490505 -3.5000105468
40.9933015809 -7.6142740471 -3.5000104950
40.9918177863 -7.7185846062 -3.5000104431
37.3746423173 -7.3339471461 -3.5000105473
37.6375779642 -7.2367379867 -3.5000104810
37.3952167628 -7.4036993989 -3.5000103485
37.4107854319 -7.3977543610 -3.5000103485
37.9200526312 -7.1326722392 -3.5000102822
37.5558082110 -7.5209145888 -3.5000098845
37.4461718891 -7.5910689820 -3.5000098182
37.4634013515 -7.5846643676 -3.5000098182
37.4976863764 -7.5713977065 -3.5000098182
37.5823217403 -7.5355876344 -3.5000098182
37.5990534755 -7.5279769512 -3.5000098182
37.4311650173 -7.6221623916 -3.5000097520
37.5524755383 -7.5750146209 -3.5000097520
37.6419868592 -7.5612748024 -3.5000096857
34.3161379804 -7.9695690816 -3.5000063055
41.0067965254 -6.2727531105 -3.5000036544
41.0086305905 -6.2601080281 -3.5000036544
41.0167516961 -6.3651086866 -3.5000035881
41.0251994027 -6.5772233354 -3.5000034556
41.0427152023 -6.7154048041 -3.5000033230
41.0039063543 -7.1041556608 -3.5000031242
41.0521176620 -7.0355283986 -3.5000030579
40.7854030252 -7.7398183984 -3.5000029916
40.9517956130 -7.5036859403 -3.5000028591
41.0636495873 -7.2253955106 -3.5000028591
37.2103774020 -7.4053975186 -3.5000133478
37.4553754070 -7.2887254216 -3.5000133219
37.4038840504 -7.4090209614 -3.5000132441
37.6732594398 -7.2729836798 -3.5000131922
37.9014188177 -7.0423701986 -3.5000131922
37.1354686877 -7.6492565143 -3.5000131403
37.4333578027 -7.5602156146 -3.5000130885
37.3871948772 -7.6134854546 -3.5000130625
37.4137967942 -7.5990256605 -3.5000130625
37.4401819355 -7.5841739955 -3.5000130625
37.4611300895 -7.5720126968 -3.5000130625
37.5281926124 -7.5307915700 -3.5000130625
37.5332848188 -7.5275143789 -3.5000130625
37.5383673084 -7.5242221386 -3.5000130625
37.4039822881 -7.6319142824 -3.5000130366
37.4093741772 -7.6290040855 -3.5000130366
37.4415425840 -7.6112091188 -3.5000130366
37.4733900956 -7.5928460243 -3.5000130366
37.6008467994 -7.5407413216 -3.5000130106
36.3402081044 -7.9257379905 -3.5000129847
41.0078519220 -5.7561044160 -3.5000103394
41.0048519996 -5.6340689415 -3.5000103394
41.0322190316 -5.8376438048 -3.5000103134
41.0322872691 -5.8240084781 -3.5000103134
41.0322499646 -5.7831021222 -3.5000103134
41.0321568578 -5.7694669426 -3.5000103134
41.0313810948 -5.7149307685 -3.5000103134
41.0504981625 -6.0433043356 -3.5000102875
41.0552529083 -5.7007401504 -3.5000102875
41.0526238741 -5.6185411983 -3.5000102875
41.0687400522 -6.1408004438 -3.5000102616
41.0723555186 -6.0858054047 -3.5000102616
41.0753200052 -6.0307714357 -3.5000102616
41.0749865012 -6.3355906198 -3.5000102356
41.0849183367 -6.2391522338 -3.5000102356
41.0928512073 -6.1425288762 -3.5000102356
41.1044750600 -5.8658127595 -3.5000102356
41.1020625341 -6.3106411495 -3.5000102097
41.1272684240 -5.9357059004 -3.5000102097
41.1238631754 -5.5877634821 -3.5000102097
41.0902752820 -6.5766324391 -3.5000101838
41.0837440284 -6.7465699306 -3.5000101578
41.0971195873 -6.6775315721 -3.5000101578
41.1046542685 -6.6360162551 -3.5000101578
41.1584041207 -6.2318275240 -3.5000101578
41.0643573124 -6.9444868918 -3.5000101319
41.0742623623 -6.9032518093 -3.5000101319
41.0929727262 -6.8205260648 -3.5000101319
41.1963029794 -5.5843734487 -3.5000101319
33.5337333362 -9.6443702540 -3.5000101059
41.5370117731 -6.8221365163 -3.5000096651
41.5751452186 -6.8773080473 -3.5000096132
41.6626030746 -6.2926075061 -3.5000096132
37.2025787029 -7.4540058173 -3.5000188684
37.1961276048 -7.5181983388 -3.5000189664
37.4926385584 -7.2582685855 -3.5000189664
37.2631966754 -7.4992469729 -3.5000190154
37.2935756119 -7.4757849176 -3.5000190154
37.4534653248 -7.3339394844 -3.5000190154
37.5029957544 -7.2826770377 -3.5000190154
36.8317910499 -7.7943691956 -3.5000191134
36.7533883338 -7.8991227506 -3.5000192603
36.6929539905 -7.9427656680 -3.5000193093
37.4510327563 -7.5971513599 -3.5000194073
37.4556910516 -7.5932821440 -3.5000194073
37.4695969776 -7.5815920533 -3.5000194073
37.4788097231 -7.5737302984 -3.5000194073
37.5151907644 -7.5417423782 -3.5000194073
37.7585407366 -7.2807685279 -3.5000194073
37.5539799123 -7.5390386019 -3.5000194563
37.6285327584 -7.4663120577 -3.5000194563
37.4188312544 -7.6845774022 -3.5000195053
37.4961379223 -7.6224632654 -3.5000195053
37.5658684288 -7.5609698197 -3.5000195053
37.6371621479 -7.4920372983 -3.5000195053
37.6800338139 -7.4472706393 -3.5000195053
37.3933294148 -7.7337843570 -3.5000195543
37.4185329897 -7.7151394954 -3.5000195543
37.6005924015 -7.5616301252 -3.5000195543
37.7020001512 -7.4591315697 -3.5000195543
37.7111165429 -7.4848274590 -3.5000196033
41.0107558761 -5.1208706482 -3.5000252859
41.0053481911 -5.0921012748 -3.5000252859
41.1160772118 -5.9056677167 -3.5000253349
41.1088700745 -5.7293266802 -3.5000253349
41.0980861905 -5.5826466553 -3.5000253349
41.0967692592 -5.5679976100 -3.5000253349
41.0794261222 -5.4071476358 -3.5000253349
41.1390230388 -5.8607874518 -3.5000253838
41.1374090019 -5.8164780792 -3.5000253838
41.1135724504 -5.4922585340 -3.5000253838
41.1119880668 -5.4775640730 -3.5000253838
41.0354240964 -4.9960792133 -3.5000253838
41.0261403385 -4.9527232742 -3.5000253838
41.1615618659 -5.8154909408 -3.5000254328
41.1807306513 -5.4398824478 -3.5000255308
41.1560938051 -5.1093178639 -3.5000255798
41.1878031908 -5.1497072412 -3.5000256288
34.3757438703 -11.1554173813 -3.5000262656
34.2766067097 -11.1459110435 -3.5000263146
34.4924124306 -11.3208970323 -3.5000265106
34.6528477246 -11.4184672708 -3.5000266085
37.0971629885 -7.6375273910 -3.5000199935
37.1980967780 -7.5422209653 -3.5000199935
37.4971913351 -7.2342953953 -3.5000201203
37.5301231561 -7.1773301980 -3.5000201203
36.9601412912 -7.8343762275 -3.5000201837
37.5105325172 -7.5141338483 -3.5000205641
37.5250444694 -7.4950983372 -3.5000205641
37.7355988857 -7.1476893784 -3.5000205641
37.4996198840 -7.5669007364 -3.5000206275
37.5370404029 -7.5192930189 -3.5000206275
37.5623890925 -7.4853189427 -3.5000206275
37.7305919383 -7.2123636096 -3.5000206275
37.4630363038 -7.6476301821 -3.5000206908
37.5028606066 -7.6010691969 -3.5000206908
37.5525422392 -7.5388156194 -3.5000206908
37.5599716610 -7.5290703528 -3.5000206908
36.4052402903 -8.3140410917 -3.5000207542
37.5977726708 -7.5188283461 -3.5000207542
35.0413086479 -11.1002359752 -3.5000281082
35.4432319383 -11.1554998687 -3.5000281082
34.7605746702 -11.0908984342 -3.5000282350
34.8176010763 -11.1041513067 -3.5000282350
34.9608181694 -11.1343235148 -3.5000282350
34.8553484947 -11.1372715442 -3.5000282984
34.6919310942 -11.1238611754 -3.5000283618
34.7293007910 -11.1579680427 -3.5000284252
34.7817207018 -11.1951479014 -3.5000284886
41.1229035317 -5.0401934383 -3.5000293127
41.1235260864 -4.9418516552 -3.5000293761
41.1746327351 -4.7614418349 -3.5000296297
41.1174843137 -4.5755193082 -3.5000296297
41.0537733626 -4.3917421533 -3.5000296297
41.1092838226 -4.4754301382 -3.5000296931
41.0301849366 -4.2616736821 -3.5000296931
41.0445167319 -4.1677744964 -3.5000298199
41.0478618128 -4.1128971213 -3.5000298833
41.3012956997 -4.5154291056 -3.5000301369
41.3397692024 -4.5560442281 -3.5000302003
41.4115787707 -4.7108014043 -3.5000302637
37.3818739083 -7.2808425496 -3.5000156892
37.4135031668 -7.2014719113 -3.5000156892
37.3415158394 -7.4223163726 -3.5000156950
37.3933183791 -7.3151343535 -3.5000156950
37.4285086032 -7.2301358085 -3.5000156950
37.4471973082 -7.1793465790 -3.5000156950
37.4569090162 -7.2234391254 -3.5000157007
37.2164577260 -7.7484244623 -3.5000157123
37.5248174887 -7.2488843000 -3.5000157180
36.7644286037 -8.2208712517 -3.5000157238
37.6602879731 -6.7814343652 -3.5000157238
37.1102916831 -7.9762133192 -3.5000157296
37.5138449307 -7.4005727163 -3.5000157296
37.2514605914 -7.8586478832 -3.5000157353
37.4842413690 -7.5646725361 -3.5000157411
37.4717180458 -7.6340400928 -3.5000157468
37.5257063933 -7.5393631825 -3.5000157468
37.5285571011 -7.5340205228 -3.5000157468
37.5370142233 -7.5179422740 -3.5000157468
37.5507912843 -7.4909804450 -3.5000157468
37.5561901954 -7.4801391523 -3.5000157468
37.5667951251 -7.4583616914 -3.5000157468
37.7648490158 -6.6891768918 -3.5000157468
37.4598628990 -7.6984906967 -3.5000157526
37.4955586587 -7.6413245991 -3.5000157526
37.5018480229 -7.6308074499 -3.5000157526
37.5049693438 -7.6255349675 -3.5000157526
37.5382676619 -7.5669399849 -3.5000157526
37.5556216188 -7.5345315383 -3.5000157526
37.5778603159 -7.4908508823 -3.5000157526
37.5912322168 -7.4632878871 -3.5000157526
37.6142687222 -7.4131877782 -3.5000157526
37.5799015824 -7.5402585363 -3.5000157584
37.5715841985 -7.6066024289 -3.5000157641
37.7078169120 -7.4406700901 -3.5000157757
39.0311345600 -4.4496783176 -3.5000161964
35.6521475740 -11.0610451308 -3.5000163289
35.1858053618 -11.0538900765 -3.5000163347
35.5850469135 -11.0836968222 -3.5000163347
35.7852661796 -11.0852908033 -3.5000163347
35.7453491668 -11.1098554756 -3.5000163405
35.8124479916 -11.1090001683 -3.5000163405
35.8795268266 -11.1071525371 -3.5000163405
35.9197584275 -11.1055678020 -3.5000163405
35.9331656403 -11.1049602232 -3.5000163405
36.0269575939 -11.0995970807 -3.5000163405
36.0671163388 -11.0967042777 -3.5000163405
35.5296550906 -11.1300749835 -3.5000163462
35.7184936568 -11.1340927226 -3.5000163462
36.1496201469 -11.1139162018 -3.5000163462
36.3270814571 -11.1180435239 -3.5000163520
35.6230251934 -11.1813965893 -3.5000163578
36.1541626256 -11.1620483845 -3.5000163578
36.1700783137 -11.1848064159 -3.5000163635
35.3468228342 -11.2157257420 -3.5000163693
37.1768219632 -7.6994398412 -3.5000133478
37.2739297130 -7.5394570313 -3.5000133219
37.3456240042 -7.3046846248 -3.5000133219
37.3503364498 -7.2838488507 -3.5000133219
37.2571861584 -7.6430684240 -3.5000132959
37.2886802055 -7.5682529527 -3.5000132959
37.0938924059 -8.0167636644 -3.5000132441
37.3456154938 -7.5549112933 -3.5000132441
37.3513935684 -7.5392798896 -3.5000132441
37.2421999260 -7.8333137225 -3.5000132181
37.0360346987 -8.1652653728 -3.5000131922
37.3968146550 -7.5558408686 -3.5000131922
37.5244320650 -7.1216259022 -3.5000131663
37.5286881575 -7.0814643814 -3.5000131663
37.2189084863 -8.0078652873 -3.5000131403
37.5600504013 -6.8153787744 -3.5000131403
37.5446457486 -7.4062227028 -3.5000130885
37.4954355826 -7.6369149133 -3.5000130625
37.5144824044 -7.5858526020 -3.5000130625
37.5535910320 -7.4648689737 -3.5000130625
37.6116947650 -7.1988383813 -3.5000130625
37.6291414526 -6.7519568898 -3.5000130625
37.4949523244 -7.7024449927 -3.5000130366
37.5066710287 -7.6741395443 -3.5000130366
37.5288461745 -7.6170241930 -3.5000130366
37.5413369062 -7.5824489294 -3.5000130366
37.5626349862 -7.5185072234 -3.5000130366
37.5557884578 -7.6138042953 -3.5000130106
37.5579031900 -7.6079775452 -3.5000130106
37.6179116526 -7.4125074401 -3.5000130106
37.6267030040 -7.4729643598 -3.5000129847
35.8394774372 -10.9900288198 -3.5000108581
35.9261795434 -11.0080175988 -3.5000108321
35.9036894023 -11.0340540959 -3.5000108062
36.0137339377 -11.0241609896 -3.5000108062
36.0259438689 -11.0228809939 -3.5000108062
36.0381499602 -11.0215648846 -3.5000108062
35.8562625092 -11.0616326715 -3.5000107803
35.9670580082 -11.0529923204 -3.5000107803
36.1388424914 -11.0336983429 -3.5000107803
36.1633127505 -11.0303618868 -3.5000107803
36.1755403706 -11.0286393827 -3.5000107803
36.0804243369 -11.0654112026 -3.5000107543
35.8344440229 -11.1114150415 -3.5000107284
36.4947789937 -11.0447117294 -3.5000107024
36.4257506109 -11.0838696247 -3.5000106765
36.4999452863 -11.0683262313 -3.5000106765
36.5546954393 -11.0807851618 -3.5000106506
36.6718236488 -11.0769437888 -3.5000106246
36.7088843190 -11.0671532169 -3.5000106246
36.7581606166 -11.0535882470 -3.5000106246
36.4021602356 -11.1623778734 -3.5000105987
37.0462272319 -10.9871246092 -3.5000105987
37.1478040839 -11.0012266001 -3.5000105468
37.4114790413 -10.8910397718 -3.5000105468
37.4096292145 -10.9184374454 -3.5000105209
37.4215202887 -10.9130286016 -3.5000105209
37.3112908840 -10.9878036838 -3.5000104950
37.3519178073 -7.4572266747 -3.5000141539
37.5110647334 -7.5425194466 -3.5000140530
37.5119587188 -7.5366024882 -3.5000140530
37.5215920410 -7.6237407601 -3.5000140386
37.5270869617 -7.5939657121 -3.5000140386
37.5367527411 -7.5341881018 -3.5000140386
37.5753628507 -7.4098859641 -3.5000140242
37.6033583544 -7.3562503804 -3.5000140098
36.3754000354 -10.9746409164 -3.5000129724
36.4474564316 -10.9821676769 -3.5000129580
36.4310080807 -11.0111263133 -3.5000129436
36.5200503603 -10.9883066402 -3.5000129436
36.5597829085 -11.0024939667 -3.5000129292
36.5820403922 -10.9962249786 -3.5000129292
36.6153561016 -10.9865748669 -3.5000129292
36.7000571475 -10.9859531756 -3.5000129148
36.7407883085 -10.9982325657 -3.5000129004
36.7818304454 -11.0100824430 -3.5000128860
36.4826311820 -11.1228759108 -3.5000128716
36.9012516785 -10.9935237535 -3.5000128716
37.0428737662 -10.9641860820 -3.5000128572
36.5176044399 -11.1638938266 -3.5000128428
36.9741017780 -11.0176433794 -3.5000128428
37.1513215487 -10.9442005417 -3.5000128428
36.5119164276 -11.1902873618 -3.5000128283
37.3558180104 -7.3274793370 -3.5000154826
37.3915329871 -7.4303832518 -3.5000154855
37.4134114567 -7.7698260594 -3.5000154884
37.3066189665 -6.7403219447 -3.5000154971
37.5181436675 -7.5339680534 -3.5000154999
37.5175962725 -7.5160241147 -3.5000154999
37.5416725191 -7.6604842495 -3.5000155028
37.5429741934 -7.5757215755 -3.5000155028
37.5429328284 -7.5696660957 -3.5000155028
37.5410394925 -7.4970271017 -3.5000155028
37.5398355423 -7.4728346888 -3.5000155028
37.5646164501 -7.4837276159 -3.5000155057
37.5643028556 -7.4776085169 -3.5000155057
37.5636213694 -7.4653732356 -3.5000155057
37.5562052974 -7.3737735197 -3.5000155057
37.5905751462 -7.6436408049 -3.5000155086
37.5865814657 -7.4453986026 -3.5000155086
36.9202479418 -10.9391504159 -3.5000156930
37.0290702706 -10.9440238986 -3.5000156988
37.1285243128 -10.9237348232 -3.5000157017
37.1383887898 -10.9188907121 -3.5000157017
37.6981723493 -10.9319522140 -3.5000157362
37.7943809112 -10.9254580406 -3.5000157420
37.5305966226 -7.5655488566 -3.5000157411
37.5586299617 -7.5849977939 -3.5000157468
37.5398884888 -7.4899469037 -3.5000157468
37.5288361676 -7.4427806721 -3.5000157468
37.5258989235 -7.4310310140 -3.5000157468
37.5864782174 -7.6050592154 -3.5000157526
37.5523047692 -7.4369875709 -3.5000157526
37.5787087748 -7.4432391990 -3.5000157584
36.8387068623 -3.9403441121 -3.5000162598
37.3608897546 -7.7839911466 -3.5000152588
37.3458568530 -7.7334928361 -3.5000152588
37.4352198905 -8.0229878133 -3.5000152588
37.3281799832 -7.6103997561 -3.5000152588
37.3222878215 -7.5955009947 -3.5000152588
37.5612279508 -8.0575580747 -3.5000152588
37.5242414326 -7.5145942777 -3.5000152588
37.5328700745 -7.4719985120 -3.5000152588
37.5889436155 -7.5480710688 -3.5000152588
37.5063477848 -7.3017529030 -3.5000152588
36.3988751214 -4.0135912018 -3.5000152588
36.1967951288 -3.9827536783 -3.5000152588
36.4410132109 -3.9966711418 -3.5000152588
36.5594601301 -3.9956977922 -3.5000152588
36.6279350402 -3.9861074647 -3.5000152588
36.7349157110 -3.9871046292 -3.5000152588
36.6587859565 -3.9684600532 -3.5000152588
36.8297408028 -3.9872613992 -3.5000152588
36.8743220814 -3.9746904479 -3.5000152588
36.5538273853 -3.8956969605 -3.5000152588
37.4279923865 -4.1207189838 -3.5000152588
36.9771890464 -3.9548390631 -3.5000152588
36.9644274126 -3.9509212958 -3.5000152588
36.7328544407 -3.8868914893 -3.5000152588
37.2463217082 -3.5337902509 -3.5000152588
36.4730898517 -3.3395655109 -3.5000152588
36.8117759840 -3.3836544362 -3.5000152588
36.2595854798 -3.2597586476 -3.5000152588
37.4511458630 -7.7731075188 -3.5000152588
37.5812361410 -8.0377127550 -3.5000152588
37.6385598598 -8.0614426219 -3.5000152588
37.5915807710 -7.9170140184 -3.5000152588
35.6080148947 -4.0204097522 -3.5000152588
35.5945362469 -4.0210205669 -3.5000152588
35.7289718669 -3.9925378597 -3.5000152588
35.6747306818 -3.9937910451 -3.5000152588
35.6205081223 -3.9956859496 -3.5000152588
36.0556849710 -3.9743603487 -3.5000152588
35.9194387171 -3.9690410399 -3.5000152588
35.9058067488 -3.9687308313 -3.5000152588
36.1527350695 -3.9563747073 -3.5000152588
36.1117151163 -3.9534951901 -3.5000152588
36.0843549820 -3.9517778006 -3.5000152588
35.9063209414 -3.9445632728 -3.5000152588
36.2094703394 -3.9366971546 -3.5000152588
36.4626006906 -3.9167782777 -3.5000152588
36.1997685624 -3.8873510843 -3.5000152588
36.6868550495 -3.9292282141 -3.5000152588
36.6180150308 -3.9167344357 -3.5000152588
36.3549350227 -3.8785767664 -3.5000152588
36.8428677889 -3.9366963170 -3.5000152588
36.7465624717 -3.9162583799 -3.5000152588
36.3080970467 -3.3388571867 -3.5000152588
37.7825750109 -3.6214880708 -3.5000152588
37.3957074266 -7.7226072096 -3.5000152588
37.3719739823 -7.6943751837 -3.5000152588
37.4670945726 -7.7744779388 -3.5000152588
37.3692284503 -7.6545029881 -3.5000152588
37.3220916225 -7.6035359664 -3.5000152588
37.6318206450 -7.9381705215 -3.5000152588
37.4992460054 -7.7367848786 -3.5000152588
37.4305638235 -7.6513038352 -3.5000152588
37.7758032091 -8.1872869777 -3.5000152588
37.6717057062 -7.9602177021 -3.5000152588
37.7457084321 -7.9978809772 -3.5000152588
37.0139973787 -7.2043620019 -3.5000152588
37.7516879691 -7.9562628219 -3.5000152588
37.9346858007 -8.3700543060 -3.5000152588
37.4760669190 -7.5203470274 -3.5000152588
37.7723195051 -7.8922719531 -3.5000152588
38.0074741406 -8.4750145027 -3.5000152588
37.4706918462 -7.3757322714 -3.5000152588
37.3700696926 -7.1889350313 -3.5000152588
35.5556194683 -3.9286403316 -3.5000152588
35.0777245076 -3.9974031063 -3.5000152588
34.9773546197 -4.0179654497 -3.5000152588
35.8762571901 -3.8846721521 -3.5000152588
35.7440065192 -3.8902733608 -3.5000152588
35.7293223842 -3.8911130113 -3.5000152588
35.6266119781 -3.8982062761 -3.5000152588
35.4948100642 -3.9104483741 -3.5000152588
35.4363454917 -3.9170147488 -3.5000152588
35.3925502893 -3.9223932627 -3.5000152588
35.0731184880 -3.9736729595 -3.5000152588
35.7721804561 -3.8645812411 -3.5000152588
35.6689114998 -3.8707927826 -3.5000152588
35.2100942201 -3.9000750855 -3.5000152588
35.0886155795 -3.8968823862 -3.5000152588
34.9132498376 -3.9330791554 -3.5000152588
35.0057582489 -3.8638309958 -3.5000152588
35.0603464585 -3.8284297677 -3.5000152588
41.1593603182 -10.4571886719 -3.5000152588
41.1554189130 -10.6242345192 -3.5000152588
41.1759987003 -10.5633519345 -3.5000152588
41.1403620394 -10.7385253971 -3.5000152588
37.7077702464 -7.9492367849 -3.5000152588
37.8090607000 -8.0033471790 -3.5000152588
36.9733633334 -7.3464739861 -3.5000152588
37.4343469242 -7.3723850414 -3.5000152588
36.5296091937 -6.9862963952 -3.5000152588
41.1119180665 -9.7264408487 -3.5000152588
41.1240406233 -9.6262184866 -3.5000152588
41.0300736154 -10.2845313896 -3.5000152588
41.0335837240 -10.2704692603 -3.5000152588
41.0896217442 -10.0157055312 -3.5000152588
41.0038708066 -10.4731299187 -3.5000152588
41.0773310730 -10.1912863205 -3.5000152588
41.1077773428 -10.0488583696 -3.5000152588
41.1187739418 -9.9916454849 -3.5000152588
41.1781484182 -9.5735820109 -3.5000152588
41.0664541527 -10.4301388297 -3.5000152588
41.1345730500 -10.5426033491 -3.5000152588
34.7881979657 -3.9182994020 -3.5000152588
34.7968837032 -3.8906661228 -3.5000152588
34.6132557064 -3.9465152538 -3.5000152588
36.4795642852 -6.9920253811 -3.5000152588
41.0089479592 -9.7822205879 -3.5000152588
41.0159067498 -9.7165566288 -3.5000152588
41.0309463565 -9.5190478699 -3.5000152588
41.1567175207 -9.1594536598 -3.5000152588
41.1379901807 -8.8481046734 -3.5000152588
41.1799213644 -9.4314924239 -3.5000152588
37.2781640049 -7.5989849486 -3.5000152588
37.9763230429 -7.8473854325 -3.5000152588
37.1761090118 -7.0682048245 -3.5000152588
37.1135938393 -7.0615799059 -3.5000152588
36.2809889952 -6.9831324104 -3.5000152588
35.5411353798 -6.9114486011 -3.5000152588
40.9907708502 -9.1726306777 -3.5000152588
41.0134006507 -9.1468505397 -3.5000152588
41.0013658820 -9.0008894958 -3.5000152588
41.0202258539 -8.9496440362 -3.5000152588
41.0174131385 -8.9252520181 -3.5000152588
41.0144561610 -8.9008770678 -3.5000152588
41.0303749095 -8.8366833764 -3.5000152588
41.0286523883 -8.8244557587 -3.5000152588
41.0268937033 -8.8122332900 -3.5000152588
41.0374159903 -8.7228564187 -3.5000152588
41.0505405603 -8.6573542260 -3.5000152588
41.0389119172 -8.5959900551 -3.5000152588
41.0314995230 -8.5592564730 -3.5000152588
41.0447242886 -8.5052171131 -3.5000152588
41.0572459261 -8.4507459987 -3.5000152588
41.0543816148 -8.4384405804 -3.5000152588
41.0455704482 -8.4015759175 -3.5000152588
41.0395147342 -8.3770435443 -3.5000152588
41.0671654768 -8.2911117564 -3.5000152588
41.0247260106 -8.1437816694 -3.5000152588
38.0188306500 -7.8344637383 -3.5000152588
37.9196507641 -7.7911504430 -3.5000152588
37.4597350951 -7.6727299949 -3.5000152588
37.4543622083 -7.6720801204 -3.5000152588
37.6889506002 -7.6908406808 -3.5000152588
37.2329223823 -7.6349975420 -3.5000152588
37.6353431097 -7.6534763850 -3.5000152588
37.6788683318 -7.6385975815 -3.5000152588
38.1264847949 -7.7799570463 -3.5000152588
37.7916680040 -7.5935271704 -3.5000152588
36.7925599477 -7.5648789165 -3.5000152588
37.9957551415 -7.5353195534 -3.5000152588
38.2061882313 -7.0987027746 -3.5000152588
40.9876460959 -8.5747007278 -3.5000152588
40.9849259655 -8.5636107080 -3.5000152588
40.9821730407 -8.5525287833 -3.5000152588
34.2339263271 -7.0256409569 -3.5000152588
41.0064655674 -8.3666460499 -3.5000152588
40.9894579463 -8.3110222822 -3.5000152588
41.0125216230 -8.3037833529 -3.5000152588
40.9834259492 -8.2147825087 -3.5000152588
41.0138287689 -8.2293206495 -3.5000152588
40.9908825654 -8.1624936028 -3.5000152588
34.2223129551 -6.8157746168 -3.5000152588
41.1357191919 -8.3782104003 -3.5000152588
41.1556456750 -8.3599920729 -3.5000152588
41.1385233211 -8.3021626016 -3.5000152588
34.1978876120 -6.6628806679 -3.5000152588
41.0032172912 -7.6324729861 -3.5000152588
37.7035097808 -7.7267387260 -3.5000152588
37.5876750223 -7.7229029410 -3.5000152588
37.8590125507 -7.7193892033 -3.5000152588
37.7210776555 -7.7037396237 -3.5000152588
37.7050954128 -7.7026177589 -3.5000152588
38.0481008246 -7.7337014841 -3.5000152588
37.2009510153 -7.7156803589 -3.5000152588
38.0859599570 -7.7188901601 -3.5000152588
37.7574634928 -7.6582682044 -3.5000152588
37.1530855938 -7.7018061442 -3.5000152588
37.1105594698 -7.7125709194 -3.5000152588
37.4102279557 -7.6345184330 -3.5000152588
37.3881188681 -7.6367371016 -3.5000152588
37.7002069114 -7.6054289607 -3.5000152588
37.2851849656 -7.6260837837 -3.5000152588
37.1199268877 -7.6601949226 -3.5000152588
38.2731869044 -7.7043566545 -3.5000152588
37.1361229829 -7.6312987874 -3.5000152588
38.4509352820 -7.7556336455 -3.5000152588
38.4405758008 -7.7505509846 -3.5000152588
38.4301864301 -7.7455297028 -3.5000152588
38.1452574020 -7.6353909913 -3.5000152588
38.1175577706 -7.6273337264 -3.5000152588
37.9774395680 -7.5932380480 -3.5000152588
37.2889203476 -7.5765535933 -3.5000152588
38.4035944758 -7.7064339138 -3.5000152588
37.7161948370 -7.5337709893 -3.5000152588
36.6399337045 -7.7437902476 -3.5000152588
37.9919690217 -7.5221893850 -3.5000152588
38.5848828456 -7.7168715087 -3.5000152588
38.3669210549 -7.6115284990 -3.5000152588
38.0086706006 -7.5009681148 -3.5000152588
38.2846506587 -7.5539727346 -3.5000152588
38.7645954637 -7.7419226495 -3.5000152588
38.3353195256 -7.4694997989 -3.5000152588
38.1250955260 -7.0562273434 -3.5000152588
38.2104076754 -7.0516131381 -3.5000152588
36.8795232405 -7.0491865939 -3.5000152588
38.8623747243 -7.0700241606 -3.5000152588
36.1345958098 -7.0859510736 -3.5000152588
39.0969619534 -7.0933006761 -3.5000152588
40.9391436464 -8.0797468421 -3.5000152588
40.9485350889 -8.0404021786 -3.5000152588
40.9398166818 -8.0205378945 -3.5000152588
40.9285424847 -7.8813492602 -3.5000152588
40.9237275519 -7.8714705082 -3.5000152588
40.9091077108 -7.8419203172 -3.5000152588
40.9405656032 -7.8509187569 -3.5000152588
40.9157479496 -7.8014942279 -3.5000152588
40.9542717921 -7.7184704204 -3.5000152588
40.9284083939 -7.5241729107 -3.5000152588
40.9277711507 -7.4299047134 -3.5000152588
34.0874409826 -7.7095044655 -3.5000152588
40.9296558651 -7.3874046105 -3.5000152588
34.1152453423 -7.6053893643 -3.5000152588
34.0875427931 -7.6569408174 -3.5000152588
34.1111274880 -7.5628697234 -3.5000152588
40.9319435702 -7.3018224519 -3.5000152588
34.1133766621 -7.5098450218 -3.5000152588
34.1016389273 -7.5304291161 -3.5000152588
40.9457152250 -7.2353341747 -3.5000152588
34.0955775095 -7.4443199149 -3.5000152588
34.0966861995 -7.3032812313 -3.5000152588
40.9461759316 -7.0264679251 -3.5000152588
34.1094689738 -7.1945646126 -3.5000152588
34.0958660026 -7.2151773439 -3.5000152588
40.9476442478 -6.9477830410 -3.5000152588
34.0930894096 -7.0471961937 -3.5000152588
34.1027977693 -6.9918920170 -3.5000152588
34.0953815266 -7.0022089441 -3.5000152588
34.0981985193 -6.9570699892 -3.5000152588
34.0831906474 -6.9777535569 -3.5000152588
34.0783207532 -6.8621284615 -3.5000152588
34.0668843845 -6.8371632087 -3.5000152588
37.8658891552 -7.6786871231 -3.5000152588
37.8276337970 -7.6563343145 -3.5000152588
37.8063162017 -7.6577115417 -3.5000152588
37.4800031290 -7.7110870526 -3.5000152588
38.0965420508 -7.6363540567 -3.5000152588
37.2933687023 -7.7446550057 -3.5000152588
37.9517744479 -7.5082842696 -3.5000152588
37.2241383451 -7.6417173642 -3.5000152588
36.9503838830 -7.7182742215 -3.5000152588
36.9094778242 -7.7420220788 -3.5000152588
36.7182998792 -7.8412526984 -3.5000152588
38.0344910009 -7.0510327580 -3.5000152588
40.8198522620 -7.5705784595 -3.5000152588
40.8068416882 -7.2596304496 -3.5000152588
34.0406581723 -8.2446092353 -3.5000152588
34.0335440479 -8.2676610419 -3.5000152588
34.0360711320 -8.1796301572 -3.5000152588
34.0405814142 -8.0911965169 -3.5000152588
34.0420605601 -7.9477735180 -3.5000152588
34.0201408075 -8.0054926705 -3.5000152588
34.1446033088 -7.4871172605 -3.5000152588
34.0283143582 -7.6699968651 -3.5000152588
34.0230404949 -7.6815565365 -3.5000152588
34.0065321587 -7.5463414803 -3.5000152588
34.0039659212 -7.3395032610 -3.5000152588
33.9850249016 -7.0335538510 -3.5000152588
37.7134285235 -7.6605638853 -3.5000152588
37.6635959158 -7.6776746626 -3.5000152588
37.5462335264 -7.7246924097 -3.5000152588
38.0388787446 -7.5626765487 -3.5000152588
37.6604358719 -7.6531290141 -3.5000152588
37.6453693528 -7.6585779282 -3.5000152588
37.5707945927 -7.6878159334 -3.5000152588
37.5462336868 -7.6982936811 -3.5000152588
37.4639377488 -7.7366123197 -3.5000152588
37.4448614452 -7.7462264377 -3.5000152588
37.7293587368 -7.6047953657 -3.5000152588
37.3671297628 -7.7605913626 -3.5000152588
37.3019478474 -7.7992098885 -3.5000152588
38.0872636517 -7.5085974944 -3.5000152588
38.0654457341 -7.5108520931 -3.5000152588
37.9244528615 -7.5317782486 -3.5000152588
37.8493195697 -7.5475182615 -3.5000152588
37.6133056178 -7.6189190991 -3.5000152588
37.2430446052 -7.8082793250 -3.5000152588
37.2158416197 -7.7973942563 -3.5000152588
37.8165315628 -7.5056143218 -3.5000152588
37.5543293250 -7.5900456057 -3.5000152588
37.6737794535 -7.5209428097 -3.5000152588
37.4619735249 -7.5770229119 -3.5000152588
38.1629153376 -7.3817480906 -3.5000152588
38.5859308483 -7.3804625913 -3.5000152588
36.9560141186 -7.8447514898 -3.5000152588
36.7431538932 -7.9865465292 -3.5000152588
38.6095977197 -7.3108651373 -3.5000152588
36.6968518076 -8.0026233340 -3.5000152588
36.9192104338 -7.6863836401 -3.5000152588
40.6800365763 -7.0614156925 -3.5000152588
40.7179567900 -7.0664295969 -3.5000152588
40.7395341134 -7.0187764175 -3.5000152588
40.7008227596 -6.8419555978 -3.5000152588
40.6670297033 -6.6782626989 -3.5000152588
34.0275667962 -8.8344274659 -3.5000152588
34.0113906596 -8.6137003625 -3.5000152588
33.9832480168 -8.6348906405 -3.5000152588
33.9826676123 -8.5038024258 -3.5000152588
33.9949931112 -8.3341042916 -3.5000152588
33.9832294573 -8.3847227460 -3.5000152588
33.9803821946 -8.3973988321 -3.5000152588
33.9839101564 -8.2777395935 -3.5000152588
33.9714803450 -8.3284931325 -3.5000152588
33.9837864223 -8.1829144528 -3.5000152588
33.9636841743 -8.2591161591 -3.5000152588
33.8596102329 -8.8138599749 -3.5000152588
41.5309477127 -6.3078129501 -3.5000152588
34.0548115463 -7.8740225093 -3.5000152588
34.0461318045 -7.8989684832 -3.5000152588
33.9468430627 -8.2275792870 -3.5000152588
34.0683907935 -7.7662165710 -3.5000152588
34.0320046160 -7.8660113166 -3.5000152588
33.9135759773 -8.2600726527 -3.5000152588
34.2096608034 -7.3778242259 -3.5000152588
34.1154737264 -7.5842707039 -3.5000152588
33.9561757099 -7.9389425422 -3.5000152588
33.9363005810 -7.8467706240 -3.5000152588
34.2695169251 -7.0584160180 -3.5000152588
34.0818309410 -7.4217318713 -3.5000152588
34.0772828360 -7.3743424550 -3.5000152588
37.7707744629 -7.6040331653 -3.5000152588
37.4969896344 -7.7456503217 -3.5000152588
37.4912195631 -7.7198306725 -3.5000152588
37.3905842153 -7.7680417789 -3.5000152588
37.3779919550 -7.7786275137 -3.5000152588
37.9830456171 -7.4108194026 -3.5000152588
37.2259527014 -7.8194047356 -3.5000152588
37.1357454103 -7.9144398046 -3.5000152588
37.5879107182 -7.5113215825 -3.5000152588
37.9842059487 -7.2834758551 -3.5000152588
38.6242465446 -6.9764591854 -3.5000152588
38.5652445255 -6.9759893381 -3.5000152588
37.9061737852 -7.0546010059 -3.5000152588
39.3711040152 -6.8660021263 -3.5000152588
34.0223575129 -9.4324073408 -3.5000152588
33.9930802018 -9.2981425295 -3.5000152588
33.9937869691 -9.3252612698 -3.5000152588
33.9687272092 -9.0941851537 -3.5000152588
33.9447470418 -9.2992591212 -3.5000152588
33.9355260689 -8.8042504143 -3.5000152588
33.9223669816 -9.0242930189 -3.5000152588
33.9193387825 -9.1895988313 -3.5000152588
33.9052578356 -8.4509940235 -3.5000152588
33.9030855295 -8.4648174174 -3.5000152588
33.8724283936 -8.7006901374 -3.5000152588
33.9276911714 -8.1983457973 -3.5000152588
33.8953461175 -8.3639829934 -3.5000152588
33.8231268315 -9.2598644285 -3.5000152588
33.8233476697 -9.2739272416 -3.5000152588
37.7031453207 -7.5890277174 -3.5000152588
37.6867732632 -7.6027496837 -3.5000152588
37.7470681929 -7.5233059796 -3.5000152588
37.4029618034 -7.8660068599 -3.5000152588
37.8537308335 -7.4192355574 -3.5000152588
37.8399238104 -7.4281792095 -3.5000152588
38.2500238245 -7.2016187397 -3.5000152588
37.7266637049 -7.4781257319 -3.5000152588
38.4691581569 -6.9936568913 -3.5000152588
37.6493678476 -7.3248327167 -3.5000152588
38.4059585534 -6.9574232311 -3.5000152588
37.1804600933 -7.6795316426 -3.5000152588
37.1614162424 -7.7044351120 -3.5000152588
33.9482590818 -9.6189068370 -3.5000152588
33.9946513762 -9.9078964602 -3.5000152588
34.0030817877 -9.9509892777 -3.5000152588
34.0339387623 -10.0940603964 -3.5000152588
33.9019136054 -9.4173510365 -3.5000152588
33.9602106554 -9.8545807243 -3.5000152588
33.9882348590 -9.9989620453 -3.5000152588
33.9912719164 -10.0133531926 -3.5000152588
34.0006383303 -10.0564718481 -3.5000152588
33.8591608736 -9.0653350366 -3.5000152588
33.8323924968 -9.4534587566 -3.5000152588
33.8523791636 -9.7977033693 -3.5000152588
33.9062418128 -10.0774161071 -3.5000152588
37.8908201396 -7.3730700006 -3.5000152588
37.8788982358 -7.3837732185 -3.5000152588
37.6881984496 -7.5852761402 -3.5000152588
37.6616975163 -7.6187870809 -3.5000152588
37.5525519171 -7.7769516002 -3.5000152588
37.5550477140 -7.7276785965 -3.5000152588
37.4971796031 -7.7751175977 -3.5000152588
37.4050271214 -7.8946454129 -3.5000152588
37.8711532283 -7.2309954211 -3.5000152588
37.6382682210 -7.4568357469 -3.5000152588
37.4630521860 -7.6475148219 -3.5000152588
37.4961797785 -7.5574444165 -3.5000152588
37.2790553091 -7.9369008663 -3.5000152588
38.2984796498 -6.8868627156 -3.5000152588
37.9381535099 -7.0889828584 -3.5000152588
37.1713801216 -7.9436698448 -3.5000152588
37.0015767887 -8.3649054676 -3.5000152588
36.9955717751 -8.4020435070 -3.5000152588
38.3291141228 -6.7179463094 -3.5000152588
37.0940364848 -7.8777178466 -3.5000152588
40.2422941366 -3.9595118871 -3.5000152588
39.9015725044 -3.8898333110 -3.5000152588
39.7008209422 -3.8604127899 -3.5000152588
39.6720487088 -3.8568894227 -3.5000152588
39.6288525325 -3.8519236985 -3.5000152588
39.4845784289 -3.8381432472 -3.5000152588
40.4311177840 -3.9840398825 -3.5000152588
39.6749159309 -3.8328870411 -3.5000152588
40.3653181224 -3.8908796382 -3.5000152588
33.9010135927 -10.1504862925 -3.5000152588
33.8862893456 -10.1877200017 -3.5000152588
33.9131266640 -10.2798616067 -3.5000152588
33.9539950241 -10.4856297242 -3.5000152588
33.9135562676 -10.5166537034 -3.5000152588
33.9698157346 -10.7383280227 -3.5000152588
33.9363184328 -10.9117488541 -3.5000152588
37.8432158657 -7.3324437680 -3.5000152588
39.7272592972 -4.0094639949 -3.5000152588
39.5717816921 -3.9722143833 -3.5000152588
39.1880373606 -3.9151679867 -3.5000152588
39.2410278037 -3.8660640069 -3.5000152588
39.1196273991 -3.8686892355 -3.5000152588
37.7430876518 -7.4839528887 -3.5000152588
37.7992018915 -7.2944270834 -3.5000152588
37.7670676576 -7.3619310161 -3.5000152588
37.7042967220 -7.5208142805 -3.5000152588
37.8740624049 -7.1144174129 -3.5000152588
37.8624611197 -7.1326944218 -3.5000152588
37.7450310131 -7.3519951426 -3.5000152588
37.6663010506 -7.5593070123 -3.5000152588
37.7033104067 -7.3873143127 -3.5000152588
37.9364763634 -6.9435236347 -3.5000152588
37.6964210993 -7.3422650760 -3.5000152588
37.8800223321 -6.9778590091 -3.5000152588
38.1034760887 -6.6584700678 -3.5000152588
37.4629166306 -8.0624985344 -3.5000152588
37.6250119783 -7.2658453035 -3.5000152588
38.0196935497 -6.6372790881 -3.5000152588
37.7790822841 -6.9111270167 -3.5000152588
37.3425513535 -8.0415524277 -3.5000152588
37.2933086959 -8.0902467862 -3.5000152588
37.0566198204 -7.9490867049 -3.5000152588
39.1484125658 -4.0107360388 -3.5000152588
39.1712185176 -3.9851115984 -3.5000152588
38.8244593543 -3.9713611333 -3.5000152588
38.7634006275 -3.9805158045 -3.5000152588
38.6983702688 -3.9667521313 -3.5000152588
38.8919343982 -3.9135923165 -3.5000152588
38.8391224912 -3.8960980509 -3.5000152588
39.1753380622 -3.8396010959 -3.5000152588
38.6819154216 -3.8714704304 -3.5000152588
38.3465498937 -3.9432826399 -3.5000152588
38.2295453817 -3.9498945819 -3.5000152588
37.9859878248 -4.0271310972 -3.5000152588
37.9658811170 -4.0085776291 -3.5000152588
37.6240461210 -4.0929281831 -3.5000152588
37.6954651747 -7.5538108795 -3.5000152588
37.6862544742 -7.6602081742 -3.5000152588
37.7547856755 -7.1070980053 -3.5000152588
37.6386409830 -7.6465174155 -3.5000152588
37.8980940441 -6.7196951691 -3.5000152588
37.5866937653 -7.7503155791 -3.5000152588
37.5646898505 -7.6704209136 -3.5000152588
37.5611686438 -8.0603911538 -3.5000152588
37.0859666636 -6.8946289380 -3.5000152588
37.2248090038 -10.7689249410 -3.5000152588
37.0943270837 -10.7903547346 -3.5000152588
38.5466854264 -3.9943803485 -3.5000152588
37.0167654814 -10.7587744701 -3.5000152588
38.2999471663 -4.0140461892 -3.5000152588
38.2037256382 -4.0203625599 -3.5000152588
38.1209997266 -3.9983179910 -3.5000152588
38.1098701486 -4.0023803350 -3.5000152588
37.9444286635 -4.0672435681 -3.5000152588
38.5346545977 -3.8479592059 -3.5000152588
37.7181571144 -4.1163391555 -3.5000152588
37.4879478760 -3.9892640739 -3.5000152588
37.2170955182 -7.4383818352 -3.5000152588
37.2068215265 -7.2672909353 -3.5000152588
37.1920512176 -7.4749318487 -3.5000152588
37.1987579029 -7.6563097451 -3.5000152588
37.1701670758 -7.5936317348 -3.5000152588
37.1751430875 -7.1581901711 -3.5000152588
37.1496777914 -7.3483312682 -3.5000152588
37.1460264095 -7.5948821403 -3.5000152588
37.1515837088 -7.6714450293 -3.5000152588
37.1938014767 -8.0224437903 -3.5000152588
37.1555354326 -6.9347042901 -3.5000152588
37.1049032296 -7.8586660750 -3.5000152588
37.2014615642 -6.7379512244 -3.5000152588
37.0759785150 -7.8348003861 -3.5000152588
37.1375460332 -8.0868291590 -3.5000152588
37.1392930876 -8.0923278813 -3.5000152588
37.2105643978 -8.2811717183 -3.5000152588
37.0770241840 -7.9590601589 -3.5000152588
37.2003303344 -8.3175324454 -3.5000152588
37.2101414347 -8.3387369459 -3.5000152588
37.0199017059 -7.2073312534 -3.5000152588
36.9985264446 -7.4900912366 -3.5000152588
37.0142775271 -7.7495847281 -3.5000152588
37.0293810396 -7.8489471069 -3.5000152588
37.2222815551 -8.4179381924 -3.5000152588
36.9743533361 -7.5079358294 -3.5000152588
37.0314116124 -7.9761419686 -3.5000152588
37.1663852938 -8.3592976187 -3.5000152588
36.9970519233 -7.9346348392 -3.5000152588
36.9981484483 -8.0409542354 -3.5000152588
36.9459518409 -7.0711822383 -3.5000152588
36.9352901731 -7.1259400605 -3.5000152588
36.8846542364 -7.3267191315 -3.5000152588
37.1149719746 -6.4233343191 -3.5000152588
36.9206672778 -8.1217545041 -3.5000152588
36.9281814206 -8.1462818135 -3.5000152588
36.9700750641 -8.2674907137 -3.5000152588
37.0290817289 -8.5179631144 -3.5000152588
37.0382019955 -8.5353892392 -3.5000152588
37.3766248405 -4.1024542852 -3.5000152588
37.3864679476 -4.0710475899 -3.5000152588
37.3460196355 -4.0903469033 -3.5000152588
37.3358219940 -10.9026858649 -3.5000152588
37.3458979942 -10.9075857305 -3.5000152588
37.3660932582 -10.9172959349 -3.5000152588
37.3253406633 -4.0735227822 -3.5000152588
37.2950073489 -4.0884947911 -3.5000152588
37.2948856416 -10.9094360223 -3.5000152588
37.2235679526 -4.0978097368 -3.5000152588
37.2234465778 -10.9001185273 -3.5000152588
37.2536994836 -10.9157259672 -3.5000152588
37.1820870735 -4.0923503250 -3.5000152588
37.1720175421 -4.0977347645 -3.5000152588
37.1084151193 -10.9206808376 -3.5000152588
37.1171352751 -10.9530273520 -3.5000152588
36.9935147075 -10.9108754395 -3.5000152588
36.8878771597 -10.9036030467 -3.5000152588
36.8449547519 -4.0927301546 -3.5000152588
36.7683838829 -4.0844513335 -3.5000152588
36.7582927950 -4.0910596164 -3.5000152588
36.7448974822 -10.9270546237 -3.5000152588
36.6809923345 -4.0845381375 -3.5000152588
36.5929102788 -4.0866639680 -3.5000152588
36.6947663125 -10.9808664816 -3.5000152588
36.5587239492 -4.0812706669 -3.5000152588
36.5650637946 -4.0471429047 -3.5000152588
36.5345263122 -4.0688629831 -3.5000152588
36.4451469184 -4.0743460816 -3.5000152588
36.4205257333 -4.0625705310 -3.5000152588
36.3052272754 -4.0595531455 -3.5000152588
36.2801093536 -4.0485401385 -3.5000152588
37.1410915516 -7.1133792858 -3.5000152588
37.1402951888 -7.1566673404 -3.5000152588
37.2393704697 -7.7626760459 -3.5000152588
37.3028883758 -8.0334648956 -3.5000152588
37.1359116575 -7.6733452418 -3.5000152588
37.2280403507 -7.9329429288 -3.5000152588
37.0623238975 -6.9004931213 -3.5000152588
37.0868269824 -7.5746239789 -3.5000152588
37.0512851006 -6.8173957305 -3.5000152588
37.0299657272 -6.9658450377 -3.5000152588
37.0140093569 -6.7564787741 -3.5000152588
37.0451074234 -7.7914024080 -3.5000152588
37.4002537741 -8.4448931434 -3.5000152588
36.9485513561 -7.4929823610 -3.5000152588
36.9162199446 -6.8985134404 -3.5000152588
36.9117485699 -6.9350028093 -3.5000152588
36.9012462600 -6.8340321612 -3.5000152588
36.9387943088 -6.2815156497 -3.5000152588
36.9720544048 -8.2352919024 -3.5000152588
36.8946059165 -6.2031113798 -3.5000152588
36.9495463856 -4.1960333397 -3.5000152588
36.8692255425 -4.1928595527 -3.5000152588
36.4417575816 -4.1879498173 -3.5000152588
37.7506022575 -10.9583053611 -3.5000152588
37.7618180111 -10.9618953055 -3.5000152588
37.7955283027 -10.9724658507 -3.5000152588
37.8067857490 -10.9759228337 -3.5000152588
37.6004431331 -10.9581171764 -3.5000152588
37.5584513193 -10.9684763996 -3.5000152588
37.4711919094 -10.9609205572 -3.5000152588
37.4936543498 -10.9697202917 -3.5000152588
36.2615714433 -4.0880465409 -3.5000152588
37.0649623910 -10.8286175217 -3.5000152588
37.1630670777 -10.8780275119 -3.5000152588
37.2735711163 -10.9298425207 -3.5000152588
37.4081265232 -10.9876724823 -3.5000152588
36.9981229275 -10.9845662137 -3.5000152588
36.9530501368 -10.9882950517 -3.5000152588
36.7008781683 -11.0135103454 -3.5000152588
37.1869202916 -7.4504476861 -3.5000152588
37.1981201596 -7.4855886397 -3.5000152588
37.1517467064 -7.4165655848 -3.5000152588
37.2176119204 -7.6084074059 -3.5000152588
37.3045811778 -7.7916500292 -3.5000152588
37.1573700533 -7.5161404744 -3.5000152588
37.1774486879 -7.5721820529 -3.5000152588
37.1911711959 -7.6074930253 -3.5000152588
37.1453515515 -7.5549766024 -3.5000152588
37.1548278092 -7.5807044427 -3.5000152588
37.2674181709 -7.8244126960 -3.5000152588
37.0429214107 -7.2685583754 -3.5000152588
37.0944949684 -7.4788540963 -3.5000152588
37.2382638886 -7.8214946556 -3.5000152588
36.9921679781 -7.0609660874 -3.5000152588
37.0751963047 -7.5741730766 -3.5000152588
36.9195861738 -6.7917568237 -3.5000152588
36.8805945816 -7.1647817245 -3.5000152588
36.9078529458 -7.5298075069 -3.5000152588
36.8865379912 -7.5427685195 -3.5000152588
36.8296530437 -6.2511372849 -3.5000152588
37.1147197581 -8.1722189252 -3.5000152588
36.1444602580 -4.2825745185 -3.5000152588
38.3458824120 -10.9683815188 -3.5000152588
38.3817672887 -10.9730466120 -3.5000152588
38.2586043970 -10.9801446356 -3.5000152588
38.3066052215 -10.9873258586 -3.5000152588
38.2066915314 -10.9962356684 -3.5000152588
38.0819336294 -10.9979708200 -3.5000152588
38.0939793228 -11.0003419124 -3.5000152588
38.1301577496 -11.0072412457 -3.5000152588
38.1422306557 -11.0094696418 -3.5000152588
38.2269181713 -11.0240671014 -3.5000152588
38.0238546312 -11.0354377390 -3.5000152588
38.3790432007 -11.0944993750 -3.5000152588
37.8364430266 -11.0164050887 -3.5000152588
37.8849024555 -11.0285789827 -3.5000152588
37.7939590339 -11.0302537118 -3.5000152588
37.8061014859 -11.0334765438 -3.5000152588
38.2611344001 -11.1272480369 -3.5000152588
38.3731653051 -11.1424867845 -3.5000152588
37.3942071999 -10.9536551639 -3.5000152588
37.4899056763 -10.9879110229 -3.5000152588
37.5259975735 -11.0001716604 -3.5000152588
37.6227598793 -11.0312959025 -3.5000152588
37.6349061634 -11.0350251681 -3.5000152588
37.1724187257 -10.8905469932 -3.5000152588
37.5668847280 -11.0390319089 -3.5000152588
37.0108534227 -10.8433954858 -3.5000152588
37.1040501388 -10.8867536239 -3.5000152588
37.4741520384 -11.0336183967 -3.5000152588
37.1746719588 -7.5365576979 -3.5000152588
37.3605445410 -7.8577539959 -3.5000152588
36.9763768252 -7.2478603292 -3.5000152588
37.1890457395 -7.7047780446 -3.5000152588
36.7720829082 -6.7546842939 -3.5000152588
38.9191854978 -10.9836439731 -3.5000152588
38.9445791497 -10.9826850211 -3.5000152588
38.9953472111 -10.9803164941 -3.5000152588
38.7028433804 -11.0098966832 -3.5000152588
38.7156195224 -11.0100758512 -3.5000152588
38.7539503458 -11.0103865811 -3.5000152588
38.9838558445 -11.0051082668 -3.5000152588
38.5098876655 -11.0268053365 -3.5000152588
38.6382415397 -11.0325959233 -3.5000152588
38.9208669890 -11.0319607789 -3.5000152588
38.5858618841 -11.0548869332 -3.5000152588
38.2869528570 -11.0563117799 -3.5000152588
38.3752825684 -11.0894500036 -3.5000152588
38.0993339591 -11.0803693474 -3.5000152588
38.3992946550 -11.1157958381 -3.5000152588
38.9373562740 -11.1281181374 -3.5000152588
38.4104395932 -11.1409670822 -3.5000152588
37.8308584424 -11.0803220034 -3.5000152588
37.8438467305 -11.0830803524 -3.5000152588
38.6736690465 -11.1785973545 -3.5000152588
37.5922764937 -11.0474642822 -3.5000152588
37.6956925904 -11.0741084498 -3.5000152588
37.7814108802 -11.1190014311 -3.5000152588
37.3295141512 -7.4648176609 -3.5000152588
37.3191876416 -7.4909980178 -3.5000152588
37.3251595573 -7.4986162634 -3.5000152588
37.2851697834 -7.4863722233 -3.5000152588
37.2480716014 -7.4769329786 -3.5000152588
37.1019579908 -7.4335276478 -3.5000152588
37.2015443168 -7.5759781349 -3.5000152588
37.2411362137 -7.6252720556 -3.5000152588
37.1922975653 -7.6034023307 -3.5000152588
36.9734885972 -7.3036719284 -3.5000152588
37.1436666404 -7.5797296759 -3.5000152588
37.3247904988 -7.7876569488 -3.5000152588
37.3599120833 -7.8214037432 -3.5000152588
37.4704896050 -7.9168703363 -3.5000152588
37.2247591653 -7.7173945769 -3.5000152588
37.2884389688 -7.7854615085 -3.5000152588
37.5477038444 -8.0046528375 -3.5000152588
36.9828471439 -7.4231372574 -3.5000152588
37.6575765067 -8.1319216011 -3.5000152588
36.7424254912 -6.9577545292 -3.5000152588
36.7619659137 -7.0292010885 -3.5000152588
36.8237632192 -7.2067139728 -3.5000152588
36.7650416223 -7.1184797032 -3.5000152588
37.6584503625 -8.1880298741 -3.5000152588
36.8597170366 -7.3997454179 -3.5000152588
37.1644730897 -7.8659541735 -3.5000152588
37.1850497973 -7.8871804811 -3.5000152588
37.5887653836 -8.2036619043 -3.5000152588
37.0515628794 -7.7753620607 -3.5000152588
36.5514778571 -6.7162243286 -3.5000152588
37.5622717008 -8.2722331167 -3.5000152588
36.6086065774 -7.1066370985 -3.5000152588
36.6351952828 -7.2558182481 -3.5000152588
37.4367943065 -8.2508317046 -3.5000152588
37.6310913480 -8.3655158394 -3.5000152588
37.7669248591 -8.4302077854 -3.5000152588
37.7784456191 -8.4351606295 -3.5000152588
37.4292565106 -8.3324767642 -3.5000152588
37.5575614807 -8.4084650906 -3.5000152588
39.3759358713 -11.0062087642 -3.5000152588
39.4293742922 -10.9968273036 -3.5000152588
38.8925481581 -11.0861576971 -3.5000152588
38.9877495413 -11.0793173417 -3.5000152588
39.0149219566 -11.0770010131 -3.5000152588
39.2046786349 -11.0562917855 -3.5000152588
39.4739097089 -11.0131211023 -3.5000152588
39.5674741726 -10.9942588395 -3.5000152588
38.8940308347 -11.1102852115 -3.5000152588
39.0989017929 -11.0931260529 -3.5000152588
38.5512315179 -11.1428139098 -3.5000152588
39.1699047480 -11.1093860421 -3.5000152588
39.5909921355 -11.0386674359 -3.5000152588
39.6044571670 -11.0357450441 -3.5000152588
38.9660820065 -11.1537817062 -3.5000152588
39.4330260407 -11.0944177273 -3.5000152588
38.9540386552 -11.1789234341 -3.5000152588
39.2723336115 -11.1446624103 -3.5000152588
39.0673439282 -11.1935236604 -3.5000152588
39.5103082611 -11.1292000818 -3.5000152588
38.8874048914 -11.2317646820 -3.5000152588
39.5195116928 -11.1766620453 -3.5000152588
39.6770276703 -11.1681512900 -3.5000152588
33.8770226300 -4.8846633733 -3.5000152588
33.8538644879 -4.9548384489 -3.5000152588
33.8986284790 -4.7508892156 -3.5000152588
33.8784344976 -4.8067557109 -3.5000152588
33.8685857533 -4.8347775863 -3.5000152588
33.8400366256 -4.9191859473 -3.5000152588
33.8263249900 -4.9615768208 -3.5000152588
33.9551259752 -4.4187444347 -3.5000152588
33.8253909398 -4.7399794659 -3.5000152588
33.9109394730 -4.3991257151 -3.5000152588
33.6373576304 -4.6212164640 -3.5000152588
33.5648139263 -4.6786648190 -3.5000152588
33.5542128422 -4.7085444208 -3.5000152588
33.4905930043 -4.8212008464 -3.5000152588
37.3653537841 -7.5284704685 -3.5000152588
37.3062456413 -7.5081323929 -3.5000152588
37.3277438945 -7.5276546474 -3.5000152588
37.2719463217 -7.5750202787 -3.5000152588
37.4227498719 -8.1237799142 -3.5000152588
33.9256271273 -5.5116367350 -3.5000152588
33.9358919821 -5.3344244777 -3.5000152588
33.8904965101 -5.5742896804 -3.5000152588
33.8640540819 -5.7623218680 -3.5000152588
33.8362764678 -6.1002045619 -3.5000152588
33.9635572038 -5.1172659824 -3.5000152588
33.9037721808 -5.3693130086 -3.5000152588
33.8666635758 -5.4316006555 -3.5000152588
33.8472300914 -5.5395183815 -3.5000152588
