18.5616229177 -14.9309746947 -3.0000026602
18.5772893004 -14.8924914201 -3.0000026602
18.6125115885 -14.8021675912 -3.0000026602
18.5403066541 -15.0426413849 -3.0000025939
15.2895272740 -15.4661883872 -3.0000125179
14.8748524889 -15.7045011975 -3.0000124920
18.5048424628 -13.1340646500 -3.0000103394
18.5017723316 -13.0663148246 -3.0000103394
18.5739096257 -13.5582885134 -3.0000102616
18.6261276297 -13.1433985581 -3.0000102097
18.6011271486 -14.0075117776 -3.0000101838
18.6638348827 -14.3358912444 -3.0000100541
18.7734645457 -13.3822558114 -3.0000100541
10.9028502374 -17.3181568385 -3.0000098725
15.2774735426 -15.0199378725 -3.0000197502
15.3988490939 -15.0657345063 -3.0000199952
15.3337529028 -15.2057650990 -3.0000200931
15.3633972863 -15.1755347162 -3.0000200931
15.0608535006 -15.5004333054 -3.0000201911
15.3005900603 -15.3048754337 -3.0000201911
15.3498150007 -15.3909645113 -3.0000203871
15.4800083310 -15.2983664016 -3.0000204361
15.8227057919 -14.9025409516 -3.0000204850
15.4436977654 -15.4025411793 -3.0000205340
18.5879791777 -12.9801909787 -3.0000253349
18.5613706705 -12.7760184778 -3.0000253349
18.5545701957 -12.7324214400 -3.0000253349
18.5498217162 -12.7033910182 -3.0000253349
18.5291128443 -12.5875654939 -3.0000253349
18.6281494687 -13.1541743789 -3.0000253838
18.5917156628 -12.8162668393 -3.0000253838
18.5661853292 -12.6557152242 -3.0000253838
18.5384541151 -12.5105492909 -3.0000253838
18.6650295270 -13.4342473091 -3.0000254328
18.6615828468 -13.3154909408 -3.0000254328
18.6895558199 -13.5830526319 -3.0000254818
18.6111969563 -12.6326534432 -3.0000254818
18.5887970159 -12.5153953875 -3.0000254818
18.7102577798 -13.7182512130 -3.0000255308
18.7004733550 -13.1488571423 -3.0000255308
18.6451991368 -12.6875003870 -3.0000255308
18.7064691779 -12.9520824477 -3.0000255798
18.7281116192 -14.1124265178 -3.0000256288
18.7315246760 -14.0823452142 -3.0000256288
18.7433954934 -13.9618338762 -3.0000256288
18.7605712324 -13.6596221827 -3.0000256288
18.7647654125 -13.9942148173 -3.0000256778
18.7964724983 -13.9050807864 -3.0000257268
18.7768072630 -12.9288063339 -3.0000257268
18.7190622227 -12.5512792471 -3.0000257268
18.7886775174 -14.2122077827 -3.0000257757
18.8061707989 -12.3754569049 -3.0000259717
12.7900293315 -18.8105725066 -3.0000261187
12.9625908032 -18.8356013970 -3.0000261187
12.3185831078 -18.7373696619 -3.0000261677
12.1428410749 -18.7146613762 -3.0000262166
12.5934135053 -18.8243037248 -3.0000262166
11.7614739862 -18.6403604088 -3.0000263146
11.8069840267 -18.6568777098 -3.0000263146
12.0068269210 -18.7747432891 -3.0000264126
12.2100477869 -18.8338571879 -3.0000264126
15.4661000187 -15.0332226480 -3.0000215784
15.3998978102 -15.1782485522 -3.0000216418
15.4404373488 -15.1187521952 -3.0000216418
15.4156754211 -15.2799726724 -3.0000218320
15.4376680093 -15.2501299170 -3.0000218320
15.1079320884 -15.6536726163 -3.0000218954
15.4723510148 -15.2846329914 -3.0000219588
12.4558402083 -18.5840491283 -3.0000281082
12.1250108663 -18.5314602536 -3.0000281716
12.4083150998 -18.5990689503 -3.0000281716
12.4225805367 -18.6020082681 -3.0000281716
12.4940347114 -18.6160711664 -3.0000281716
13.0715531750 -18.6902632633 -3.0000281716
12.8512690101 -18.6944755716 -3.0000282350
13.0844997718 -18.7153611660 -3.0000282350
13.2599285582 -18.7237699767 -3.0000282350
13.4062584853 -18.7501904598 -3.0000282984
13.5386169637 -18.7485032539 -3.0000282984
13.3914652220 -18.7743332689 -3.0000283618
13.6131029566 -18.7701963803 -3.0000283618
12.3015805075 -18.6748580942 -3.0000284252
13.7327316788 -18.7880931738 -3.0000284252
13.8384541925 -18.8044027072 -3.0000284886
13.2862625654 -18.8453954459 -3.0000285520
13.3462287971 -18.8464938137 -3.0000285520
18.7965701791 -13.3179321965 -3.0000294395
18.5862823692 -12.1363963223 -3.0000295029
18.7765127824 -12.8021130085 -3.0000295663
18.5593084679 -11.9069435562 -3.0000296297
18.4873101805 -11.6560438431 -3.0000296931
18.8398734039 -12.6236783680 -3.0000298199
18.8259288324 -12.3557429492 -3.0000299467
18.7960346030 -11.9994599554 -3.0000301369
15.3714138279 -14.8570685720 -3.0000158045
15.3683934282 -14.9957136732 -3.0000158160
15.2077626057 -15.4789863510 -3.0000158391
15.2160459144 -15.4672078902 -3.0000158391
15.2720578997 -15.3834155466 -3.0000158391
15.4341730781 -15.1426512547 -3.0000158448
15.4907650328 -15.0166399045 -3.0000158448
15.4963079917 -15.0031951982 -3.0000158448
14.8244376074 -16.0929073329 -3.0000158736
15.7934650482 -14.8089340834 -3.0000158967
12.7309112821 -18.5104205586 -3.0000163232
12.7703098899 -18.5145958337 -3.0000163232
12.7834508018 -18.5159098731 -3.0000163232
12.9282282690 -18.5277960096 -3.0000163232
12.6829495694 -18.5779029468 -3.0000163405
13.5689715351 -18.6208173792 -3.0000163462
12.9067662566 -18.6474910228 -3.0000163520
13.3812267843 -18.6554795884 -3.0000163520
13.6948820256 -18.6580347394 -3.0000163578
13.7518697615 -18.6761214744 -3.0000163635
12.6822970344 -18.6995289198 -3.0000163693
12.9969220402 -18.7495997540 -3.0000163750
13.9708582012 -18.7435156710 -3.0000163866
14.2320428056 -18.6940212184 -3.0000163866
14.3057933685 -18.7020988068 -3.0000163923
14.0342963891 -18.7819578970 -3.0000163981
14.1177431019 -18.7667831597 -3.0000163981
14.3250668042 -18.7223888825 -3.0000163981
14.3937117841 -18.7055519951 -3.0000163981
13.6298926192 -18.8584039890 -3.0000164039
14.4820926146 -18.7073352776 -3.0000164039
12.8332381865 -18.8844003220 -3.0000164096
14.5709041498 -18.7074333624 -3.0000164096
14.7829317610 -18.6658820274 -3.0000164154
18.7751408590 -12.1843184073 -3.0000166575
18.7432877080 -11.8227272669 -3.0000166805
18.9752947485 -12.0972442681 -3.0000167093
15.4046876242 -14.8485676229 -3.0000127254
15.3537083378 -15.1398173881 -3.0000126994
15.4107115615 -14.9360061029 -3.0000126994
15.4231096254 -15.0792543380 -3.0000126476
15.5015271741 -14.9721883159 -3.0000125957
15.5776635528 -14.8442107497 -3.0000125438
15.5875720339 -14.7851512443 -3.0000125438
15.8128289423 -14.7461714680 -3.0000123104
15.8969706341 -11.8203696957 -3.0000111693
13.3152457477 -18.4914448181 -3.0000108581
13.4626521727 -18.5048416691 -3.0000108321
13.4036836803 -18.5340488506 -3.0000108062
13.5869280689 -18.5159343015 -3.0000108062
13.3439329639 -18.5624053043 -3.0000107803
13.7526200666 -18.5414076529 -3.0000107543
13.5956613853 -18.5879255977 -3.0000107284
13.8794753564 -18.5436543150 -3.0000107284
13.5135825607 -18.6456607695 -3.0000106765
13.4527395529 -18.6755885164 -3.0000106506
13.5617868500 -18.7378284184 -3.0000105728
13.4350739919 -18.7740648425 -3.0000105468
14.0309373203 -18.7100079978 -3.0000105209
13.8419438797 -18.8451610008 -3.0000104172
14.7118761017 -18.6320054429 -3.0000103912
14.4213630059 -18.7828420175 -3.0000103394
14.5582458104 -18.7643684734 -3.0000103134
15.3745827750 -15.0623004760 -3.0000138369
15.4208060130 -14.7672297729 -3.0000138225
15.4209567445 -14.7244611135 -3.0000138225
15.3867826443 -15.2672352690 -3.0000138081
15.4416410408 -14.8682636364 -3.0000138081
15.4433114175 -14.8323039591 -3.0000138081
15.4444497540 -14.7963235098 -3.0000138081
15.4528366801 -15.0216862729 -3.0000137937
15.3997854684 -15.4130019728 -3.0000137793
15.2346923122 -15.8942766726 -3.0000137649
15.4293247364 -15.4835885243 -3.0000137505
15.5659412258 -14.7161280119 -3.0000137361
15.5900387537 -14.7082987371 -3.0000137217
15.5893269554 -14.6701616979 -3.0000137217
15.7696147812 -15.3269851587 -3.0000135776
15.8639372908 -13.8420204163 -3.0000134767
15.3845292336 -11.7545725293 -3.0000129868
14.0089575791 -18.4912737747 -3.0000129436
14.0597905379 -18.5024934899 -3.0000129292
14.0931627575 -18.4930406540 -3.0000129292
14.1153637310 -18.4865743901 -3.0000129292
14.1444915140 -18.5031246278 -3.0000129148
14.1962094026 -18.5125165111 -3.0000129004
14.2185237983 -18.5054402478 -3.0000129004
14.2519159180 -18.4945786272 -3.0000129004
14.2483071934 -18.5212085186 -3.0000128860
14.3263898090 -18.4947845161 -3.0000128860
14.1036915527 -18.6157140313 -3.0000128572
14.4319808000 -18.5078548296 -3.0000128572
14.0408251870 -18.6578710789 -3.0000128428
14.1217819943 -18.6357138619 -3.0000128428
14.3189842485 -18.7778352260 -3.0000127275
14.4341334124 -18.7643849289 -3.0000127131
15.1126204132 -18.4834167032 -3.0000126987
15.4001119446 -14.9242125513 -3.0000155460
15.3900032421 -15.5248357156 -3.0000155489
15.4289418061 -15.0232619281 -3.0000155489
15.4339057782 -15.3998768184 -3.0000155518
15.4369168725 -14.7978842144 -3.0000155518
15.4155697911 -14.6540556782 -3.0000155518
15.4031956509 -14.5897968129 -3.0000155518
15.3971477925 -14.5613476637 -3.0000155518
15.4193790835 -15.7259920162 -3.0000155576
15.4689573576 -15.4940634680 -3.0000155576
15.4970729823 -14.9250914646 -3.0000155576
15.4856283669 -14.6339249901 -3.0000155605
15.3988574834 -14.2932530682 -3.0000155605
15.4860190459 -15.6576127692 -3.0000155633
15.5595329562 -14.8064232054 -3.0000155662
15.5490579246 -14.7231664197 -3.0000155662
15.5457314200 -14.7005231199 -3.0000155662
15.4823156328 -14.4022150162 -3.0000155662
15.5672808318 -14.6816834211 -3.0000155691
15.5218256347 -15.8092775884 -3.0000155720
15.5821394790 -14.6242736720 -3.0000155720
15.5735252772 -14.5784459242 -3.0000155720
15.5268539659 -14.3818934096 -3.0000155720
15.4044845342 -13.9781819632 -3.0000155749
15.3411648768 -16.4240192155 -3.0000155806
15.6385242320 -14.4260678200 -3.0000155835
15.7228963796 -15.5857608688 -3.0000155893
15.6287987543 -16.0290394398 -3.0000155922
15.3997641083 -16.6527163965 -3.0000156008
15.8062978391 -14.3040769438 -3.0000156066
15.7422989104 -13.9675232712 -3.0000156123
14.4301551175 -18.4349237870 -3.0000156930
14.4695273680 -18.4441988947 -3.0000156959
14.4893657957 -18.4354218113 -3.0000156959
14.4992654497 -18.4309892939 -3.0000156959
14.5191281087 -18.4485459463 -3.0000156988
14.5290664559 -18.4440253291 -3.0000156988
14.5389913869 -18.4394753322 -3.0000156988
14.5489028147 -18.4348959955 -3.0000156988
14.6087487706 -18.4333368275 -3.0000157017
14.6192431660 -18.4551130289 -3.0000157045
14.6589864061 -18.4356693741 -3.0000157045
14.6896502848 -18.4473580518 -3.0000157074
14.7095035506 -18.4372785920 -3.0000157074
14.7602900846 -18.4381582113 -3.0000157103
14.7914746763 -18.4489840160 -3.0000157132
14.8212425454 -18.4329171250 -3.0000157132
14.8725350731 -18.4321675575 -3.0000157161
14.9141632059 -18.4363588671 -3.0000157189
14.9560125802 -18.4400731535 -3.0000157218
15.0079987465 -18.4373694136 -3.0000157247
14.7897518833 -11.6142506734 -3.0000157247
15.0304076034 -18.4520894482 -3.0000157276
15.0403541959 -18.4460563582 -3.0000157276
14.8317818767 -11.6089293119 -3.0000157276
14.8111742140 -11.5981286379 -3.0000157276
14.7905030116 -11.5874500747 -3.0000157276
15.1255177477 -18.4500891279 -3.0000157334
15.1552822699 -18.4310577484 -3.0000157334
14.9474104836 -11.6168945960 -3.0000157334
15.1882629700 -18.4384536395 -3.0000157362
14.9901623928 -11.6133862352 -3.0000157362
15.0865879086 -11.6140039439 -3.0000157420
15.1838322346 -11.6171432831 -3.0000157478
15.7311105666 -18.4296486312 -3.0000157737
16.1241358904 -18.4391021061 -3.0000158054
16.1224762940 -11.6016839342 -3.0000158169
15.3916331096 -15.2045426154 -3.0000158218
15.4059924496 -15.1180811502 -3.0000158275
15.4326856663 -15.1360957046 -3.0000158333
15.4308850823 -15.1219533934 -3.0000158333
15.4718883055 -15.3052002308 -3.0000158391
15.4979384141 -15.3475124689 -3.0000158448
15.4365265434 -14.7816444623 -3.0000158506
15.4095168659 -14.6124014602 -3.0000158564
15.5226975035 -14.9364925892 -3.0000158621
15.4172686521 -14.5621793991 -3.0000158621
15.3959883270 -14.5062030564 -3.0000158621
15.5561546456 -14.5196823433 -3.0000158967
15.6887857095 -14.6961538203 -3.0000159140
15.5630877455 -16.8516034186 -3.0000159486
15.7844729504 -14.3060878194 -3.0000159659
15.0383201164 -18.3340988271 -3.0000160984
15.3446530107 -18.3173581845 -3.0000161388
14.2553919593 -11.5406560427 -3.0000162310
14.2438713166 -11.5370819347 -3.0000162310
14.2323401514 -11.5335419225 -3.0000162310
14.3088365402 -11.5323026828 -3.0000162367
14.4088046777 -11.5405792565 -3.0000162425
14.3972831366 -11.5365513263 -3.0000162425
14.3857497305 -11.5325574966 -3.0000162425
14.4630506588 -11.5343207256 -3.0000162483
14.5291789705 -11.5331880517 -3.0000162540
14.5176350382 -11.5288040649 -3.0000162540
14.5725478172 -11.5240363923 -3.0000162598
14.6601173956 -11.5071303592 -3.0000162713
14.5981027533 -11.3525033256 -3.0000163001
14.5458553797 -11.2301093299 -3.0000163232
15.8320398524 -11.4652318020 -3.0000164154
14.7924950587 -10.8833659998 -3.0000164212
15.4866561802 -10.8012390831 -3.0000165076
15.3202589255 -14.7271783825 -3.0000152588
15.4685793107 -15.0380351500 -3.0000152588
15.3482405661 -14.7297569573 -3.0000152588
15.2726367919 -14.5824647506 -3.0000152588
15.6763918480 -15.8207030878 -3.0000152588
15.6924978850 -15.5569529094 -3.0000152588
15.6790647462 -15.1655049875 -3.0000152588
15.5141902907 -14.4202355431 -3.0000152588
15.8715969859 -16.4944138619 -3.0000152588
13.6906377592 -11.5306980321 -3.0000152588
13.6655655762 -11.5275524565 -3.0000152588
13.7692416669 -11.5171064262 -3.0000152588
13.7566673513 -11.5152826312 -3.0000152588
13.7440876957 -11.5134960414 -3.0000152588
13.7189128045 -11.5100345391 -3.0000152588
13.6937178745 -11.5067220405 -3.0000152588
13.8988779825 -11.5135835724 -3.0000152588
13.8737009000 -11.5092062773 -3.0000152588
13.7889623272 -11.4711532601 -3.0000152588
14.0973314259 -11.5039610117 -3.0000152588
14.0594629912 -11.4956901628 -3.0000152588
14.1532472395 -11.4919816863 -3.0000152588
14.1152702931 -11.4832150877 -3.0000152588
14.2917178096 -11.4769210506 -3.0000152588
13.7382442731 -11.3662904454 -3.0000152588
14.4064835179 -11.4588215982 -3.0000152588
13.6949476901 -11.2876145070 -3.0000152588
14.4329312230 -11.4162063063 -3.0000152588
15.0138840703 -11.4208257172 -3.0000152588
14.6632592953 -11.2353768769 -3.0000152588
14.6914012111 -10.9139973067 -3.0000152588
15.4597770608 -15.0478392562 -3.0000152588
15.4844077039 -14.9881762910 -3.0000152588
15.3084004371 -14.6911036093 -3.0000152588
15.4895202029 -14.9449679932 -3.0000152588
15.7919260197 -15.5949280383 -3.0000152588
14.8712616160 -14.0262360010 -3.0000152588
15.6679995690 -14.0508742465 -3.0000152588
13.0945324322 -11.5210243816 -3.0000152588
13.0934023849 -11.4968777819 -3.0000152588
13.4603244665 -11.4702174144 -3.0000152588
13.8493387620 -11.4266020937 -3.0000152588
13.8080468176 -11.4219789677 -3.0000152588
14.1042214588 -11.4143617557 -3.0000152588
14.2097219780 -11.3843758519 -3.0000152588
14.1402160174 -11.3715487130 -3.0000152588
14.0705279414 -11.3597509971 -3.0000152588
14.2839438884 -11.3745611678 -3.0000152588
13.8492052724 -11.3049257225 -3.0000152588
14.3779168816 -11.3454724353 -3.0000152588
14.3078171267 -11.3301618841 -3.0000152588
14.0537570186 -11.2836642421 -3.0000152588
14.4394400315 -11.3349535743 -3.0000152588
13.7282299099 -11.2199543586 -3.0000152588
13.5289417556 -11.1584130931 -3.0000152588
14.3327334519 -11.2118928738 -3.0000152588
15.8055456013 -11.6665756004 -3.0000152588
15.6070525975 -15.1016279522 -3.0000152588
13.0410496539 -11.4300332825 -3.0000152588
13.0119227396 -11.4329560833 -3.0000152588
12.6640792196 -11.4814317342 -3.0000152588
12.5059879685 -11.5118746619 -3.0000152588
13.1999618867 -11.3929187940 -3.0000152588
13.1852857813 -11.3938887249 -3.0000152588
13.1706126094 -11.3949020662 -3.0000152588
12.8925502893 -11.4223894480 -3.0000152588
13.4494361189 -11.3589079172 -3.0000152588
13.4346583116 -11.3591400071 -3.0000152588
13.1689114998 -11.3707889679 -3.0000152588
12.5105450558 -11.4615467591 -3.0000152588
13.2561473177 -11.3411943540 -3.0000152588
12.9547760669 -11.3175533057 -3.0000152588
13.9747522221 -11.2820086343 -3.0000152588
12.6093135270 -11.3438860027 -3.0000152588
14.0973839894 -11.2701591065 -3.0000152588
13.2510558054 -11.2446363868 -3.0000152588
14.1605141048 -11.2533559645 -3.0000152588
14.1454209445 -11.2514850189 -3.0000152588
14.1001091808 -11.2461401845 -3.0000152588
13.8745942055 -11.2013420619 -3.0000152588
13.7678161772 -11.1951151307 -3.0000152588
13.0152831438 -11.1653813298 -3.0000152588
18.7916558836 -17.1749359888 -3.0000152588
18.7334229908 -17.6968390070 -3.0000152588
18.6325649933 -18.1163545611 -3.0000152588
18.7568324592 -17.7028666160 -3.0000152588
15.3764405327 -14.8200097666 -3.0000152588
15.1605270182 -14.5877558644 -3.0000152588
15.3732310512 -14.6576265909 -3.0000152588
14.9774851916 -14.3352266764 -3.0000152588
18.6193954845 -17.3443665812 -3.0000152588
18.6339580845 -17.2439637765 -3.0000152588
18.6480512911 -17.1288773661 -3.0000152588
18.6947188878 -16.8557586392 -3.0000152588
18.7010204288 -16.6811001339 -3.0000152588
18.6528923505 -17.4384518839 -3.0000152588
18.7259152443 -16.6230011922 -3.0000152588
18.6817484971 -17.5484707701 -3.0000152588
18.7725186543 -16.7267554917 -3.0000152588
18.7713171101 -16.4164353857 -3.0000152588
18.8448722490 -17.5958934010 -3.0000152588
13.2090354175 -11.2381521611 -3.0000152588
12.7368631570 -11.3096599256 -3.0000152588
13.4615147056 -11.1930870051 -3.0000152588
12.4513264687 -11.3491324262 -3.0000152588
12.3211752139 -11.3587109555 -3.0000152588
12.2593671556 -11.3763172242 -3.0000152588
12.9134608827 -11.2044275915 -3.0000152588
12.2302912276 -11.3344558968 -3.0000152588
15.9516142631 -15.1565099112 -3.0000152588
15.7133874464 -14.8838978007 -3.0000152588
14.9801669603 -14.4424738536 -3.0000152588
14.7837526324 -14.3754329588 -3.0000152588
14.5072588043 -14.2368544204 -3.0000152588
18.5104202648 -17.2690913768 -3.0000152588
18.5145955636 -17.2296927715 -3.0000152588
18.5171847791 -17.2034071197 -3.0000152588
18.5386450495 -17.2321335723 -3.0000152588
18.5608320407 -16.8611197454 -3.0000152588
18.5613269696 -17.2478536036 -3.0000152588
18.5665614566 -17.1947132222 -3.0000152588
18.5751423414 -17.0882652577 -3.0000152588
18.5837072311 -16.9149443453 -3.0000152588
18.5838583638 -16.6479939417 -3.0000152588
18.6083907382 -16.6607085272 -3.0000152588
18.5986830952 -16.4596445926 -3.0000152588
18.6728610245 -16.4817501866 -3.0000152588
18.6607579067 -16.3322554124 -3.0000152588
18.7247742602 -17.0156851079 -3.0000152588
18.7277673510 -16.9468581908 -3.0000152588
18.6740776369 -16.0542467458 -3.0000152588
18.6817362327 -15.7133530764 -3.0000152588
18.7153390309 -15.4565409116 -3.0000152588
11.9712139906 -11.2501983006 -3.0000152588
11.9059427816 -11.2754550697 -3.0000152588
12.2816121306 -10.8888258895 -3.0000152588
15.6388587946 -14.8484382673 -3.0000152588
15.1676421260 -14.6300786643 -3.0000152588
14.8270835391 -14.5174973364 -3.0000152588
15.8513104542 -14.9319648282 -3.0000152588
15.1968864924 -14.5889759509 -3.0000152588
15.7997635493 -14.8657302303 -3.0000152588
15.3012305565 -14.6016186982 -3.0000152588
15.9037303240 -14.9107029503 -3.0000152588
15.7584479001 -14.7804031443 -3.0000152588
15.2558097650 -14.5328705191 -3.0000152588
15.2640230046 -14.5101355685 -3.0000152588
14.8782094841 -14.4040729968 -3.0000152588
15.7391818004 -14.7113789999 -3.0000152588
14.4614185368 -14.2139077087 -3.0000152588
15.1269098054 -14.2386803558 -3.0000152588
15.9809990080 -14.3492724671 -3.0000152588
15.9658042182 -14.3399400262 -3.0000152588
18.4914464066 -16.6847466189 -3.0000152588
18.4900251291 -16.6605206534 -3.0000152588
18.5141523703 -16.6590335368 -3.0000152588
18.5125785682 -16.6346736852 -3.0000152588
18.5069928465 -16.5616559643 -3.0000152588
18.4988395159 -16.4766100701 -3.0000152588
18.5266086956 -16.5106950564 -3.0000152588
18.5188203691 -16.4374478544 -3.0000152588
18.5173959724 -16.4252539254 -3.0000152588
18.5645217557 -16.6930438218 -3.0000152588
18.5368858914 -16.3856451041 -3.0000152588
18.5373988242 -16.2228583261 -3.0000152588
18.6098744303 -16.6406185155 -3.0000152588
18.5936504982 -16.4539671149 -3.0000152588
18.6228457444 -16.5013251601 -3.0000152588
18.5551563288 -16.0543718341 -3.0000152588
18.6744896520 -16.5345943942 -3.0000152588
18.6684269488 -16.4713554506 -3.0000152588
18.6100439662 -16.0819631803 -3.0000152588
18.5733491896 -15.7229212711 -3.0000152588
18.7519402312 -16.5925985983 -3.0000152588
18.7455700512 -16.5153392710 -3.0000152588
18.5863193310 -15.5976622592 -3.0000152588
18.8010947534 -16.6020832717 -3.0000152588
18.8473842065 -16.5723391589 -3.0000152588
18.8704544523 -16.5572575915 -3.0000152588
18.8434124529 -16.3064632337 -3.0000152588
18.8073075370 -16.0836682044 -3.0000152588
18.7918960481 -16.0055063706 -3.0000152588
18.7339829634 -15.7599963825 -3.0000152588
18.6147343836 -15.3800628549 -3.0000152588
18.8856988578 -16.2600625924 -3.0000152588
18.6025016001 -15.2131908425 -3.0000152588
14.9974169176 -14.5687700305 -3.0000152588
15.8047014403 -14.6942564682 -3.0000152588
14.4146914856 -14.4544286329 -3.0000152588
14.9445589983 -14.4181353183 -3.0000152588
15.4674169692 -14.4649258966 -3.0000152588
11.7569609840 -14.5738847875 -3.0000152588
18.4821635040 -16.0525249686 -3.0000152588
11.7526083318 -14.5409655981 -3.0000152588
18.4942046924 -16.0021405559 -3.0000152588
18.4853017866 -15.9688394476 -3.0000152588
18.4822685209 -15.9577567976 -3.0000152588
11.7558931672 -14.4990803274 -3.0000152588
18.4962204114 -15.9179409669 -3.0000152588
18.4997517248 -15.8443625897 -3.0000152588
18.5194562718 -15.8261353886 -3.0000152588
18.5018481168 -15.7703237731 -3.0000152588
11.7688169093 -14.3726480859 -3.0000152588
18.5063023342 -15.7069960295 -3.0000152588
18.5089170954 -15.5035396824 -3.0000152588
18.4350819659 -14.9000731002 -3.0000152588
18.4164011578 -14.8673400707 -3.0000152588
15.0399469166 -14.9817131850 -3.0000152588
15.1797335093 -14.6203935799 -3.0000152588
14.8602636614 -14.6050655460 -3.0000152588
15.4358953623 -14.5709923800 -3.0000152588
14.9644991541 -14.5490972618 -3.0000152588
14.8412469552 -14.5583426298 -3.0000152588
15.2641488602 -14.5282382771 -3.0000152588
14.4989445389 -14.5924714101 -3.0000152588
15.9033010627 -14.6344803171 -3.0000152588
14.3360198794 -14.5874409573 -3.0000152588
14.2284879425 -14.5978241613 -3.0000152588
14.1276198341 -14.6101587640 -3.0000152588
16.1143242078 -14.6124571760 -3.0000152588
15.9048234895 -14.3805943001 -3.0000152588
15.6108639289 -14.2325989860 -3.0000152588
14.4704619350 -14.2268323852 -3.0000152588
14.4294528606 -14.2362502516 -3.0000152588
14.3662132711 -14.2270536358 -3.0000152588
18.4306629482 -15.5599383860 -3.0000152588
18.4613967306 -15.5702954032 -3.0000152588
18.4398214502 -15.5205388482 -3.0000152588
18.4485422764 -15.4808637915 -3.0000152588
18.4348922539 -15.4510891183 -3.0000152588
18.4475141249 -15.4210063580 -3.0000152588
18.4428164191 -15.4110713250 -3.0000152588
18.4502922894 -15.3707913941 -3.0000152588
18.4356653672 -15.3410055251 -3.0000152588
18.4523496336 -15.3202905149 -3.0000152588
18.4372744634 -15.2904883767 -3.0000152588
18.4638831111 -15.2894644518 -3.0000152588
18.4433586284 -15.2496238310 -3.0000152588
18.4329127272 -15.1787493925 -3.0000152588
18.4376997713 -15.1373616258 -3.0000152588
18.4458520733 -15.0539078506 -3.0000152588
18.4400684310 -15.0439793404 -3.0000152588
18.4342554437 -15.0340679828 -3.0000152588
18.4313978059 -14.9820900489 -3.0000152588
11.6035093362 -15.1785223591 -3.0000152588
11.5981242643 -15.1888341910 -3.0000152588
18.4483132373 -14.9171560067 -3.0000152588
11.6152501106 -15.1053903180 -3.0000152588
11.6040776156 -15.1259616843 -3.0000152588
18.4310525458 -14.8447096724 -3.0000152588
18.4455702752 -14.7785856026 -3.0000152588
11.6184189354 -14.8597644824 -3.0000152588
18.4288237089 -14.1176591722 -3.0000152588
14.9926808927 -14.6141397218 -3.0000152588
15.1856729231 -14.5616727398 -3.0000152588
15.0162680652 -14.5852813404 -3.0000152588
14.8974945980 -14.6092482468 -3.0000152588
15.6308616370 -14.5085100849 -3.0000152588
15.4861596998 -14.4769513777 -3.0000152588
15.3686866406 -14.4772325662 -3.0000152588
14.4966525671 -14.6599192897 -3.0000152588
15.6988305394 -14.4177009467 -3.0000152588
15.8868255951 -14.3953264979 -3.0000152588
15.6246662088 -14.2898534383 -3.0000152588
13.3978693207 -14.9026195710 -3.0000152588
16.3675505337 -14.1948941192 -3.0000152588
14.1696259328 -14.2756614403 -3.0000152588
18.3344433471 -15.0487552071 -3.0000152588
18.3420637924 -14.9307300042 -3.0000152588
18.3251962222 -14.8652509233 -3.0000152588
18.3322577754 -14.8338885558 -3.0000152588
18.3196366629 -14.8167749062 -3.0000152588
18.3386290911 -14.7216442358 -3.0000152588
18.3119572641 -14.6874243761 -3.0000152588
18.2946441375 -14.5891077981 -3.0000152588
18.3679314307 -14.2685966344 -3.0000152588
11.5406562649 -15.7446082817 -3.0000152588
11.5370821549 -15.7561289237 -3.0000152588
11.5335421406 -15.7676600883 -3.0000152588
11.5360692247 -15.6796292035 -3.0000152588
11.5248727406 -15.7142658624 -3.0000152588
11.5285980462 -15.6257956783 -3.0000152588
11.5246725198 -15.6373525106 -3.0000152588
11.5207811977 -15.6489209047 -3.0000152588
11.5385434802 -15.5254217299 -3.0000152588
11.5343209859 -15.5369495810 -3.0000152588
11.5259783938 -15.5600425036 -3.0000152588
11.5331883241 -15.4708212690 -3.0000152588
11.5288043352 -15.4823652006 -3.0000152588
11.5240366726 -15.4274524207 -3.0000152588
11.5195244309 -15.4390236142 -3.0000152588
11.5265586701 -15.2935391531 -3.0000152588
11.3904980649 -15.6583020135 -3.0000152588
11.6507995165 -14.7268464624 -3.0000152588
11.2800482636 -15.4581439371 -3.0000152588
11.4944955667 -14.9090095389 -3.0000152588
11.2621612539 -15.3674355453 -3.0000152588
11.4953618934 -14.8046920243 -3.0000152588
10.9872761064 -15.0792243723 -3.0000152588
15.1678271729 -14.5445148660 -3.0000152588
15.0452741941 -14.5544833764 -3.0000152588
15.0113487602 -14.5654076460 -3.0000152588
14.6843891640 -14.6737048716 -3.0000152588
15.0585975954 -14.4998105275 -3.0000152588
14.9480267332 -14.5359575429 -3.0000152588
14.4766271805 -14.7614184609 -3.0000152588
14.7158030236 -14.6049023453 -3.0000152588
14.6497528570 -14.6369743470 -3.0000152588
15.5240035843 -14.3590030362 -3.0000152588
15.0873769746 -14.4410751840 -3.0000152588
14.3213479286 -14.8060602318 -3.0000152588
15.7084256769 -14.3237098401 -3.0000152588
14.2156817778 -14.7631910679 -3.0000152588
14.2893807131 -14.6519960775 -3.0000152588
14.1184360294 -14.7768983652 -3.0000152588
13.9070382143 -14.9638816746 -3.0000152588
15.4839842832 -14.1929939206 -3.0000152588
16.0979673857 -14.1498472116 -3.0000152588
13.8333318363 -14.9349406590 -3.0000152588
13.7339586838 -15.0405674273 -3.0000152588
16.4047773705 -14.1805387656 -3.0000152588
13.4102389076 -14.4017436900 -3.0000152588
18.1670489521 -14.1136903208 -3.0000152588
11.5291067376 -16.3218947702 -3.0000152588
11.5275524911 -16.3344331879 -3.0000152588
11.5152826719 -16.2433314119 -3.0000152588
11.5117467112 -16.2684959530 -3.0000152588
11.5100345772 -16.2810859584 -3.0000152588
11.5083596942 -16.2936809736 -3.0000152588
11.5051217396 -16.3188855921 -3.0000152588
11.5113763545 -16.1137060845 -3.0000152588
11.5070735552 -16.1388960054 -3.0000152588
11.5049780616 -16.1515004019 -3.0000152588
11.5029198632 -16.1641109421 -3.0000152588
11.5008989782 -16.1767275157 -3.0000152588
11.4950603777 -16.2146123322 -3.0000152588
11.4860772285 -16.2778640454 -3.0000152588
11.4827460856 -16.3032007713 -3.0000152588
11.5014393408 -16.0337325789 -3.0000152588
11.4897802124 -16.0969097301 -3.0000152588
11.5011667879 -15.9152819740 -3.0000152588
11.4877557590 -15.9784761129 -3.0000152588
11.4666947217 -15.9609082723 -3.0000152588
11.4535660653 -15.7020458584 -3.0000152588
11.3446660131 -16.0847217629 -3.0000152588
11.4587870245 -15.5100568636 -3.0000152588
11.4363354768 -15.2746095572 -3.0000152588
11.2429090824 -15.9701568301 -3.0000152588
11.1967916203 -16.2527175997 -3.0000152588
11.4278822245 -15.2277588949 -3.0000152588
11.2474400119 -15.8314029446 -3.0000152588
11.4400204920 -15.1293164238 -3.0000152588
11.5575146460 -14.8037466950 -3.0000152588
11.3902918550 -14.8176024964 -3.0000152588
11.3694003034 -14.4820623793 -3.0000152588
14.7042790805 -14.8307380651 -3.0000152588
14.9972096552 -14.5651773389 -3.0000152588
14.8369647933 -14.6544418397 -3.0000152588
14.8249301785 -14.6618146106 -3.0000152588
15.3080617425 -14.4085901497 -3.0000152588
14.9989977334 -14.5372068863 -3.0000152588
14.9799154462 -14.5468593758 -3.0000152588
15.3826979356 -14.3595665355 -3.0000152588
15.2459836057 -14.4047078606 -3.0000152588
15.0362761487 -14.4654729742 -3.0000152588
15.0296935126 -14.4685616872 -3.0000152588
14.7134246588 -14.6471993825 -3.0000152588
14.4052717858 -14.8575171320 -3.0000152588
15.5849923618 -14.2346697921 -3.0000152588
14.9227065358 -14.4675630468 -3.0000152588
14.5775910135 -14.6839371402 -3.0000152588
14.2927839349 -14.9321204708 -3.0000152588
14.2824016842 -14.9427079386 -3.0000152588
15.6538534898 -14.1973569258 -3.0000152588
15.4779404329 -14.2336663717 -3.0000152588
15.3336150856 -14.2733963674 -3.0000152588
14.4979611293 -14.7148973613 -3.0000152588
14.2238006956 -14.9692070943 -3.0000152588
15.8370794991 -14.1488372130 -3.0000152588
15.2260528489 -14.2834608398 -3.0000152588
14.7554588712 -14.5059745257 -3.0000152588
14.5913797382 -14.6139894563 -3.0000152588
14.4015936332 -14.7637259806 -3.0000152588
14.2530662541 -14.9035568779 -3.0000152588
14.1554654861 -15.0088486820 -3.0000152588
15.5558018064 -14.1666023491 -3.0000152588
14.7691603493 -14.4696558736 -3.0000152588
14.4797417115 -14.6676340161 -3.0000152588
14.1728843652 -14.9531187836 -3.0000152588
15.7712813205 -14.1072180455 -3.0000152588
15.1449179920 -14.2618303888 -3.0000152588
14.4347197814 -14.6727270828 -3.0000152588
14.1395324647 -14.9539436174 -3.0000152588
15.1435217715 -14.2364881064 -3.0000152588
15.4798469993 -14.1089901815 -3.0000152588
13.8728417406 -15.2187688292 -3.0000152588
15.2382235082 -14.1261379302 -3.0000152588
16.2075303111 -13.9714491104 -3.0000152588
16.1924454335 -13.9465733803 -3.0000152588
14.3685570746 -14.5398356490 -3.0000152588
13.5681335455 -15.2516724617 -3.0000152588
14.6952797026 -14.1229625252 -3.0000152588
11.5204150819 -16.8919780629 -3.0000152588
11.5216765280 -16.9189334951 -3.0000152588
11.4919630389 -16.6625131675 -3.0000152588
11.4723475172 -16.4851644113 -3.0000152588
11.4702196214 -16.5396645779 -3.0000152588
11.4677222752 -16.6759917579 -3.0000152588
11.4517840659 -16.4156378409 -3.0000152588
11.4465338266 -16.5251656039 -3.0000152588
11.4379123331 -16.2767970551 -3.0000152588
11.4200350468 -16.7722669614 -3.0000152588
11.4282275439 -16.1368955365 -3.0000152588
11.4205222437 -16.2057150272 -3.0000152588
11.4163879457 -16.2470587758 -3.0000152588
11.3802459218 -16.3974132974 -3.0000152588
11.3836245526 -16.1033824317 -3.0000152588
11.3656822935 -16.2703287536 -3.0000152588
11.3905373306 -15.8916972645 -3.0000152588
11.3597544026 -15.9294608860 -3.0000152588
11.3004936742 -16.8308723329 -3.0000152588
11.3804228137 -15.6882402272 -3.0000152588
11.3745649925 -15.7160449681 -3.0000152588
11.3716977961 -15.7299602132 -3.0000152588
11.3660869571 -15.7578158440 -3.0000152588
11.3722245306 -15.6134819154 -3.0000152588
11.3628363978 -15.6552776005 -3.0000152588
11.2579134031 -16.4183484666 -3.0000152588
11.2636996026 -16.0883362217 -3.0000152588
11.2291180525 -16.5173209216 -3.0000152588
11.3396917906 -15.4424847954 -3.0000152588
11.2381466477 -15.9244790913 -3.0000152588
11.2684018509 -15.6345054829 -3.0000152588
11.2262157330 -15.8488522768 -3.0000152588
11.1714896979 -16.0472646779 -3.0000152588
11.1313536965 -16.8357811787 -3.0000152588
11.1353860722 -16.9381562943 -3.0000152588
11.4475238957 -14.8790053995 -3.0000152588
11.3812333695 -15.0583393355 -3.0000152588
11.1262490446 -16.2341202069 -3.0000152588
11.4985076094 -14.6926782273 -3.0000152588
11.4751683531 -14.7469943405 -3.0000152588
11.4637401470 -14.7742550083 -3.0000152588
11.4358769822 -14.8426983046 -3.0000152588
11.4304260001 -14.8564359991 -3.0000152588
11.5505628886 -14.5209852766 -3.0000152588
11.5189442695 -14.5881721347 -3.0000152588
11.6370852735 -14.2977769837 -3.0000152588
11.5884577774 -14.3902246328 -3.0000152588
14.9104745044 -14.5807781355 -3.0000152588
14.7046984165 -14.6902352956 -3.0000152588
14.6883116451 -14.6724642797 -3.0000152588
14.8931699904 -14.4731267853 -3.0000152588
14.6292152392 -14.6950215404 -3.0000152588
14.4352678753 -14.9054976858 -3.0000152588
14.8849372959 -14.4492311923 -3.0000152588
14.9755213633 -14.2433172688 -3.0000152588
13.9440085148 -15.3754000134 -3.0000152588
15.7982411703 -13.8624046769 -3.0000152588
11.4463699828 -17.1043901759 -3.0000152588
11.4482400083 -17.1189068370 -3.0000152588
11.4716401125 -17.2781929024 -3.0000152588
11.4740241673 -17.2926340494 -3.0000152588
11.3887221562 -16.7266114679 -3.0000152588
11.4074221546 -16.9759229487 -3.0000152588
11.4281574209 -17.1511888973 -3.0000152588
11.4322176023 -17.1803235567 -3.0000152588
11.4770201275 -17.5617079128 -3.0000152588
11.3390473717 -16.6993445583 -3.0000152588
11.3181857665 -16.1932574624 -3.0000152588
11.3133387100 -16.2976016393 -3.0000152588
11.3128226912 -16.3125153610 -3.0000152588
11.3205520465 -16.8047066660 -3.0000152588
11.2860601588 -16.5216023020 -3.0000152588
11.2889772802 -16.6565142222 -3.0000152588
11.2984511055 -16.8361850964 -3.0000152588
11.2496614491 -15.8696708867 -3.0000152588
11.2254606031 -16.1270560370 -3.0000152588
11.2200133311 -16.2181442142 -3.0000152588
11.3104786991 -17.4740426667 -3.0000152588
11.2394449535 -15.7607363098 -3.0000152588
11.1915405796 -16.3237871092 -3.0000152588
11.2497371637 -17.2680401110 -3.0000152588
11.1687447019 -16.6760768104 -3.0000152588
11.1699985009 -16.7067545578 -3.0000152588
11.1768279417 -16.8293752655 -3.0000152588
11.2117362404 -17.3363331628 -3.0000152588
11.2068233328 -17.4471019138 -3.0000152588
11.1376560498 -17.3328222096 -3.0000152588
17.3304936598 -11.2349155461 -3.0000152588
17.1905343431 -11.2107950377 -3.0000152588
17.7827140568 -11.3145213598 -3.0000152588
17.7061658714 -11.2939637811 -3.0000152588
17.5676453154 -11.2598217565 -3.0000152588
17.3816308508 -11.2200577784 -3.0000152588
17.2568877442 -11.1972272917 -3.0000152588
17.4700078164 -10.9418611262 -3.0000152588
14.8438416888 -14.5975433337 -3.0000152588
17.2407399237 -11.3899999570 -3.0000152588
17.8826698339 -11.4956763522 -3.0000152588
17.1720715969 -11.3569151719 -3.0000152588
17.8045442536 -11.4500675568 -3.0000152588
17.7904232400 -11.4464983476 -3.0000152588
17.9799188032 -11.4729448283 -3.0000152588
17.7679000170 -11.4160061672 -3.0000152588
17.4384499366 -11.3471082646 -3.0000152588
18.0149135776 -11.4580852354 -3.0000152588
17.8449479113 -11.4105481309 -3.0000152588
17.8022012006 -11.3996088949 -3.0000152588
17.6549189862 -11.3155060362 -3.0000152588
16.1932035221 -11.2172420568 -3.0000152588
16.8485841169 -11.1596694057 -3.0000152588
17.4187308567 -11.1966695430 -3.0000152588
17.9837794007 -11.2979833319 -3.0000152588
11.2902176169 -17.0085505437 -3.0000152588
11.2317926829 -16.7275912681 -3.0000152588
11.2510846516 -16.9016793054 -3.0000152588
11.3096603416 -17.2631399064 -3.0000152588
11.3610498929 -17.4963826748 -3.0000152588
11.3863122338 -17.6877457510 -3.0000152588
11.3900018236 -17.7868528383 -3.0000152588
11.2096382031 -17.1183954494 -3.0000152588
11.1780148332 -17.0743651313 -3.0000152588
11.1467510170 -17.0298438496 -3.0000152588
11.3452773064 -18.2516378386 -3.0000152588
14.6285859111 -15.1429311902 -3.0000152588
14.8800309538 -14.4434734801 -3.0000152588
14.4709390732 -15.1544139398 -3.0000152588
14.4841050024 -14.9808644734 -3.0000152588
17.2533754867 -11.5121823499 -3.0000152588
17.1902545207 -11.4815776056 -3.0000152588
17.1771024645 -11.4803802405 -3.0000152588
17.0454092612 -11.4705482774 -3.0000152588
17.0322252121 -11.4697794391 -3.0000152588
16.8210574613 -11.4627861229 -3.0000152588
16.7681744415 -11.4384270393 -3.0000152588
16.9816398462 -11.4187969411 -3.0000152588
16.7280692541 -11.4145276181 -3.0000152588
16.6346464797 -11.4165478431 -3.0000152588
16.4194903635 -11.4043278492 -3.0000152588
17.2931123736 -11.3949720603 -3.0000152588
16.4021405067 -11.3572283214 -3.0000152588
16.2536668430 -11.3719055548 -3.0000152588
17.0540670838 -11.3257687475 -3.0000152588
17.1921947640 -11.3118434454 -3.0000152588
16.0038947414 -11.3586513449 -3.0000152588
15.8003391324 -11.3237225185 -3.0000152588
16.2762201669 -11.1991609206 -3.0000152588
15.7079034428 -11.2947120855 -3.0000152588
16.9370841172 -11.1509561985 -3.0000152588
15.9378567097 -11.2229350774 -3.0000152588
16.6679793270 -11.1254462075 -3.0000152588
17.3571901306 -11.0860625896 -3.0000152588
11.1799239677 -17.7573433765 -3.0000152588
14.6056768003 -15.2309295427 -3.0000152588
14.5810933385 -14.9962329038 -3.0000152588
14.4351822207 -15.2258930082 -3.0000152588
16.6981410134 -11.5320368656 -3.0000152588
16.6740537428 -11.5333784864 -3.0000152588
16.6605261049 -11.5099754885 -3.0000152588
16.6000016831 -11.5141554357 -3.0000152588
16.6468579297 -11.4866171150 -3.0000152588
16.5130429987 -11.4974509878 -3.0000152588
16.4887543459 -11.4998883159 -3.0000152588
16.6943222828 -11.4596183954 -3.0000152588
16.4130697495 -11.4840647781 -3.0000152588
16.1372609799 -11.4777760277 -3.0000152588
16.3795445560 -11.4151554494 -3.0000152588
16.5241452963 -11.3507211848 -3.0000152588
15.8342502671 -11.4464589889 -3.0000152588
16.6471423441 -11.2928303002 -3.0000152588
16.1187035068 -11.3091091408 -3.0000152588
15.5728995887 -11.4215343325 -3.0000152588
16.6528181636 -11.1714054367 -3.0000152588
15.8629755713 -11.2399507399 -3.0000152588
14.9448979741 -11.4893224892 -3.0000152588
14.7247966666 -14.4372120080 -3.0000152588
14.6969274910 -14.5180789146 -3.0000152588
14.5792525502 -15.2969250754 -3.0000152588
14.5794975047 -15.3111794455 -3.0000152588
14.5561693973 -15.1820887058 -3.0000152588
14.5549442019 -15.2396723773 -3.0000152588
14.5548868799 -15.2468719025 -3.0000152588
14.6946832883 -14.3797976715 -3.0000152588
14.5240127719 -14.9682278112 -3.0000152588
14.5206407699 -14.8260267939 -3.0000152588
14.5580786711 -14.4007846041 -3.0000152588
16.1300381456 -11.5489140335 -3.0000152588
16.0914605317 -11.5331777465 -3.0000152588
16.0804320054 -11.5358481960 -3.0000152588
16.0694114269 -11.5385512582 -3.0000152588
16.0303972444 -11.5234396045 -3.0000152588
15.9972515896 -11.5320910534 -3.0000152588
15.9862202608 -11.5350401947 -3.0000152588
15.9356301092 -11.5238949795 -3.0000152588
15.9135288118 -11.5301905988 -3.0000152588
15.9024922274 -11.5333874156 -3.0000152588
15.8914651482 -11.5366168666 -3.0000152588
15.9179524789 -11.5037782166 -3.0000152588
15.8624744390 -11.5200258201 -3.0000152588
15.7369754579 -11.5091104078 -3.0000152588
15.7037141941 -11.5203663746 -3.0000152588
15.6625012838 -11.5091248171 -3.0000152588
15.6514034814 -11.5130643109 -3.0000152588
15.6403173813 -11.5170366167 -3.0000152588
15.5124079214 -11.5135723590 -3.0000152588
15.7928199233 -11.2885484419 -3.0000152588
15.1987476225 -11.4915844432 -3.0000152588
15.1436289246 -11.4913139780 -3.0000152588
15.1324807049 -11.4967884680 -3.0000152588
15.5976351570 -11.2501098962 -3.0000152588
15.5338792006 -11.2213618353 -3.0000152588
14.6828198059 -14.7642094552 -3.0000152588
14.6068574840 -15.2095470572 -3.0000152588
14.5933122370 -14.7066653983 -3.0000152588
14.5848004595 -15.2292032815 -3.0000152588
14.5270208292 -15.1303093063 -3.0000152588
14.4950943495 -14.7097461248 -3.0000152588
14.4738362350 -15.3096402910 -3.0000152588
14.4590484112 -14.6302646593 -3.0000152588
14.4386534196 -14.6076771339 -3.0000152588
14.3827350622 -14.8517492020 -3.0000152588
14.2913561671 -15.3912919273 -3.0000152588
14.2414392682 -14.6115355016 -3.0000152588
14.1902976797 -15.1664631390 -3.0000152588
14.1467830992 -15.2256452687 -3.0000152588
14.1199327305 -15.3928171848 -3.0000152588
14.1035379633 -14.5586275616 -3.0000152588
14.0692451126 -14.8299154162 -3.0000152588
14.0614581794 -15.4769211261 -3.0000152588
13.9941998098 -15.1286640699 -3.0000152588
14.0547391128 -15.5613368534 -3.0000152588
14.1073910094 -15.7544190806 -3.0000152588
14.0490765512 -14.3584954075 -3.0000152588
14.0346052314 -14.4166055106 -3.0000152588
14.0246371601 -15.5375413651 -3.0000152588
14.0295136302 -15.5594628178 -3.0000152588
14.0509589261 -15.6466900252 -3.0000152588
14.0706027794 -14.2001876860 -3.0000152588
13.9780905706 -15.4239739190 -3.0000152588
13.9832952145 -15.4537515104 -3.0000152588
14.0026370452 -15.5500674388 -3.0000152588
14.1052702595 -14.0350308496 -3.0000152588
14.0042467465 -14.3388806852 -3.0000152588
14.0715053257 -14.0546308692 -3.0000152588
13.9281982529 -15.6548519712 -3.0000152588
14.0591234360 -13.8969990615 -3.0000152588
13.8717861988 -14.3698917489 -3.0000152588
13.9914258962 -16.2404397291 -3.0000152588
14.0565990977 -13.5850564041 -3.0000152588
14.1444201500 -16.5547303094 -3.0000152588
13.9124742119 -13.6992618506 -3.0000152588
13.8220797910 -16.3342081635 -3.0000152588
14.8865295254 -18.4002799752 -3.0000152588
14.9066807303 -18.4097497488 -3.0000152588
14.8560816499 -11.5854982067 -3.0000152588
14.8359148501 -11.5952673902 -3.0000152588
14.8357933838 -18.4027068458 -3.0000152588
14.8559598349 -18.4124767489 -3.0000152588
14.8761837350 -18.4221271696 -3.0000152588
14.8354525370 -11.5686129871 -3.0000152588
14.7949787387 -11.5885157719 -3.0000152588
14.7748308613 -11.5986464080 -3.0000152588
14.8150641351 -18.4194689814 -3.0000152588
14.8147092560 -11.5518201359 -3.0000152588
14.7537928051 -11.5822243573 -3.0000152588
14.7436929434 -11.5873966380 -3.0000152588
14.7334868649 -18.4053718118 -3.0000152588
14.7637858079 -18.4208896898 -3.0000152588
14.7022450899 -11.5816919070 -3.0000152588
14.6718675544 -18.4002126408 -3.0000152588
14.7021231392 -18.4162775588 -3.0000152588
14.7122398689 -18.4215727858 -3.0000152588
14.6200686593 -18.3995390527 -3.0000152588
14.6301362325 -18.4050770850 -3.0000152588
14.6503203061 -18.4160636834 -3.0000152588
14.6705690268 -18.4269306738 -3.0000152588
14.6807174084 -18.4323191970 -3.0000152588
14.5881757287 -18.4094670443 -3.0000152588
14.5982728103 -18.4150993782 -3.0000152588
14.6083865091 -18.4207018184 -3.0000152588
14.5461130401 -11.5845850516 -3.0000152588
14.5459911928 -18.4133788424 -3.0000152588
14.5662258550 -18.4248631259 -3.0000152588
14.5239659076 -11.5694191506 -3.0000152588
14.5138291713 -11.5752713568 -3.0000152588
14.4509824692 -11.5842454969 -3.0000152588
14.4508606097 -18.4137150022 -3.0000152588
14.4609708583 -18.4197535205 -3.0000152588
14.3980509444 -11.5881096192 -3.0000152588
14.3979292229 -18.4098489910 -3.0000152588
14.4159170761 -11.5489166932 -3.0000152588
14.3348592091 -11.5991328716 -3.0000152588
14.2146570849 -11.5909996794 -3.0000152588
13.9499066920 -18.2139625405 -3.0000152588
13.4057576461 -18.4180302353 -3.0000152588
14.5286756331 -19.2203465337 -3.0000152588
14.2358825223 -10.8442646336 -3.0000152588
14.6724093529 -14.8381438270 -3.0000152588
14.6158967019 -15.2745544131 -3.0000152588
14.5929196751 -15.2820638420 -3.0000152588
14.4470815817 -14.6972756255 -3.0000152588
14.3260602201 -14.6545947570 -3.0000152588
14.0627362404 -14.7811173947 -3.0000152588
14.0638290044 -14.8024741292 -3.0000152588
14.1204066577 -15.2043399175 -3.0000152588
14.0314228461 -14.9789097121 -3.0000152588
14.0113226182 -15.0110743822 -3.0000152588
14.0968047310 -15.4754059001 -3.0000152588
13.9724009977 -15.0769540989 -3.0000152588
13.9920928032 -14.0460899024 -3.0000152588
14.2197438379 -15.8785658711 -3.0000152588
13.8992543958 -14.4612435683 -3.0000152588
13.9199431502 -15.0546107148 -3.0000152588
14.2746452722 -16.0221789054 -3.0000152588
13.9065651377 -14.2149915760 -3.0000152588
13.9251919898 -15.2172595611 -3.0000152588
14.1082802824 -15.7637449083 -3.0000152588
13.8514208336 -14.8843338828 -3.0000152588
14.2838400192 -16.1260520079 -3.0000152588
13.9241382593 -15.4923104152 -3.0000152588
13.8635165530 -13.9643773070 -3.0000152588
13.8331132786 -14.0884769402 -3.0000152588
13.9413865789 -13.4739694540 -3.0000152588
14.3602035752 -16.6485326008 -3.0000152588
14.1668819234 -16.5754120514 -3.0000152588
14.5158615383 -11.6808667151 -3.0000152588
14.4271228061 -11.6820593592 -3.0000152588
14.3957245597 -11.6743250712 -3.0000152588
14.2793749013 -11.6980689833 -3.0000152588
14.2064139311 -11.6923078820 -3.0000152588
14.0650272243 -11.7112547630 -3.0000152588
14.0322111666 -11.7068691490 -3.0000152588
13.9904967401 -11.7100901941 -3.0000152588
15.2842887614 -18.4689650908 -3.0000152588
15.2955359321 -18.4724553602 -3.0000152588
15.1757325137 -18.4589364085 -3.0000152588
15.2094200300 -18.4702710981 -3.0000152588
15.2206713917 -18.4739828370 -3.0000152588
15.2657851600 -18.4884964745 -3.0000152588
15.1679221892 -18.4818129055 -3.0000152588
15.0697056308 -18.4726242263 -3.0000152588
15.0922356520 -18.4808409606 -3.0000152588
15.1035187940 -18.4848993059 -3.0000152588
15.1261208469 -18.4929157753 -3.0000152588
15.1374395601 -18.4968738293 -3.0000152588
15.0049126244 -18.4740597940 -3.0000152588
15.0840205415 -18.5035752352 -3.0000152588
14.9736068538 -18.4878340734 -3.0000152588
14.9849112017 -18.4922433135 -3.0000152588
15.0189018124 -18.5052701236 -3.0000152588
14.9081341526 -18.4876619919 -3.0000152588
14.9307559701 -18.4968343742 -3.0000152588
14.9420871300 -18.5013703356 -3.0000152588
14.9534316585 -18.5058727576 -3.0000152588
14.8762854542 -18.5006760625 -3.0000152588
14.7437657733 -18.4959395503 -3.0000152588
14.7550951043 -18.5010286665 -3.0000152588
15.0347298786 -18.6399808828 -3.0000152588
14.3972482088 -18.4307170776 -3.0000152588
14.5434200108 -18.5076180594 -3.0000152588
14.1871864119 -18.3356023575 -3.0000152588
14.2699766217 -18.5256392440 -3.0000152588
14.0963343322 -18.5068154678 -3.0000152588
13.5771865212 -18.5329293934 -3.0000152588
14.6107170014 -14.8550795735 -3.0000152588
14.6056572633 -15.2738373497 -3.0000152588
14.4114568383 -15.0415543807 -3.0000152588
14.4773247162 -15.3416860937 -3.0000152588
14.4808242163 -15.4032710899 -3.0000152588
14.4837199473 -15.4089130151 -3.0000152588
14.1447615163 -15.3033748640 -3.0000152588
14.1858363610 -15.4020848555 -3.0000152588
13.9660952098 -14.8382627367 -3.0000152588
14.1300142507 -15.3949767313 -3.0000152588
13.8971753395 -14.6921306551 -3.0000152588
13.8687867903 -14.6499828689 -3.0000152588
14.2597819154 -15.8381793419 -3.0000152588
13.6436933533 -14.5393483419 -3.0000152588
15.8937417546 -18.4745642298 -3.0000152588
15.7706003990 -18.4820265605 -3.0000152588
15.8426635800 -18.4923721474 -3.0000152588
15.6465870045 -18.4857250741 -3.0000152588
15.6585960911 -18.4879049751 -3.0000152588
15.6706115738 -18.4900493414 -3.0000152588
15.5819374441 -18.4980041986 -3.0000152588
15.5939831375 -18.5003752910 -3.0000152588
15.6060357924 -18.5027107396 -3.0000152588
15.6180953031 -18.5050105241 -3.0000152588
15.6663997942 -18.5138526226 -3.0000152588
15.7148055275 -18.5221225410 -3.0000152588
15.4926276667 -18.5040188020 -3.0000152588
15.5772337011 -18.5217151683 -3.0000152588
15.8329956397 -18.5642438976 -3.0000152588
15.4268858185 -18.5138369301 -3.0000152588
15.4510805522 -18.5194605315 -3.0000152588
15.4631902899 -18.5222186283 -3.0000152588
15.3243547569 -18.5133054658 -3.0000152588
15.2575934381 -18.5204032759 -3.0000152588
15.2146638408 -18.5334376102 -3.0000152588
15.1034310778 -18.5506407661 -3.0000152588
15.6243386865 -18.6782307176 -3.0000152588
15.6746923623 -18.6869868151 -3.0000152588
14.7612698959 -18.5840715238 -3.0000152588
14.9347717583 -18.6479202098 -3.0000152588
14.7277556938 -18.5968210550 -3.0000152588
14.2528270955 -18.5931564943 -3.0000152588
14.4308449711 -15.0904020128 -3.0000152588
14.1756821248 -15.4313544138 -3.0000152588
16.3556689917 -18.4853734404 -3.0000152588
16.3937751728 -18.4844421806 -3.0000152588
16.4064752113 -18.4840566153 -3.0000152588
16.2283846944 -18.5102067339 -3.0000152588
16.2279212831 -18.5585505688 -3.0000152588
16.2796023116 -18.5587401912 -3.0000152588
15.7353237319 -18.5502824452 -3.0000152588
15.7740303723 -18.5548538456 -3.0000152588
16.3446126621 -18.5822867833 -3.0000152588
15.4173650764 -18.6225498829 -3.0000152588
15.2683051601 -18.6160477379 -3.0000152588
16.3634024561 -18.8720645649 -3.0000152588
16.8665256599 -18.5323017803 -3.0000152588
16.3680016116 -18.6360230197 -3.0000152588
16.0370768657 -18.6667917416 -3.0000152588
