31.3067168452 -25.9730296509 -2.8708980083
31.3192502472 -25.9746238389 -2.8708980083
31.3317883102 -25.9761809437 -2.8708980083
31.1778699286 -25.9789249691 -2.8708980083
31.2281098402 -25.9866033322 -2.8708980083
31.2406837395 -25.9884299944 -2.8708980083
31.2532629874 -25.9902194528 -2.8708980083
31.2658474738 -25.9919716917 -2.8708980083
31.0733230132 -25.9855647148 -2.8708980083
31.1236488082 -25.9944796607 -2.8708980083
31.1614604534 -26.0007747431 -2.8708980083
31.1740765660 -26.0027985043 -2.8708980083
31.2498939341 -26.0141565530 -2.8708980083
31.0058614653 -25.9972947140 -2.8708980083
31.0437027308 -26.0046349822 -2.8708980083
31.0689657868 -26.0093418016 -2.8708980083
30.8874114217 -25.9968394660 -2.8708980083
30.9126310921 -26.0024710938 -2.8708980083
30.8188258279 -26.0056032556 -2.8708980083
30.8567481923 -26.0146030329 -2.8708980083
30.8694065447 -26.0175281276 -2.8708980083
31.0167157909 -26.1471403338 -2.8708980083
31.1345804775 -26.3391700665 -2.8708980083
29.8455291504 -26.0473501645 -2.8708980083
29.9095007329 -26.0765535404 -2.8708980083
29.3252790560 -25.8214713010 -2.8708980083
30.8190608214 -26.4274054838 -2.8708980083
29.5189176716 -26.9080949098 -2.8708980083
29.6134831583 -22.6854053395 -2.8714668751
29.5789736524 -22.7671591635 -2.8714668751
29.6032145624 -22.8044593316 -2.8714668751
29.4649431059 -22.7667915913 -2.8714668751
29.2745339079 -22.4474467454 -2.8714668751
29.7664411199 -23.2068140042 -2.8714668751
29.1606227403 -22.3570596546 -2.8714668751
29.5980592977 -23.1235246382 -2.8714668751
29.4370920080 -23.0732456539 -2.8714668751
29.1344332705 -22.7188947967 -2.8714668751
31.7440222162 -25.9808700235 -2.8714668751
31.8114722628 -25.9796100335 -2.8714668751
31.7171679389 -26.0052673375 -2.8714668751
31.7442949476 -26.0050415129 -2.8714668751
31.9205339418 -25.9996626314 -2.8714668751
31.4855638758 -26.0248561341 -2.8714668751
31.5536927651 -26.0274140315 -2.8714668751
31.7172976589 -26.0294400175 -2.8714668751
31.3476575075 -26.0408249683 -2.8714668751
31.5255655222 -26.0506691216 -2.8714668751
31.7453858733 -26.1017274705 -2.8714668751
31.0515814822 -26.0823427717 -2.8714668751
31.2174521671 -26.1021544674 -2.8714668751
31.7459313361 -26.1500704493 -2.8714668751
30.8643847650 -26.1018589154 -2.8714668751
31.9019075871 -26.1941298022 -2.8714668751
31.4059394378 -26.2143304123 -2.8714668751
31.8461774575 -26.2204333238 -2.8714668751
31.8897592932 -26.2430338903 -2.8714668751
30.6084812157 -26.1485561589 -2.8714668751
31.9493593093 -26.2886418692 -2.8714668751
30.7678564207 -26.2315292917 -2.8714668751
30.9248826724 -26.2590668587 -2.8714668751
30.3945208804 -26.1695713238 -2.8714668751
31.0941673953 -26.3072576955 -2.8714668751
30.5583600902 -26.2361769956 -2.8714668751
30.2827487883 -26.1880378985 -2.8714668751
31.2052427770 -26.3681624739 -2.8714668751
30.2193028598 -26.1941207272 -2.8714668751
29.5985873325 -22.8399414290 -2.8686361313
29.3705712043 -22.5889775062 -2.8686361313
29.4052845733 -22.6384752549 -2.8686361313
29.5811619686 -22.9281444719 -2.8686361313
29.0551344409 -22.1595341398 -2.8686361313
29.2228280647 -22.4924149054 -2.8686361313
29.2308277254 -22.5057419311 -2.8686361313
29.2067496972 -22.6042635804 -2.8686361313
28.9536662204 -22.1669866971 -2.8686361313
29.3280930579 -22.9711768348 -2.8686361313
29.4570913791 -23.1132136650 -2.8686361313
28.6554429147 -21.8790679383 -2.8686361313
30.3658081196 -23.8694980536 -2.8686361313
31.8413280010 -26.0815406206 -2.8686361313
31.9871224125 -26.0686764279 -2.8686361313
32.4644008948 -25.9957575484 -2.8686361313
31.6374810073 -26.1164554753 -2.8686361313
31.6521809840 -26.1159660675 -2.8686361313
31.9163974322 -26.0997271177 -2.8686361313
32.5842350751 -25.9946598714 -2.8686361313
32.5985706159 -25.9913703267 -2.8686361313
30.9166760148 -26.2329732310 -2.8686361313
30.9467764296 -26.2362134174 -2.8686361313
30.9618336941 -26.2377667146 -2.8686361313
31.1091685581 -26.2990691650 -2.8686361313
32.5675359846 -26.1964380782 -2.8686361313
31.5676635880 -26.3357759080 -2.8686361313
31.8743196810 -26.3214776417 -2.8686361313
31.8643156292 -26.3949480736 -2.8686361313
32.2971857182 -26.3451092950 -2.8686361313
30.7706733173 -26.4098877568 -2.8686361313
26.2784481409 -19.8559439838 -2.8686361313
26.2563541769 -19.9484545668 -2.8686361313
26.2231904938 -20.1034634397 -2.8686361313
26.1894674077 -20.2906673619 -2.8686361313
26.1664548000 -20.4475048588 -2.8686361313
26.1393112671 -20.6996605989 -2.8686361313
26.2511736805 -19.8655807159 -2.8686361313
26.1124701801 -20.4887969691 -2.8686361313
26.1016343477 -20.5841536771 -2.8686361313
26.2113459942 -19.6389086820 -2.8686361313
29.0906778565 -22.4030309577 -2.8708021641
29.1780091258 -22.5203896004 -2.8708021641
29.6129243444 -22.9546336546 -2.8708021641
28.8958974368 -22.2307449059 -2.8708021641
29.8841463282 -23.2533833334 -2.8708021641
29.5572892098 -23.0645042255 -2.8708021641
29.2922780704 -22.8988914176 -2.8708021641
29.5988242127 -23.2447157715 -2.8708021641
28.7647049649 -22.5253881201 -2.8708021641
29.9663504413 -23.6484003194 -2.8708021641
26.3920395734 -20.2435496187 -2.8708021641
26.3923973496 -20.0826944860 -2.8708021641
26.3899760872 -20.0969844066 -2.8708021641
26.3807140716 -20.1542138378 -2.8708021641
26.4575094422 -19.6658350840 -2.8708021641
26.4341187661 -19.6597349566 -2.8708021641
26.2804159503 -20.6561239746 -2.8708021641
26.3537392343 -19.8970648492 -2.8708021641
26.2851741823 -20.1393311611 -2.8708021641
26.2257054199 -20.9343621164 -2.8708021641
26.2412848804 -21.3034401246 -2.8708021641
26.2568043315 -20.1649721869 -2.8708021641
26.2083923445 -21.1719851168 -2.8708021641
26.2171875585 -21.3053517626 -2.8708021641
26.1597079370 -20.6499630021 -2.8708021641
26.2682200992 -19.7254489420 -2.8708021641
26.1363565442 -20.6336858828 -2.8708021641
26.1394940690 -21.2359529352 -2.8708021641
26.1437263935 -21.2960664513 -2.8708021641
26.1461092197 -21.3261033774 -2.8708021641
26.1574162655 -21.4460943429 -2.8708021641
26.2600738687 -19.4722405822 -2.8708021641
26.2516642922 -19.5016210775 -2.8708021641
26.0567781395 -20.1974032617 -2.8708021641
32.1371251290 -26.2128975370 -2.8708021641
32.1684926846 -26.2073894507 -2.8708021641
32.1841641047 -26.2045658385 -2.8708021641
32.5324218724 -26.1542209524 -2.8708021641
32.6870088662 -26.1131614677 -2.8708021641
31.3465048045 -26.3382010951 -2.8708021641
31.4749582983 -26.3337302233 -2.8708021641
31.6833609353 -26.3199865636 -2.8708021641
31.8272583642 -26.3057822962 -2.8708021641
32.6626021927 -26.1450459025 -2.8708021641
32.7398975772 -26.1231633781 -2.8708021641
31.5083218069 -26.3562772945 -2.8708021641
32.9469131572 -26.0838750362 -2.8708021641
32.3921768814 -26.2615358788 -2.8708021641
33.2589068045 -25.9952568406 -2.8708021641
32.5356843339 -26.3028018056 -2.8708021641
33.0942922716 -26.1608933969 -2.8708021641
33.2488307954 -26.1032122502 -2.8708021641
29.6854013667 -22.8986533275 -2.8696078077
29.4559553217 -22.8396107445 -2.8696078250
30.0782874463 -23.2077915154 -2.8696078365
30.0334596441 -23.2177263013 -2.8696078423
29.9171876757 -23.2772630887 -2.8696078654
26.4925642232 -20.2049623636 -2.8696082745
26.4910558610 -20.2180823905 -2.8696082745
26.4881556034 -20.2443355434 -2.8696082745
26.4854107190 -20.2706053957 -2.8696082745
26.4759867537 -20.3758334004 -2.8696082745
26.4749839314 -20.3890017188 -2.8696082745
26.4713623114 -20.4417029292 -2.8696082745
26.4690554662 -20.4812549415 -2.8696082745
26.4677126108 -20.5076336502 -2.8696082745
26.4665258442 -20.5340198419 -2.8696082745
26.4717035797 -20.1757975588 -2.8696082803
26.4575147432 -20.3078120122 -2.8696082803
26.4529336718 -20.3607256099 -2.8696082803
26.4384307626 -20.7321191854 -2.8696082803
26.4445427558 -20.1993695291 -2.8696082861
26.3912814944 -20.8261720065 -2.8696082918
26.3892128494 -20.2608414624 -2.8696082976
26.3745352554 -21.0019646239 -2.8696082976
26.3200797938 -20.5688092568 -2.8696083091
26.2692075732 -20.7187441523 -2.8696083207
26.3133201545 -21.5181357209 -2.8696083264
26.3097485734 -21.6317626393 -2.8696083322
26.2971839809 -21.6912883015 -2.8696083379
26.1857128339 -20.3674028120 -2.8696083437
26.2199785594 -21.3915482539 -2.8696083437
26.2282373877 -21.4471966220 -2.8696083437
26.2853849050 -21.7512380694 -2.8696083437
26.3014597719 -21.9213927854 -2.8696083495
26.1547912477 -20.1799271138 -2.8696083552
26.1644380718 -21.3420535317 -2.8696083552
26.1357908147 -20.1346596248 -2.8696083610
26.1317656265 -21.2743148549 -2.8696083610
26.2115151702 -21.7530011636 -2.8696083610
26.2582689377 -21.9473493399 -2.8696083610
26.2769116385 -22.0162671011 -2.8696083610
26.1020894724 -20.2172745945 -2.8696083668
26.0986486991 -21.1914638873 -2.8696083668
26.3618587611 -22.5659352415 -2.8696083841
32.6929255897 -26.2903617196 -2.8696086031
32.9875443508 -26.2398417950 -2.8696086146
33.2492078859 -26.1875032922 -2.8696086261
30.0344525877 -23.1765183457 -2.8701816327
29.4421653472 -23.1040823759 -2.8701816903
29.2286216168 -23.0495811743 -2.8701817134
29.7449484589 -23.4002550879 -2.8701817710
29.7532743182 -23.4027839016 -2.8701817710
26.5085369641 -20.8152322066 -2.8701823243
26.4837402943 -20.8043897991 -2.8701823358
26.4844013838 -20.8165772145 -2.8701823358
26.4909873361 -20.9139952602 -2.8701823358
26.4733794494 -20.9892847336 -2.8701823474
26.4784285687 -21.0381315652 -2.8701823474
26.4825945163 -21.0747256118 -2.8701823474
26.4571559631 -21.0653014939 -2.8701823589
26.4713580314 -21.1755221795 -2.8701823589
26.4331421411 -21.0680712658 -2.8701823704
26.4510012236 -21.2035113417 -2.8701823704
26.4398373405 -21.4209869640 -2.8701823935
26.4474024347 -21.4579084098 -2.8701823935
26.4526277348 -21.4824847808 -2.8701823935
26.3395879020 -20.8246472614 -2.8701824050
26.3507085250 -20.9758435222 -2.8701824050
26.3569248250 -21.0387082801 -2.8701824050
26.3133645748 -21.2629120902 -2.8701824396
26.1859616019 -21.0304735322 -2.8701824857
26.1291005279 -21.1703270652 -2.8701825203
26.3810978856 -22.1782531487 -2.8701825203
26.0740965188 -20.8394423475 -2.8701825318
26.0802945784 -20.9331828293 -2.8701825318
26.0847073923 -20.9866847512 -2.8701825318
26.0843022729 -21.4921926813 -2.8701825664
26.3669593724 -22.4020806700 -2.8701825664
26.0263943871 -21.4475830941 -2.8701825894
26.1287144737 -21.9627408752 -2.8701826009
29.5237615496 -22.9568957751 -2.8699270878
30.2914531996 -23.0659165021 -2.8699270878
29.6640453068 -23.0198190504 -2.8699271051
29.5467158853 -23.0140381602 -2.8699271224
29.7637826171 -23.0661765950 -2.8699271224
30.4509579594 -23.1803086015 -2.8699271743
28.9414429575 -22.8934234130 -2.8699272088
28.6345553357 -22.7552057224 -2.8699272434
28.7769973951 -22.8519521467 -2.8699272434
29.5472912759 -23.2897144634 -2.8699273126
26.5253633554 -21.3755025419 -2.8699280042
26.5096767951 -21.4142891419 -2.8699280215
26.5206232649 -21.4586327363 -2.8699280215
26.5234418075 -21.4696981539 -2.8699280215
26.5057967425 -21.4979435527 -2.8699280388
26.5069657797 -21.5932578576 -2.8699280560
26.5101826275 -21.6043630874 -2.8699280560
26.5036528161 -21.6668463896 -2.8699280733
26.5105547814 -21.6890655974 -2.8699280733
26.4945677049 -21.7186190486 -2.8699280906
26.5017761337 -21.7408911009 -2.8699280906
26.5054297301 -21.7520110367 -2.8699280906
26.5091162053 -21.7631201159 -2.8699280906
26.4787997950 -21.7484026348 -2.8699281079
26.4685969337 -22.0054015250 -2.8699281771
26.4751013681 -22.3229259230 -2.8699282635
26.4702502825 -22.4227205416 -2.8699282981
26.2211850770 -22.1028281246 -2.8699283673
29.7886962369 -23.0959788249 -2.8700155265
28.9643293712 -23.0749438660 -2.8700155611
26.5693366281 -21.9400343327 -2.8700157744
26.5497066069 -22.1291812540 -2.8700157974
26.5627241442 -22.2094843182 -2.8700158032
26.5678349854 -22.3725158468 -2.8700158205
33.4072285589 -22.3008353949 -2.8700158435
33.4099697981 -22.4489140644 -2.8700158608
33.4157318361 -22.4385618152 -2.8700158608
29.6550106082 -23.0704182959 -2.8700121910
29.6634071045 -23.0943014788 -2.8700121650
29.7991394484 -23.0855328648 -2.8700121650
30.1568316843 -23.0270256938 -2.8700121650
30.0430344015 -23.0759232012 -2.8700121391
29.5420573825 -23.1443650146 -2.8700121132
29.4952066432 -23.1676829044 -2.8700120872
30.5508703396 -22.9773257925 -2.8700120872
29.6357126832 -23.1919271036 -2.8700120613
30.2096508268 -23.1136737276 -2.8700120613
30.3155975402 -23.0848455041 -2.8700120613
30.5161392617 -23.0169803120 -2.8700120613
30.6465478240 -22.9629370256 -2.8700120613
30.2231889575 -23.1351942516 -2.8700120354
30.4430140836 -23.0694007605 -2.8700120354
30.4579550836 -23.0641715645 -2.8700120354
30.6636172798 -22.9817797328 -2.8700120354
30.6149498098 -23.0293308168 -2.8700120094
30.7054432191 -23.0158666485 -2.8700119835
28.9071745725 -23.2341145520 -2.8700119316
29.6880361832 -23.3110328133 -2.8700119316
30.6355469946 -23.0993327345 -2.8700119316
31.0634833847 -22.8748578110 -2.8700119316
31.1046617513 -22.8479239384 -2.8700119316
30.2848768510 -23.2440545591 -2.8700119057
31.1523144526 -22.8448348001 -2.8700119057
29.0342387233 -23.3113371256 -2.8700118797
29.9476846953 -23.3361808891 -2.8700118797
30.8360621840 -23.0602367768 -2.8700118797
29.6070964040 -23.3859235730 -2.8700118538
30.5223566950 -23.2721411025 -2.8700118019
28.8642940421 -23.3729241450 -2.8700117760
30.5131232143 -23.3519851087 -2.8700117241
30.6204807270 -23.3135175445 -2.8700117241
29.8915401050 -23.5135432982 -2.8700116982
30.1015540324 -23.4830082523 -2.8700116982
30.0378189640 -23.5917643867 -2.8700115945
29.9219144550 -23.7047451306 -2.8700114907
29.7463396165 -23.7679792823 -2.8700114389
26.6541295564 -22.5211191429 -2.8700111276
26.6519423703 -22.5606538435 -2.8700111017
26.6699766469 -22.5864405923 -2.8700111017
26.6563325854 -22.6090004428 -2.8700110758
26.6624615736 -22.6176005976 -2.8700110758
26.6686159758 -22.6261825841 -2.8700110758
26.6746476973 -22.7955023943 -2.8700109720
26.5444730541 -22.7019497495 -2.8700109202
26.6726696974 -22.9092270426 -2.8700108942
26.6796867387 -22.9177775556 -2.8700108942
26.6892257457 -23.0413494052 -2.8700108164
26.6966335564 -23.0498503644 -2.8700108164
26.7139619734 -23.2833377201 -2.8700106608
33.4714236710 -21.7973078752 -2.8700105052
33.4787855401 -21.7741838549 -2.8700105052
33.4824151387 -21.7626056126 -2.8700105052
33.4868930214 -21.8279252328 -2.8700104793
33.4906815612 -21.8163227719 -2.8700104793
33.4740156018 -21.9399746650 -2.8700104533
33.4781356605 -21.9284098077 -2.8700104533
33.4942732494 -21.8820300191 -2.8700104533
33.4841363400 -21.9829430991 -2.8700104274
33.4849472365 -22.0494090956 -2.8700104015
33.4938003844 -22.0262006531 -2.8700104015
33.4981754285 -22.0145768915 -2.8700104015
33.4846441040 -22.1162125363 -2.8700103755
33.4938924888 -22.0930047181 -2.8700103755
33.4880570888 -22.1717417933 -2.8700103496
33.4928626951 -22.1601343846 -2.8700103496
33.5478383337 -22.0197697779 -2.8700103496
33.4907014212 -22.2275710080 -2.8700103237
33.4956721688 -22.2159555326 -2.8700103237
33.5006085341 -22.2043254037 -2.8700103237
33.5028095935 -22.2604320837 -2.8700102977
33.4989614274 -22.3284626742 -2.8700102718
33.5048651516 -22.3734854802 -2.8700102458
33.4991018365 -22.4420520673 -2.8700102199
33.6367847725 -22.1913652654 -2.8700101940
33.7163447913 -22.2522716784 -2.8700100902
33.6589174746 -22.6096797614 -2.8700099865
33.5173570243 -23.0986210743 -2.8700098568
33.5231814121 -23.3064593154 -2.8700097272
30.6248660570 -22.9031781182 -2.8700078747
29.8126615243 -23.2584770028 -2.8700078084
30.3375387645 -23.1628208204 -2.8700076096
26.7639182991 -23.2247652609 -2.8700053561
33.4864874676 -21.2440868170 -2.8700033678
33.4882368426 -21.2315019321 -2.8700033678
33.4916238696 -21.2063169129 -2.8700033678
33.4932614920 -21.1937169989 -2.8700033678
33.4948618343 -21.1811122957 -2.8700033678
33.5030143090 -21.2980195698 -2.8700033015
33.5139063291 -21.2221338500 -2.8700033015
33.5269106997 -21.3016661842 -2.8700032353
33.5147976442 -21.5088595388 -2.8700031690
33.5247026005 -21.4581362059 -2.8700031690
33.5317370659 -21.4200187350 -2.8700031690
33.5251974953 -21.5772161828 -2.8700031027
33.5330570751 -21.7536008987 -2.8700029701
33.6095860270 -21.5279521287 -2.8700029039
33.5667897338 -22.0685868914 -2.8700026387
33.7668234914 -21.7142038494 -2.8700023736
33.8232759029 -21.6845927314 -2.8700022411
33.8468534148 -21.6899252931 -2.8700021748
33.9622022507 -21.6135430927 -2.8700019097
29.6803366604 -23.2981732063 -2.8700121132
29.9336690510 -23.2065543704 -2.8700121132
29.6008583597 -23.4209914802 -2.8700120094
33.5079827566 -20.7696653714 -2.8700099865
33.5065845071 -20.6882944877 -2.8700099865
33.5048500922 -20.6340665573 -2.8700099865
33.5043162382 -20.6205130780 -2.8700099865
33.5037422929 -20.6069612372 -2.8700099865
33.5312709291 -20.9058117449 -2.8700099606
33.5319596438 -20.8649111701 -2.8700099606
33.5482236924 -21.0843600035 -2.8700099346
33.5504962552 -21.0433019514 -2.8700099346
33.5633041510 -21.2094753835 -2.8700099087
33.6045359909 -20.7550127605 -2.8700098828
33.5906448794 -21.4074168096 -2.8700098568
33.6051929001 -21.4798234256 -2.8700098309
33.6207983942 -21.5388967818 -2.8700098050
33.6760838996 -20.6979462307 -2.8700098050
33.6472263134 -21.6724019150 -2.8700097531
33.7204476734 -20.5832410534 -2.8700097531
33.6402186144 -21.8307699947 -2.8700097272
33.6491115244 -21.7888661467 -2.8700097272
33.6513452259 -21.8919182192 -2.8700097012
33.7720024515 -20.6670216161 -2.8700097012
33.6781091859 -21.8832584813 -2.8700096753
33.7055363618 -22.2528269585 -2.8700095456
33.6595349227 -22.4715650624 -2.8700095197
33.9175972399 -21.3146771964 -2.8700095197
33.5431535722 -23.0071731054 -2.8700094159
33.5045084263 -23.1403546615 -2.8700093900
33.7155675962 -22.6685324190 -2.8700093900
30.2303864158 -22.9931670895 -2.8700200342
30.2039482368 -23.0447161281 -2.8700200832
30.5132023570 -22.7986811796 -2.8700201322
30.5236899720 -22.7875994846 -2.8700201322
30.1965866395 -23.1108830483 -2.8700201812
30.5853189234 -22.7922286896 -2.8700202302
29.7893885385 -23.4124048233 -2.8700202791
30.8096572096 -22.5521317967 -2.8700202791
30.9580032453 -22.4597994181 -2.8700204261
31.0156111467 -22.3628169357 -2.8700204261
29.6371136636 -23.5834110050 -2.8700204751
29.6899681721 -23.5623272083 -2.8700204751
30.0039827186 -23.4092774310 -2.8700204751
31.0868240053 -22.3841330358 -2.8700205731
31.1667714807 -22.2299340356 -2.8700205731
29.6554979394 -23.6540429128 -2.8700206221
30.7054595346 -22.9471520094 -2.8700206221
30.7670511734 -22.8791093414 -2.8700206221
29.5453315512 -23.7191886397 -2.8700206710
30.7629038812 -22.9202262031 -2.8700206710
29.5207116081 -23.7526686515 -2.8700207200
30.7407696120 -22.9801753279 -2.8700207200
30.4251571975 -23.3320174233 -2.8700208180
30.9964215985 -22.7477342304 -2.8700208180
33.5980880979 -20.5826447479 -2.8700249820
33.5895368221 -20.4948124361 -2.8700249820
33.5737905406 -20.3633831087 -2.8700249820
33.5117665732 -20.0010337793 -2.8700249820
33.6394755674 -20.8755583029 -2.8700250310
33.6321161558 -20.7131561536 -2.8700250310
33.6652436534 -20.9490947087 -2.8700250800
33.6499729140 -20.6227843366 -2.8700250800
33.5737729032 -20.0639088070 -2.8700250800
33.6890784068 -21.1128924648 -2.8700251290
33.6885788579 -20.9039908688 -2.8700251290
33.6532121749 -20.4130110103 -2.8700251290
33.7273006078 -21.3545937454 -2.8700252269
33.7308979713 -21.2944388922 -2.8700252269
33.7347406284 -21.5522423369 -2.8700252759
33.7523922208 -21.3410734735 -2.8700252759
33.7581752293 -20.8115404799 -2.8700252759
33.7484953667 -21.6454234540 -2.8700253249
33.7624222227 -20.5223128954 -2.8700253249
33.7561962822 -21.7695097229 -2.8700253739
33.8036237587 -20.7485126065 -2.8700253739
33.8010068807 -20.7027469329 -2.8700253739
33.8237844461 -21.3609367296 -2.8700254229
33.8042289336 -20.4565469203 -2.8700254229
33.7369365143 -20.0166007211 -2.8700254229
33.7767039713 -21.9439525047 -2.8700254719
33.7994682241 -21.8070271311 -2.8700254719
33.8292838667 -21.5776274563 -2.8700254719
33.7920587110 -21.9939460813 -2.8700255209
33.8829061041 -21.0854485537 -2.8700255209
33.8505820680 -20.4358926671 -2.8700255209
33.9225819987 -20.7109212934 -2.8700256188
33.9324024991 -21.7315376310 -2.8700257168
27.8840340744 -26.3249188801 -2.8700257658
28.1674257527 -26.3579222064 -2.8700257658
27.3803852987 -26.2527022260 -2.8700258148
27.5824826198 -26.2974695138 -2.8700258148
27.6137215339 -26.3036657064 -2.8700258148
27.1121179195 -26.2056788343 -2.8700258638
27.3126056808 -26.2607949461 -2.8700258638
26.7917786748 -26.1514149193 -2.8700259618
27.0604924762 -26.2659361914 -2.8700260107
26.8287885793 -26.2414801185 -2.8700261087
27.1564211581 -26.3441876126 -2.8700261087
30.4356830944 -22.4901242037 -2.8700208603
30.1119494888 -23.2149209252 -2.8700214309
30.1394468008 -23.2228713487 -2.8700214943
30.2017992889 -23.1655458794 -2.8700214943
30.6026543114 -22.6796831550 -2.8700214943
30.6109075645 -22.6666807525 -2.8700214943
30.2296853422 -23.1723344364 -2.8700215577
30.3279149481 -23.0727537288 -2.8700215577
30.5491218331 -22.8021997094 -2.8700215577
30.0328410490 -23.3742310975 -2.8700216211
29.6764227646 -23.6345853559 -2.8700216845
30.8602879962 -22.4096793840 -2.8700217479
29.6851071158 -23.6847553564 -2.8700218113
30.3367516640 -23.2368018897 -2.8700218747
29.5755588131 -23.7931151265 -2.8700219381
29.9878136144 -23.5570325357 -2.8700219381
31.0517678011 -22.3313091498 -2.8700221283
31.1402619493 -22.1566091590 -2.8700221916
29.3319699596 -24.0456800064 -2.8700223184
30.0046222841 -23.7493437753 -2.8700223818
31.3100205110 -21.7648944981 -2.8700223818
27.1531744088 -26.0389930562 -2.8700275803
27.4368736798 -26.1049244467 -2.8700275803
27.7961644387 -26.1635653283 -2.8700275803
28.1006396834 -26.1921932245 -2.8700275803
27.0622969754 -26.0392132809 -2.8700276437
27.0763868061 -26.0431765013 -2.8700276437
27.2179061443 -26.0805097949 -2.8700276437
27.4321005339 -26.1286215428 -2.8700276437
27.5719213415 -26.1792242233 -2.8700277071
27.6299711419 -26.1887868683 -2.8700277071
28.3323687340 -26.2737942846 -2.8700277705
28.4653812433 -26.2740662121 -2.8700277705
27.4569331372 -26.2320548443 -2.8700278973
28.9424532330 -26.2944534474 -2.8700278973
28.1065196810 -26.3378636992 -2.8700279607
28.9897177307 -26.3135365015 -2.8700279607
28.1652517977 -26.3652349288 -2.8700280241
28.8425884324 -26.3525923789 -2.8700280241
28.9475649288 -26.3425285105 -2.8700280241
33.7528634638 -20.6299457696 -2.8700287849
33.7214418643 -20.4092546043 -2.8700287849
33.8028072064 -20.8976848378 -2.8700288483
33.7859044061 -20.7064973330 -2.8700288483
33.7528337618 -20.4527427010 -2.8700288483
33.7231492123 -20.2793246870 -2.8700288483
33.7109580373 -20.2165161749 -2.8700288483
33.6946753825 -20.1382156005 -2.8700288483
33.7556000842 -20.3222687772 -2.8700289117
33.6191860019 -19.7439658035 -2.8700289117
33.5764974829 -19.6058139972 -2.8700289117
33.6731615442 -19.8458272538 -2.8700289751
33.5636010224 -19.4912592263 -2.8700289751
33.8488518649 -20.6183013988 -2.8700290384
33.7852247348 -20.2181760656 -2.8700290384
33.8211611550 -20.2774679556 -2.8700291018
33.7155134437 -19.8174298935 -2.8700291018
33.5301811219 -19.2616670064 -2.8700291018
33.8419341070 -20.2569968826 -2.8700291652
33.5586421727 -19.2680348127 -2.8700291652
33.7344342108 -19.6240505212 -2.8700292920
33.8508909679 -19.7628307869 -2.8700294822
30.5197464752 -22.3728379757 -2.8700152478
30.1558670492 -23.2780827374 -2.8700152824
30.1891990542 -23.2766660292 -2.8700152881
30.3591343867 -23.0578156418 -2.8700152881
30.4955747367 -22.8879321561 -2.8700152939
30.6224545114 -22.6387182845 -2.8700152939
30.0231645539 -23.5506963746 -2.8700153054
30.1369491820 -23.4406799201 -2.8700153054
30.3536280234 -23.1888597274 -2.8700153054
30.9765768864 -21.8774175738 -2.8700153285
30.7088049575 -22.9528819514 -2.8700153458
27.6784289486 -26.0043070953 -2.8700157319
27.6915398349 -26.0058929463 -2.8700157319
27.7571614786 -26.0132400658 -2.8700157319
27.7834393577 -26.0159070120 -2.8700157319
27.8491990610 -26.0218938067 -2.8700157319
27.9018660897 -26.0259825465 -2.8700157319
28.0073268452 -26.0322891398 -2.8700157319
28.0205190685 -26.0329019289 -2.8700157319
27.7546495602 -26.0372822277 -2.8700157377
27.7810697247 -26.0399636145 -2.8700157377
27.7654168731 -26.0626919475 -2.8700157434
28.0050121232 -26.0805797516 -2.8700157434
28.4186998127 -26.0814255946 -2.8700157434
27.6829381253 -26.0779000858 -2.8700157492
27.6962666933 -26.0794722758 -2.8700157492
28.3795268266 -26.1071601665 -2.8700157492
28.5555054068 -26.1218237321 -2.8700157550
27.7580945140 -26.1348404096 -2.8700157607
27.8121043572 -26.1399992338 -2.8700157607
28.2727348690 -26.1579830650 -2.8700157607
28.7058759248 -26.1325727063 -2.8700157607
27.8507074318 -26.1675436315 -2.8700157665
28.7626326708 -26.1505227068 -2.8700157665
27.6714691792 -26.1739096050 -2.8700157722
28.8470551816 -26.1641414249 -2.8700157722
28.8093400243 -26.1934953309 -2.8700157780
29.0137164891 -26.1628528921 -2.8700157780
27.6794893697 -26.2235368154 -2.8700157838
27.9139453995 -26.2448818039 -2.8700157838
28.1076361851 -26.2535918070 -2.8700157838
28.1214826227 -26.2539068947 -2.8700157838
28.2876731920 -26.2544925080 -2.8700157838
27.8429382365 -26.2639231113 -2.8700157895
29.1041242204 -26.1955492999 -2.8700157895
29.1451116916 -26.1875306887 -2.8700157895
27.6461084475 -26.2682388182 -2.8700157953
27.7270184575 -26.3017460084 -2.8700158011
29.2975289010 -26.2288361795 -2.8700158068
29.4409047006 -26.2183406631 -2.8700158126
28.0891905878 -26.4223844153 -2.8700158241
27.7001170865 -26.4204369450 -2.8700158299
29.0223019027 -26.3820612554 -2.8700158299
29.0791484757 -26.3722440835 -2.8700158299
27.6687221506 -26.4412888796 -2.8700158356
27.8563000475 -26.4589257023 -2.8700158356
29.4575094979 -26.3389209161 -2.8700158414
27.7506149230 -26.4984523125 -2.8700158472
30.3530629783 -26.0647474843 -2.8700158529
33.8761016162 -20.1059223774 -2.8700160604
33.8200651976 -19.7426546727 -2.8700160719
30.4216622153 -22.7394056233 -2.8700122428
28.3031354388 -25.9921226660 -2.8700105052
28.3515871617 -25.9892801913 -2.8700105052
28.4869605426 -26.0025690659 -2.8700104793
28.5381499602 -26.0215806203 -2.8700104533
28.6633127505 -26.0303776224 -2.8700104274
28.9381353683 -26.0813862836 -2.8700103237
29.0615555130 -26.0543848846 -2.8700103237
29.1041438305 -26.0690594077 -2.8700102977
28.3381047742 -26.4017713230 -2.8700100643
29.5904887813 -26.1509843868 -2.8700100643
28.9296480643 -26.4523818476 -2.8700099346
30.5063734222 -22.7861775582 -2.8700133832
30.6143286639 -22.2234331450 -2.8700133544
30.5898363389 -22.7408812234 -2.8700133400
30.4237128556 -23.3945171877 -2.8700133112
30.4879137434 -23.2498492650 -2.8700133112
30.2840757164 -19.2377905999 -2.8700126628
30.2751925033 -19.2310804796 -2.8700126628
30.3253746697 -19.2389415191 -2.8700126484
30.3668310289 -19.2405907178 -2.8700126340
28.9252825637 -25.9876468660 -2.8700126052
28.9363725916 -25.9849267681 -2.8700126052
28.9585282650 -25.9793882132 -2.8700126052
28.9978389017 -25.9942152119 -2.8700125908
29.0200484529 -25.9883128390 -2.8700125908
29.0422226950 -25.9822791704 -2.8700125908
28.9927914734 -26.0205155204 -2.8700125763
29.0486384481 -26.0055852510 -2.8700125763
29.0597810011 -26.0025001656 -2.8700125763
29.1264402376 -25.9832987063 -2.8700125763
30.5252762549 -19.2447770270 -2.8700125763
29.1778564624 -25.9929267691 -2.8700125619
28.9709043579 -26.0759793651 -2.8700125475
29.1961998658 -26.0125231868 -2.8700125475
29.2296556621 -26.0018593153 -2.8700125475
29.3567077192 -26.0097133814 -2.8700125187
29.4740998707 -26.0176495783 -2.8700124899
29.4964397321 -26.0089290755 -2.8700124899
29.5075902175 -26.0045192983 -2.8700124899
30.7800548551 -19.2768867422 -2.8700124899
29.5500849296 -26.0134780505 -2.8700124755
29.5928557738 -26.0219774972 -2.8700124611
29.4169864685 -26.1421822305 -2.8700124323
30.7684890083 -19.0711074015 -2.8700124034
29.5342479294 -26.2793090402 -2.8700123314
30.2308711533 -26.1942504055 -2.8700122017
30.7708278697 -26.0495138163 -2.8700121009
29.7221184325 -27.0342883943 -2.8700118703
30.5225186477 -23.1033675868 -2.8700152134
30.5835666347 -22.3037914757 -2.8700152162
30.5660753470 -22.1740738918 -2.8700152162
30.9130473112 -22.5538017364 -2.8700152537
29.4400573720 -25.9306616592 -2.8700153401
29.4695311827 -25.9441941263 -2.8700153430
29.4893696104 -25.9354170430 -2.8700153430
29.5588044674 -25.9302825907 -2.8700153459
29.5690404619 -25.9521814422 -2.8700153488
29.5789893594 -25.9475131706 -2.8700153488
29.5988455079 -25.9380884378 -2.8700153488
29.6087525853 -25.9333320592 -2.8700153488
29.6688898649 -25.9307303187 -2.8700153517
29.7095073653 -25.9372738236 -2.8700153546
29.7602938993 -25.9381534429 -2.8700153574
29.8212463601 -25.9329123566 -2.8700153603
29.9240675878 -25.9306649496 -2.8700153661
30.0502867126 -25.9399891025 -2.8700153747
30.0828397087 -25.9483134970 -2.8700153776
29.9474142983 -19.1168898276 -2.8700153805
29.9371415114 -19.1111321650 -2.8700153805
30.0125304394 -19.0983683468 -2.8700153863
30.4738334817 -22.4387914567 -2.8700154977
30.4708648366 -22.4244091149 -2.8700154977
30.4693486179 -22.4172245933 -2.8700154977
30.5321522653 -22.3652440002 -2.8700155150
30.6567397245 -23.1831698664 -2.8700155323
30.4997238792 -21.9400679989 -2.8700155381
30.6941305220 -23.4350963601 -2.8700155496
30.5578061398 -21.8905274232 -2.8700155554
30.3930758871 -21.5588017643 -2.8700155554
30.8377292564 -22.9597617341 -2.8700155727
30.7737247878 -22.2331280624 -2.8700155784
30.8609939724 -22.4033726254 -2.8700155899
30.3738242467 -21.1810745122 -2.8700156015
29.9903803226 -25.8374558745 -2.8700157398
30.0468856048 -25.8281827666 -2.8700157456
30.0606514716 -25.8480532521 -2.8700157513
30.0864381643 -25.8300188952 -2.8700157513
30.1175981929 -25.8375338715 -2.8700157571
30.1661062529 -25.8322612010 -2.8700157628
30.2233263714 -25.8198026239 -2.8700157686
29.2553852836 -19.0406598574 -2.8700158781
29.3203643609 -19.0360728052 -2.8700158839
29.3972764609 -19.0365551410 -2.8700158896
29.3857430548 -19.0325613113 -2.8700158896
29.3626410517 -19.0246760925 -2.8700158896
29.4283861888 -19.0218619298 -2.8700158954
29.4168091814 -19.0177761361 -2.8700158954
29.5407032080 -19.0376099830 -2.8700159012
29.5176283625 -19.0288078796 -2.8700159012
29.6071739282 -19.0377820260 -2.8700159069
29.5609699472 -19.0195279674 -2.8700159069
29.6161888971 -19.0153529017 -2.8700159127
29.7180041589 -19.0315047581 -2.8700159185
29.6948900897 -19.0216537896 -2.8700159185
29.7507339649 -19.0193396341 -2.8700159242
29.7275473500 -19.0092952380 -2.8700159242
29.9199325584 -19.0170843685 -2.8700159415
29.7095037104 -18.8184072828 -2.8700159646
30.5026327615 -19.1797697597 -2.8700159761
30.4305094513 -18.9914208476 -2.8700160049
30.4478471853 -22.3369838915 -2.8700149059
30.7729526552 -23.2062044590 -2.8700149059
30.7162277997 -22.7205897160 -2.8700149059
30.4377824232 -21.9815841917 -2.8700149059
30.7148222453 -22.6086601901 -2.8700149059
30.8214569294 -23.2130007214 -2.8700149059
30.7039090106 -22.4807758011 -2.8700149059
30.7293503088 -22.4813108060 -2.8700149059
30.9300450815 -22.8115700310 -2.8700149059
30.8429184887 -22.2871716138 -2.8700149059
30.9166245885 -22.3521973846 -2.8700149059
30.9284704072 -22.3116328626 -2.8700149059
30.7646242779 -25.6580717672 -2.8700149059
28.7156880320 -19.0340042858 -2.8700149059
28.6906348981 -19.0307104298 -2.8700149059
28.6655627151 -19.0275648543 -2.8700149059
28.7566644903 -19.0152950290 -2.8700149059
28.7189099435 -19.0100469368 -2.8700149059
28.6811103095 -19.0051341018 -2.8700149059
28.8736980390 -19.0092186751 -2.8700149059
28.8484954997 -19.0049904126 -2.8700149059
28.7474484294 -18.9895705714 -2.8700149059
28.7221318549 -18.9860895879 -2.8700149059
28.9788776720 -19.0038955708 -2.8700149059
28.9536417986 -18.9990451235 -2.8700149059
28.9157352862 -18.9920496081 -2.8700149059
29.0594601301 -18.9957025605 -2.8700149059
28.8818383317 -18.9615628594 -2.8700149059
29.1279350402 -18.9861122331 -2.8700149059
28.9626266130 -18.9515412895 -2.8700149059
29.2222505846 -18.9839081774 -2.8700149059
29.3044004035 -18.9803401872 -2.8700149059
29.2663140830 -18.9702326226 -2.8700149059
29.2408740177 -18.9636821941 -2.8700149059
28.8162505961 -18.8774996109 -2.8700149059
29.4573673605 -18.9740451244 -2.8700149059
28.7315231455 -18.8166378537 -2.8700149059
28.7051837217 -18.8132541162 -2.8700149059
29.4644274126 -18.9509260642 -2.8700149059
29.4516542451 -18.9470460652 -2.8700149059
29.0244058437 -18.8403989640 -2.8700149059
28.9982018726 -18.8352820182 -2.8700149059
29.5482895674 -18.9520078664 -2.8700149059
28.8113007302 -18.7301082402 -2.8700149059
29.9181575225 -18.9331295411 -2.8700149059
29.8667544286 -18.9124689938 -2.8700149059
29.3603009511 -18.7200277665 -2.8700149059
29.2929183293 -18.7025714566 -2.8700149059
29.1845905921 -18.6767197985 -2.8700149059
29.0255203140 -18.6190144520 -2.8700149059
30.3035369927 -19.0299449450 -2.8700149059
29.5014744162 -18.6844106656 -2.8700149059
29.2807708594 -18.5750964026 -2.8700149059
30.4213678134 -22.2300624037 -2.8700149059
30.4047920079 -22.1607446306 -2.8700149059
30.6284820108 -22.5090279356 -2.8700149059
30.5822710804 -22.4138594108 -2.8700149059
30.7237009531 -22.6749631340 -2.8700149059
30.4208514830 -22.0569901934 -2.8700149059
30.7402190643 -22.3511821027 -2.8700149059
31.0352911315 -23.0810969306 -2.8700149059
30.8891984927 -22.2181185309 -2.8700149059
28.1214952904 -19.0198330904 -2.8700149059
28.0810594650 -19.0216655291 -2.8700149059
28.0675846669 -19.0223560773 -2.8700149059
28.3510432935 -18.9920595197 -2.8700149059
28.2967879705 -18.9918683323 -2.8700149059
28.2832240830 -18.9919208470 -2.8700149059
28.2560970708 -18.9921462480 -2.8700149059
28.2289718669 -18.9925321377 -2.8700149059
28.1476165993 -18.9946525749 -2.8700149059
28.1205081223 -18.9956802276 -2.8700149059
28.0663117800 -18.9982165860 -2.8700149059
28.5420681420 -18.9736413537 -2.8700149059
28.4058067488 -18.9687251093 -2.8700149059
28.2967301356 -18.9676953735 -2.8700149059
28.2558247168 -18.9679747544 -2.8700149059
28.5980363192 -18.9526105392 -2.8700149059
28.5843549820 -18.9517720785 -2.8700149059
28.5159143841 -18.9481870425 -2.8700149059
28.1870298686 -18.9450822142 -2.8700149059
28.7231957405 -18.9379000731 -2.8700149059
28.6545347834 -18.9322630459 -2.8700149059
28.5857979629 -18.9276421575 -2.8700149059
28.2415026140 -18.9198073859 -2.8700149059
28.1037804453 -18.9238046825 -2.8700149059
28.8080506323 -18.9219694310 -2.8700149059
28.8521387997 -18.9025818006 -2.8700149059
29.0628146660 -18.9074676340 -2.8700149059
28.6180579816 -18.8570056219 -2.8700149059
28.3664046673 -18.8471806055 -2.8700149059
29.2513356263 -18.8925555636 -2.8700149059
28.5506696338 -18.8046489185 -2.8700149059
29.2978544114 -18.8774599514 -2.8700149059
29.2421768105 -18.8660736777 -2.8700149059
28.5673867252 -18.7571123038 -2.8700149059
29.2937742451 -18.8272147512 -2.8700149059
28.6275722797 -18.7122798526 -2.8700149059
29.6199177868 -18.8314983519 -2.8700149059
28.6016707525 -18.6622130263 -2.8700149059
29.4705091586 -18.7678243353 -2.8700149059
28.6192372925 -18.6148528834 -2.8700149059
29.0175968387 -18.6315963656 -2.8700149059
30.0970620193 -18.8864286467 -2.8700149059
29.8307338496 -18.7933199493 -2.8700149059
30.6452259401 -19.0523180292 -2.8700149059
30.4797946025 -18.9439077337 -2.8700149059
33.8151674507 -25.7341343009 -2.8700149059
30.5899273741 -22.3566069374 -2.8700149059
30.4832965219 -22.2193813916 -2.8700149059
30.4440520857 -22.1733931395 -2.8700149059
30.6993578276 -22.4750390990 -2.8700149059
30.4215497974 -22.1120122629 -2.8700149059
30.7238908874 -22.4686197207 -2.8700149059
31.0550058462 -22.8565989589 -2.8700149059
30.1974588150 -21.7080884339 -2.8700149059
29.8837963723 -21.4963971151 -2.8700149059
31.2059793102 -23.1663765353 -2.8700149059
30.9924346615 -22.5996182774 -2.8700149059
31.1705380215 -22.8201502480 -2.8700149059
30.0075073350 -21.4010950966 -2.8700149059
29.6764802209 -21.2288462931 -2.8700149059
30.0346482970 -21.3893375290 -2.8700149059
29.3064630037 -20.6453793064 -2.8700149059
27.6640773122 -18.9814546224 -2.8700149059
28.2733800123 -18.8887434661 -2.8700149059
27.4435197811 -19.0006416718 -2.8700149059
28.3312400284 -18.8620113659 -2.8700149059
28.3164718511 -18.8625930820 -2.8700149059
27.6266112639 -18.9390408352 -2.8700149059
28.6272936207 -18.8353882491 -2.8700149059
27.9159177510 -18.8707892680 -2.8700149059
28.7023897406 -18.8133594486 -2.8700149059
27.5007701819 -18.9142216774 -2.8700149059
28.8978755298 -18.7999738118 -2.8700149059
28.8230742497 -18.7949452077 -2.8700149059
28.7931342868 -18.7932436417 -2.8700149059
28.6732894894 -18.7882095270 -2.8700149059
28.2086906802 -18.7955061895 -2.8700149059
28.9597427270 -18.7807099687 -2.8700149059
28.9297161517 -18.7782000753 -2.8700149059
28.8094771294 -18.7699381991 -2.8700149059
28.2673726946 -18.7680277083 -2.8700149059
27.8026313283 -18.8125811088 -2.8700149059
28.5082612364 -18.7375748308 -2.8700149059
28.3871789013 -18.7392973328 -2.8700149059
29.2695052994 -18.7438068842 -2.8700149059
28.7220171245 -18.6931464348 -2.8700149059
28.3085745767 -18.6693701768 -2.8700149059
27.8194114873 -18.7126165018 -2.8700149059
28.8163351430 -18.6492677815 -2.8700149059
28.1535996059 -18.6537939716 -2.8700149059
29.2527094590 -18.6437135215 -2.8700149059
28.3678396552 -18.5947369916 -2.8700149059
27.7253382419 -18.6040458484 -2.8700149059
27.5505405857 -18.6089253996 -2.8700149059
33.6896806717 -25.2674429767 -2.8700149059
33.8433074226 -24.4744889745 -2.8700149059
33.8451178515 -24.4587404414 -2.8700149059
33.7777745683 -25.0110057869 -2.8700149059
33.8510864245 -24.6036340136 -2.8700149059
27.6044504886 -18.5501747327 -2.8700149059
33.7007061231 -25.4869323376 -2.8700149059
33.6234396445 -25.7839061518 -2.8700149059
33.6514165236 -25.7082206990 -2.8700149059
33.8469469262 -25.5851244751 -2.8700149059
33.8620945364 -25.5377871199 -2.8700149059
30.3939468271 -21.7495092961 -2.8700149059
33.5569895345 -25.1717360288 -2.8700149059
33.6077404498 -24.9158666052 -2.8700149059
33.5389929726 -25.3468240008 -2.8700149059
33.6799185922 -24.7648897594 -2.8700149059
33.7734690229 -23.5896459552 -2.8700149059
33.8343358865 -23.7342107647 -2.8700149059
27.7726810918 -18.8273142490 -2.8700149059
26.9527421460 -18.9242670557 -2.8700149059
30.2167831808 -22.0487507243 -2.8700149059
30.1191109193 -21.9217361841 -2.8700149059
30.4602384702 -21.7952886032 -2.8700149059
30.3861716497 -21.7553451387 -2.8700149059
30.3214748161 -21.6958455426 -2.8700149059
30.3530318494 -21.6305525783 -2.8700149059
33.5058945364 -24.8084628213 -2.8700149059
33.5145946099 -24.7297042156 -2.8700149059
33.5184201037 -24.6902701083 -2.8700149059
33.5218954912 -24.6508036048 -2.8700149059
33.5294495669 -24.5454248592 -2.8700149059
33.5302184175 -24.5322408108 -2.8700149059
33.5309482639 -24.5190545456 -2.8700149059
33.5595442341 -24.4142271314 -2.8700149059
33.5799226515 -24.5083237724 -2.8700149059
33.6076110567 -24.1338893539 -2.8700149059
33.6004918485 -23.9864368770 -2.8700149059
33.6218258399 -23.9444973189 -2.8700149059
33.7049094053 -24.4048977061 -2.8700149059
33.7066213302 -24.2815501326 -2.8700149059
33.7508430559 -24.4754201575 -2.8700149059
33.7257148326 -23.7563675328 -2.8700149059
33.7146091858 -23.2490700237 -2.8700149059
33.6956000018 -23.1668527351 -2.8700149059
33.8211958478 -24.8176547935 -2.8700149059
33.6913524030 -23.0515704280 -2.8700149059
33.8718268611 -24.0827945233 -2.8700149059
33.9061032381 -24.6973198355 -2.8700149059
33.6435656946 -22.4478858790 -2.8700149059
33.5553867408 -22.1837874889 -2.8700149059
27.1106819660 -18.7248141515 -2.8700149059
30.2324908281 -22.0758500716 -2.8700149059
30.5387978102 -22.1009929422 -2.8700149059
30.3524912847 -21.9918905034 -2.8700149059
29.7230764090 -21.8060640532 -2.8700149059
29.8543271788 -21.7768254840 -2.8700149059
30.9644458313 -21.7545395619 -2.8700149059
33.4892779142 -24.1484052079 -2.8700149059
33.5090159098 -24.0859783248 -2.8700149059
33.5048602175 -24.0373344531 -2.8700149059
33.5321222296 -24.0718264280 -2.8700149059
33.5254181095 -23.9984720456 -2.8700149059
33.5241742215 -23.9862583831 -2.8700149059
33.5174131385 -23.9252482034 -2.8700149059
33.5113550249 -23.8765162239 -2.8700149059
33.5369030575 -23.8856393821 -2.8700149059
33.5286523883 -23.8244519440 -2.8700149059
33.5792658981 -24.0554773531 -2.8700149059
33.5490099639 -23.7964633401 -2.8700149059
33.5289616376 -23.6738981105 -2.8700149059
33.5527573021 -23.6696435093 -2.8700149059
33.5389119172 -23.5959862404 -2.8700149059
33.6163137915 -23.9388479669 -2.8700149059
33.5650403708 -23.6036391244 -2.8700149059
33.5833002972 -23.3529233425 -2.8700149059
33.5704655574 -23.3034518217 -2.8700149059
33.6001358313 -23.2287244783 -2.8700149059
33.6171504184 -23.1153684661 -2.8700149059
33.8189814357 -24.0218154558 -2.8700149059
33.8140448390 -23.9695084198 -2.8700149059
33.6328941485 -22.8592620615 -2.8700149059
33.8644435712 -23.6275486329 -2.8700149059
33.7556561512 -23.1570343426 -2.8700149059
33.8488095777 -23.4248746156 -2.8700149059
33.6267207235 -22.6448898398 -2.8700149059
30.9293367876 -22.1474230793 -2.8700149059
30.2268150472 -21.8582631965 -2.8700149059
30.8091633835 -21.9319907311 -2.8700149059
31.0614857253 -21.9981965570 -2.8700149059
30.1748201496 -21.6777386139 -2.8700149059
29.3090607024 -21.6029941254 -2.8700149059
33.4956075768 -23.6080222022 -2.8700149059
33.4849240581 -23.5636145227 -2.8700149059
33.4793854383 -23.5414588655 -2.8700149059
33.4971142401 -23.5132659505 -2.8700149059
33.4853094160 -23.4688470769 -2.8700149059
33.5024970941 -23.4402060616 -2.8700149059
33.4962280408 -23.4179485963 -2.8700149059
33.4898274146 -23.3957286103 -2.8700149059
33.4865778315 -23.3846329152 -2.8700149059
33.5031279839 -23.3555050837 -2.8700149059
33.4894560390 -23.3110260969 -2.8700149059
33.5018557462 -23.2703314025 -2.8700149059
33.5755003977 -23.4321011417 -2.8700149059
33.5063099636 -23.2070036589 -2.8700149059
33.5025020259 -23.1958600312 -2.8700149059
33.4947873393 -23.1736068131 -2.8700149059
33.5057129793 -23.1321259172 -2.8700149059
33.5364651211 -23.1463915846 -2.8700149059
33.5120434442 -23.0791758129 -2.8700149059
33.5036382477 -23.0568681868 -2.8700149059
33.5219559751 -23.0370763157 -2.8700149059
33.5133015303 -23.0147107805 -2.8700149059
33.5045149149 -22.9923968393 -2.8700149059
33.5300086902 -22.8640890532 -2.8700149059
33.5248975816 -22.6217895380 -2.8700149059
26.7576024331 -21.4967319482 -2.8700149059
33.5283424917 -22.5214978827 -2.8700149059
33.8879213136 -22.9806516336 -2.8700149059
33.7200373605 -22.5256041725 -2.8700149059
33.5508182575 -22.1212790524 -2.8700149059
30.0282132574 -21.9742093474 -2.8700149059
29.6013277895 -21.9220613933 -2.8700149059
29.8039687139 -21.6004956496 -2.8700149059
29.4750197780 -21.6268888862 -2.8700149059
33.4372677877 -22.7904826547 -2.8700149059
33.4381472846 -22.7396961185 -2.8700149059
26.6201919571 -22.4031510693 -2.8700149059
26.6160790745 -22.2284273821 -2.8700149059
29.8977052168 -22.0101348547 -2.8700149059
30.2686647033 -21.9091931856 -2.8700149059
30.1933320093 -21.9151801112 -2.8700149059
30.3280505987 -21.8818567554 -2.8700149059
30.2562344399 -21.8373374967 -2.8700149059
29.5654788205 -21.9788506575 -2.8700149059
29.4132061662 -22.0375142144 -2.8700149059
29.8329924073 -21.8264431999 -2.8700149059
29.2685099859 -22.0230713715 -2.8700149059
29.6330494216 -21.8548919239 -2.8700149059
29.5719420724 -21.8235534093 -2.8700149059
29.7792731146 -21.7397215335 -2.8700149059
29.9117181893 -21.6374523577 -2.8700149059
29.5053078348 -21.5910313132 -2.8700149059
33.3400859772 -22.5573531133 -2.8700149059
33.3546397385 -22.5354710288 -2.8700149059
33.3432108189 -22.5182214659 -2.8700149059
33.3194814278 -22.2363991738 -2.8700149059
33.3253495141 -22.2045024851 -2.8700149059
33.3105383397 -22.1468347973 -2.8700149059
33.2990479814 -21.9087149316 -2.8700149059
27.6534369909 -21.7805318439 -2.8700149059
26.5370878769 -23.2561365531 -2.8700149059
26.5398753612 -23.1681135291 -2.8700149059
26.5405852289 -23.0912031926 -2.8700149059
26.5343267080 -23.0369572104 -2.8700149059
26.5376121648 -22.9592979860 -2.8700149059
26.5201446222 -23.0054993462 -2.8700149059
26.5331694682 -22.9043579601 -2.8700149059
26.5294846143 -22.8491041325 -2.8700149059
26.5153550974 -22.8838122928 -2.8700149059
26.5143025066 -22.7608531041 -2.8700149059
26.5179181392 -22.5231491623 -2.8700149059
26.4980094928 -22.4550204856 -2.8700149059
26.5066961615 -22.3857493769 -2.8700149059
25.8480901120 -22.8020994961 -2.8700149059
26.4721014692 -21.4938843163 -2.8700149059
26.4673456087 -21.3412252448 -2.8700149059
29.9658820321 -21.9276849505 -2.8700149059
29.4289172248 -22.0645188489 -2.8700149059
33.2047255238 -21.9824680943 -2.8700149059
26.5275610741 -23.8344350953 -2.8700149059
26.5171150507 -23.7307590038 -2.8700149059
26.5152912549 -23.7433333193 -2.8700149059
26.5083682773 -23.7936828809 -2.8700149059
26.5113849376 -23.6137079919 -2.8700149059
26.5092149088 -23.6262997702 -2.8700149059
26.5070821383 -23.6388979127 -2.8700149059
26.5049866447 -23.6515023092 -2.8700149059
26.5029284463 -23.6641128495 -2.8700149059
26.4969778013 -23.7019802285 -2.8700149059
26.4956988066 -23.4405376781 -2.8700149059
26.4877643420 -23.4784780203 -2.8700149059
26.4637534115 -23.6054267572 -2.8700149059
26.4720598459 -23.4354844792 -2.8700149059
26.4807406931 -23.2904217635 -2.8700149059
26.4054099639 -23.6615777426 -2.8700149059
26.3938153266 -23.7390949930 -2.8700149059
26.4837807002 -23.1829220822 -2.8700149059
26.4213629666 -22.5469515682 -2.8700149059
30.1569515010 -21.7056309909 -2.8700149059
29.9298208103 -21.7751303043 -2.8700149059
26.5179479158 -24.3245628672 -2.8700149059
26.4922077376 -24.1353883355 -2.8700149059
26.4920596047 -24.1489515158 -2.8700149059
26.4919515948 -24.1625150749 -2.8700149059
26.4918683108 -24.2032068384 -2.8700149059
26.4927850804 -24.2845845710 -2.8700149059
26.4930782944 -24.2981453905 -2.8700149059
26.4743551136 -23.9443098036 -2.8700149059
26.4456149359 -24.0525664696 -2.8700149059
26.4234707639 -23.6781755222 -2.8700149059
26.4043600216 -23.8989296074 -2.8700149059
26.3952615154 -24.1618881295 -2.8700149059
26.3975559139 -24.3419127691 -2.8700149059
26.4009522177 -23.4786500380 -2.8700149059
26.3774618961 -23.2021401729 -2.8700149059
26.3618108166 -23.0522082190 -2.8700149059
26.4851654604 -21.9896233414 -2.8700149059
32.9392260248 -18.6292186517 -2.8700149059
29.7754607553 -22.0021540227 -2.8700149059
29.5518581906 -22.1693559039 -2.8700149059
30.0664356312 -21.7453926748 -2.8700149059
29.4325348858 -22.2240739226 -2.8700149059
30.2987557518 -21.5737787635 -2.8700149059
30.2140400487 -21.6127673828 -2.8700149059
29.7370675008 -21.8786713466 -2.8700149059
29.6238449226 -21.9391210235 -2.8700149059
29.9510960828 -21.6732520389 -2.8700149059
29.6297159174 -21.8713067852 -2.8700149059
30.1510740402 -21.4821099990 -2.8700149059
30.7488785180 -21.2494531641 -2.8700149059
28.9212197716 -22.4146295366 -2.8700149059
30.1090570362 -21.3147518921 -2.8700149059
26.4764719121 -24.8070718955 -2.8700149059
26.3894958771 -24.2413041294 -2.8700149059
26.3970813271 -24.3587216340 -2.8700149059
26.3645999839 -24.2278167140 -2.8700149059
26.4192638479 -24.7568153516 -2.8700149059
26.3361080901 -23.8430080803 -2.8700149059
26.3158648674 -23.7379677893 -2.8700149059
26.3131565430 -24.1556738235 -2.8700149059
26.2932440047 -23.7068608809 -2.8700149059
26.2860127858 -23.9466360315 -2.8700149059
26.2901342169 -24.1864847904 -2.8700149059
26.2770122825 -23.5852977192 -2.8700149059
26.3466250480 -24.9055021881 -2.8700149059
26.3638487181 -24.9942389202 -2.8700149059
26.2377882791 -23.9311858806 -2.8700149059
26.2141460211 -24.0678307407 -2.8700149059
26.2483287239 -23.2002656984 -2.8700149059
26.2042604121 -24.3734713055 -2.8700149059
26.2267706902 -23.1814464727 -2.8700149059
26.1830773200 -23.5472094113 -2.8700149059
26.2005359572 -23.1929723742 -2.8700149059
26.1553386965 -23.5913211180 -2.8700149059
26.1501660991 -23.6682627892 -2.8700149059
26.1597888949 -24.4232773088 -2.8700149059
