7.0088476510 -15.3223352873 -3.1200154689
8.1271074159 -15.2467687825 -3.1200154689
6.5565186417 -15.2222267772 -3.1200154747
8.0871769453 -15.2842542643 -3.1200154747
7.2765959538 -15.4016986987 -3.1200154804
8.0803176296 -15.3114294962 -3.1200154804
7.9545636273 -15.3688098328 -3.1200154862
8.0870087111 -15.3346580285 -3.1200154862
6.2981115062 -15.1863781255 -3.1200154920
7.1506687466 -15.4398535137 -3.1200154920
8.4343565250 -15.2318294117 -3.1200154920
6.5906975798 -15.3378225823 -3.1200154977
7.8934947495 -15.4312130773 -3.1200154977
6.5339010328 -15.3429235401 -3.1200155035
6.1663075533 -15.1978557285 -3.1200155093
6.2253663824 -15.2302715707 -3.1200155093
6.8041001729 -15.4520167102 -3.1200155093
7.2249205679 -15.5194228095 -3.1200155093
7.7626042323 -15.5022248943 -3.1200155093
6.7034035461 -15.4499989937 -3.1200155150
6.5084558446 -15.4108320074 -3.1200155208
6.9115827902 -15.5255126476 -3.1200155208
7.7465962090 -15.5531665239 -3.1200155208
6.2840877129 -15.3680725961 -3.1200155323
6.7342647385 -15.7335611875 -3.1200155784
4.0608474181 -14.4202258461 -3.1200157744
4.0650754658 -14.4301368416 -3.1200157744
4.0428551749 -14.4396549274 -3.1200157801
4.0514558341 -14.4595704758 -3.1200157801
4.0558003114 -14.4695090811 -3.1200157801
4.0601741698 -14.4794347912 -3.1200157801
4.0645773712 -14.4893475192 -3.1200157801
4.0469620147 -14.5091581347 -3.1200157859
4.0605237915 -14.5389731056 -3.1200157859
4.0385647517 -14.5490793340 -3.1200157917
4.0524811373 -14.5789672538 -3.1200157917
4.0571788073 -14.5889023037 -3.1200157917
4.0619058465 -14.5988234136 -3.1200157917
4.0666622134 -14.6087304966 -3.1200157917
4.0497027922 -14.6291822077 -3.1200157974
4.0545490193 -14.6391252567 -3.1200157974
4.0594246385 -14.6490539262 -3.1200157974
4.0476452664 -14.6796830795 -3.1200158032
4.0526408933 -14.6896319941 -3.1200158032
4.0463149196 -14.7304598059 -3.1200158089
4.0566360176 -14.7503497957 -3.1200158089
4.0723378540 -14.7800694175 -3.1200158089
4.0457179735 -14.7815022133 -3.1200158147
4.0563410660 -14.8013948415 -3.1200158147
4.0670816639 -14.8212242718 -3.1200158147
4.0458605108 -14.8328000197 -3.1200158205
4.0567870958 -14.8526909068 -3.1200158205
4.0733971462 -14.8824051578 -3.1200158205
4.0467484727 -14.8843428366 -3.1200158262
4.0523495241 -14.8942935086 -3.1200158262
4.0745918717 -15.0277690799 -3.1200158378
10.9018701630 -14.8111640461 -3.1200158435
10.9072247442 -14.8008363486 -3.1200158435
10.9125487507 -14.7904928564 -3.1200158435
10.9178421361 -14.7801336600 -3.1200158435
4.0516802133 -15.0828176022 -3.1200158493
4.0578683674 -15.0927528168 -3.1200158493
4.0640858845 -15.1026696822 -3.1200158493
4.0829140689 -15.1323093167 -3.1200158493
10.9069672524 -14.8533994646 -3.1200158493
10.9178956298 -14.8326973796 -3.1200158493
10.9233138404 -14.8223221815 -3.1200158493
10.9059520585 -14.9062076096 -3.1200158551
10.9171928844 -14.8855106066 -3.1200158551
3.9202522851 -14.9552990532 -3.1200158608
4.0550740618 -15.1783199327 -3.1200158608
10.9099659834 -14.9489150181 -3.1200158608
10.9016254470 -15.0125164565 -3.1200158666
10.9075756660 -15.0021886018 -3.1200158666
10.9134953074 -14.9918431905 -3.1200158666
10.9821273569 -14.8663619421 -3.1200158666
10.9165364366 -15.0349868745 -3.1200158723
10.9225530620 -15.0246148121 -3.1200158723
10.8942001383 -15.1196768098 -3.1200158781
10.9004673896 -15.1093704517 -3.1200158781
10.8973356749 -15.2951363490 -3.1200159012
10.9243368851 -15.2980748268 -3.1200159069
10.8960874147 -15.7501366920 -3.1200159646
11.6968748201 -15.4722539707 -3.1200160856
7.5570554215 -15.0537773151 -3.1200126837
7.3364425739 -15.2655804988 -3.1200125022
7.4255864411 -15.2774302330 -3.1200124762
7.4321993707 -15.2763586066 -3.1200124762
7.8113039036 -15.2312521445 -3.1200124244
7.3232409319 -15.3887666391 -3.1200123725
7.5296378754 -15.5046522350 -3.1200122169
6.7186350260 -15.5723218652 -3.1200121650
5.9373962896 -15.4135866554 -3.1200120872
7.1685179712 -15.9569508086 -3.1200117760
4.1567873115 -14.9817833612 -3.1200111536
4.1931518700 -15.2403678084 -3.1200110239
4.1871021098 -15.2721336626 -3.1200109980
4.2053470139 -15.4108895418 -3.1200109202
4.1934179480 -15.5828016484 -3.1200107905
10.9751217069 -14.2857513095 -3.1200105052
10.9787855401 -14.2741838549 -3.1200105052
10.9860104709 -14.2510166839 -3.1200105052
10.9792130584 -14.3510962791 -3.1200104793
10.9902903200 -14.3936428173 -3.1200104533
10.9804692103 -14.5609935734 -3.1200104015
10.9938003844 -14.5262006531 -3.1200104015
10.9928626951 -14.6601343846 -3.1200103496
11.0023707924 -14.6368771737 -3.1200103496
10.9925704961 -14.7836897282 -3.1200102977
10.9989614274 -14.8284626742 -3.1200102718
11.1824266710 -14.3517498679 -3.1200102718
10.9256360280 -15.0349681319 -3.1200102458
11.1772901084 -14.4444983103 -3.1200102458
11.2291273950 -14.5870879352 -3.1200101421
7.4919744650 -15.2544588228 -3.1200090014
7.4240560337 -15.3030837152 -3.1200089352
7.4812224181 -15.2839262284 -3.1200089352
7.3864858793 -15.3652068036 -3.1200088026
7.0145722182 -15.4665707290 -3.1200087363
6.9094955452 -15.6465774558 -3.1200082724
4.1198653642 -15.6139833927 -3.1200052899
10.9948708942 -13.6811151567 -3.1200033678
10.9964339426 -13.6685057745 -3.1200033678
10.9990935989 -13.8232732348 -3.1200033015
11.0139153890 -13.7221367110 -3.1200033015
11.0124319588 -13.8904352886 -3.1200032353
11.0146141371 -13.8777730418 -3.1200032353
11.0269197596 -13.8016690453 -3.1200032353
11.0306382970 -14.0518093024 -3.1200031027
11.1164029105 -13.6831968874 -3.1200030364
11.0998075150 -14.6224743140 -3.1200025062
11.2696545983 -13.9628361606 -3.1200025062
11.0575109416 -14.8106840029 -3.1200024399
10.9960506567 -15.0231615168 -3.1200023736
10.7751652482 -15.6953712157 -3.1200020422
7.5592068003 -15.2386750250 -3.1200125022
7.2025333032 -15.4339535357 -3.1200124762
7.3391583773 -15.3787495300 -3.1200124762
7.3241073131 -15.4116664725 -3.1200124503
7.7989228297 -15.1968881482 -3.1200123984
7.7503216886 -15.2606479866 -3.1200123725
6.6776710274 -15.7039173487 -3.1200123206
6.8055170036 -15.7847384970 -3.1200122169
11.0319582133 -13.3649092627 -3.1200099606
11.0278907008 -13.1059007537 -3.1200099606
11.0529579490 -13.4885276768 -3.1200099346
11.0547728087 -13.4337299991 -3.1200099346
11.0620940594 -13.7231988754 -3.1200099087
11.0706257905 -13.6133039804 -3.1200099087
11.0753166673 -13.5307671442 -3.1200099087
11.0798773469 -13.3930624808 -3.1200099087
11.0794841819 -13.7942808952 -3.1200098828
11.0873856741 -13.7115583328 -3.1200098828
11.0918371260 -13.6563376768 -3.1200098828
11.0956348699 -13.6010682149 -3.1200098828
11.1272650862 -13.4357016088 -3.1200098568
11.1071590783 -13.9659675062 -3.1200098309
11.1186135630 -14.0527889107 -3.1200098050
11.1641549360 -13.6617369268 -3.1200098050
11.1402521518 -14.0705350081 -3.1200097790
11.2014554017 -13.2821926859 -3.1200097790
11.1283088512 -14.2700356865 -3.1200097531
11.1650490219 -14.4394471354 -3.1200096753
11.2877144231 -13.6275757526 -3.1200096753
11.2886392265 -13.6131833459 -3.1200096753
11.2973483919 -13.8024711650 -3.1200096493
11.3201623531 -13.4554468751 -3.1200096493
11.1232917983 -14.7736210850 -3.1200096234
7.3962292201 -15.4083619318 -3.1200194953
7.8490773721 -15.0489492924 -3.1200195443
11.0910860100 -13.0094423084 -3.1200249820
11.0829862336 -12.9363497653 -3.1200249820
11.0398065797 -12.6454169947 -3.1200249820
11.1321318914 -13.2131580609 -3.1200250310
11.0996989151 -12.8748430752 -3.1200250310
11.0977672562 -12.8601902206 -3.1200250310
11.1636541564 -13.3748589289 -3.1200250800
11.0899901524 -12.6515311176 -3.1200250800
11.0529250069 -12.4620697147 -3.1200250800
11.1848472373 -13.7471271048 -3.1200251290
11.1897154420 -13.5681308755 -3.1200251290
11.1899089348 -13.5382862430 -3.1200251290
11.1752458870 -13.1357487098 -3.1200251290
11.1616651646 -12.9871469150 -3.1200251290
11.2140067799 -13.5533654210 -3.1200251779
11.2363070798 -14.0371867137 -3.1200252759
11.3105564992 -13.0176300244 -3.1200254229
4.9478017364 -18.7437444076 -3.1200257658
4.7661692404 -18.7487627380 -3.1200258638
7.6073774500 -15.2394871055 -3.1200207818
7.4506631683 -15.4699626569 -3.1200209086
7.5048880015 -15.4189125237 -3.1200209086
7.7292593489 -15.1658218855 -3.1200209086
7.4735184365 -15.5468977361 -3.1200210987
8.1189883219 -14.8543385380 -3.1200213523
5.0984072904 -18.6101406699 -3.1200277554
5.2129742650 -18.6279706634 -3.1200277554
4.7661672405 -18.5673599207 -3.1200278188
4.8371260623 -18.5837400856 -3.1200278188
5.0944076396 -18.6339805121 -3.1200278188
5.6442459797 -18.6947179517 -3.1200278188
4.4639902661 -18.5102870910 -3.1200278821
4.4779950144 -18.5145412031 -3.1200278821
4.9320857519 -18.6286024693 -3.1200278821
5.1482034593 -18.6671655789 -3.1200278821
5.6721811433 -18.7203440180 -3.1200278821
4.6835418173 -18.5967864414 -3.1200279455
5.6269599630 -18.7421812016 -3.1200279455
5.6710237887 -18.7444893243 -3.1200279455
5.7584755756 -18.7720940647 -3.1200280089
6.0106734746 -18.8216870879 -3.1200281357
4.5149610075 -18.6513929198 -3.1200281991
5.3227513829 -18.8128577740 -3.1200281991
11.2651256746 -13.2407129051 -3.1200290233
11.2468853575 -13.0825292151 -3.1200290233
11.2109432554 -12.7164971015 -3.1200290867
11.1980097544 -12.6538372380 -3.1200290867
11.1429299116 -12.4203361484 -3.1200290867
11.0917125970 -11.9986456689 -3.1200292769
11.2442997258 -12.2413428086 -3.1200294671
11.2014975449 -12.0998609389 -3.1200294671
11.5023806125 -12.3623477697 -3.1200300376
7.5108235842 -15.4208004668 -3.1200152017
7.6336626303 -15.2399461023 -3.1200152017
7.4764196602 -15.5038872604 -3.1200152074
7.5341557390 -15.4299844750 -3.1200152074
7.6366413622 -15.2810003023 -3.1200152074
7.7482509559 -15.0825563676 -3.1200152074
7.4908707665 -15.5244021106 -3.1200152132
7.6713986017 -15.2709010971 -3.1200152132
7.8522546188 -14.9077328578 -3.1200152132
7.7760511956 -15.1346178760 -3.1200152190
7.9229754560 -14.7812165713 -3.1200152190
7.9753272228 -14.7760415479 -3.1200152305
8.0042924515 -14.6753551959 -3.1200152305
7.1586589045 -16.0965535864 -3.1200152593
7.1177527743 -16.1541774964 -3.1200152651
7.5853127331 -16.0590790088 -3.1200153169
5.2177825470 -18.5089511218 -3.1200157319
5.2965912518 -18.5171850335 -3.1200157319
5.1886797509 -18.5298981871 -3.1200157377
5.5990552096 -18.5599258732 -3.1200157377
5.6388786522 -18.5608320899 -3.1200157377
5.7986211504 -18.5850916560 -3.1200157434
5.8653477273 -18.5834512512 -3.1200157434
5.8392898989 -18.6083906674 -3.1200157492
5.8929460559 -18.6066744542 -3.1200157492
5.2337036096 -18.6079896683 -3.1200157550
6.0420549486 -18.6227960014 -3.1200157550
6.1630582026 -18.6126391043 -3.1200157550
5.1987062855 -18.6770835847 -3.1200157722
6.3062941666 -18.6695187338 -3.1200157722
6.3742139214 -18.6603604139 -3.1200157722
6.3639774588 -18.6862140845 -3.1200157780
6.3776212632 -18.6842920939 -3.1200157780
5.5792249180 -18.7770036631 -3.1200157895
6.2878228433 -18.7448919125 -3.1200157895
6.6041313729 -18.6955521609 -3.1200157895
6.1817975724 -18.8051132431 -3.1200158011
6.8741360670 -18.6855492004 -3.1200158011
6.9757415277 -18.6840103238 -3.1200158068
7.0845009641 -18.6530297938 -3.1200158068
7.1593305936 -18.6554269918 -3.1200158126
7.2404331625 -18.6291788894 -3.1200158126
11.5097880538 -12.1236078111 -3.1200161238
11.5665172326 -12.2193468196 -3.1200161296
11.5610081108 -12.2020630706 -3.1200161296
5.8774992721 -18.5117361271 -3.1200104793
5.9261781128 -18.5080123536 -3.1200104793
5.9626564642 -18.5048416691 -3.1200104793
6.0015188429 -18.5253996153 -3.1200104533
6.5917933814 -18.5720286406 -3.1200102977
6.8456950379 -18.5784401600 -3.1200102199
7.0042458396 -18.6040064814 -3.1200101421
7.1907524819 -18.6141978759 -3.1200100643
7.6752441124 -15.4051756753 -3.1200135561
7.6975823771 -15.3279556273 -3.1200135561
7.7230773196 -15.2238549446 -3.1200135561
7.6838978983 -15.4574434918 -3.1200135417
7.7589829422 -15.1693670838 -3.1200135417
7.6772424855 -15.5489217709 -3.1200135273
7.7442553917 -15.3405639910 -3.1200135273
7.8017956844 -15.0591991318 -3.1200135273
7.8235120085 -14.6770896950 -3.1200135273
7.7404216388 -15.4397614043 -3.1200135129
7.8405667098 -14.5453090230 -3.1200135129
7.6591149923 -15.7754136322 -3.1200134841
7.5225116139 -16.0646115736 -3.1200134697
7.6456160033 -15.8559626244 -3.1200134697
7.9529529069 -15.1842179998 -3.1200134264
8.1057684458 -15.2839401120 -3.1200133256
8.2605665756 -15.2489268530 -3.1200132391
7.8253822991 -11.7389348434 -3.1200126484
7.8579633663 -11.7336291044 -3.1200126340
6.4030862406 -18.4929819079 -3.1200126052
6.4141921673 -18.4903274700 -3.1200126052
6.4252901931 -18.4876401903 -3.1200126052
6.4363802209 -18.4849200924 -3.1200126052
6.4585358944 -18.4793815374 -3.1200126052
6.4867287574 -18.4971104219 -3.1200125908
6.5263338365 -18.5116497938 -3.1200125763
6.5374944469 -18.5086306855 -3.1200125763
6.5709220086 -18.4993754563 -3.1200125763
6.5820461142 -18.4962245018 -3.1200125763
6.5931608501 -18.4930406540 -3.1200125763
6.6221902066 -18.5097629318 -3.1200125619
6.6333448159 -18.5064602713 -3.1200125619
6.6778640918 -18.4929200934 -3.1200125619
6.6889686334 -18.4894528131 -3.1200125619
6.6065429946 -18.5394977238 -3.1200125475
6.7073699263 -18.5089948820 -3.1200125475
6.7296632915 -18.5018526396 -3.1200125475
6.7519140107 -18.4945786272 -3.1200125475
6.7929910221 -18.5063070426 -3.1200125331
6.8041346610 -18.5024991374 -3.1200125331
6.9964473615 -18.5089223998 -3.1200124899
7.0389153861 -18.5180068198 -3.1200124755
6.6116659790 -18.6887894876 -3.1200124611
6.7468795279 -18.6739623965 -3.1200124467
7.1021839126 -18.5442747087 -3.1200124467
7.1471178049 -18.5251843616 -3.1200124467
6.7567407309 -18.7468552130 -3.1200124034
6.8744145184 -18.7849883676 -3.1200123602
7.7467016887 -15.7161889291 -3.1200151845
7.7842918049 -15.5617117484 -3.1200151845
7.8211443453 -15.4980307574 -3.1200151874
7.8877294577 -15.3795710218 -3.1200151932
7.9700897513 -15.2861194868 -3.1200152018
7.9894792209 -15.3397470542 -3.1200152047
7.9970739360 -14.9250914646 -3.1200152047
6.9202450807 -18.4391518464 -3.1200153401
6.9400545109 -18.4306664276 -3.1200153401
7.0290674096 -18.4440253291 -3.1200153459
7.0588016063 -18.4302873591 -3.1200153459
7.0789864983 -18.4475179390 -3.1200153488
7.0988426469 -18.4380932062 -3.1200153488
7.1589873598 -18.4356693741 -3.1200153517
7.2095045043 -18.4372785920 -3.1200153546
7.2404316795 -18.4485381258 -3.1200153574
7.2602910383 -18.4381582113 -3.1200153574
7.2691773928 -11.6036985697 -3.1200153718
7.4371386504 -11.6111369334 -3.1200153805
8.1513105525 -18.4318710590 -3.1200154151
8.1960891053 -18.4269733420 -3.1200154180
7.7940553989 -15.2005809923 -3.1200154459
7.7919008838 -15.1805992833 -3.1200154459
7.7619674409 -14.9887026986 -3.1200154459
7.8238720379 -15.6037645254 -3.1200154516
7.8287359090 -15.5158852655 -3.1200154516
7.8245493907 -15.2722909776 -3.1200154516
7.8127409003 -15.1510061531 -3.1200154516
7.7787775315 -14.9508121588 -3.1200154516
7.7251867918 -14.7479531556 -3.1200154516
7.8603907489 -15.7243016208 -3.1200154631
7.8756813403 -15.3171965612 -3.1200154631
7.8749532074 -15.3033883202 -3.1200154631
7.8444788634 -15.0356312545 -3.1200154631
7.8322477541 -14.8606892614 -3.1200154689
7.7964597973 -14.7329041977 -3.1200154689
7.7385409163 -14.5682001742 -3.1200154689
7.6563320106 -14.3831276737 -3.1200154689
7.8896767794 -15.0135033917 -3.1200154747
7.8590814267 -14.8685289392 -3.1200154747
7.7737172918 -14.5922679811 -3.1200154747
7.9435153067 -15.2424604649 -3.1200154804
7.9690330897 -15.6073820662 -3.1200154862
7.9616196360 -15.1760272186 -3.1200154862
7.9333722399 -14.9837492982 -3.1200154862
7.9952161897 -15.2894073110 -3.1200154920
7.9938420370 -15.2676369150 -3.1200154920
7.9928186246 -15.2531304630 -3.1200154920
7.6258996255 -14.1307564688 -3.1200154920
8.0219943975 -15.5228576892 -3.1200154977
7.5859776690 -14.0258678096 -3.1200154977
8.0476221835 -15.4051209354 -3.1200155035
7.8921765902 -16.3701380009 -3.1200155093
8.0226946425 -14.9364925892 -3.1200155093
7.9999952425 -14.8341870307 -3.1200155093
8.0463971153 -14.9317462156 -3.1200155150
7.9197669403 -16.4304035340 -3.1200155208
8.0847551169 -15.8600602192 -3.1200155208
8.1074131427 -15.1758687700 -3.1200155208
7.7562262387 -14.1122810543 -3.1200155208
8.1290568443 -15.1504801938 -3.1200155265
7.9341930438 -14.4084121009 -3.1200155265
8.1485782344 -15.1092568974 -3.1200155323
8.1674410505 -15.0673949101 -3.1200155381
7.8145799694 -14.0221819020 -3.1200155438
8.1854294023 -14.8876155749 -3.1200155496
7.9871757016 -14.2901635104 -3.1200155496
7.7674923339 -13.8219631510 -3.1200155611
7.4426531410 -18.3400799071 -3.1200157340
7.4731684608 -18.3489319598 -3.1200157398
7.4817847889 -18.3432047416 -3.1200157398
7.4903841373 -18.3374520598 -3.1200157398
7.5211205788 -18.3458623743 -3.1200157456
7.5297276168 -18.3399933185 -3.1200157456
7.5468894195 -18.3281789519 -3.1200157456
7.5864419790 -18.3300150805 -3.1200157513
7.6176020076 -18.3375300568 -3.1200157571
7.6261839750 -18.3313756279 -3.1200157571
7.7318592386 -18.3133316948 -3.1200157686
7.7636070766 -18.3194752989 -3.1200157744
7.8295652227 -18.2984695567 -3.1200157801
8.0254966985 -18.2925166918 -3.1200158089
6.7783984132 -11.5479064205 -3.1200158781
6.7668991177 -11.5442642151 -3.1200158781
6.7323372904 -11.5335419225 -3.1200158781
6.8318914801 -11.5398694029 -3.1200158839
6.8203681756 -11.5360689905 -3.1200158839
6.8088336792 -11.5323026828 -3.1200158839
6.9088018167 -11.5405792565 -3.1200158896
6.8972802756 -11.5365513263 -3.1200158896
6.8742016995 -11.5285978022 -3.1200158896
6.8626448664 -11.5246722779 -3.1200158896
6.8510764715 -11.5207809579 -3.1200158896
6.8394966160 -11.5169238763 -3.1200158896
6.9399548736 -11.5259781378 -3.1200158954
7.0176321772 -11.5288040649 -3.1200159012
6.9945056593 -11.5201386341 -3.1200159012
6.9713282786 -11.5116101792 -3.1200159012
7.0725449562 -11.5240363923 -3.1200159069
7.1277760152 -11.5200246926 -3.1200159127
7.1161927118 -11.5153490870 -3.1200159127
7.2064582243 -11.5265583652 -3.1200159185
7.3530737553 -11.5389623170 -3.1200159300
7.5011150534 -11.5841708848 -3.1200159357
7.3748468802 -11.5224512743 -3.1200159357
7.3967334540 -11.5060351615 -3.1200159415
7.0051226552 -11.3439050252 -3.1200159415
7.8382815317 -11.7183804941 -3.1200159473
6.8663956307 -11.2714995278 -3.1200159473
7.6489064563 -11.5801937301 -3.1200159530
7.5224306513 -11.5136679359 -3.1200159530
7.0334119517 -11.2256773374 -3.1200159703
7.7069452437 -11.5017503119 -3.1200159761
8.2458184654 -11.4643445795 -3.1200160510
7.8720903402 -15.3485237386 -3.1200149059
7.8071401650 -15.0887073870 -3.1200149059
7.8782660798 -15.1595875878 -3.1200149059
7.7960575833 -14.9130662573 -3.1200149059
8.0862144950 -15.0952460473 -3.1200149059
8.0585884751 -15.0019406579 -3.1200149059
6.1781106697 -11.5291067022 -3.1200149059
6.3069381485 -11.5228008803 -3.1200149059
6.2818172080 -11.5189674102 -3.1200149059
6.2440943714 -11.5134960414 -3.1200149059
6.1811198462 -11.5051217040 -3.1200149059
6.1685104633 -11.5035586615 -3.1200149059
6.3611094331 -11.5070735076 -3.1200149059
6.3485050364 -11.5049780149 -3.1200149059
6.5594696669 -11.4956901628 -3.1200149059
6.5088670801 -11.4851857414 -3.1200149059
6.6279445769 -11.4860998353 -3.1200149059
6.7095855805 -11.4807320392 -3.1200149059
6.8870233328 -11.4783339339 -3.1200149059
6.8555187743 -11.3940585324 -3.1200149059
7.1660331662 -11.4407624881 -3.1200149059
6.3515454744 -11.2361748746 -3.1200149059
8.7911372716 -19.1369754925 -3.1200149059
7.4504988163 -11.4989156443 -3.1200149059
7.8732943258 -15.1486061541 -3.1200149059
7.8455309798 -15.0349429732 -3.1200149059
7.8330569606 -15.0109040526 -3.1200149059
7.9471262457 -15.1979216557 -3.1200149059
8.0665036623 -15.4768247979 -3.1200149059
8.0044123817 -15.2789964551 -3.1200149059
7.9498794653 -15.0835461868 -3.1200149059
8.1704211851 -15.7478436234 -3.1200149059
7.9411738117 -15.0098068958 -3.1200149059
7.9409356975 -14.9052957678 -3.1200149059
7.9861649242 -14.9385188893 -3.1200149059
7.7945853960 -14.6299176928 -3.1200149059
8.2700696090 -15.7636107724 -3.1200149059
5.8510428167 -11.4920690564 -3.1200149059
5.5663113032 -11.4982261227 -3.1200149059
6.0556844941 -11.4743641634 -3.1200149059
6.1937273764 -11.4596219549 -3.1200149059
5.8789110808 -11.4440650351 -3.1200149059
6.2506350394 -11.4404486707 -3.1200149059
6.1682730480 -11.4333187333 -3.1200149059
6.2529335007 -11.4163851639 -3.1200149059
6.4936659758 -11.3968203772 -3.1200149059
6.3410330624 -11.3769824915 -3.1200149059
5.9503423553 -11.3489760234 -3.1200149059
6.6680444458 -11.3765561899 -3.1200149059
5.9659286333 -11.3010989366 -3.1200149059
6.7561083040 -11.3688680061 -3.1200149059
6.5884118519 -11.3381764912 -3.1200149059
6.9143270798 -11.3786851094 -3.1200149059
6.5500430611 -11.3075497397 -3.1200149059
6.2809366216 -11.2733828533 -3.1200149059
6.2525078980 -11.2706674420 -3.1200149059
6.9477858577 -11.3618181142 -3.1200149059
6.8779202195 -11.3454724353 -3.1200149059
6.6528525570 -11.3001384913 -3.1200149059
7.0652808956 -11.3667601990 -3.1200149059
6.9814827520 -11.3451833878 -3.1200149059
6.2425997425 -11.2212194530 -3.1200149059
6.1994893457 -11.2175516932 -3.1200149059
7.1692602202 -11.3705871367 -3.1200149059
7.1413910426 -11.3626144034 -3.1200149059
5.8105292310 -11.1776161655 -3.1200149059
7.5353517492 -11.4664787829 -3.1200149059
7.5080434916 -11.4563384510 -3.1200149059
7.4943669846 -11.4513289164 -3.1200149059
7.3429777168 -11.3989050734 -3.1200149059
7.7611042127 -11.5311708770 -3.1200149059
7.6801144592 -11.4972185723 -3.1200149059
7.5848827297 -11.4594317751 -3.1200149059
7.9315377947 -11.5815037379 -3.1200149059
8.0582770279 -15.3124228911 -3.1200149059
8.0154210725 -14.8373015461 -3.1200149059
5.4828131504 -11.4360511576 -3.1200149059
5.2362482519 -11.4692979245 -3.1200149059
5.9346578348 -11.3591400071 -3.1200149059
6.2620288390 -11.3158416576 -3.1200149059
5.7345960719 -11.2213202008 -3.1200149059
11.2060375418 -17.7061570591 -3.1200149059
11.1825007958 -17.8810038874 -3.1200149059
7.6575231416 -14.8253915730 -3.1200149059
8.1202536293 -15.2324468746 -3.1200149059
7.8480861791 -14.8923043164 -3.1200149059
7.8227910871 -14.8692709822 -3.1200149059
7.6786076015 -14.7197979733 -3.1200149059
7.3447355394 -14.5113210590 -3.1200149059
7.2765122370 -14.4777231740 -3.1200149059
7.6848779825 -14.6643125897 -3.1200149059
7.5013955875 -14.4310565414 -3.1200149059
8.3757282387 -15.2189827736 -3.1200149059
8.3675746112 -15.2065971382 -3.1200149059
11.0783501257 -17.5725784649 -3.1200149059
11.0923439861 -17.5014750997 -3.1200149059
11.0950164709 -17.4872300245 -3.1200149059
11.1171693450 -17.3586863769 -3.1200149059
11.1410437429 -17.3624743066 -3.1200149059
11.1955046259 -16.8412153826 -3.1200149059
11.2010442707 -16.6811020412 -3.1200149059
11.0548214760 -17.8812955208 -3.1200149059
11.1343224980 -17.5392069495 -3.1200149059
11.1911141523 -17.1778099112 -3.1200149059
11.2259721850 -16.5644569764 -3.1200149059
11.2258722160 -16.5498207047 -3.1200149059
11.0334308473 -18.0430763108 -3.1200149059
11.2303997637 -17.0343974632 -3.1200149059
11.2490911119 -16.6966926638 -3.1200149059
11.2447800905 -16.3584984694 -3.1200149059
11.2253239102 -17.6944572079 -3.1200149059
11.2893934089 -17.7399135610 -3.1200149059
11.5444126023 -17.4424512283 -3.1200149059
5.3975222730 -11.3050171486 -3.1200149059
5.7882911820 -11.2303216770 -3.1200149059
5.6615787626 -11.2434157103 -3.1200149059
5.3935495787 -11.2811727995 -3.1200149059
5.1122064283 -11.3357816773 -3.1200149059
4.7354631408 -11.4085644500 -3.1200149059
4.5600280593 -11.4385683579 -3.1200149059
4.1653895040 -11.5349954653 -3.1200149059
4.5989878941 -11.3495373940 -3.1200149059
4.3444246539 -11.4122108345 -3.1200149059
4.5537171556 -11.2625335861 -3.1200149059
4.8847876243 -11.0169130430 -3.1200149059
4.8338308763 -10.9550057095 -3.1200149059
7.7708912985 -14.8285959172 -3.1200149059
7.4626633059 -14.5655146565 -3.1200149059
7.8121749591 -14.5448509720 -3.1200149059
11.0240077629 -17.1244627880 -3.1200149059
11.0459744953 -17.1528038351 -3.1200149059
11.0527572513 -17.0601075914 -3.1200149059
11.0612288780 -16.8345650864 -3.1200149059
11.0665504894 -17.1947113148 -3.1200149059
11.0689318447 -17.1681188275 -3.1200149059
11.0850807352 -16.7013753544 -3.1200149059
11.0845430250 -16.6746818701 -3.1200149059
11.0809966179 -17.2903894960 -3.1200149059
11.1071521552 -16.6204625389 -3.1200149059
11.0995967871 -16.4730317670 -3.1200149059
11.0986721279 -16.4596426852 -3.1200149059
11.1237148123 -16.4714019990 -3.1200149059
11.1186688267 -16.4041291635 -3.1200149059
11.1468983249 -16.4562404724 -3.1200149059
11.1379820745 -16.3480979977 -3.1200149059
11.1796269980 -16.6179298118 -3.1200149059
11.1420043879 -16.1697131019 -3.1200149059
11.1458427608 -16.0309383313 -3.1200149059
11.1436101069 -16.0174143799 -3.1200149059
11.1691791333 -15.8868008356 -3.1200149059
11.2512601545 -16.2674930150 -3.1200149059
11.1910000491 -15.7542927653 -3.1200149059
11.1338442992 -15.4358783845 -3.1200149059
11.1570328409 -15.4290500016 -3.1200149059
4.7248505528 -11.2367106323 -3.1200149059
7.6650556043 -15.0157340655 -3.1200149059
7.8709571976 -14.8956491946 -3.1200149059
7.8182303789 -14.8180707094 -3.1200149059
8.3987596520 -15.0914300162 -3.1200149059
8.0221055518 -14.8098830513 -3.1200149059
8.7132523108 -15.1867376287 -3.1200149059
6.3723777087 -14.2151192644 -3.1200149059
10.9921066284 -16.6968626489 -3.1200149059
11.0162461168 -16.6955897066 -3.1200149059
11.0125819061 -16.6346736852 -3.1200149059
11.0117409664 -16.6224973577 -3.1200149059
11.0090020816 -16.5859840468 -3.1200149059
11.0080171247 -16.5738185221 -3.1200149059
11.0069961844 -16.5616559643 -3.1200149059
11.0059392695 -16.5494964799 -3.1200149059
11.0048463892 -16.5373401752 -3.1200149059
11.0340536533 -16.5963086267 -3.1200149059
11.0321084013 -16.5718321500 -3.1200149059
11.0194838075 -16.2633989515 -3.1200149059
11.0668515029 -16.4319096279 -3.1200149059
11.0527434739 -16.1696492314 -3.1200149059
11.0482736346 -16.1450696467 -3.1200149059
11.0459842014 -16.1327898788 -3.1200149059
11.1369435587 -16.6892249947 -3.1200149059
11.1314037898 -16.6014610847 -3.1200149059
11.0601659842 -16.0789937462 -3.1200149059
11.0576810345 -16.0666790877 -3.1200149059
11.0572320978 -15.9507479061 -3.1200149059
11.0807838090 -15.9453025244 -3.1200149059
11.0704517291 -15.8034575438 -3.1200149059
11.0733525275 -15.7229212711 -3.1200149059
11.0955519985 -15.4708795623 -3.1200149059
11.0869472539 -15.4460589376 -3.1200149059
11.3378592195 -16.2670189398 -3.1200149059
11.1009688716 -15.3426844310 -3.1200149059
10.9713388177 -14.9190777421 -3.1200149059
11.4416601035 -16.5380638249 -3.1200149059
10.8805669327 -14.6932423592 -3.1200149059
7.6023818257 -14.9252975293 -3.1200149059
7.6927311155 -14.7949861997 -3.1200149059
7.4793375407 -14.7370124545 -3.1200149059
7.8080670065 -14.7721693468 -3.1200149059
7.4819205132 -14.7129778225 -3.1200149059
7.4981051635 -14.6904456602 -3.1200149059
7.6308688522 -14.6848948676 -3.1200149059
7.5420045183 -14.6714687393 -3.1200149059
7.9736191672 -14.7450736562 -3.1200149059
7.2945599878 -14.6280478729 -3.1200149059
6.9252641586 -14.6480697033 -3.1200149059
7.5902344924 -14.6294265595 -3.1200149059
7.9481857022 -14.6609524675 -3.1200149059
8.2113869704 -14.3415844716 -3.1200149059
8.2904573476 -14.3459961386 -3.1200149059
6.2087475792 -14.2587283709 -3.1200149059
6.1765175559 -14.2710904306 -3.1200149059
4.2475587546 -14.6243135138 -3.1200149059
10.9746383851 -16.1245813869 -3.1200149059
4.2498320600 -14.5827118900 -3.1200149059
4.2427278488 -14.5915600467 -3.1200149059
10.9981900956 -16.1191360021 -3.1200149059
10.9876379896 -16.0746969131 -3.1200149059
10.9849178592 -16.0636068933 -3.1200149059
10.9821649345 -16.0525249686 -3.1200149059
10.9971080412 -16.0132583211 -3.1200149059
10.9942061230 -16.0021405559 -3.1200149059
10.9912713290 -15.9910314238 -3.1200149059
10.9883036851 -15.9799310220 -3.1200149059
10.9962218420 -15.9179409669 -3.1200149059
10.9898212157 -15.8957209809 -3.1200149059
10.9832892407 -15.8735392521 -3.1200149059
10.9929171529 -15.8221229990 -3.1200149059
10.9894498401 -15.8110184675 -3.1200149059
10.9859496932 -15.7999242416 -3.1200149059
4.2716229684 -14.4061313228 -3.1200149059
11.0089918550 -15.7926171174 -3.1200149059
11.0054371881 -15.7814651632 -3.1200149059
11.0016773434 -15.6209767537 -3.1200149059
4.2720403809 -14.2965311246 -3.1200149059
11.0088988218 -15.4387307776 -3.1200149059
11.2120737217 -15.8818358012 -3.1200149059
11.0347917473 -15.3753078729 -3.1200149059
11.2253231147 -15.8399148373 -3.1200149059
11.2163713106 -15.7268529993 -3.1200149059
11.1799382460 -15.4764710604 -3.1200149059
11.2656239109 -15.4299206739 -3.1200149059
11.0474402560 -14.9539972619 -3.1200149059
11.2597100053 -15.3495494629 -3.1200149059
11.4466536504 -15.7355989148 -3.1200149059
11.0560730969 -14.5390238592 -3.1200149059
11.0608588347 -14.2036542483 -3.1200149059
7.7270260781 -14.7680163435 -3.1200149059
7.4005826706 -14.7471020909 -3.1200149059
8.3219687328 -14.7856023492 -3.1200149059
7.4428935783 -14.6713510048 -3.1200149059
7.1277726183 -14.7124202360 -3.1200149059
7.4623278779 -14.6460273794 -3.1200149059
6.9603407719 -14.7022715690 -3.1200149059
8.3108708888 -14.7058032191 -3.1200149059
8.7018801417 -14.8136035599 -3.1200149059
8.4218310902 -14.6922875962 -3.1200149059
8.3954235771 -14.6573342672 -3.1200149059
6.8573753209 -14.6314431340 -3.1200149059
6.6506551767 -14.6270186072 -3.1200149059
8.7793784539 -14.6090476408 -3.1200149059
7.3983807932 -14.3351355782 -3.1200149059
7.8433695069 -14.3165594429 -3.1200149059
8.1690857283 -14.3184070252 -3.1200149059
6.2063702617 -14.3247237228 -3.1200149059
10.9619260974 -15.5107584285 -3.1200149059
10.9440202047 -15.4709254551 -3.1200149059
10.9348908234 -15.4510891183 -3.1200149059
10.9302821631 -15.4411912915 -3.1200149059
10.9428149886 -15.4110713250 -3.1200149059
10.9598950391 -15.3907202480 -3.1200149059
10.9356639367 -15.3410055251 -3.1200149059
10.9372730329 -15.2904883767 -3.1200149059
10.9329185334 -15.2297952899 -3.1200149059
10.9436519660 -15.1985787841 -3.1200149059
10.9382962961 -15.1886561451 -3.1200149059
10.9329112967 -15.1787493925 -3.1200149059
10.9595515582 -15.1771431474 -3.1200149059
10.9476431739 -15.1056801027 -3.1200149059
4.1142449209 -15.2102564829 -3.1200149059
4.1036928669 -15.2308319525 -3.1200149059
4.1143694441 -15.1579467107 -3.1200149059
4.1089234582 -15.1682265023 -3.1200149059
4.1035079057 -15.1785223591 -3.1200149059
10.9296592030 -14.8874055642 -3.1200149059
4.1168884637 -15.0525978762 -3.1200149059
4.1111308259 -15.0628706770 -3.1200149059
4.1054036021 -15.0731604650 -3.1200149059
4.1133800000 -15.0098459755 -3.1200149059
4.1074959097 -15.0201293420 -3.1200149059
4.1103587146 -14.9668790586 -3.1200149059
4.0983668260 -14.9874817798 -3.1200149059
4.1139974763 -14.9134204582 -3.1200149059
11.2225322181 -15.1581473544 -3.1200149059
10.9239934651 -14.3387982944 -3.1200149059
4.1096545917 -14.2039003530 -3.1200149059
10.9678013740 -13.6959709565 -3.1200149059
7.4310313773 -14.9740952624 -3.1200149059
7.4458774399 -14.8213577539 -3.1200149059
7.7558682890 -14.7251620978 -3.1200149059
7.7005833121 -14.7059426512 -3.1200149059
8.0372688932 -14.6479359879 -3.1200149059
7.4123305212 -14.7050505925 -3.1200149059
8.0797765462 -14.6260184990 -3.1200149059
7.7619951611 -14.6277192250 -3.1200149059
8.2480939636 -14.6183232860 -3.1200149059
8.2065091284 -14.6131060343 -3.1200149059
6.8034287452 -14.8576648802 -3.1200149059
8.3109597435 -14.5786773098 -3.1200149059
7.8634525751 -14.5499233029 -3.1200149059
8.6304158272 -14.6266887458 -3.1200149059
8.6090096995 -14.5701135832 -3.1200149059
7.5248703213 -14.4612322571 -3.1200149059
10.8489342209 -15.0268301657 -3.1200149059
10.8374543240 -15.0096144871 -3.1200149059
10.8458646441 -14.9788780471 -3.1200149059
10.8300173623 -14.9135566440 -3.1200149059
10.8251981296 -14.8652509233 -3.1200149059
10.8065071487 -14.8396699577 -3.1200149059
10.8259617828 -14.8253223971 -3.1200149059
10.8133340032 -14.7681393814 -3.1200149059
4.0406581723 -15.7446082817 -3.1200149059
4.0398715465 -15.6681058997 -3.1200149059
4.0360711320 -15.6796292035 -3.1200149059
4.0323048222 -15.6911636992 -3.1200149059
4.0212108486 -15.7258333277 -3.1200149059
4.0405814142 -15.5911955632 -3.1200149059
4.0325596501 -15.6142505089 -3.1200149059
4.0285999536 -15.6257956783 -3.1200149059
4.0294807996 -15.3490965032 -3.1200149059
4.0216521850 -15.3051034720 -3.1200149059
4.0119381353 -15.3282754165 -3.1200149059
4.0295194441 -15.2261328152 -3.1200149059
4.0283143582 -15.1699959114 -3.1200149059
4.0074244000 -15.2163274948 -3.1200149059
3.0194023246 -15.2161482878 -3.1200149059
7.5611931511 -14.6508746913 -3.1200149059
7.8958226704 -14.3015233714 -3.1200149059
8.5398891094 -14.2405654836 -3.1200149059
9.3868032183 -14.1597913180 -3.1200149059
4.0307056977 -16.3093610051 -3.1200149059
4.0189750819 -16.2181882312 -3.1200149059
4.0135912519 -16.1011207807 -3.1200149059
3.9980208711 -15.8214774262 -3.1200149059
3.9832227816 -15.8847284680 -3.1200149059
3.9803354959 -15.6955954964 -3.1200149059
3.9510287420 -15.8101160470 -3.1200149059
3.9663596110 -15.5680493916 -3.1200149059
3.7669697927 -16.2754797191 -3.1200149059
3.7262493002 -16.2155479112 -3.1200149059
11.6369833313 -13.7088686748 -3.1200149059
3.9363431062 -15.2746095572 -3.1200149059
6.9327797720 -15.0313803614 -3.1200149059
8.5344570384 -14.2104235552 -3.1200149059
8.4904159354 -14.2115713524 -3.1200149059
3.9946579824 -16.8523782151 -3.1200149059
3.9534957871 -16.3882796173 -3.1200149059
3.9468403759 -16.8677645502 -3.1200149059
3.9227745208 -15.9960620048 -3.1200149059
3.9074748391 -15.9371799771 -3.1200149059
3.8724322083 -16.2006929985 -3.1200149059
3.8230152733 -16.6332901112 -3.1200149059
3.8579742266 -15.7996622203 -3.1200149059
3.8011477534 -15.9923072670 -3.1200149059
3.7748007626 -16.2048490713 -3.1200149059
3.8742812765 -15.4068672238 -3.1200149059
3.8586886804 -15.3725551833 -3.1200149059
3.9088884872 -15.0524683978 -3.1200149059
3.8860815782 -15.0444571443 -3.1200149059
7.4050378366 -14.7395667373 -3.1200149059
7.1883022906 -14.8063749352 -3.1200149059
6.9826645004 -14.8494175778 -3.1200149059
6.5237364574 -15.4942405166 -3.1200149059
7.5112671795 -14.1655872854 -3.1200149059
3.9300364588 -16.9589437887 -3.1200149059
3.9482419156 -17.1189068370 -3.1200149059
4.0088972118 -17.4796755251 -3.1200149059
4.0339215962 -17.5940603964 -3.1200149059
3.8851203941 -16.6384374758 -3.1200149059
3.8894768036 -16.7413003147 -3.1200149059
3.8993926222 -16.8880415781 -3.1200149059
3.9170139710 -17.0636479335 -3.1200149059
3.9301678725 -17.1657592297 -3.1200149059
3.9408566226 -17.2385182625 -3.1200149059
3.8584777316 -16.5062205924 -3.1200149059
3.8661373701 -16.7573311197 -3.1200149059
3.7736948352 -16.1303702460 -3.1200149059
3.7540866803 -16.0683328392 -3.1200149059
9.9079581912 -11.2499232465 -3.1200149059
10.2521332450 -11.3061624795 -3.1200149059
10.1968497631 -11.2665787965 -3.1200149059
10.0157036092 -11.4103950526 -3.1200149059
9.6000494541 -11.3488520183 -3.1200149059
9.5468091044 -11.2950285677 -3.1200149059
9.0790269759 -11.2498229846 -3.1200149059
8.9755219317 -11.2269687269 -3.1200149059
9.7747823211 -11.2482570733 -3.1200149059
9.5534908548 -11.2228179608 -3.1200149059
3.8214739840 -17.1961812886 -3.1200149059
3.7735247210 -17.0593213627 -3.1200149059
3.8065982652 -17.2475123966 -3.1200149059
3.8375594852 -17.5021063126 -3.1200149059
3.9367555833 -17.8562983168 -3.1200149059
3.9752432925 -18.0463143355 -3.1200149059
4.0164386514 -18.2896855108 -3.1200149059
4.0225779778 -18.3046877149 -3.1200149059
9.5046275271 -11.4925005583 -3.1200149059
9.4662797464 -11.4665204327 -3.1200149059
9.3474740201 -11.4631135800 -3.1200149059
8.9462598092 -11.4022805237 -3.1200149059
9.2815127657 -11.3417228083 -3.1200149059
9.8121147223 -11.3484914622 -3.1200149059
8.6426955172 -11.3616684831 -3.1200149059
8.3596274037 -11.3361682811 -3.1200149059
8.1395135225 -11.3110594595 -3.1200149059
7.3348307852 -14.7037886408 -3.1200149059
7.5213977366 -14.3151880307 -3.1200149059
7.3578861981 -14.5424058829 -3.1200149059
7.4286138975 -14.3690592030 -3.1200149059
7.0864338893 -15.1995144206 -3.1200149059
7.0958357654 -15.0365363359 -3.1200149059
7.1632014121 -14.6135907344 -3.1200149059
6.8023800398 -15.3078049396 -3.1200149059
9.1981381524 -11.5320359120 -3.1200149059
9.1242011188 -11.5123750809 -3.1200149059
9.0758074765 -11.5160770409 -3.1200149059
9.0637161751 -11.5170919837 -3.1200149059
9.0516279289 -11.5181426903 -3.1200149059
9.1834048976 -11.4844176707 -3.1200149059
9.0373427854 -11.4951564486 -3.1200149059
9.1085537241 -11.4650309663 -3.1200149059
8.8765245648 -11.4886614271 -3.1200149059
8.9346814019 -11.4571650962 -3.1200149059
8.7512064585 -11.4824579170 -3.1200149059
9.1281570922 -11.3909489702 -3.1200149059
8.6573588044 -11.4494755999 -3.1200149059
8.5837427962 -11.4635387177 -3.1200149059
8.5470312920 -11.4710596952 -3.1200149059
8.7521187356 -11.4088826764 -3.1200149059
8.5052216838 -11.4552916689 -3.1200149059
8.4684400838 -11.4635098020 -3.1200149059
8.4015804893 -11.4544453713 -3.1200149059
8.9561657740 -11.3088596629 -3.1200149059
8.8227948698 -11.2763438258 -3.1200149059
8.7333139929 -11.2894893612 -3.1200149059
8.1419373329 -11.4252993461 -3.1200149059
8.0779679535 -11.3945456585 -3.1200149059
8.8520644158 -11.1993393966 -3.1200149059
8.4974660386 -11.2344654986 -3.1200149059
7.8759145797 -11.4125116735 -3.1200149059
7.7718758702 -11.4001975801 -3.1200149059
8.6540078270 -11.1310046520 -3.1200149059
7.7256445795 -11.3924866271 -3.1200149059
7.7342674041 -10.6678523068 -3.1200149059
7.8605800028 -10.5002185365 -3.1200149059
7.2785598481 -14.5805690561 -3.1200149059
7.1794291909 -15.1314072428 -3.1200149059
7.1780379439 -15.1587405575 -3.1200149059
7.5102622691 -13.7636080672 -3.1200149059
8.5914624391 -11.5331767928 -3.1200149059
8.5804339127 -11.5358472423 -3.1200149059
8.5584008002 -11.5412859557 -3.1200149059
8.5303991518 -11.5234386509 -3.1200149059
8.4862221682 -11.5350392410 -3.1200149059
8.5132717432 -11.5028913556 -3.1200149059
8.3914670555 -11.5366159129 -3.1200149059
8.2037161015 -11.5203654209 -3.1200149059
8.1330637519 -11.3146000124 -3.1200149059
8.2054460595 -10.4340714032 -3.1200149059
7.1756160184 -14.8287532387 -3.1200149059
7.1207393054 -14.6881113501 -3.1200149059
7.0869140132 -14.7518015188 -3.1200149059
7.0788154561 -15.1725402410 -3.1200149059
7.0500527592 -15.1114285498 -3.1200149059
7.0259199132 -15.1128217577 -3.1200149059
6.9920100047 -14.5870056380 -3.1200149059
6.9807009633 -14.6464942552 -3.1200149059
6.9573925426 -14.8266013875 -3.1200149059
6.7593857941 -15.4794827655 -3.1200149059
6.7648195352 -14.3937298694 -3.1200149059
6.7544283852 -14.4334457625 -3.1200149059
6.7199962284 -14.3743389770 -3.1200149059
6.7145206504 -15.6033834639 -3.1200149059
6.5933403996 -15.1663547081 -3.1200149059
6.7452031698 -14.0759083670 -3.1200149059
6.6444392779 -14.3760091405 -3.1200149059
6.7455339309 -14.0131823392 -3.1200149059
6.6427999922 -14.2928490544 -3.1200149059
6.5580953831 -15.5757793720 -3.1200149059
7.4067890966 -11.5882289243 -3.1200149059
7.3866375537 -11.5976979787 -3.1200149059
7.3357800323 -18.4027087531 -3.1200149059
7.3458560326 -18.4076086187 -3.1200149059
7.2848839564 -11.5935680970 -3.1200149059
7.2748175098 -11.5986483153 -3.1200149059
7.2847624294 -18.4044081330 -3.1200149059
7.3454716188 -18.4342642591 -3.1200149059
7.3556409235 -18.4391353172 -3.1200149059
7.2943305782 -11.5618365891 -3.1200149059
7.2335950750 -11.5926006806 -3.1200149059
7.2235259910 -11.5978326249 -3.1200149059
7.2739025599 -18.4260043946 -3.1200149059
7.2840477436 -18.4310872031 -3.1200149059
7.1605454159 -11.5764577320 -3.1200149059
7.1403285404 -11.5873838528 -3.1200149059
7.1287725584 -11.5661519296 -3.1200149059
7.0983813676 -11.5828682889 -3.1200149059
7.0882840850 -11.5885002624 -3.1200149059
7.1763077612 -14.8753216107 -3.1200149059
7.0948188291 -14.7729403104 -3.1200149059
7.0549660877 -14.8778322523 -3.1200149059
6.9952294871 -14.6673853114 -3.1200149059
7.0629369957 -15.1813019710 -3.1200149059
6.9778020878 -14.8327378472 -3.1200149059
6.9782961750 -14.8386297714 -3.1200149059
6.8265858594 -14.7180049555 -3.1200149059
6.9773594821 -15.4598476598 -3.1200149059
6.8418686969 -15.2882540079 -3.1200149059
6.7480902459 -14.9580214354 -3.1200149059
6.7516696349 -14.9842892884 -3.1200149059
6.7359148889 -15.0406595269 -3.1200149059
6.6876331082 -14.8430516041 -3.1200149059
6.6299087013 -14.2043578461 -3.1200149059
6.5788824058 -14.3684996868 -3.1200149059
6.7980590021 -15.8199422883 -3.1200149059
6.4407861994 -14.7568379646 -3.1200149059
6.8002366860 -15.9712228290 -3.1200149059
6.8079810549 -15.9840358012 -3.1200149059
6.9448321154 -11.6700246766 -3.1200149059
6.9359704693 -11.6760279702 -3.1200149059
6.9271266208 -11.6820574518 -3.1200149059
6.9094926261 -11.6941947681 -3.1200149059
6.6976230550 -11.6990144436 -3.1200149059
6.6888482476 -11.7057488994 -3.1200149059
6.6741024921 -11.6865943182 -3.1200149059
6.5650310390 -11.7112528557 -3.1200149059
6.5080478511 -11.6954717945 -3.1200149059
7.7955397468 -18.4724534529 -3.1200149059
7.8067971931 -18.4759104359 -3.1200149059
7.6679260039 -18.4818109982 -3.1200149059
7.6792116899 -18.4856454448 -3.1200149059
7.7018168438 -18.4932140991 -3.1200149059
7.5697094455 -18.4726223189 -3.1200149059
7.4936657938 -18.4697078939 -3.1200149059
7.4081379673 -18.4876600846 -3.1200149059
7.3101759511 -18.4988670067 -3.1200149059
7.6172707495 -18.6688414544 -3.1200149059
7.4676028635 -18.6409299153 -3.1200149059
7.4658808132 -18.7177292254 -3.1200149059
6.8962924397 -18.5127857279 -3.1200149059
6.9190718671 -18.5249859204 -3.1200149059
6.5024385867 -18.5047461104 -3.1200149059
6.3467417158 -18.5176062685 -3.1200149059
6.9000017788 -19.0828111243 -3.1200149059
6.8596542354 -14.9473451859 -3.1200149059
6.8157687914 -15.3372753528 -3.1200149059
6.6285477235 -14.7832367283 -3.1200149059
7.9027200110 -18.5080693294 -3.1200149059
7.3398896996 -18.5624261622 -3.1200149059
6.9025668613 -15.0300972460 -3.1200149059
6.9255804358 -15.1339018305 -3.1200149059
6.7912498520 -15.2928448411 -3.1200149059
7.0067572775 -15.6506296749 -3.1200149059
6.3976329381 -14.4429431689 -3.1200149059
6.4378445304 -14.6936615558 -3.1200149059
8.9064828407 -18.4840566153 -3.1200149059
8.9445753350 -18.4826745307 -3.1200149059
8.9699628689 -18.4815653581 -3.1200149059
8.6645151024 -18.5091219365 -3.1200149059
8.8050557153 -18.5102612330 -3.1200149059
8.5997143626 -18.5312469777 -3.1200149059
8.6896178009 -18.5338381407 -3.1200149059
8.8951784055 -18.5327680890 -3.1200149059
8.6237880483 -18.5804966004 -3.1200149059
8.8058450688 -18.6069501229 -3.1200149059
8.4516721040 -18.6198595616 -3.1200149059
8.0565420302 -18.5980985442 -3.1200149059
7.9349814393 -18.6013008502 -3.1200149059
8.8336720165 -18.7275127096 -3.1200149059
7.7366752558 -18.6335899449 -3.1200149059
8.4954189953 -18.7680919579 -3.1200149059
7.5933895844 -18.6478341773 -3.1200149059
7.4483680888 -18.6574487383 -3.1200149059
8.8353737460 -18.8483658692 -3.1200149059
6.9699789888 -18.5916902071 -3.1200149059
3.7579410181 -11.8586867329 -3.1200149059
7.0593756279 -15.1284127285 -3.1200149059
6.9177694383 -15.0493324992 -3.1200149059
7.0024813682 -15.2530971895 -3.1200149059
6.6820442252 -15.1738101206 -3.1200149059
6.6386695293 -15.2411565543 -3.1200149059
7.2740559196 -15.9326261086 -3.1200149059
7.3073084684 -15.9839408749 -3.1200149059
7.1656060542 -15.9143533205 -3.1200149059
9.1342305860 -18.5405759895 -3.1200149059
9.1880925701 -18.5340519343 -3.1200149059
9.5225975758 -18.4788911530 -3.1200149059
9.5358860761 -18.4761713067 -3.1200149059
8.8653103591 -18.5877503377 -3.1200149059
8.8925348067 -18.5861581739 -3.1200149059
9.0556403440 -18.5732256729 -3.1200149059
9.2046652834 -18.5562922623 -3.1200149059
9.5541186752 -18.4970724873 -3.1200149059
8.7296984793 -18.6174587224 -3.1200149059
8.7981949773 -18.6151788823 -3.1200149059
9.6527746781 -18.5001053096 -3.1200149059
8.7440972768 -18.6412467884 -3.1200149059
9.3880391436 -18.5777089262 -3.1200149059
8.3709658865 -18.6612597215 -3.1200149059
8.4810168273 -18.6897662686 -3.1200149059
9.3136423194 -18.6386000216 -3.1200149059
8.1313327373 -18.6914401665 -3.1200149059
8.1591834946 -18.6941886461 -3.1200149059
8.1428820763 -18.7168911744 -3.1200149059
8.1568806604 -18.7182517347 -3.1200149059
7.8984705966 -18.7352507397 -3.1200149059
8.3506120512 -18.7812217093 -3.1200149059
8.8488507321 -18.8064717263 -3.1200149059
8.2048416176 -18.8196343087 -3.1200149059
9.5425069204 -18.7953174308 -3.1200149059
3.7745619984 -12.9359213071 -3.1200149059
3.7714785415 -12.9502294424 -3.1200149059
3.7566968764 -13.0219034947 -3.1200149059
3.7005738459 -13.3685953010 -3.1200149059
3.6784445821 -13.3509910954 -3.1200149059
9.6859137529 -18.8395842414 -3.1200149059
3.8583996877 -12.4407766309 -3.1200149059
3.8360735109 -12.5112208116 -3.1200149059
3.7829244916 -12.6958463489 -3.1200149059
3.6381455994 -12.9983667832 -3.1200149059
3.9017461720 -12.0433878377 -3.1200149059
7.1864761204 -15.2887231740 -3.1200149059
7.0792427535 -15.3242185064 -3.1200149059
7.1758572321 -15.7871378538 -3.1200149059
7.6585021886 -16.0939158810 -3.1200149059
3.8434004880 -13.4783386195 -3.1200149059
3.8406666148 -13.5189385271 -3.1200149059
3.9742919030 -12.5777907699 -3.1200149059
3.8733508031 -13.0300752978 -3.1200149059
3.8149103156 -13.5446436564 -3.1200149059
3.8141552588 -13.5582582324 -3.1200149059
3.8082377724 -13.7217686274 -3.1200149059
3.8078159839 -13.7490363304 -3.1200149059
3.8074564129 -13.8035768365 -3.1200149059
3.7837438833 -13.8720933707 -3.1200149059
3.7603400713 -13.9137628616 -3.1200149059
3.7385206951 -13.6235241978 -3.1200149059
3.7350936150 -13.8450774458 -3.1200149059
3.7668209540 -13.0824809036 -3.1200149059
3.7321348272 -13.3587016903 -3.1200149059
3.7214365147 -14.1234670708 -3.1200149059
3.6868059612 -13.7615166544 -3.1200149059
3.6794807363 -12.8810587671 -3.1200149059
9.0267073396 -18.7168051320 -3.1200149059
9.2583379065 -18.6824528870 -3.1200149059
9.7643001859 -18.5926440327 -3.1200149059
9.8067197474 -18.5804978827 -3.1200149059
9.5849503958 -18.6644131552 -3.1200149059
9.9763137801 -18.5787074611 -3.1200149059
9.7970550110 -18.7089862155 -3.1200149059
9.7577777415 -18.7950069792 -3.1200149059
7.2811800717 -15.0520235738 -3.1200149059
7.1780678797 -15.4145848037 -3.1200149059
6.9014460219 -15.4951009921 -3.1200149059
6.5471945115 -15.2887279737 -3.1200149059
4.0028413283 -13.1654252870 -3.1200149059
3.9557013854 -13.4253194176 -3.1200149059
3.9520927407 -13.5006092646 -3.1200149059
3.9248348423 -13.7017737895 -3.1200149059
3.9133984986 -13.3338369877 -3.1200149059
3.9086501124 -13.9305142633 -3.1200149059
3.8776088867 -13.5616348635 -3.1200149059
3.8772176413 -13.7532797839 -3.1200149059
3.8889246671 -13.9957360116 -3.1200149059
3.8778935630 -14.1383058495 -3.1200149059
3.8533383785 -14.3239086631 -3.1200149059
3.8509064704 -14.4563816990 -3.1200149059
3.8261604953 -14.5816749791 -3.1200149059
3.6353756316 -13.5827576483 -3.1200149059
9.9443255883 -18.8083769907 -3.1200149059
7.3513199432 -15.4966402710 -3.1200149059
6.6375486431 -15.4969009971 -3.1200149059
6.3121286303 -15.3951181016 -3.1200149059
8.0411236085 -16.0702834122 -3.1200149059
4.0022723318 -13.7739114326 -3.1200149059
4.0057877070 -13.8323291155 -3.1200149059
3.9880808815 -13.9161423892 -3.1200149059
3.9913492019 -13.9513196299 -3.1200149059
3.9937014600 -13.9747544114 -3.1200149059
3.9974897078 -14.0098794646 -3.1200149059
3.9988217095 -14.0215801740 -3.1200149059
3.9640018311 -13.9182718518 -3.1200149059
3.9721625289 -14.0008024485 -3.1200149059
3.9734677899 -14.0125781200 -3.1200149059
3.9748078797 -14.0243498788 -3.1200149059
3.9790370036 -14.0596406488 -3.1200149059
3.9311802925 -13.8015336898 -3.1200149059
3.9790614354 -14.2277447881 -3.1200149059
3.9241029371 -14.0060576133 -3.1200149059
3.9592290142 -14.2553617606 -3.1200149059
3.9553079123 -14.3661943631 -3.1200149059
3.9650625490 -14.4134470128 -3.1200149059
