-0.3706007858 -15.2807701800 -3.2508025169
-1.0392739556 -14.4323994594 -3.2508025169
-3.5908803647 -12.6294397090 -3.2508025169
-3.6154916968 -12.8007367439 -3.2508025169
-3.5839155204 -12.4544176830 -3.2508025169
-3.6236661713 -12.6828610202 -3.2508025169
-3.6580844400 -12.9706398836 -3.2508025169
-3.6605885381 -12.9995186825 -3.2508025169
-3.6661009168 -13.0717760721 -3.2508025169
-3.6680065190 -13.1007005291 -3.2508025169
-3.4869657733 -11.9696372352 -3.2508025169
-3.5461485884 -12.1799265859 -3.2508025169
-3.5603498075 -12.2364293711 -3.2508025169
-3.5738814652 -12.2930962362 -3.2508025169
-3.6104405944 -12.4640018621 -3.2508025169
-3.6870219813 -13.0265373712 -3.2508025169
-3.6954457849 -13.1573485397 -3.2508025169
-3.7017798180 -13.4339767022 -3.2508025169
-3.5429700819 -12.0749510019 -3.2508025169
-3.5374787769 -11.9695831286 -3.2508025169
-3.5541694844 -12.0259980539 -3.2508025169
-3.6242812749 -12.2964764206 -3.2508025169
-3.7444569939 -13.1695742442 -3.2508025169
-3.7463802266 -13.2136565461 -3.2508025169
-3.7502331168 -12.9178585938 -3.2508025169
-3.6128062588 -12.0554080763 -3.2508025169
-3.6631916835 -12.1497720512 -3.2508025169
-3.7454535734 -12.5288422394 -3.2508025169
-3.7764006564 -12.1048261799 -3.2508025169
2.0900107285 -18.7208038335 -3.2508025169
2.8781777076 -18.5808956769 -3.2508025169
2.4971142310 -18.7126441372 -3.2508025169
2.9009118707 -18.5989728278 -3.2508025169
2.9469098193 -18.5838674068 -3.2508025169
2.5657166037 -18.7206176616 -3.2508025169
3.2136796690 -18.5131268906 -3.2508025169
3.3315225552 -18.5440506996 -3.2508025169
2.6905338501 -18.9379738577 -3.2508025169
-0.0785585429 -15.0597964892 -3.2496075858
-0.0906128766 -15.1082657814 -3.2496075973
-0.6226522567 -14.7375240095 -3.2496076031
0.0475708693 -15.2029706755 -3.2496076031
0.3825016177 -15.4445028473 -3.2496076319
-1.2779065366 -14.2519849695 -3.2496076665
-3.5089402647 -12.7180680854 -3.2496081506
-3.5145854067 -12.7705910906 -3.2496081506
-3.5196086769 -12.8231772147 -3.2496081506
-3.5240093720 -12.8758190952 -3.2496081506
-3.5358751272 -12.7417380129 -3.2496081563
-3.5550786849 -12.9799402463 -3.2496081563
-3.5570450271 -13.0197254357 -3.2496081563
-3.5828155235 -13.0586547294 -3.2496081621
-3.5848365428 -13.3122532069 -3.2496081621
-3.5829993023 -13.3789746543 -3.2496081621
-3.5963108566 -12.8702054631 -3.2496081679
-3.6069728264 -13.0577829500 -3.2496081679
-3.6224206331 -12.8952442757 -3.2496081736
-3.6270410122 -13.4750116900 -3.2496081736
-3.6163792009 -13.6230390190 -3.2496081736
-3.6387621135 -12.7988878605 -3.2496081794
-3.7032084921 -13.7275336616 -3.2496081967
-3.6583128984 -14.1678014145 -3.2496082024
-3.6518337669 -14.3085931573 -3.2496082082
-0.1831660401 -15.0289730528 -3.2501812436
-0.4185741279 -14.9436438706 -3.2501812551
-0.7301368377 -14.8264109656 -3.2501812897
3.1057269943 -15.8984505760 -3.2501820390
-3.4876211450 -13.3757944943 -3.2501822003
-3.5148831188 -13.3287769259 -3.2501822119
-3.5117341921 -13.3774963295 -3.2501822119
-3.5173871255 -13.5747399169 -3.2501822234
-3.5159263288 -13.5869295388 -3.2501822234
-3.5097227474 -13.6356432139 -3.2501822234
-3.5428256787 -13.5653157990 -3.2501822349
-3.5413926489 -13.5775807140 -3.2501822349
-3.5368759579 -13.6143492728 -3.2501822349
-3.5601443013 -13.9210012691 -3.2501822695
-3.5525792071 -13.9579227150 -3.2501822695
-3.5473539069 -13.9824990859 -3.2501822695
-3.5838466391 -13.9257483170 -3.2501822810
-3.5683011068 -13.9999425443 -3.2501822810
-3.5628269280 -14.0246111959 -3.2501822810
-3.6628947885 -13.5791646586 -3.2501822925
-3.5697824043 -14.2894261175 -3.2501823156
-3.6977531713 -13.8431551007 -3.2501823271
-3.6599781203 -14.0332281440 -3.2501823271
-3.5823785131 -14.4147232949 -3.2501823386
-3.5744501058 -14.4394679738 -3.2501823386
-3.5974484296 -14.4469119231 -3.2501823502
-3.7645529018 -13.8815692585 -3.2501823617
-3.5177132542 -14.7383933408 -3.2501823617
-3.7472948223 -14.1885941862 -3.2501823848
-3.4413490731 -15.1409715187 -3.2501824078
-0.4376223931 -14.9863094437 -3.2499266353
0.0510916167 -15.0960772486 -3.2499266353
-0.3863029648 -15.0291697663 -3.2499266526
-0.3142806550 -15.0509302271 -3.2499266526
-0.1987950921 -15.0801188678 -3.2499266526
-0.6300359716 -14.9604285009 -3.2499266699
-0.4117892034 -15.0462768618 -3.2499266699
-0.1792673098 -15.1090878788 -3.2499266699
-0.1668487365 -15.1116656682 -3.2499266699
0.0967405212 -15.1487006134 -3.2499266699
0.3628874772 -15.1527849467 -3.2499266699
-0.7152148771 -14.9462409281 -3.2499266872
-0.5754974522 -15.0107328910 -3.2499266872
-0.0833804544 -15.1515101056 -3.2499266872
0.2999212980 -15.1789824241 -3.2499266872
-0.7892465775 -14.9346108307 -3.2499267045
-0.4638208579 -15.0796003923 -3.2499267045
-0.4576994620 -15.0817403610 -3.2499267045
-0.2335510435 -15.1465792149 -3.2499267045
-0.4780142726 -15.1002255450 -3.2499267218
-0.7468525335 -15.0385462636 -3.2499267564
-0.4941710244 -15.1457919855 -3.2499267564
-0.1293812203 -15.2663449869 -3.2499267736
0.0046399024 -15.2855797425 -3.2499267736
-0.9478490789 -14.9822943610 -3.2499267909
-0.4650234951 -15.2068960979 -3.2499267909
-0.0456159297 -15.3037073497 -3.2499267909
0.8699590518 -15.2431867810 -3.2499267909
-1.2020441620 -14.8635335179 -3.2499268255
-0.7377166921 -15.2301167952 -3.2499268774
-0.9796768210 -15.2988348729 -3.2499269984
-0.6715422234 -15.6214875356 -3.2499271194
3.2610917663 -15.3253898350 -3.2499278456
3.2679239538 -15.3165097630 -3.2499278456
3.2882624857 -15.2897488269 -3.2499278456
-3.4981830598 -13.8809405137 -3.2499278975
-3.4955942400 -13.8920619192 -3.2499278975
-3.4903179597 -13.9142815125 -3.2499278975
-3.4849103133 -13.9364695006 -3.2499278975
-3.4821572867 -13.9475514000 -3.2499278975
-3.4971000327 -13.9868181848 -3.2499279148
-3.4941980123 -13.9979359233 -3.2499279148
-3.4912631162 -14.0090450284 -3.2499279148
-3.4882953703 -14.0201454030 -3.2499279148
-3.4852948005 -14.0312369499 -3.2499279148
-3.5055674358 -14.0487356074 -3.2499279321
-3.5024822154 -14.0598781231 -3.2499279321
-3.4930289751 -14.0932502282 -3.2499279321
-3.4898121273 -14.1043554580 -3.2499279321
3.2921132970 -15.4807545985 -3.2499279321
-3.5125035836 -14.1962971093 -3.2499279666
-3.5016657306 -14.3790997941 -3.2499280012
-3.4976032502 -14.3902293224 -3.2499280012
-3.4735177716 -14.7042002679 -3.2499280704
-3.7386274649 -14.1128959618 -3.2499281050
-3.7253135135 -14.1601637655 -3.2499281050
-3.4096645257 -14.9446764118 -3.2499281050
-3.7237566280 -14.2496623012 -3.2499281223
-3.4424945382 -14.9340500741 -3.2499281223
3.2431043752 -15.9339734311 -3.2499281223
-3.7539748992 -14.3905801062 -3.2499281741
-3.5289849763 -15.2276565234 -3.2499282779
-3.5428965433 -15.4367541338 -3.2499283643
-0.1436436467 -15.0905569589 -3.2500157584
0.0050873352 -15.0893211530 -3.2500157584
-0.1066867300 -15.1154100259 -3.2500157641
-0.6089386611 -15.0750882277 -3.2500157699
-0.5639304141 -15.1354406196 -3.2500157814
-0.7963854659 -15.0954909969 -3.2500157872
-1.0540083156 -15.0435504150 -3.2500157987
-0.5518868426 -15.2369391038 -3.2500158045
0.6758011459 -15.1539779769 -3.2500158045
1.2852718025 -15.0934345134 -3.2500158564
-0.5371806485 -15.6332843737 -3.2500158967
-0.5962556929 -15.6471294344 -3.2500159025
-0.5569874166 -15.6543762937 -3.2500159025
-3.4349244150 -14.4301368416 -3.2500161272
-3.4485440467 -14.4595704758 -3.2500161330
-3.4398257110 -14.4794347912 -3.2500161330
-3.4354225096 -14.4893475192 -3.2500161330
-3.4309900038 -14.4992471784 -3.2500161330
-3.4348967644 -14.5488845388 -3.2500161388
-3.4521870033 -14.5690183508 -3.2500161445
-3.4428210734 -14.5889023037 -3.2500161445
-3.4502970886 -14.6291822077 -3.2500161503
-3.4454508615 -14.6391252567 -3.2500161503
-3.4372795513 -14.7094852719 -3.2500161560
-3.4329252701 -14.7701783743 -3.2500161618
-3.2045185665 -15.3527385652 -3.2500161906
3.4125488699 -14.7904928564 -3.2500161964
3.3893122492 -15.1735489661 -3.2500162367
-0.3849675749 -15.1362885126 -3.2500130106
-0.4282959649 -15.1610144304 -3.2500129847
-0.2342155371 -15.1516442197 -3.2500129847
-0.1283910354 -15.1389656648 -3.2500129847
-0.0418086842 -15.1245404150 -3.2500129847
-0.5360070710 -15.1827348070 -3.2500129588
-0.4282381743 -15.1851873893 -3.2500129588
-0.4092137107 -15.1850574885 -3.2500129588
0.1111138104 -15.1148973943 -3.2500129588
0.2628284862 -15.0689998702 -3.2500129588
-0.2744071942 -15.2035312569 -3.2500129328
0.2341763360 -15.1040351997 -3.2500129328
0.4143564423 -15.0367547704 -3.2500129328
-0.6418014249 -15.2236073449 -3.2500129069
0.4058701110 -15.0665306079 -3.2500129069
-0.8902539802 -15.2101069433 -3.2500128810
-0.8709901760 -15.2140761923 -3.2500128810
-0.1860025449 -15.2438653089 -3.2500128810
-0.0368404271 -15.2219524952 -3.2500128810
0.4090641774 -15.0913630038 -3.2500128810
-0.6397998526 -15.2723547880 -3.2500128550
-0.3352507364 -15.2797363589 -3.2500128550
-0.2426627164 -15.2737549651 -3.2500128550
-0.2030730081 -15.2700187603 -3.2500128550
-0.1372575245 -15.2622323076 -3.2500128550
-0.0520933315 -15.2492059839 -3.2500128550
-0.0325155508 -15.2457354876 -3.2500128550
0.4609785001 -15.0956439795 -3.2500128550
-0.0876472040 -15.2795147757 -3.2500128291
-0.0413798997 -15.2718766220 -3.2500128291
0.1158535717 -15.2384516455 -3.2500128291
0.4828965835 -15.1124229307 -3.2500128291
-1.1598800730 -15.2118647661 -3.2500128032
-0.1174507076 -15.3083249010 -3.2500128032
-0.0906498416 -15.3044281801 -3.2500128032
0.1806294983 -15.2463396137 -3.2500128032
0.7680602189 -14.9895563637 -3.2500128032
0.3242481875 -15.2268081084 -3.2500127772
0.6614695722 -15.1062791140 -3.2500127513
0.8747473888 -14.9782077167 -3.2500127513
-1.3098944948 -15.2600499517 -3.2500126994
-0.9939635230 -15.3601167716 -3.2500126994
-0.8766990344 -15.3853656355 -3.2500126994
0.7398256280 -15.1184976174 -3.2500126994
1.0881233956 -14.8787273456 -3.2500126994
1.0285299568 -14.9873094649 -3.2500126476
1.0910639530 -14.9387176877 -3.2500126476
-1.1790312114 -15.3836100140 -3.2500126216
-1.6051054144 -15.2296412955 -3.2500125957
-0.7350776035 -15.5052107206 -3.2500125957
-1.5314318577 -15.3481081733 -3.2500125179
1.2090255821 -15.0609438869 -3.2500124660
-0.6599551601 -15.6588643378 -3.2500124401
-0.5125604029 -15.6674601151 -3.2500124401
-0.7010841084 -15.6792761341 -3.2500124141
0.0339337627 -15.7004235666 -3.2500123623
-2.1945448436 -15.6930385659 -3.2500118436
-3.3254286059 -14.9208727314 -3.2500115583
-3.3456975993 -14.9340447924 -3.2500115324
-3.3546399780 -14.9645337649 -3.2500115064
-3.3489383004 -14.9731670152 -3.2500115064
-3.3374584539 -14.9903827275 -3.2500115064
-3.3517124062 -15.0124947626 -3.2500114805
-3.3399998350 -15.0297261991 -3.2500114805
-3.3341053704 -15.0383158561 -3.2500114805
-3.3222403411 -15.0554426715 -3.2500114805
-3.3162698803 -15.0639796801 -3.2500114805
-3.3300217736 -15.0864405923 -3.2500114546
-3.3117593642 -15.1120662817 -3.2500114546
-3.3375368469 -15.1176005976 -3.2500114286
-3.3189976140 -15.1432917520 -3.2500114286
-3.3127672939 -15.1518187836 -3.2500114286
-3.4058445930 -15.0618859121 -3.2500114027
-3.3132948202 -15.1917511275 -3.2500114027
-3.3062848796 -15.2806420817 -3.2500113508
-3.3186701086 -15.3040475536 -3.2500113249
-3.3036885764 -15.3616712189 -3.2500112989
-3.3095060050 -15.6158782242 -3.2500111174
-3.2988060999 -15.6993975495 -3.2500110655
-2.9090399082 -16.0969360610 -3.2500110396
-3.3278329050 -15.7745097702 -3.2500109877
-2.8468933643 -16.2072711044 -3.2500109877
3.4824167182 -14.2626056126 -3.2500108581
3.4860120504 -14.2510166839 -3.2500108581
3.4868946009 -14.3279252328 -3.2500108321
3.4822230697 -14.4168328130 -3.2500108062
3.4862746347 -14.4052437824 -3.2500108062
3.4902918995 -14.3936428173 -3.2500108062
3.4942748289 -14.3820300191 -3.2500108062
3.4883850423 -14.4713481147 -3.2500107803
3.4849488160 -14.5494090956 -3.2500107543
3.4893925537 -14.5378114216 -3.2500107543
3.4981770081 -14.5145768915 -3.2500107543
3.4846456835 -14.6162125363 -3.2500107284
3.4892870392 -14.6046154668 -3.2500107284
3.5030049860 -14.5697425895 -3.2500107284
3.4976355231 -14.6485128108 -3.2500107024
3.4907030007 -14.7275710080 -3.2500106765
-3.3392714760 -16.2043603292 -3.2500106506
3.4226847818 -14.9333417340 -3.2500106506
3.4393226125 -14.8990469696 -3.2500106506
3.4556554412 -14.8646059042 -3.2500106506
3.4821955575 -14.8068863878 -3.2500106506
3.4977088245 -14.7720684782 -3.2500106506
3.6436902756 -14.3927528875 -3.2500106506
3.6632309354 -14.3323038762 -3.2500106506
3.4989630069 -14.8284626742 -3.2500106246
3.6706378014 -14.3882236103 -3.2500106246
3.6862864124 -14.3395688789 -3.2500106246
3.4994299411 -14.8851274608 -3.2500105987
3.6517422630 -14.5172339516 -3.2500105987
3.6335160292 -14.6342742203 -3.2500105728
3.3882071920 -15.2056853182 -3.2500105468
3.3227332239 -15.3637248950 -3.2500105209
3.5019900320 -15.0450043944 -3.2500105209
3.6342034910 -14.7607955700 -3.2500105209
3.4933031604 -15.1142754776 -3.2500104950
3.1487323247 -15.7058692719 -3.2500104690
3.5017685143 -15.3475250519 -3.2500103653
-0.0863875453 -15.1282770658 -3.2500097520
0.3546802722 -15.0017094945 -3.2500095531
3.4899592932 -13.7189166957 -3.2500037207
3.4932718036 -13.6937217673 -3.2500037207
3.5068049297 -13.7727507264 -3.2500036544
3.5104356454 -13.7474551913 -3.2500036544
3.5121948658 -13.7347994792 -3.2500036544
3.5124332105 -13.8904371960 -3.2500035881
3.5279424695 -14.0645200975 -3.2500034556
3.5498151202 -14.2851922269 -3.2500032567
3.5529598234 -14.4516610268 -3.2500031242
3.5268389068 -14.7552803514 -3.2500029253
3.5637072214 -14.6532263375 -3.2500029253
0.2308542852 -14.9756656572 -3.2500129847
-0.2514030681 -15.6229353704 -3.2500126216
3.5072110619 -13.2154132925 -3.2500103394
3.5057975080 -13.1611760498 -3.2500103394
3.5053438503 -13.1476196493 -3.2500103394
3.5321085513 -13.3512745784 -3.2500103134
3.5541188549 -13.1596305499 -3.2500102875
3.5849164293 -13.7391479422 -3.2500102356
3.5980982386 -14.6902307832 -3.2500100281
-4.0244345987 -17.2216063518 -3.2500100022
0.2339413243 -15.1345394516 -3.2500198482
0.3879766646 -14.9668796456 -3.2500198482
0.2118469930 -15.1893023189 -3.2500198972
0.2412183924 -15.1612379954 -3.2500198972
0.2460649980 -15.1565101159 -3.2500198972
3.5895479085 -12.9948143435 -3.2500253349
3.5473751023 -12.6888864694 -3.2500253349
3.6394866538 -13.3755602103 -3.2500253838
3.6302216046 -13.1836603246 -3.2500253838
3.6646265596 -13.6272998724 -3.2500254328
3.6652547399 -13.4490966161 -3.2500254328
3.6595579541 -13.2709833324 -3.2500254328
3.6655942721 -12.8208924723 -3.2500255308
3.6401753161 -12.6579345601 -3.2500255308
3.7866130398 -13.5082097676 -3.2500256778
-3.2536712190 -18.6347649709 -3.2500263146
-0.1255048621 -15.2759573849 -3.2500207542
-0.1402878222 -15.3236038380 -3.2500208176
-0.1260071912 -15.3762990095 -3.2500209444
0.4727258059 -14.5864323139 -3.2500210712
-0.7460371737 -15.9053374744 -3.2500212614
0.2773636991 -15.1003488340 -3.2500212614
-2.3443593447 -18.6193955346 -3.2500281082
-1.9720185938 -18.6870755218 -3.2500281716
-1.9429692616 -18.6892442915 -3.2500281716
-1.8848346461 -18.6930660501 -3.2500281716
-2.9799134700 -18.5270556630 -3.2500282350
-2.1632649234 -18.6928049409 -3.2500282350
-1.8289735887 -18.7444902779 -3.2500282984
-1.9776316146 -18.7593770539 -3.2500283618
-2.2336974571 -18.7815926455 -3.2500284886
-2.8112040581 -18.6978018875 -3.2500285520
3.7188359631 -12.8935253833 -3.2500293761
3.6624430867 -12.4978963899 -3.2500294395
3.5537573885 -11.8917173577 -3.2500296297
3.4997834935 -11.6861265176 -3.2500296931
3.7119279859 -12.2166340716 -3.2500297565
0.0940121246 -15.0126694823 -3.2500157584
-0.1640817216 -15.4459783316 -3.2500157641
-0.1479494582 -15.4267747154 -3.2500157641
0.0434221274 -15.1555072463 -3.2500157641
0.1830492586 -14.8751287430 -3.2500157641
-0.1415646237 -15.4567986218 -3.2500157699
0.1907140192 -14.9193669809 -3.2500157699
0.2329661168 -14.8133393307 -3.2500157699
-0.3187362652 -15.6754781516 -3.2500157757
-0.1911649174 -15.5491768943 -3.2500157757
0.1701985545 -15.0221923186 -3.2500157757
0.3071614226 -14.6631433881 -3.2500157757
0.2360678909 -14.9959362365 -3.2500157872
0.1706157224 -15.1771028920 -3.2500157930
0.1803369420 -15.1597583906 -3.2500157930
-0.5561569672 -15.9791841761 -3.2500157987
0.0421531283 -15.4192330093 -3.2500157987
0.2422437647 -15.0945311680 -3.2500157987
0.3272950043 -14.9051505116 -3.2500157987
0.4238558826 -14.5987126199 -3.2500157987
0.3516760028 -15.0336782091 -3.2500158160
0.3573222059 -15.0210560822 -3.2500158160
0.3844277270 -14.9574565654 -3.2500158160
-0.0495342944 -15.6808515870 -3.2500158218
0.6298598450 -14.1385432228 -3.2500158333
0.6547364364 -14.1032089872 -3.2500158391
0.4435748340 -15.1229682622 -3.2500158448
-0.0641309484 -15.8676823165 -3.2500158506
0.4297487478 -15.2057507766 -3.2500158506
-0.7756482771 -16.3961900011 -3.2500158621
-2.3215629452 -18.5043090027 -3.2500163232
-2.1771072826 -18.5196177196 -3.2500163232
-2.0849517755 -18.5269092425 -3.2500163232
-1.9009438367 -18.5599249195 -3.2500163289
-1.8876702688 -18.5602662598 -3.2500163289
-1.6213093240 -18.5830037934 -3.2500163347
-1.5668262535 -18.6049697599 -3.2500163405
-1.4848676280 -18.6246144131 -3.2500163462
-2.2553900073 -18.6334527826 -3.2500163520
-1.7001318209 -18.6575990800 -3.2500163520
-1.4156651187 -18.6438644660 -3.2500163520
-1.3751158694 -18.6404608009 -3.2500163520
-1.3481005075 -18.6379918299 -3.2500163520
-1.2941159690 -18.6325746137 -3.2500163520
-1.7406195125 -18.6822899295 -3.2500163578
-1.6179322967 -18.6796369151 -3.2500163578
-1.4409415983 -18.6700415590 -3.2500163578
-1.2509026368 -18.6521066167 -3.2500163578
-1.2373592230 -18.6505246142 -3.2500163578
-2.1512267607 -18.6916404088 -3.2500163635
-1.2753762700 -18.6791802623 -3.2500163635
-1.2209094619 -18.6728996557 -3.2500163635
-1.0986563995 -18.6564150166 -3.2500163635
-1.9193168413 -18.7286786218 -3.2500163693
-0.9320220059 -18.6531545599 -3.2500163693
-0.8868033267 -18.6691886123 -3.2500163750
-1.8233442097 -18.7789314647 -3.2500163808
-0.9369246913 -18.7032057618 -3.2500163808
-0.7595313506 -18.6674103288 -3.2500163808
-0.7052399221 -18.6550268294 -3.2500163808
-0.7133536526 -18.6817346405 -3.2500163866
-0.6861056828 -18.6753497397 -3.2500163866
-0.5910452705 -18.6517354701 -3.2500163866
-0.5639769264 -18.6446274768 -3.2500163866
-0.5985939781 -18.6786456549 -3.2500163923
3.7116227079 -11.8734161460 -3.2500166690
-0.0051871514 -15.2629447195 -3.2500130106
-0.0026309610 -15.2572976849 -3.2500130106
-0.0905183005 -15.4784857174 -3.2500129847
-0.0873241275 -15.4730901646 -3.2500129847
0.0320799953 -15.2385593057 -3.2500129847
0.0561494715 -15.1806641462 -3.2500129847
0.1010639526 -15.0569106697 -3.2500129847
0.0308792758 -15.3002319620 -3.2500129588
0.1861572681 -14.8317418876 -3.2500129588
0.1429644719 -15.0841601306 -3.2500129328
0.2208035474 -14.7799919776 -3.2500129328
-0.2096401391 -15.7760130633 -3.2500129069
0.0719704874 -15.3264993752 -3.2500129069
0.2637770362 -14.6560255560 -3.2500129069
-0.0666911087 -15.6222195132 -3.2500128810
0.0091458356 -15.4995596702 -3.2500128810
0.2809426406 -14.7108934946 -3.2500128810
-0.3412779469 -15.9928178508 -3.2500128550
-0.2451767729 -15.8921708405 -3.2500128550
0.2847859091 -14.8319091765 -3.2500128550
0.2858396681 -15.2571568585 -3.2500127254
0.3839660792 -14.9441354048 -3.2500127254
0.3977433815 -14.8827984479 -3.2500127254
0.4735952241 -15.0787220754 -3.2500125957
0.4927439409 -15.0078379133 -3.2500125957
-1.6484158185 -18.4892620715 -3.2500108581
-1.6712217720 -18.5148865104 -3.2500108321
-1.6468573693 -18.5133848101 -3.2500108321
-1.5738234369 -18.5080152146 -3.2500108321
-1.4008838989 -18.5144406644 -3.2500108062
-1.1616860487 -18.5267424235 -3.2500107543
-1.2733326433 -18.6188545501 -3.2500106765
-0.9205659785 -18.5749851717 -3.2500106506
-0.8958591497 -18.5690412878 -3.2500106506
-0.8158161386 -18.5737144295 -3.2500106246
-1.2844150168 -18.7182502738 -3.2500105728
-0.6914727813 -18.5894472793 -3.2500105728
-0.6790731920 -18.5858158469 -3.2500105728
-0.6419396377 -18.5747016922 -3.2500105728
-1.4226705748 -18.7604301709 -3.2500105468
-0.5530891555 -18.5974840556 -3.2500105209
-0.5158570135 -18.5852514038 -3.2500105209
-0.9510663591 -18.7307991676 -3.2500104950
-0.4833138999 -18.5997988798 -3.2500104950
-0.4460639627 -18.5869469206 -3.2500104950
0.0026758710 -15.4634233426 -3.2500139954
0.0069366987 -15.4516291099 -3.2500139954
0.0873709835 -15.2719063963 -3.2500139810
0.1984449017 -14.5895581417 -3.2500139522
-0.1446700954 -16.0098627439 -3.2500139234
0.2115550484 -14.2011405253 -3.2500139090
0.2003299502 -15.4058306025 -3.2500138946
0.3940812130 -14.8515670571 -3.2500138369
0.3950009745 -14.8304168977 -3.2500138369
0.3912210260 -15.1149510494 -3.2500138225
0.4022460604 -15.0373227818 -3.2500138225
0.2840840610 -11.7377829705 -3.2500130157
0.3253830144 -11.7389338897 -3.2500130012
-1.1191482115 -18.4981912124 -3.2500129580
-1.0858071174 -18.4903265163 -3.2500129580
-1.0747090916 -18.4876392366 -3.2500129580
-1.0636190638 -18.4849191387 -3.2500129580
-1.0414633903 -18.4793805838 -3.2500129580
-1.0801530077 -18.5138289911 -3.2500129436
-1.0243968366 -18.4999784528 -3.2500129436
-1.0021527537 -18.4942075825 -3.2500129436
-0.9799432024 -18.4883052096 -3.2500129436
-0.9513532073 -18.5055776216 -3.2500129292
-0.7926293584 -18.5089939283 -3.2500129004
-0.8077939858 -18.5390891615 -3.2500128860
-0.6847322981 -18.4986573304 -3.2500128860
-0.6209889733 -18.5016799195 -3.2500128716
-0.6098593959 -18.4976175740 -3.2500128716
-0.5903528091 -18.5161929803 -3.2500128572
-0.8114788769 -18.6918052431 -3.2500127995
-0.8635420027 -18.7320516527 -3.2500127851
0.0886361371 -15.1931924502 -3.2500155086
0.0863031823 -15.4373832219 -3.2500155115
0.1130873751 -15.1881587039 -3.2500155115
0.1142248609 -15.0126484226 -3.2500155115
0.1134844698 -14.9938526165 -3.2500155115
0.1253004258 -15.3346570221 -3.2500155143
0.1329530040 -14.9168422251 -3.2500155143
0.1225242310 -14.8159226021 -3.2500155143
0.0497051706 -15.7809025272 -3.2500155172
0.0712040289 -15.7137167355 -3.2500155172
0.1798693125 -15.2757364417 -3.2500155201
0.1988109295 -15.3300168598 -3.2500155230
0.0383742985 -16.0075768432 -3.2500155259
0.0921463472 -15.9436561091 -3.2500155288
0.1014796763 -15.9840437448 -3.2500155316
0.2680714838 -14.8110423551 -3.2500155316
0.2578006669 -15.5701889802 -3.2500155345
0.1430106719 -14.2265116683 -3.2500155345
0.0880118836 -16.1285249311 -3.2500155374
0.3199156482 -15.5049073715 -3.2500155403
0.3812699274 -15.0597988712 -3.2500155432
0.4230128576 -15.2678786422 -3.2500155489
0.5166273371 -14.8638225463 -3.2500155605
0.5346699905 -14.8015388529 -3.2500155633
0.5619183982 -14.8291848160 -3.2500155662
-0.5797565882 -18.4391518464 -3.2500156930
-0.5205476423 -18.4398250245 -3.2500156959
-0.4610093284 -18.4394753322 -3.2500156988
-0.3807575493 -18.4551130289 -3.2500157045
-0.2085260389 -18.4489840160 -3.2500157132
-0.1175772914 -18.4266015702 -3.2500157161
-0.1077054491 -18.4210063557 -3.2500157161
-0.2554073838 -18.5820653101 -3.2500157247
-0.2205287503 -11.6089594050 -3.2500157247
-0.1579390601 -11.6143753226 -3.2500157276
0.0228361242 -11.6043538476 -3.2500157391
0.1402431585 -11.6184241017 -3.2500157449
0.3259739540 -11.6232040410 -3.2500157564
0.8625082487 -18.4458491223 -3.2500157852
0.1367988069 -15.4469427255 -3.2500157584
0.1362837128 -15.3849607267 -3.2500157584
0.1297564306 -15.2611779866 -3.2500157584
0.1083511990 -15.0889910623 -3.2500157584
0.0984513431 -15.0340903965 -3.2500157584
0.0870935113 -14.9794727262 -3.2500157584
0.0960790089 -14.8217088251 -3.2500157699
0.0829737163 -14.7792966258 -3.2500157699
0.0669247027 -14.7311700021 -3.2500157699
0.1955414230 -15.6777660511 -3.2500157757
0.1976255372 -15.6586398339 -3.2500157757
0.1943466252 -15.1786495630 -3.2500157757
0.1708544459 -15.0265696839 -3.2500157757
0.1333023604 -14.8641531600 -3.2500157757
0.1000429471 -14.7536255325 -3.2500157757
0.0187668505 -14.5445039388 -3.2500157757
0.2242103742 -15.6353381087 -3.2500157814
0.1649086427 -14.8891539835 -3.2500157814
0.2050890802 -14.9532920508 -3.2500157872
0.0734729702 -14.5486641907 -3.2500157872
0.0436141925 -14.4830212191 -3.2500157872
0.2630929747 -15.1438211191 -3.2500157930
0.1943402787 -14.8132023765 -3.2500157930
0.2987320463 -15.6153230256 -3.2500157987
0.3060536457 -15.4346410374 -3.2500157987
0.0032897028 -14.3021544663 -3.2500157987
0.3088613069 -15.8900755825 -3.2500158102
0.3504299528 -15.2979015885 -3.2500158102
0.3289151230 -14.9541444972 -3.2500158160
0.2910424907 -14.7997363370 -3.2500158160
0.0661135253 -14.2659303740 -3.2500158160
0.3180579357 -14.8066411366 -3.2500158218
0.0549307514 -14.1998178947 -3.2500158218
0.4170185764 -15.2162511874 -3.2500158275
0.4135475578 -15.1811389584 -3.2500158275
0.4027752910 -14.9532370491 -3.2500158333
0.2639177810 -16.4832943100 -3.2500158448
0.3914466927 -14.6342089060 -3.2500158506
0.1954195534 -14.1998487039 -3.2500158506
-0.0096128825 -18.3374520598 -3.2500160926
0.0864449592 -18.3300150805 -3.2500161042
0.0950048322 -18.3239528615 -3.2500161042
0.1261869552 -18.3313756279 -3.2500161099
0.2002653722 -18.3069141260 -3.2500161157
-0.7215986066 -11.5479064205 -3.2500162310
-0.7561285642 -11.5370819347 -3.2500162310
-0.7374112247 -11.5175791530 -3.2500162367
-0.6257953203 -11.5285978022 -3.2500162425
-0.5831840237 -11.5177723215 -3.2500162483
-0.5054913604 -11.5201386341 -3.2500162540
-0.4158942678 -11.5285828418 -3.2500162598
-0.3606515832 -11.5247345431 -3.2500162655
-0.3166819045 -11.5167758154 -3.2500162713
-0.1915562373 -11.5450454213 -3.2500162771
0.3819014257 -19.0348357611 -3.2500162828
0.3052256793 -11.6981434271 -3.2500163001
-0.4054272366 -11.3253052623 -3.2500163059
0.0566202350 -11.5039475290 -3.2500163117
0.2170483209 -15.3138751558 -3.2500152588
0.1796975190 -15.1681332325 -3.2500152588
0.2683057629 -15.3223555354 -3.2500152588
-0.0516307663 -14.5185313415 -3.2500152588
-0.0355017996 -14.4993817625 -3.2500152588
0.4035316897 -15.0730934564 -3.2500152588
0.5718132800 -15.9696099949 -3.2500152588
-0.1239972693 -14.0545209632 -3.2500152588
0.4863164658 -18.2012744950 -3.2500152588
-1.1930692424 -11.5228008803 -3.2500152588
-1.3285587163 -11.4795648666 -3.2500152588
-1.0085131173 -11.5063643646 -3.2500152588
-1.0211201822 -11.5038831730 -3.2500152588
-1.0716201843 -11.4943316672 -3.2500152588
-0.8341119670 -11.4949787383 -3.2500152588
-0.8847304222 -11.4832150877 -3.2500152588
-0.6955974507 -11.4803277894 -3.2500152588
-0.7082829056 -11.4769210506 -3.2500152588
-0.7209783829 -11.4735518526 -3.2500152588
-0.5228088078 -11.4548314337 -3.2500152588
-0.5028621106 -11.4357100491 -3.2500152588
1.2581465458 -19.1016280633 -3.2500152588
-0.0433758602 -11.5540828086 -3.2500152588
-0.8715526360 -11.2385467651 -3.2500152588
0.2574232160 -11.3991188398 -3.2500152588
-1.8245658612 -11.5179596197 -3.2500152588
-1.5675853131 -11.4935613884 -3.2500152588
-1.7574636708 -11.4923305766 -3.2500152588
-1.8252671724 -11.4937967672 -3.2500152588
-1.4170858531 -11.4759134436 -3.2500152588
-1.4579297122 -11.4736527978 -3.2500152588
-1.7307391424 -11.4436805428 -3.2500152588
-0.7625240772 -11.3897962323 -3.2500152588
-0.5301538598 -11.3921093759 -3.2500152588
-0.3855805310 -11.4052511015 -3.2500152588
0.1884111546 -15.0466306281 -3.2500152588
0.0267600224 -14.8633266106 -3.2500152588
-0.0957334072 -14.7172340804 -3.2500152588
0.3098453211 -15.1305745323 -3.2500152588
0.3037822503 -15.0797289010 -3.2500152588
0.4034538231 -15.1856522818 -3.2500152588
0.6751371486 -15.5135118988 -3.2500152588
-0.1881445730 -14.3201562515 -3.2500152588
0.9235756559 -15.9688122066 -3.2500152588
0.8200783735 -15.5573835520 -3.2500152588
0.4060097764 -14.5951891711 -3.2500152588
-1.9443830351 -11.4286384242 -3.2500152588
-2.1479322775 -11.4521097369 -3.2500152588
-2.1624317689 -11.4541085353 -3.2500152588
-2.1769252840 -11.4561502171 -3.2500152588
-2.2637537747 -11.4692998319 -3.2500152588
-2.5083357109 -11.5148988801 -3.2500152588
-1.8733905253 -11.3982043688 -3.2500152588
-2.1220397949 -11.4242705364 -3.2500152588
-2.5133621719 -11.4912542196 -3.2500152588
-2.5277442679 -11.4943338544 -3.2500152588
-2.5708350145 -11.5038278376 -3.2500152588
-1.5653441918 -11.3591419144 -3.2500152588
-1.7868487586 -11.3678669441 -3.2500152588
-2.3733893322 -11.4390198543 -3.2500152588
-1.3281684162 -11.3365126331 -3.2500152588
-1.3430134515 -11.3360869275 -3.2500152588
-1.9364092315 -11.3550666473 -3.2500152588
-2.5524497164 -11.4502270037 -3.2500152588
-1.9534679475 -11.3323740545 -3.2500152588
-1.3566882987 -11.2873732750 -3.2500152588
-2.5532261889 -11.3761854149 -3.2500152588
-2.3735804288 -11.2671602244 -3.2500152588
-2.5534924610 -11.2279634542 -3.2500152588
3.6682182840 -17.8437216042 -3.2500152588
3.6824346927 -17.9643834994 -3.2500152588
3.7190823169 -17.8417845016 -3.2500152588
3.9314989588 -17.7991658482 -3.2500152588
0.4728381083 -15.3177887256 -3.2500152588
0.1415703343 -14.9679991092 -3.2500152588
0.0077365236 -14.8643953589 -3.2500152588
0.7057245587 -15.5468899923 -3.2500152588
3.6137832024 -17.2121438189 -3.2500152588
3.6125410561 -17.3872999656 -3.2500152588
3.6448059191 -17.1576797331 -3.2500152588
3.5238035406 -17.9030889724 -3.2500152588
3.6847574278 -17.0010618273 -3.2500152588
3.5187772580 -18.0079923213 -3.2500152588
3.7228245277 -16.7693289256 -3.2500152588
3.7237934510 -16.7400717711 -3.2500152588
3.7258212568 -16.6376373415 -3.2500152588
3.7395055906 -16.9170862660 -3.2500152588
-2.2677905257 -11.2859435112 -3.2500152588
-3.0696015156 -11.4579226903 -3.2500152588
0.1284293066 -14.9407643081 -3.2500152588
0.1066055643 -14.9284049768 -3.2500152588
0.0122775076 -14.8787885619 -3.2500152588
-0.2206072499 -14.7292797496 -3.2500152588
0.3425776591 -14.9622812371 -3.2500152588
0.3091927322 -14.8814308885 -3.2500152588
-0.3234465961 -14.5961856071 -3.2500152588
0.1426441169 -14.5658275628 -3.2500152588
0.9849591610 -14.5435642926 -3.2500152588
3.5043011673 -17.3215622626 -3.2500152588
3.5074340937 -17.2953358579 -3.2500152588
3.5089423564 -17.2822158195 -3.2500152588
3.5386365856 -17.2321335723 -3.2500152588
3.5412398209 -17.2057055929 -3.2500152588
3.5543449906 -17.0336009726 -3.2500152588
3.5842174526 -16.6613383451 -3.2500152588
3.5838499000 -16.6479939417 -3.2500152588
3.5956630683 -16.4194945791 -3.2500152588
3.6227877298 -16.4579434862 -3.2500152588
3.6208091238 -16.4310311900 -3.2500152588
3.6304750274 -16.0887198877 -3.2500152588
3.7055661155 -16.8774803286 -3.2500152588
3.6803190182 -16.0951069524 -3.2500152588
3.6581760424 -15.7187983922 -3.2500152588
3.6518237864 -15.6916896631 -3.2500152588
3.6453112572 -15.6646189906 -3.2500152588
3.7921793567 -17.1031789382 -3.2500152588
3.6610084277 -15.4426181415 -3.2500152588
-3.1681556801 -11.2790966668 -3.2500152588
0.1142788918 -14.9959360742 -3.2500152588
0.1456594993 -14.9820348712 -3.2500152588
0.3906316546 -15.0685412479 -3.2500152588
0.3522302373 -15.0483422977 -3.2500152588
-0.0575176987 -14.8899545377 -3.2500152588
0.5371994992 -15.1267016054 -3.2500152588
0.4241098668 -15.0593000581 -3.2500152588
0.3183607774 -15.0044728561 -3.2500152588
0.3013885667 -14.9963627039 -3.2500152588
0.0688120586 -14.9028831810 -3.2500152588
-0.0754643981 -14.8602206133 -3.2500152588
-0.1670361745 -14.8387968147 -3.2500152588
0.6136022595 -15.1484327450 -3.2500152588
0.5662007126 -15.1166452298 -3.2500152588
0.5017143618 -15.0762460479 -3.2500152588
-0.1125377966 -14.8261879529 -3.2500152588
0.2104602161 -14.9037241354 -3.2500152588
-0.0758398828 -14.8102401606 -3.2500152588
-0.1319999620 -14.7969258064 -3.2500152588
0.7198677334 -15.1656453917 -3.2500152588
0.4931402098 -15.0150558961 -3.2500152588
0.4250944034 -14.9773136884 -3.2500152588
0.4021200456 -14.9652726422 -3.2500152588
0.1712379645 -14.8624032958 -3.2500152588
-0.0448317090 -14.7932632024 -3.2500152588
-0.2348903730 -14.7520472035 -3.2500152588
0.0370338373 -14.7913034682 -3.2500152588
-0.2049966703 -14.7327876871 -3.2500152588
0.9263792527 -15.2765140513 -3.2500152588
0.5345060783 -14.9832280919 -3.2500152588
0.1883351644 -14.8171813223 -3.2500152588
-0.5497067052 -14.6730623453 -3.2500152588
-0.6424871545 -14.6727356144 -3.2500152588
-0.1502556151 -14.6941506867 -3.2500152588
-0.3154303387 -14.6666904939 -3.2500152588
0.3736662941 -14.8433647988 -3.2500152588
0.3120279068 -14.8153537072 -3.2500152588
-0.3392321254 -14.6394226632 -3.2500152588
-0.3024850365 -14.6196203591 -3.2500152588
-0.6574150217 -14.6005028788 -3.2500152588
-0.6779338147 -14.6010680972 -3.2500152588
0.5114522711 -14.8590686662 -3.2500152588
-0.6787066563 -14.5769074267 -3.2500152588
-0.2270715021 -14.5818151152 -3.2500152588
1.1060570006 -15.2496285330 -3.2500152588
1.2519262885 -15.3759507007 -3.2500152588
-0.3961668916 -14.5121717706 -3.2500152588
-0.4371505112 -14.4847453434 -3.2500152588
1.5135968550 -15.5720817113 -3.2500152588
0.0639561829 -14.4971430996 -3.2500152588
-1.4504009957 -14.3747003740 -3.2500152588
0.8776749469 -14.4843904233 -3.2500152588
1.6311272728 -14.5789385735 -3.2500152588
-3.1217215945 -14.0833045109 -3.2500152588
-3.2122990585 -14.0673942712 -3.2500152588
3.4921049594 -16.6968645563 -3.2500152588
3.5037158843 -16.5251890639 -3.2500152588
3.5025511024 -16.5130394378 -3.2500152588
3.5330974599 -16.5840708571 -3.2500152588
3.5310798106 -16.5596002419 -3.2500152588
3.5188220381 -16.4374497617 -3.2500152588
3.5631499573 -16.6683872802 -3.2500152588
3.5571945071 -16.5821557601 -3.2500152588
3.5540958064 -16.5452406484 -3.2500152588
3.5286368911 -16.3244595734 -3.2500152588
3.5332457252 -16.1983704818 -3.2500152588
3.5612448343 -16.2188874915 -3.2500152588
3.5505250630 -16.1573580407 -3.2500152588
3.5482719656 -16.1450715540 -3.2500152588
3.5412947391 -16.1082528367 -3.2500152588
3.5911181127 -16.2521179178 -3.2500152588
3.5787303182 -16.1777665498 -3.2500152588
3.5500060963 -16.0297818792 -3.2500152588
3.5736507435 -16.0247553552 -3.2500152588
3.5628497841 -15.9753858004 -3.2500152588
3.5600583259 -15.9630636511 -3.2500152588
3.5892038873 -15.9824799943 -3.2500152588
3.5690405812 -15.8958560569 -3.2500152588
3.6722269258 -16.3040152073 -3.2500152588
3.5894824283 -15.8777228172 -3.2500152588
3.7319110309 -16.3868659195 -3.2500152588
3.7163721269 -16.2716285118 -3.2500152588
3.5965990667 -15.7163007847 -3.2500152588
3.5894462869 -15.6914696601 -3.2500152588
3.5747006305 -15.6419365370 -3.2500152588
3.7750780544 -16.5778724819 -3.2500152588
3.6371808184 -15.7722821129 -3.2500152588
3.5978276414 -15.6349025730 -3.2500152588
3.5940288192 -15.6224784426 -3.2500152588
3.5704656121 -15.5481745903 -3.2500152588
3.7960180572 -16.5369663149 -3.2500152588
3.7622573192 -16.2516116388 -3.2500152588
3.7311358151 -16.0714041741 -3.2500152588
3.5934420209 -15.5406632706 -3.2500152588
3.5238180413 -15.3436059011 -3.2500152588
3.5191578348 -15.3314019792 -3.2500152588
3.7918852880 -16.2869782355 -3.2500152588
3.7821473769 -16.2220300752 -3.2500152588
3.5955503296 -15.4708814696 -3.2500152588
3.5274529632 -15.2860169206 -3.2500152588
3.5177556897 -15.2616024183 -3.2500152588
3.8139360626 -16.2704990208 -3.2500152588
3.7996882455 -16.1791600723 -3.2500152588
3.5874879489 -15.3759137668 -3.2500152588
3.7095593289 -15.5869667069 -3.2500152588
3.6141992100 -15.3092459119 -3.2500152588
3.7206650464 -15.5414315109 -3.2500152588
3.4382405857 -14.8001016823 -3.2500152588
0.2778364416 -14.9641619683 -3.2500152588
0.0104967020 -14.9111365431 -3.2500152588
0.9436137270 -15.1006647180 -3.2500152588
0.7546651868 -14.4358189561 -3.2500152588
-3.2524391891 -14.6243135138 -3.2500152588
3.4720679353 -16.1135296040 -3.2500152588
3.4849199156 -16.0636068933 -3.2500152588
3.4821669908 -16.0525249686 -3.2500152588
3.5138298165 -16.0801407525 -3.2500152588
3.4971100976 -16.0132583211 -3.2500152588
3.4945775261 -15.7480730753 -3.2500152588
-3.2538538145 -14.2891191893 -3.2500152588
3.5045107724 -15.4923892099 -3.2500152588
3.5698390065 -15.5962121509 -3.2500152588
3.6686370609 -15.8183631172 -3.2500152588
3.7808126777 -16.0537913843 -3.2500152588
3.5022226783 -15.2424437956 -3.2500152588
3.4812968607 -15.1980183893 -3.2500152588
-0.0029781162 -14.9589645382 -3.2500152588
0.4639038752 -14.9428889866 -3.2500152588
0.4211444817 -14.9355200859 -3.2500152588
0.1746098549 -14.9105000924 -3.2500152588
0.1436354677 -14.9094285312 -3.2500152588
-0.0624918345 -14.8897366874 -3.2500152588
0.6762986731 -14.9429874231 -3.2500152588
0.7137100144 -14.9287937451 -3.2500152588
0.6891104370 -14.9215196788 -3.2500152588
-0.1234087410 -14.8463384127 -3.2500152588
0.7516686762 -14.9152608870 -3.2500152588
0.1721881292 -14.8136306138 -3.2500152588
0.0165896229 -14.8130828525 -3.2500152588
-0.5201062364 -14.8976151703 -3.2500152588
0.7963772691 -14.9044921464 -3.2500152588
-0.4317244136 -14.8492703137 -3.2500152588
-0.4180267348 -14.8212029423 -3.2500152588
0.8067582719 -14.8314934360 -3.2500152588
-0.5468708966 -14.8047011376 -3.2500152588
-0.3741882695 -14.7374761032 -3.2500152588
0.7824787915 -14.7729016956 -3.2500152588
0.0804977027 -14.4252010922 -3.2500152588
3.4391466937 -15.5797477957 -3.2500152588
3.4349186104 -15.5698368154 -3.2500152588
3.4613950095 -15.5702954032 -3.2500152588
3.4398197291 -15.5205388482 -3.2500152588
3.4485405553 -15.4808637915 -3.2500152588
3.4440199142 -15.4709254551 -3.2500152588
3.4348905328 -15.4510891183 -3.2500152588
3.4568195439 -15.4409178965 -3.2500152588
3.4475124038 -15.4210063580 -3.2500152588
3.4428146980 -15.4110713250 -3.2500152588
3.4551073967 -15.3807487183 -3.2500152588
3.4405686505 -15.3509197105 -3.2500152588
3.4329182429 -15.2297952899 -3.2500152588
3.4274967243 -15.1688586130 -3.2500152588
3.4342537226 -15.0340679828 -3.2500152588
-3.3963074237 -15.2308319525 -3.2500152588
-3.3856308465 -15.1579467107 -3.2500152588
-3.3964923849 -15.1785223591 -3.2500152588
-3.3903530715 -15.1156677386 -3.2500152588
-3.4014646639 -15.1362720652 -3.2500152588
3.4117559800 -14.8151152617 -3.2500152588
-3.3888694647 -15.0628706770 -3.2500152588
3.4288717216 -14.5847289279 -3.2500152588
-3.3836425288 -14.7723971675 -3.2500152588
3.4284070301 -14.4624177735 -3.2500152588
-3.3759252991 -14.6297184538 -3.2500152588
-3.3899121831 -14.6502459258 -3.2500152588
3.4239931745 -14.3387982944 -3.2500152588
-3.4073449714 -13.9976615522 -3.2500152588
0.0951080105 -14.8906382340 -3.2500152588
0.0340914884 -14.9015477493 -3.2500152588
0.4659097485 -14.8392332122 -3.2500152588
-0.0806846453 -14.9022619559 -3.2500152588
-0.1834014780 -14.9307017729 -3.2500152588
0.1626077467 -14.8319771629 -3.2500152588
-0.2888530576 -14.9144719488 -3.2500152588
0.4542831072 -14.7423899462 -3.2500152588
-0.1926946228 -14.8325540597 -3.2500152588
0.0018491077 -14.7354367692 -3.2500152588
1.2903428949 -14.3729778148 -3.2500152588
1.9926692240 -14.3510811145 -3.2500152588
3.3489330288 -15.0268282584 -3.2500152588
3.3117536857 -14.8879291008 -3.2500152588
3.3056157429 -14.8794233625 -3.2500152588
3.3132889083 -14.8082442505 -3.2500152588
-3.4676963699 -15.6911617918 -3.2500152588
-3.4714012385 -15.6257937709 -3.2500152588
-3.4711949496 -15.4823632932 -3.2500152588
-3.4938059261 -15.4738146662 -3.2500152588
-3.4752644491 -15.3606500331 -3.2500152588
-3.4960513868 -14.9433782111 -3.2500152588
-3.5980644147 -15.0976637316 -3.2500152588
0.1809163891 -14.8417490153 -3.2500152588
0.4743205282 -14.7542660179 -3.2500152588
0.3958147466 -14.7421636851 -3.2500152588
0.3646268059 -14.7478828819 -3.2500152588
0.2839669772 -14.7649052521 -3.2500152588
0.2654502575 -14.7692731098 -3.2500152588
-0.2088114164 -14.9176010041 -3.2500152588
-0.4276195839 -15.0154962982 -3.2500152588
-0.0815187469 -14.7538642416 -3.2500152588
-0.9945519710 -15.2448637466 -3.2500152588
1.1298442534 -14.3247789473 -3.2500152588
3.1976979644 -14.4752668979 -3.2500152588
3.2694755776 -14.3758910250 -3.2500152588
-3.4864980776 -16.2559129748 -3.2500152588
-3.4970742955 -16.1641128495 -3.2500152588
-3.5049337811 -16.2146142395 -3.2500152588
-3.5056624395 -16.0716201382 -3.2500152588
-3.5079568972 -16.0842625218 -3.2500152588
-3.5069861644 -15.9531766165 -3.2500152588
-3.5096309937 -15.9658234341 -3.2500152588
-3.5148083599 -15.9911402643 -3.2500152588
-3.5138942581 -15.8720627675 -3.2500152588
-3.5192620487 -15.7904217635 -3.2500152588
-3.5285281188 -15.8285007619 -3.2500152588
-3.5395398055 -15.6765489223 -3.2500152588
-3.6021294541 -15.8245871113 -3.2500152588
-3.5521266808 -15.4644785719 -3.2500152588
-3.5274062761 -15.3165520099 -3.2500152588
-3.3891472116 -14.8600521485 -3.2500152588
-3.6629491726 -15.4143619238 -3.2500152588
-3.5786397753 -15.0469515682 -3.2500152588
-0.1606756080 -14.9716090869 -3.2500152588
-0.1657601402 -14.9752781825 -3.2500152588
0.3629433352 -14.6709293775 -3.2500152588
-0.1696384335 -14.9482902933 -3.2500152588
-0.1173967122 -14.8541657550 -3.2500152588
-0.4743684456 -15.1435998385 -3.2500152588
-0.3314056194 -14.9810953447 -3.2500152588
-0.4802438623 -15.0815514508 -3.2500152588
-0.7439681007 -15.3460410946 -3.2500152588
-0.4655326651 -14.9688328702 -3.2500152588
-0.6944682946 -15.1310295275 -3.2500152588
0.3215786717 -14.4040801792 -3.2500152588
-0.1634089714 -14.6264166865 -3.2500152588
-3.5079825359 -16.7303324917 -3.2500152588
-3.5048499348 -16.8659313072 -3.2500152588
-3.5043160871 -16.8794847868 -3.2500152588
-3.5037421480 -16.8930366278 -3.2500152588
-3.5024740165 -16.9201349200 -3.2500152588
-3.5315405531 -16.6078189332 -3.2500152588
-3.5490213371 -16.4293215970 -3.2500152588
-3.5620950579 -16.2767970551 -3.2500152588
-3.5633037254 -16.2905224538 -3.2500152588
-3.5781073315 -16.5380642461 -3.2500152588
-3.5805619116 -16.6620429585 -3.2500152588
-3.5804991178 -16.7309348968 -3.2500152588
-3.5794851473 -16.2057150272 -3.2500152588
-3.6290029769 -16.2146105080 -3.2500152588
-3.6378838254 -16.3121566316 -3.2500152588
-3.5996695361 -15.8362996216 -3.2500152588
-3.6046267336 -15.7348034937 -3.2500152588
-3.6284551356 -15.8597728331 -3.2500152588
-3.6684123072 -15.8092020638 -3.2500152588
-3.7222332572 -16.1764436634 -3.2500152588
-3.5625254914 -15.2753899232 -3.2500152588
-3.7720022786 -16.8329761240 -3.2500152588
-3.5032522155 -15.0221864696 -3.2500152588
4.0244366612 -12.7783931144 -3.2500152588
-3.4940361258 -17.4653367149 -3.2500152588
-3.5345393832 -17.3835222991 -3.2500152588
-3.6899212099 -16.4915566610 -3.2500152588
-3.7078443767 -16.7314171935 -3.2500152588
-3.7245735042 -16.8529129028 -3.2500152588
-3.7047660653 -17.2456965003 -3.2500152588
2.7979928169 -11.3187686152 -3.2500152588
-0.2224026001 -15.0783249938 -3.2500152588
-0.5186774107 -15.1081882304 -3.2500152588
2.3406405736 -11.4044906685 -3.2500152588
2.2407331287 -11.3899999570 -3.2500152588
2.1118773033 -11.3744140459 -3.2500152588
2.0975355236 -11.3728941817 -3.2500152588
2.7000023149 -11.4495072627 -3.2500152588
2.2583164490 -11.3679956379 -3.2500152588
1.7241181011 -11.3241386209 -3.2500152588
2.5774110625 -11.3979914035 -3.2500152588
2.2327389487 -11.3401652959 -3.2500152588
2.5385148406 -11.2917024356 -3.2500152588
-3.6539959178 -17.3206009358 -3.2500152588
-3.5828971215 -18.3659442746 -3.2500152588
-0.2579732121 -15.2585301199 -3.2500152588
0.0046665296 -14.6395700287 -3.2500152588
-0.0506935921 -14.7195398747 -3.2500152588
-0.0923933799 -14.7852348799 -3.2500152588
-0.3619081635 -15.2662728457 -3.2500152588
2.0439692710 -11.4946791527 -3.2500152588
2.0190419265 -11.4690505586 -3.2500152588
1.9266856939 -11.4650343297 -3.2500152588
1.6213074650 -11.4169953054 -3.2500152588
2.1166943101 -11.4026604173 -3.2500152588
2.2394547252 -11.3892060634 -3.2500152588
1.5252700540 -11.3729544139 -3.2500152588
2.3227863683 -11.3740921125 -3.2500152588
1.2267297616 -11.3750937765 -3.2500152588
1.1594662307 -11.3837587604 -3.2500152588
1.1393562348 -11.3377277831 -3.2500152588
1.1257832402 -11.3396398035 -3.2500152588
2.1806283854 -11.2865590794 -3.2500152588
0.9685153226 -11.3157012260 -3.2500152588
0.9548779170 -11.3181187210 -3.2500152588
0.8732090876 -11.3334698844 -3.2500152588
0.6240851379 -11.3647501612 -3.2500152588
-3.7181051835 -18.1103330913 -3.2500152588
-0.0270614712 -14.7499496047 -3.2500152588
-0.0890173128 -14.9074510322 -3.2500152588
-0.1317400721 -15.0451617849 -3.2500152588
-0.1382092142 -15.0693935616 -3.2500152588
-0.1413361498 -15.0815377309 -3.2500152588
0.1852166475 -14.3347423214 -3.2500152588
0.1341478200 -14.4073598352 -3.2500152588
0.0828183875 -14.4874381805 -3.2500152588
-0.1723514447 -15.1063660776 -3.2500152588
-0.1738143729 -15.1125366869 -3.2500152588
-0.1874373122 -15.1744703852 -3.2500152588
0.0555349318 -14.4858170065 -3.2500152588
0.2344005500 -14.1939763158 -3.2500152588
-0.2348030631 -15.1647839630 -3.2500152588
-0.2637772920 -15.3439755426 -3.2500152588
0.1991426350 -14.1986068514 -3.2500152588
-0.1048489247 -14.6870512695 -3.2500152588
-0.0897101420 -14.5993147759 -3.2500152588
-0.1043505801 -14.6290434542 -3.2500152588
-0.3482666113 -15.7299277018 -3.2500152588
-0.1791918865 -14.6755774401 -3.2500152588
0.3133277417 -13.8999421633 -3.2500152588
-0.1035555353 -14.4223184605 -3.2500152588
0.2171358562 -13.9607072878 -3.2500152588
-0.2702099324 -14.7039569641 -3.2500152588
0.0373761945 -14.1298248443 -3.2500152588
-0.3234385113 -14.7735880922 -3.2500152588
-0.4290840606 -14.9415012604 -3.2500152588
-0.6127041802 -15.4454600959 -3.2500152588
0.3554869164 -13.5182070548 -3.2500152588
-0.7930738072 -18.1140108393 -3.2500152588
1.5395446319 -11.5192291515 -3.2500152588
1.6225017652 -11.4882619849 -3.2500152588
1.5251915534 -11.4962852684 -3.2500152588
1.4402213526 -11.5051928994 -3.2500152588
1.4618525069 -11.4784384833 -3.2500152588
1.4008833863 -11.4855603234 -3.2500152588
1.4960685900 -11.4505462742 -3.2500152588
1.1128614274 -11.4824359990 -3.2500152588
1.4043353553 -11.4120725288 -3.2500152588
1.3889550579 -11.3896067956 -3.2500152588
0.9684418719 -11.4635098020 -3.2500152588
0.8711874034 -11.4370496889 -3.2500152588
1.6312723490 -11.2453887761 -3.2500152588
0.7910446171 -11.3828259515 -3.2500152588
0.8603461398 -11.3401120519 -3.2500152588
0.6971914347 -11.3837304934 -3.2500152588
0.6473405063 -11.3984102897 -3.2500152588
0.3558260779 -11.4715574695 -3.2500152588
0.8742827868 -11.2869547194 -3.2500152588
-0.1639402079 -11.5431679255 -3.2500152588
-0.0537418011 -14.7943538706 -3.2500152588
-0.0978268180 -15.0695783851 -3.2500152588
-0.0559195676 -14.7038203602 -3.2500152588
-0.0700712831 -14.7584466936 -3.2500152588
-0.1240601147 -15.0923380957 -3.2500152588
0.0774961650 -14.2392533423 -3.2500152588
0.0592556230 -14.2221301079 -3.2500152588
-0.0577916672 -14.4118399795 -3.2500152588
-0.2026192422 -15.5945060306 -3.2500152588
0.1598565318 -13.9684078776 -3.2500152588
-0.1498178596 -14.4468952444 -3.2500152588
0.2001985142 -13.7959519028 -3.2500152588
-0.0277340355 -14.0809770808 -3.2500152588
-0.3457903492 -15.1507483367 -3.2500152588
-0.3842317958 -16.0695807333 -3.2500152588
-0.3887545558 -14.3958084328 -3.2500152588
-0.6518490244 -16.3844874237 -3.2500152588
-0.4962268424 -13.3913883985 -3.2500152588
-0.3845282003 -18.2454290620 -3.2500152588
1.1135424726 -11.5279338250 -3.2500152588
1.0914619622 -11.5331767928 -3.2500152588
1.0694128574 -11.5385503045 -3.2500152588
1.0584003234 -11.5412859557 -3.2500152588
0.9799439403 -11.5116956097 -3.2500152588
0.9356315398 -11.5238940258 -3.2500152588
0.8889741498 -11.4869691804 -3.2500152588
0.8443755430 -11.5002457243 -3.2500152588
0.7777799840 -11.5211476554 -3.2500152588
-0.4779439612 -18.3254701173 -3.2500152588
1.0063942795 -11.4297735372 -3.2500152588
0.7480860128 -11.5054231150 -3.2500152588
0.6625027143 -11.5091238634 -3.2500152588
0.5457384422 -11.5006179701 -3.2500152588
0.4924021779 -11.4954890856 -3.2500152588
0.4590296719 -11.5089160521 -3.2500152588
1.0466527668 -11.2953479928 -3.2500152588
0.3847732343 -11.4874540506 -3.2500152588
0.3736125438 -11.4922152133 -3.2500152588
0.7182339754 -11.3371592565 -3.2500152588
0.2970376638 -11.4994257278 -3.2500152588
0.2637077865 -11.5145862898 -3.2500152588
0.2647615664 -11.4875110660 -3.2500152588
-0.8249584106 -12.0816241070 -3.2500152588
-0.1362705336 -11.4744195159 -3.2500152588
-0.2275666815 -11.4709912110 -3.2500152588
-0.3560361899 -14.9578622980 -3.2500152588
