6.9580238459 0.9669237349 -2.9002599716
6.8276881852 0.5103523494 -2.9002599716
6.8232090916 0.4865974508 -2.9002599716
6.9817626825 -1.0393174481 -2.9002599716
6.9156661083 -0.9346664142 -2.9002599716
7.0217286611 1.2318474950 -2.9002599716
6.9692511143 1.1206007301 -2.9002599716
6.7478685841 -0.3212829246 -2.9002599716
6.7685398789 -0.4674264976 -2.9002599716
6.9438137882 1.1228631208 -2.9002599716
6.7368813254 -0.4224345697 -2.9002599716
6.9891136722 -1.2328527057 -2.9002599716
6.8152645891 0.8518837852 -2.9002599716
6.9029929355 1.1500773527 -2.9002599716
6.7587269586 -0.7587599974 -2.9002599716
6.8421388802 -1.0147031073 -2.9002599716
6.9904614435 -1.3926736121 -2.9002599716
6.6567896395 -0.5296751558 -2.9002599716
6.6809013666 -0.6470330514 -2.9002599716
6.6378134742 0.5470273025 -2.9002599716
6.7674497362 -1.0895463612 -2.9002599716
6.5854673547 -0.5427957209 -2.9002599716
6.6375759898 -0.7737977831 -2.9002599716
7.0628334283 -1.6928555919 -2.9002599716
6.8853148215 -1.5016320685 -2.9002599716
6.9434379057 1.6318557609 -2.9002599716
6.7191426253 1.2715267848 -2.9002599716
6.6868358668 1.3167357941 -2.9002599716
6.6667726685 1.4405917114 -2.9002599716
7.8815006013 -3.4027449505 -2.9002599716
7.9117065534 -3.4169937628 -2.9002599716
7.8710960622 3.4120968943 -2.9002599716
7.8509006172 3.4023870664 -2.9002599716
7.8307575413 -3.4050225887 -2.9002599716
7.8609857044 -3.4197216274 -2.9002599716
7.8708698558 3.4387543468 -2.9002599716
7.8099845402 3.4092590542 -2.9002599716
7.7696838818 -3.4014617497 -2.9002599716
7.7898015129 -3.4116523175 -2.9002599716
7.8099790826 -3.4217236843 -2.9002599716
7.8302158848 -3.4316754975 -2.9002599716
7.7587022583 3.4105290218 -2.9002599716
7.7486024847 3.4053565690 -2.9002599716
7.7083523069 -3.3968331387 -2.9002599716
7.7183901621 -3.4021247507 -2.9002599716
7.7485970333 -3.4178211010 -2.9002599716
7.8196126828 -3.4533989270 -2.9002599716
7.7680880205 3.4423806478 -2.9002599716
7.7172713624 3.4163556319 -2.9002599716
7.7071545340 3.4110605935 -2.9002599716
7.6970534135 3.4057356509 -2.9002599716
7.6869680893 3.4003808506 -2.9002599716
7.6668397568 -3.4020462662 -2.9002599716
7.6768932150 -3.4074606570 -2.9002599716
7.6869626459 -3.4128452841 -2.9002599716
7.6857491023 3.4271026308 -2.9002599716
7.6553516969 3.4108476839 -2.9002599716
7.6351674186 3.3998614617 -2.9002599716
7.6250943083 -3.4067879519 -2.9002599716
7.6540375946 3.4375956912 -2.9002599716
7.6336950890 3.4266012263 -2.9002599716
7.6134179865 3.4154866006 -2.9002599716
7.5932069966 3.4042522033 -2.9002599716
7.5630105978 -3.3996411324 -2.9002599716
7.5730573955 -3.4053626792 -2.9002599716
7.5932015470 -3.4167164870 -2.9002599716
7.6134125189 -3.4279509166 -2.9002599716
7.5814002381 3.4253457032 -2.9002599716
7.5510225336 3.4081647878 -2.9002599716
7.5409306625 3.4023779912 -2.9002599716
7.5107529586 -3.3973029874 -2.9002599716
7.5409252159 -3.4148421913 -2.9002599716
7.5915543823 -3.4434769641 -2.9002599716
7.5288751425 3.4233303113 -2.9002599716
7.4884330911 3.3997412390 -2.9002599716
7.4683120203 -3.4002317489 -2.9002599716
7.4985119399 -3.4181474770 -2.9002599716
7.4862764064 3.4265278536 -2.9002599716
7.4256632395 -3.4026726694 -2.9002599716
7.4029604979 3.4046376965 -2.9002599716
7.4412741294 3.4560844958 -2.9002599716
7.3700258382 3.4126696125 -2.9002599716
7.3599214330 3.4063473752 -2.9002599716
7.3397635179 -3.4060772459 -2.9002599716
7.3498303315 -3.4124591697 -2.9002599716
7.3599159800 -3.4188112862 -2.9002599716
7.3065986500 3.4010801783 -2.9002599716
7.2864728396 -3.4004945805 -2.9002599716
7.2965233719 -3.4070341722 -2.9002599716
7.3065932055 -3.4135440040 -2.9002599716
7.2833752442 3.4148513659 -2.9002599716
7.2530969720 -3.4074897994 -2.9002599716
7.2631683435 -3.4141280924 -2.9002599716
7.1057255075 3.3524171681 -2.9002599716
7.0464930385 3.3093555556 -2.9002599716
6.7831505666 -3.1415918121 -2.9002599716
7.1117093558 -3.3987603855 -2.9002599716
7.0090583306 -3.4143297624 -2.9002599716
6.9745566720 3.4064819744 -2.9002599716
6.9644668602 -3.4114531739 -2.9002599716
6.8399008690 -3.4075553589 -2.9002599716
6.4632775077 -3.4074774569 -2.9002599716
6.4733522984 -3.4164521787 -2.9002599716
7.2730800791 -0.1372635015 -2.9944899082
7.2624154677 -0.1891583829 -2.9944899082
7.1910008109 0.0035872718 -2.9944899082
7.1950212061 -0.0165417311 -2.9944899082
7.1877734609 -0.0956317217 -2.9944899082
7.1247492675 0.1044890528 -2.9944899082
7.0586985627 0.2603886879 -2.9944899082
7.1188725657 -0.2987731071 -2.9944899082
6.9853050101 0.2694312414 -2.9944899082
7.1988907423 -1.0267966569 -2.9944899082
8.2091349081 -3.4594795498 -2.9944899082
8.2206951126 -3.4631661948 -2.9944899082
8.2322661723 -3.4668186266 -2.9944899082
8.2438479860 -3.4704368130 -2.9944899082
8.1437819946 -3.4634419886 -2.9944899082
8.1553542067 -3.4673219420 -2.9944899082
8.1669378458 -3.4711676457 -2.9944899082
8.0664707419 -3.4622120779 -2.9944899082
8.0780396539 -3.4663207373 -2.9944899082
8.0896206695 -3.4703951559 -2.9944899082
8.0119257192 -3.4681051689 -2.9944899082
8.0235123027 -3.4723751566 -2.9944899082
7.9570471377 -3.4732515552 -2.9944899082
7.9686491853 -3.4776838611 -2.9944899082
7.7227741315 -3.4811056953 -2.9944899082
7.9157572529 -3.6902458138 -2.9944899082
7.8093070568 -3.6749559851 -2.9944899082
7.2544946611 -0.0911029280 -3.0008981228
7.1936376791 0.0010400082 -3.0008981228
7.2171196707 -0.0624620242 -3.0008981228
7.2245294983 -0.0813742931 -3.0008981228
7.2585670542 -0.1625399653 -3.0008981228
7.1596930380 0.0253348870 -3.0008981228
7.1770527064 -0.0927806999 -3.0008981228
7.2060471586 -0.1630840328 -3.0008981228
7.0955020418 -0.0111571380 -3.0008981228
7.1071993548 -0.0444451157 -3.0008981228
7.2473740562 -0.3602074063 -3.0008981228
7.0635436520 0.0080215534 -3.0008981228
7.1255839394 -0.1589933516 -3.0008981228
7.1808949364 -0.2826014694 -3.0008981228
7.2570059131 -0.4277781032 -3.0008981228
7.1979802503 -0.3702483069 -3.0008981228
7.2724910091 -0.5017803822 -3.0008981228
6.9818689229 0.1111849677 -3.0008981228
6.9367072335 0.1901298117 -3.0008981228
7.1620715282 -0.4057358945 -3.0008981228
6.8899270560 0.2932959437 -3.0008981228
7.0937805473 -0.3245591591 -3.0008981228
6.9887018344 -0.2075034507 -3.0008981228
7.0601518929 -0.3659202370 -3.0008981228
7.2325074467 -0.7895793809 -3.0008981228
6.5682121085 1.8540111284 -3.0008981228
8.7941748625 -3.4713953541 -3.0008981228
8.8317749588 -3.4761779039 -3.0008981228
8.6904079823 -3.4808972439 -3.0008981228
8.7155280480 -3.4847364422 -3.0008981228
8.7280964887 -3.4866002923 -3.0008981228
8.8036179112 -3.4970018997 -3.0008981228
8.5858811659 -3.4878462292 -3.0008981228
8.5984593732 -3.4900935846 -3.0008981228
8.6488370313 -3.4987106302 -3.0008981228
8.3693931932 -3.5175250878 -3.0008981228
7.9692067596 -3.5326541717 -3.0008981228
7.8980772067 -3.5346324241 -3.0008981228
8.1547380804 -3.6130749953 -3.0008981228
8.5869552388 -3.7089194325 -3.0008981228
8.7696765030 -3.7607300741 -3.0008981228
8.0636761921 -3.6375375327 -3.0008981228
7.6994376869 -3.5658952593 -3.0008981228
7.7894258476 -3.5991822977 -3.0008981228
7.6010716552 -3.5531523611 -3.0008981228
8.5898189307 -3.8564707486 -3.0008981228
8.7130624697 -3.8751200383 -3.0008981228
8.0832543587 -3.7688628852 -3.0008981228
8.5584261803 -3.8757082860 -3.0008981228
7.1820392770 -0.0636011116 -3.0014672279
7.2096614826 -0.1108567094 -3.0014672279
7.2131926635 -0.1167173090 -3.0014672279
7.2167411656 -0.1225674371 -3.0014672279
7.2494519684 -0.1747389552 -3.0014672279
7.2758470926 -0.2147038718 -3.0014672279
7.2952045984 -0.2429113731 -3.0014672279
7.3109896688 -0.2652693071 -3.0014672279
7.0901832894 0.0590138862 -3.0014672279
7.0962600520 0.0465933124 -3.0014672279
7.1181051534 0.0034089811 -3.0014672279
7.1542265537 -0.0635124753 -3.0014672279
7.1644540586 -0.0815566265 -3.0014672279
7.1960916622 -0.1351345884 -3.0014672279
7.2142810316 -0.1645304070 -3.0014672279
7.2329031869 -0.1936539823 -3.0014672279
7.2519540541 -0.2224989431 -3.0014672279
7.2833167252 -0.2680556349 -3.0014672279
7.3198769061 -0.3184033174 -3.0014672279
7.3240215652 -0.3239369718 -3.0014672279
7.0807917464 0.0233932682 -3.0014672279
7.2798191576 -0.3047271023 -3.0014672279
7.0315163952 0.0697480808 -3.0014672279
7.1017863148 -0.0686558836 -3.0014672279
7.1190027539 -0.0994537864 -3.0014672279
7.1295506048 -0.1178091138 -3.0014672279
7.2685478309 -0.3303095909 -3.0014672279
7.2727279354 -0.3359950338 -3.0014672279
7.0036188760 0.0724447211 -3.0014672279
7.0570294670 -0.0363158319 -3.0014672279
7.2118186010 -0.2923574337 -3.0014672279
6.8682881319 0.3579065100 -3.0014672279
6.9497244092 0.1348073124 -3.0014672279
7.1919483128 -0.3061235853 -3.0014672279
7.2994462960 -0.4878623860 -3.0014672279
7.3040923350 -0.4934557363 -3.0014672279
7.3954597741 -0.5970583463 -3.0014672279
6.8939273695 0.1431667598 -3.0014672279
7.1690765487 -0.3576994751 -3.0014672279
7.4442364455 -0.6820711646 -3.0014672279
6.6465078413 0.8699484500 -3.0014672279
6.8532742046 0.0531618427 -3.0014672279
7.0755292459 -0.3500046054 -3.0014672279
6.6103686803 0.7511094585 -3.0014672279
6.7539984516 0.1692825250 -3.0014672279
7.4136421699 -0.9508609048 -3.0014672279
9.3384563142 -3.4788245761 -3.0014672279
9.3923871729 -3.4767792731 -3.0014672279
9.4193425829 -3.4755173533 -3.0014672279
9.1764865981 -3.5053029969 -3.0014672279
9.3663408612 -3.5020373566 -3.0014672279
9.0673331561 -3.5278025274 -3.0014672279
9.3672569536 -3.5261930197 -3.0014672279
8.6235564373 -3.5673171640 -3.0014672279
8.8164523741 -3.5868911807 -3.0014672279
9.0099933282 -3.5984619903 -3.0014672279
8.6344394027 -3.5929825074 -3.0014672279
9.0920270492 -3.6493006764 -3.0014672279
8.4059759262 -3.6090220175 -3.0014672279
8.3184580373 -3.6180879669 -3.0014672279
8.3741081312 -3.6281020081 -3.0014672279
8.7945960018 -3.6821143302 -3.0014672279
8.1608820948 -3.6107709666 -3.0014672279
8.2303719374 -3.6255169835 -3.0014672279
8.1696397402 -3.6374263553 -3.0014672279
8.0805354953 -3.6420574706 -3.0014672279
9.3340920620 -3.7933531213 -3.0014672279
9.2188647893 -3.8195100308 -3.0014672279
7.8945313708 -3.6695691781 -3.0014672279
7.9649199961 -3.6882481936 -3.0014672279
8.8987369075 -3.8349779842 -3.0014672279
7.8036555526 -3.6689842933 -3.0014672279
7.8599439148 -3.6850861536 -3.0014672279
7.3794157910 -3.5497058410 -3.0014672279
7.3931189668 -3.5550492302 -3.0014672279
7.5171417184 -3.6013090459 -3.0014672279
9.3368988156 -3.8900044879 -3.0014672279
7.1795520382 -3.4927905310 -3.0014672279
7.4257741956 -3.5934469540 -3.0014672279
6.9039209792 -3.4155704657 -3.0014672279
6.3867911933 -3.1993154073 -3.0014672279
7.1451740971 -0.0160106512 -2.9986357689
7.2424933988 -0.1375436218 -2.9986357689
7.1846723560 -0.1060270030 -2.9986357689
7.1659156894 -0.1212756993 -2.9986357689
7.2330983927 -0.2002669753 -2.9986357689
7.0461103354 -0.0027993454 -2.9986357689
7.1124242838 -0.0927507366 -2.9986357689
7.2838810954 -0.3250153064 -2.9986357689
7.3548107289 -0.3937751503 -2.9986357689
6.9547919283 0.0463145841 -2.9986357689
7.1647715118 -0.2324227920 -2.9986357689
6.9038230090 0.0819647805 -2.9986357689
6.9542262417 0.0031054068 -2.9986357689
7.3324590982 -0.4389522723 -2.9986357689
7.1671522795 -0.3075807999 -2.9986357689
7.2674328615 -0.5432099515 -2.9986357689
7.3758369646 -0.7887678391 -2.9986357689
9.9069587045 -3.5070814447 -2.9986357689
9.2550312811 -3.6113312004 -2.9986357689
9.0200388728 -3.6429853677 -2.9986357689
9.4920835497 -3.6167754866 -2.9986357689
9.1983802119 -3.6625452288 -2.9986357689
9.4354384598 -3.6465670924 -2.9986357689
8.7369956677 -3.6856698291 -2.9986357689
8.9159757848 -3.6910982002 -2.9986357689
8.6609793058 -3.7056588680 -2.9986357689
8.4942642948 -3.7166847650 -2.9986357689
8.5392742948 -3.7207903379 -2.9986357689
9.8452118831 -3.6657054264 -2.9986357689
9.5044863926 -3.7370025699 -2.9986357689
9.9980873326 -3.6615899359 -2.9986357689
8.3385001180 -3.7480868597 -2.9986357689
8.4140177476 -3.7570078773 -2.9986357689
9.9026787108 -3.7291752976 -2.9986357689
9.7781189258 -3.8236236418 -2.9986357689
3.7391991437 2.4741554040 -2.9986357689
3.6566907470 1.9738300533 -2.9986357689
3.6531110561 1.9423283168 -2.9986357689
3.8176550043 2.8803401327 -2.9986357689
3.7292550470 2.5414179216 -2.9986357689
3.8036427772 2.9178475993 -2.9986357689
3.6696333500 2.3745461695 -2.9986357689
3.7214680308 2.8078266300 -2.9986357689
7.2394294336 -0.1203674090 -3.0008025169
7.2597549968 -0.1692927003 -3.0008025169
7.2233603530 -0.1702839315 -3.0008025169
7.1251603420 -0.1150665668 -3.0008025169
7.2568435407 -0.2602722386 -3.0008025169
7.2843947764 -0.2817371757 -3.0008025169
7.3492833357 -0.3594150279 -3.0008025169
6.6166494156 0.2765566039 -3.0008025169
7.6030000311 -0.7050156513 -3.0008025169
6.4152882341 0.4381771545 -3.0008025169
3.9368648157 2.6448849121 -3.0008025169
3.8406407232 2.0149230457 -3.0008025169
3.8302576084 1.8703647227 -3.0008025169
3.8329928764 2.1763752117 -3.0008025169
3.7533480855 1.4040269805 -3.0008025169
3.7027828775 1.4764232083 -3.0008025169
3.6834862659 1.3416567090 -3.0008025169
3.6995358389 1.1184114725 -3.0008025169
3.8529490927 3.0008849735 -3.0008025169
9.4167120102 -3.7462370907 -3.0008025169
10.1561849517 -3.6217308128 -3.0008025169
10.2638252295 -3.5909133406 -3.0008025169
10.5304434420 -3.5296410877 -3.0008025169
10.4774837192 -3.6755975883 -3.0008025169
7.2487508649 -0.1270413515 -2.9996076203
7.2076797379 -0.1297768045 -2.9996076261
7.3184356415 -0.3063504240 -2.9996076492
6.6733899908 0.0218335027 -2.9996076780
6.7095539179 -0.0468705476 -2.9996076837
6.6181686084 0.0088954594 -2.9996076895
8.0605543229 -0.7741225663 -2.9996077010
6.6665132364 -0.3941570391 -2.9996077529
3.9957021170 2.3212745078 -2.9996081506
3.9910606294 2.2819280999 -2.9996081506
3.9895910851 2.2688036683 -2.9996081506
3.9867685018 2.2425420509 -2.9996081506
3.9722140182 2.0714868237 -2.9996081506
3.9683692986 2.0055671877 -2.9996081506
3.9717083481 2.3242129316 -2.9996081563
3.9685582579 2.2978445441 -2.9996081563
3.9600447573 2.2186340236 -2.9996081563
3.9489837878 2.0863207818 -2.9996081563
3.9472415452 2.0598221117 -2.9996081563
3.9237208102 2.3300897793 -2.9996081679
3.8909962225 1.6872563221 -2.9996081679
3.8933317679 1.6067653913 -2.9996081679
3.8878750082 2.2257435135 -2.9996081736
3.8725081331 2.0239571096 -2.9996081736
3.8661927763 1.7272420043 -2.9996081736
3.8886921091 1.3232262472 -2.9996081736
3.8429530960 1.6727221883 -2.9996081794
3.7974685561 1.9730934561 -2.9996081909
3.8377299623 1.1390709764 -2.9996081909
3.8157101591 1.1220908196 -2.9996081967
3.7457291001 1.6981839971 -2.9996082024
3.7620268753 1.3801120788 -2.9996082024
3.7256183315 1.9900458973 -2.9996082082
3.6767099443 1.9781668902 -2.9996082197
3.7219862939 1.0945410436 -2.9996082197
3.6519857377 1.9650571187 -2.9996082255
3.6535690910 1.5552401206 -2.9996082255
3.6781998274 1.2452787578 -2.9996082255
3.6036765011 1.9669435931 -2.9996082370
3.6067582141 2.3255341304 -2.9996082428
3.8481538560 0.1760869122 -2.9996082428
3.8577149631 0.1490251306 -2.9996082428
3.8674360095 0.1220203894 -2.9996082428
10.6427780102 -3.7054346882 -2.9996084964
10.6192168918 -3.7409140226 -2.9996085021
7.2781624239 -0.1957015299 -3.0001813243
7.2969083893 -0.2029471778 -3.0001813243
7.2802667235 -0.3257796658 -3.0001813819
6.9517745392 -0.2855734111 -3.0001814280
6.9909765048 -0.3056766965 -3.0001814280
6.6744129420 -0.1456948970 -3.0001814396
6.6456077987 -0.2139263343 -3.0001814742
6.5532725496 -0.2376433401 -3.0001815087
6.5724192702 -0.2513203274 -3.0001815087
8.0398206567 -0.7376340360 -3.0001815087
8.6081293840 -0.8130496021 -3.0001815664
9.1413030560 -0.9683122770 -3.0001817047
3.9858498255 1.6590487240 -3.0001822119
3.9910054559 1.5859993754 -3.0001822119
3.9919907464 1.5738338778 -3.0001822119
3.9930120204 1.5616713480 -3.0001822119
3.9733975692 1.5107099020 -3.0001822234
3.9758498796 1.4862790180 -3.0001822234
3.9771302273 1.4740691238 -3.0001822234
3.9826126361 1.4252690238 -3.0001822234
3.9518049656 1.4837935827 -3.0001822349
3.9544168999 1.4592354208 -3.0001822349
3.9600764180 1.4101676046 -3.0001822349
3.9647018573 1.3734125678 -3.0001822349
3.9731351715 1.3122500357 -3.0001822349
3.9290553143 1.4689560164 -3.0001822464
3.9346015893 1.4195874297 -3.0001822464
3.9037151374 1.4788227121 -3.0001822580
3.9517459974 1.1450838982 -3.0001822580
3.8896170976 1.3889630664 -3.0001822695
3.9474205545 1.0420862257 -3.0001822695
3.8454408189 1.5871009363 -3.0001822810
3.8329054883 1.4587298018 -3.0001822925
3.7992609696 1.5579376145 -3.0001823041
3.9062153621 0.7972618089 -3.0001823156
3.9128898469 0.7724459390 -3.0001823156
3.8877165613 0.5206838585 -3.0001823617
3.8960276979 0.4957633840 -3.0001823617
3.6621570674 1.2670252478 -3.0001823848
3.6721969848 1.2013995983 -3.0001823848
3.6743213859 1.1882926903 -3.0001823848
3.8904594602 0.1666855667 -3.0001824193
3.9975454955 -0.2334767351 -3.0001824539
7.0452738926 -0.3117776965 -2.9999268601
6.7457253363 -0.2491598666 -2.9999268947
6.9956975703 -0.3720989504 -2.9999269120
6.6018498794 -0.3951617277 -2.9999270330
4.0253705080 1.1245003191 -2.9999278802
4.0018188475 1.1190547179 -2.9999278975
4.0096839476 1.0857137191 -2.9999278975
4.0123713618 1.0746157259 -2.9999278975
4.0150915941 1.0635257310 -2.9999278975
4.0117065370 0.9798498286 -2.9999279148
3.9944344715 0.9512596242 -2.9999279321
4.0069729322 0.9067450035 -2.9999279321
4.0167219590 0.8734581048 -2.9999279321
3.9968895803 0.8554161248 -2.9999279494
4.0105619340 0.8109372636 -2.9999279494
10.7662737683 -0.5497410162 -2.9999279494
3.9981626007 0.7702424553 -2.9999279666
4.0091233579 0.7368827451 -2.9999279666
3.9903100741 0.6431903031 -2.9999280012
4.0023986571 0.6097659092 -2.9999280012
3.9737868483 0.5481890153 -2.9999280358
3.9780488198 0.4070420999 -2.9999280704
3.9827440058 0.3958534937 -2.9999280704
3.9673962918 0.3094567775 -2.9999281050
3.9706881487 0.2434007388 -2.9999281223
3.8471113351 0.4734556248 -2.9999281395
4.0465468598 -0.0671102509 -2.9999281741
3.7190787616 0.6135201742 -2.9999281914
10.7314603920 -1.0817960409 -2.9999281914
3.6961929113 0.6057372995 -2.9999282087
3.7044457461 0.5817029935 -2.9999282087
3.6453886691 0.6829256948 -2.9999282260
3.6088506462 0.5623118786 -2.9999282779
3.7516105118 0.1997775856 -2.9999282779
7.4584452191 -0.2359115957 -3.0000157930
7.4783222173 -0.2354229440 -3.0000157930
7.0639107651 -0.3801096736 -3.0000158333
7.1629228877 -0.3925318986 -3.0000158333
6.8975042746 -0.3744622358 -3.0000158391
6.7968367585 -0.4502001977 -3.0000158621
6.8423847546 -0.4860004875 -3.0000158679
7.8897256289 -0.5304027861 -3.0000158736
8.1418036063 -0.4697590002 -3.0000158736
6.6981951202 -0.5239334321 -3.0000158852
7.9748138491 -0.5624320838 -3.0000158852
6.1547970970 -0.3295820353 -3.0000158909
6.6765336287 -0.5428792033 -3.0000158909
4.0514553573 0.5404331005 -3.0000161330
4.0601736930 0.5205687851 -3.0000161330
4.0514527241 0.4808937597 -3.0000161388
4.0524806605 0.4210363225 -3.0000161445
4.0619053697 0.4011801627 -3.0000161445
4.0545485425 0.3608783196 -3.0000161503
4.0594241617 0.3509496501 -3.0000161503
4.0692634057 0.3311357970 -3.0000161503
4.0526404164 0.3103715822 -3.0000161560
4.0627198526 0.2905183044 -3.0000161560
4.0618401731 0.2397317714 -3.0000161618
4.0670741339 0.2298252020 -3.0000161618
4.0670811871 0.1787793045 -3.0000161676
4.0622939942 0.1373915550 -3.0000161733
4.0693284722 0.0759580740 -3.0000161791
4.0541413922 0.0539378091 -3.0000161849
4.0599249988 0.0440092782 -3.0000161849
4.0657379505 0.0340978996 -3.0000161849
4.0566912741 0.0019438690 -3.0000161906
10.9072242674 0.1991672277 -3.0000161964
10.9178951530 0.1673061967 -3.0000162021
4.1759857629 -0.3539565025 -3.0000162137
10.9104886783 -0.0453375170 -3.0000162252
10.9097967040 -0.1863788607 -3.0000162425
10.9171847140 -0.2199812852 -3.0000162483
10.7700275493 -0.4773008326 -3.0000162540
10.8973351980 -0.2951327727 -3.0000162540
4.0759959989 -0.6611718257 -3.0000162771
7.5454633917 -0.2301219391 -3.0000128550
7.3214080227 -0.4375920789 -3.0000126735
7.5955449973 -0.3923354907 -3.0000126735
7.9897232209 -0.3455923491 -3.0000125957
7.8313229450 -0.4282890993 -3.0000125698
4.1563330622 -0.1090019925 -3.0000114286
4.1947657058 -0.3210799479 -3.0000113249
4.1983507132 -0.4024165164 -3.0000112730
10.9714241479 0.7026905751 -3.0000108581
10.9751221837 0.7142471408 -3.0000108581
10.9860109477 0.7489817663 -3.0000108581
10.9830706528 0.6604820147 -3.0000108321
10.9822219670 0.5831656372 -3.0000108062
10.9755397643 0.4939033274 -3.0000107803
10.9798554126 0.5054729814 -3.0000107803
10.9841368168 0.5170553512 -3.0000107803
10.9883839396 0.5286503356 -3.0000107803
10.9849477133 0.4505893547 -3.0000107543
10.9893914510 0.4621870287 -3.0000107543
10.9938008612 0.4737977972 -3.0000107543
11.0565155016 0.5038086810 -3.0000107024
10.9907018980 0.2724274423 -3.0000106765
11.0006090109 0.2956730466 -3.0000106765
10.9925709730 0.2163087221 -3.0000106506
10.9979762630 0.0007728361 -3.0000105468
10.9472580252 -0.1490570562 -3.0000105209
10.9719247905 -0.1029921823 -3.0000105209
11.2836207082 0.4210031658 -3.0000104431
11.0129572854 -0.2303126460 -3.0000104172
7.6091966193 -0.2084988560 -3.0000093543
7.6152927632 -0.2058982277 -3.0000093543
7.6274618384 -0.2006429276 -3.0000093543
7.6312522051 -0.2779100706 -3.0000091555
7.5247247592 -0.3454340984 -3.0000090892
7.3105940887 -0.4858780564 -3.0000088903
7.1192690528 -0.6962342862 -3.0000084264
10.9916329295 1.2936817758 -3.0000037207
11.0086377431 1.2398978132 -3.0000036544
11.0288392879 1.2110372205 -3.0000035881
11.0252065552 0.9227825059 -3.0000034556
11.0410503127 0.9991059135 -3.0000034556
11.0330661350 0.7463977900 -3.0000033230
11.1359580583 1.1148988928 -3.0000032567
11.0529585717 0.5483424303 -3.0000031242
11.0681002336 0.5995481923 -3.0000031242
11.0681443919 0.3595943817 -3.0000029253
11.0898925126 0.2063826036 -3.0000027265
11.2850695316 0.8664282455 -3.0000027265
11.3511345344 1.2464162008 -3.0000027265
11.1009586180 0.0376706767 -3.0000025277
11.3641535911 0.7773232221 -3.0000024614
11.3844788511 0.7580868944 -3.0000023951
11.1008550651 -0.4191627202 -3.0000019974
11.1093726234 -0.5568686193 -3.0000017986
7.6300791542 -0.2523257979 -3.0000128032
11.0072091546 1.7845812239 -3.0000103394
11.0543794072 1.5525631445 -3.0000102875
11.0561289061 1.6347855186 -3.0000102875
11.0746361225 1.4554656516 -3.0000102616
11.0873851973 1.2884361836 -3.0000102356
11.6891025388 0.8407121508 -3.0000095354
7.6953078001 -0.1716745729 -3.0000198482
7.7387136318 -0.1298303548 -3.0000198482
7.6465333134 -0.2482904528 -3.0000198972
7.7019510556 -0.1985378400 -3.0000198972
7.7118516422 -0.1892994579 -3.0000198972
7.6829410271 -0.2484665653 -3.0000199462
7.7133670886 -0.2209060331 -3.0000199462
7.8253426422 -0.1103730775 -3.0000199462
7.8347194569 -0.1004062124 -3.0000199462
7.5930505309 -0.3553337035 -3.0000199952
7.6307318801 -0.3249657786 -3.0000199952
7.8333654534 -0.1370036977 -3.0000199952
7.5693251751 -0.4041984338 -3.0000200441
7.5804448400 -0.3957411116 -3.0000200441
7.5859858601 -0.3914878170 -3.0000200441
7.6940952761 -0.3030341943 -3.0000200441
7.6993615552 -0.2984451069 -3.0000200441
7.8604567246 -0.1436047242 -3.0000200441
7.6007331242 -0.4106412367 -3.0000200931
7.9257545953 -0.1082570294 -3.0000200931
7.5927858265 -0.4470555381 -3.0000201421
7.7418838786 -0.3254332966 -3.0000201421
7.8955708071 -0.1768363710 -3.0000201421
7.9485320056 -0.1190193253 -3.0000201421
7.5491114635 -0.5087700056 -3.0000201911
7.7307593554 -0.3671897092 -3.0000201911
7.8267972164 -0.2801967029 -3.0000201911
7.9713885107 -0.1296606157 -3.0000201911
7.2451537941 -0.7187742937 -3.0000202401
7.8953182859 -0.2466713472 -3.0000202401
7.2756256320 -0.7304499260 -3.0000202891
8.1341045665 -0.0459338750 -3.0000203381
7.5555511329 -0.6217172011 -3.0000203871
6.8670614830 -0.9711643928 -3.0000204361
7.4920734536 -0.7481428183 -3.0000205340
7.3554836944 -0.8524623281 -3.0000205830
7.4644612955 -0.7925982396 -3.0000205830
8.4651448339 0.2461481849 -3.0000205830
6.8683631561 -1.1467289648 -3.0000207790
11.0591435005 2.2385234136 -3.0000253349
11.1346630441 1.7425783469 -3.0000253838
11.0736627335 2.3005845006 -3.0000253838
11.0556049250 2.4024519446 -3.0000253838
11.1657360570 1.4618018293 -3.0000254328
11.1647490633 1.5806041040 -3.0000254328
11.1579985992 1.7586805663 -3.0000254328
11.1360355797 2.0250656937 -3.0000254328
11.1274205422 2.0988192840 -3.0000254328
11.1887987668 1.3721887662 -3.0000254818
11.1890941425 1.3871084889 -3.0000254818
11.1857323729 1.6854990586 -3.0000254818
11.2067756726 1.2068622861 -3.0000255308
11.2113357377 1.3117204235 -3.0000255308
11.2141124902 1.4766255299 -3.0000255308
11.2364038018 1.3410378751 -3.0000255798
11.2378132459 0.9778781993 -3.0000256288
11.1825806571 2.3801129693 -3.0000256288
11.1687092418 2.4545161430 -3.0000256288
11.2447245449 0.8243967829 -3.0000256778
11.2521190343 0.8847800907 -3.0000256778
11.2587985226 0.9452466663 -3.0000256778
11.2539739559 0.7153758343 -3.0000257268
11.2626577842 0.7758762176 -3.0000257268
11.2667310917 0.8061638825 -3.0000257268
11.2828406811 0.9427347159 -3.0000257268
11.3088960798 1.3390662847 -3.0000257268
11.3330601725 1.3384090879 -3.0000257757
11.3446810347 1.0913225874 -3.0000258247
5.3370060680 -3.8179523923 -3.0000261187
4.6121336551 -3.7056778806 -3.0000262166
4.6889921392 -3.7277884714 -3.0000262166
5.0620495189 -3.8179840481 -3.0000262166
4.7289570459 -3.7638448189 -3.0000262656
4.5366306583 -3.7333685567 -3.0000263146
4.7694477054 -3.7996001076 -3.0000263146
4.3129168455 -3.7871401925 -3.0000265596
7.6215669034 -0.3329483203 -3.0000213248
7.6443748492 -0.3074498150 -3.0000213248
7.7190530660 -0.2182864374 -3.0000213248
7.8088759169 -0.0975273601 -3.0000213248
7.6941298480 -0.2867944008 -3.0000213882
7.7379692456 -0.2333368005 -3.0000213882
7.6432068759 -0.3808982937 -3.0000214516
7.7035433946 -0.3130412228 -3.0000214516
7.7784278772 -0.2208964947 -3.0000214516
7.9138396555 -0.0259058546 -3.0000214516
7.6847148202 -0.3712170084 -3.0000215150
7.8231344105 -0.2019185866 -3.0000215150
7.9230968307 -0.0566023313 -3.0000215150
7.6787117649 -0.4137120711 -3.0000215784
7.9004153727 -0.1350619662 -3.0000215784
7.8747398753 -0.2133848567 -3.0000216418
7.7192395657 -0.5117398317 -3.0000218320
7.7776030185 -0.4847215326 -3.0000218954
8.1219979033 -0.0056280613 -3.0000218954
7.8056119807 -0.4898325017 -3.0000219588
7.6460397542 -0.6843973537 -3.0000220222
7.5972224859 -0.8539790710 -3.0000222758
4.8282476000 -3.5569937788 -3.0000281082
5.0127764951 -3.5950149808 -3.0000281082
5.1842934640 -3.6237906738 -3.0000281082
5.5134590563 -3.6859489888 -3.0000281716
5.6006249015 -3.6921973968 -3.0000281716
5.2931404706 -3.6875544977 -3.0000282350
4.8553298981 -3.6372690408 -3.0000282984
5.6857160683 -3.7451950340 -3.0000282984
5.9650940985 -3.7498988908 -3.0000282984
6.1121200712 -3.7460667637 -3.0000282984
6.1426381163 -3.7689251245 -3.0000283618
5.4317210796 -3.7758149034 -3.0000284252
6.3364009008 -3.7803406538 -3.0000284252
5.6943234069 -3.8907444182 -3.0000286788
11.1934015994 2.2474873916 -3.0000293761
11.1222743614 2.6569028414 -3.0000294395
11.1859261053 2.5078049479 -3.0000295029
11.2551560701 2.3087917921 -3.0000295663
11.1141843961 2.8554969969 -3.0000295663
11.2288894890 3.0484327887 -3.0000300101
7.6534674158 -0.2996074485 -3.0000158045
7.6738761836 -0.3125618871 -3.0000158102
7.7131698159 -0.2483728340 -3.0000158102
7.7697335972 -0.1467486114 -3.0000158102
7.6964094486 -0.4104357342 -3.0000158275
7.7082004182 -0.3928531224 -3.0000158275
7.9820121157 0.0259899512 -3.0000158391
7.9648361899 -0.0767169952 -3.0000158448
7.7527262301 -0.6218780850 -3.0000158679
5.2046615540 -3.5074342839 -3.0000163232
5.2571676775 -3.5132343438 -3.0000163232
5.5337192456 -3.5334699682 -3.0000163232
5.6256023434 -3.5605607035 -3.0000163289
5.6521537729 -3.5610470382 -3.0000163289
5.4650248760 -3.5784791082 -3.0000163347
5.5717103238 -3.5832766032 -3.0000163347
5.3030569606 -3.5906233237 -3.0000163405
5.2420961669 -3.6574873151 -3.0000163578
5.4581669185 -3.6991495291 -3.0000163635
6.3606399725 -3.6622638467 -3.0000163635
6.5859867599 -3.6743785970 -3.0000163750
5.2883939973 -3.9048370391 -3.0000164154
7.7006575361 -0.2094052323 -3.0000128291
7.7207763530 -0.2244027906 -3.0000128032
7.7488322929 -0.1481565724 -3.0000128032
7.7597203047 -0.1161020581 -3.0000128032
7.7852511503 -0.1901085903 -3.0000127513
7.8223896916 -0.0786101976 -3.0000127513
7.8341524378 -0.0388310960 -3.0000127513
7.7426353979 -0.3602209021 -3.0000127254
7.8649189981 -0.0185715732 -3.0000127254
7.7318576846 -0.4404212612 -3.0000126994
7.7349378433 -0.4340722331 -3.0000126994
7.7871414297 -0.3182905983 -3.0000126994
7.8900871831 -0.0181349207 -3.0000126994
7.6978173072 -0.6078877524 -3.0000126476
7.9458910820 0.0040779786 -3.0000126476
7.7841687676 -0.4982446236 -3.0000126216
7.8677081836 -0.3759508438 -3.0000125957
5.8515857312 -3.4892627867 -3.0000108581
5.8287797777 -3.5148872256 -3.0000108321
5.8409630896 -3.5141543941 -3.0000108321
5.8774992721 -3.5117397034 -3.0000108321
5.9383406721 -3.5069950065 -3.0000108321
6.0381485297 -3.5215632157 -3.0000108062
6.0503506743 -3.5202110043 -3.0000108062
6.1755389401 -3.5286377138 -3.0000107803
5.8454243384 -3.5865361238 -3.0000107543
6.0680869248 -3.5668505064 -3.0000107543
6.3303473410 -3.5527428441 -3.0000107284
6.1608757981 -3.6039007952 -3.0000107024
6.0387217418 -3.6430669760 -3.0000106765
6.4875974154 -3.5710065412 -3.0000106765
6.6965390039 -3.5704516113 -3.0000106246
5.9696596795 -3.7226500616 -3.0000105987
6.0080410761 -3.7190850506 -3.0000105987
6.6581260863 -3.6802088700 -3.0000105209
6.9168120544 -3.6324502143 -3.0000104950
7.0824344692 -3.6281747384 -3.0000104431
5.8913997718 -3.8984689924 -3.0000104172
6.0244381592 -3.8874999089 -3.0000104172
7.5571355596 -3.6433232485 -3.0000102356
7.7490139282 -0.0856089243 -3.0000139090
7.7422344245 -0.2488687880 -3.0000138946
7.7495558718 -0.2158167517 -3.0000138946
7.7595218468 -0.2809109112 -3.0000138801
7.7711585050 -0.3335112366 -3.0000138657
7.8515744349 -0.0520887526 -3.0000138513
7.8695162713 -0.0972210650 -3.0000138369
7.8879275844 0.0569040223 -3.0000138369
7.8790106390 -0.1851809795 -3.0000138225
7.8994891247 -0.0585326361 -3.0000138225
7.9384074964 0.0814400971 -3.0000138081
7.9408220894 0.1173574785 -3.0000138081
7.7166264783 -0.8766024111 -3.0000137793
7.9842594072 0.0485646918 -3.0000137793
8.0497408849 -0.0253659581 -3.0000137361
7.6053399966 -1.3239874503 -3.0000136928
7.6378471889 -1.4395941513 -3.0000136352
7.8845273262 3.2454248779 -3.0000129868
6.3754057574 -3.4746430324 -3.0000129724
7.9172949546 3.2501587758 -3.0000129724
6.4030862406 -3.4929845007 -3.0000129580
6.4474621537 -3.4821697929 -3.0000129580
6.4310138027 -3.5111284292 -3.0000129436
6.4867287574 -3.4971130147 -3.0000129436
6.5089556718 -3.4912763675 -3.0000129436
6.6042661190 -3.4898265335 -3.0000129292
6.6153618236 -3.4865769829 -3.0000129292
6.6221902066 -3.5097655246 -3.0000129148
6.6556244811 -3.4997586235 -3.0000129148
6.6667493420 -3.4963571021 -3.0000129148
6.6738516245 -3.5194632239 -3.0000129004
6.7185218910 -3.5054428406 -3.0000129004
6.8152669866 -3.4986608769 -3.0000128860
6.8231848487 -3.5215003765 -3.0000128716
6.9208188513 -3.5120434904 -3.0000128572
6.9629183195 -3.5219561446 -3.0000128428
6.9852838800 -3.5133017653 -3.0000128428
8.2800624845 3.2231173408 -3.0000128428
7.2240633777 -3.5175763490 -3.0000127851
7.2677144022 -3.5241569052 -3.0000127707
8.5296082827 3.2157235588 -3.0000127419
7.2381067387 -3.8017788329 -3.0000126266
7.7821057166 -0.1962580974 -3.0000155316
7.8325477566 -0.1363883096 -3.0000155374
7.8708693872 0.1374612625 -3.0000155432
7.8902340518 -0.3583316148 -3.0000155460
7.8905392565 0.1822749067 -3.0000155460
7.9230140497 -0.2678766752 -3.0000155489
7.9401609274 -0.5190839974 -3.0000155547
7.9780992737 -0.0954206361 -3.0000155547
7.8655181922 -0.9033048049 -3.0000155576
7.9043575844 0.6070858253 -3.0000155576
7.9823772070 -0.5569598441 -3.0000155605
7.8988579603 0.7067488987 -3.0000155605
7.8774378135 -1.0113024547 -3.0000155633
8.0023765219 0.4075273468 -3.0000155633
7.9356463276 0.6711469053 -3.0000155633
8.0757546998 -0.4336247002 -3.0000155691
8.1384455841 -0.5059384627 -3.0000155777
8.1010796857 -0.8822321037 -3.0000155835
8.1822479525 0.4927057784 -3.0000155864
8.1764870297 -0.7938156958 -3.0000155893
6.9202446039 -3.4391498795 -3.0000156930
6.9301555944 -3.4349218201 -3.0000156930
6.9893662726 -3.4354198444 -3.0000156959
7.0588011295 -3.4302853921 -3.0000156988
7.0590744606 -3.4568230642 -3.0000157017
7.0789860215 -3.4475159720 -3.0000157017
7.0889210658 -3.4428182902 -3.0000157017
7.0988421701 -3.4380912392 -3.0000157017
7.1490726857 -3.4405723876 -3.0000157045
7.1589868829 -3.4356674072 -3.0000157045
7.2095040274 -3.4372766251 -3.0000157074
7.3113362566 -3.4383001336 -3.0000157132
7.3212430222 -3.4329151581 -3.0000157132
7.4042463293 -3.4420167368 -3.0000157189
7.4141636827 -3.4363569002 -3.0000157189
7.4659244286 -3.4342582231 -3.0000157218
7.2905034884 3.4125518923 -3.0000157276
7.3843411155 3.3903487675 -3.0000157305
7.4062182495 3.4059553372 -3.0000157334
7.8921192550 -3.2958817470 -3.0000157362
7.5004287707 3.3807012224 -3.0000157362
7.4592608189 3.4041766884 -3.0000157362
7.5968520374 3.3797982723 -3.0000157420
7.6299752445 3.3879059705 -3.0000157449
7.6838327115 3.3828586839 -3.0000157478
7.6735596258 3.3893157258 -3.0000157478
7.7173360897 3.3902239424 -3.0000157506
7.7715757345 3.3839107339 -3.0000157535
7.9939773926 3.3775862888 -3.0000157679
8.2604379510 3.3879289719 -3.0000157881
7.9741563748 -0.5067236672 -3.0000158391
7.9750751981 -0.4635354709 -3.0000158391
7.8996342260 0.4155607707 -3.0000158564
7.8124802136 0.7366001231 -3.0000158679
8.1047090153 -0.7165128840 -3.0000158736
8.1127877827 -0.2366613528 -3.0000158736
7.8904391831 0.6309356309 -3.0000158736
7.9037956299 0.8734673762 -3.0000159025
8.0526707098 0.8509511261 -3.0000159313
8.1196417151 -1.7459841441 -3.0000159486
7.4989664305 -3.3316746502 -3.0000160926
7.5297276168 -3.3399940039 -3.0000160984
7.5383172554 -3.3340995126 -3.0000160984
7.6347476988 -3.3251965244 -3.0000161099
7.6746762252 -3.3259601704 -3.0000161157
7.8373436376 -3.4152428975 -3.0000161560
8.3254520715 -3.2788614537 -3.0000162079
6.7553890983 3.4593432719 -3.0000162310
6.7438684555 3.4629173798 -3.0000162310
6.8434034918 3.4562954279 -3.0000162367
6.8318914801 3.4601299117 -3.0000162367
6.8203681756 3.4639303240 -3.0000162367
6.9088018167 3.4594200580 -3.0000162425
6.8742016995 3.4714015123 -3.0000162425
6.9745756496 3.4614560968 -3.0000162483
6.9630477978 3.4656785889 -3.0000162483
6.9515075054 3.4698669611 -3.0000162483
7.0291761095 3.4668112629 -3.0000162540
7.0841027519 3.4714164727 -3.0000162598
7.0725449562 3.4759629223 -3.0000162598
7.1624422286 3.4657425003 -3.0000162655
6.8461799265 3.5826472293 -3.0000162655
7.3184417938 3.4769610524 -3.0000162828
7.4525511702 3.5208733144 -3.0000163059
10.2195424510 1.2506955525 -3.0000164442
10.4634430580 0.8747142771 -3.0000164730
7.5104152540 4.2634902612 -3.0000164730
7.4393872684 4.3706991668 -3.0000164903
7.9519057451 -0.1541822647 -3.0000152588
8.0579658155 -0.4380776187 -3.0000152588
8.0993378675 -0.6084137282 -3.0000152588
8.0566037044 -0.2842530680 -3.0000152588
6.2282162414 3.4642997138 -3.0000152588
6.2156970919 3.4660022111 -3.0000152588
6.1655717751 3.4724416426 -3.0000152588
6.2943800365 3.4791285320 -3.0000152588
6.2818167312 3.4810266889 -3.0000152588
6.2063239881 3.4916344422 -3.0000152588
6.1937240734 3.4932720586 -3.0000152588
6.4240349256 3.4818843521 -3.0000152588
6.3988841813 3.4864105267 -3.0000152588
6.3737070989 3.4907878218 -3.0000152588
6.3358940192 3.4970742818 -3.0000152588
6.5468302515 3.5069861648 -3.0000152588
6.6532534384 3.5080124128 -3.0000152588
6.6406031191 3.5109720558 -3.0000152588
6.6279441001 3.5138942638 -3.0000152588
6.8170847852 3.5162220599 -3.0000152588
6.3235528626 3.6702996707 -3.0000152588
6.9516633050 3.5529604317 -3.0000152588
6.4103384159 3.7052389922 -3.0000152588
6.2008303118 3.7603671820 -3.0000152588
7.2381990169 3.5589689327 -3.0000152588
7.3106881864 3.5575129689 -3.0000152588
6.9405867558 3.8080482908 -3.0000152588
10.1576537486 1.9420781354 -3.0000152588
8.0701279276 -0.2475301662 -3.0000152588
7.6822258296 0.5129334798 -3.0000152588
7.6621345631 0.5729131114 -3.0000152588
8.1371057341 -0.1519058890 -3.0000152588
8.3203549049 -0.4961702789 -3.0000152588
5.6484603769 3.4811853299 -3.0000152588
5.6214948136 3.4801630949 -3.0000152588
5.5945357701 3.4789813405 -3.0000152588
5.5675841901 3.4776401080 -3.0000152588
5.6882890518 3.5065843281 -3.0000152588
5.6069558055 3.5037419921 -3.0000152588
5.5650384163 3.5259190906 -3.0000152588
6.1117146394 3.5465067172 -3.0000152588
5.6733275827 3.5545365674 -3.0000152588
6.1957409462 3.5644727858 -3.0000152588
6.2942772574 3.5794863413 -3.0000152588
6.2391442963 3.5849170755 -3.0000152588
6.3383078798 3.5990043076 -3.0000152588
6.5628141892 3.5925285513 -3.0000152588
6.4936659758 3.6031853448 -3.0000152588
6.4521040520 3.6090880914 -3.0000152588
6.6360082881 3.6046536019 -3.0000152588
6.4135715151 3.6385977561 -3.0000152588
6.5426084702 3.6446849871 -3.0000152588
6.5006763331 3.6510204367 -3.0000152588
6.3068368615 3.6996971494 -3.0000152588
6.9198686758 3.6448498709 -3.0000152588
6.9058954259 3.6481190353 -3.0000152588
6.8919125663 3.6513468500 -3.0000152588
7.0094578559 3.6477953671 -3.0000152588
6.0568130797 3.8160561491 -3.0000152588
7.1199173100 3.6684978334 -3.0000152588
7.5935650060 3.5631339417 -3.0000152588
7.4138418834 3.6283619549 -3.0000152588
8.0722676809 3.4035210740 -3.0000152588
7.8983272510 3.4872717459 -3.0000152588
8.1230361630 3.4047249713 -3.0000152588
7.7076390008 0.3658946561 -3.0000152588
8.2799569873 -0.3867555544 -3.0000152588
5.3230772194 3.5438433456 -3.0000152588
5.1784986374 3.5210720584 -3.0000152588
5.0203180224 3.4910969264 -3.0000152588
4.9630515754 3.4789230335 -3.0000152588
5.7426622377 3.6338577300 -3.0000152588
5.4481852374 3.6087010691 -3.0000152588
5.9936434211 3.6656903848 -3.0000152588
4.9569690829 3.5765487720 -3.0000152588
6.2482086841 3.7089910501 -3.0000152588
6.4769082842 3.7420597044 -3.0000152588
5.0752189490 3.6743840304 -3.0000152588
5.9017550732 3.7852558023 -3.0000152588
5.3560952593 3.7435152892 -3.0000152588
11.2888508508 -2.3349152655 -3.0000152588
11.3314691787 -2.0688468953 -3.0000152588
11.2564244501 -2.6041161114 -3.0000152588
11.3193776735 -2.6523222926 -3.0000152588
7.6047002656 0.2146417320 -3.0000152588
8.2022506882 -0.1004061232 -3.0000152588
8.4076066842 -0.2689922419 -3.0000152588
8.5311974452 -0.4386924317 -3.0000152588
8.5243410257 -0.4253831485 -3.0000152588
11.1101663652 -2.4015902895 -3.0000152588
11.1171702987 -2.3586774362 -3.0000152588
11.1750133258 -1.7530938092 -3.0000152588
11.1240267647 -2.4629889844 -3.0000152588
11.1539722005 -2.2760373217 -3.0000152588
11.1688189412 -2.1604689156 -3.0000152588
11.1822473479 -2.0300764305 -3.0000152588
11.2004255953 -1.7102166876 -3.0000152588
11.1694206778 -2.3373282951 -3.0000152588
11.1977153747 -2.1196280724 -3.0000152588
11.2253134903 -1.5059056196 -3.0000152588
11.1493996960 -2.5870992049 -3.0000152588
11.2716524570 -1.7562942540 -3.0000152588
11.2738845083 -1.5198527004 -3.0000152588
11.2708038691 -1.4016585193 -3.0000152588
11.2639962050 -1.2688200562 -3.0000152588
11.1248319666 -2.9001990698 -3.0000152588
11.3755611598 -2.2611000054 -3.0000152588
11.3849157557 -2.1856348579 -3.0000152588
11.2633779622 -3.0330330713 -3.0000152588
5.7090602130 3.7618548723 -3.0000152588
5.0445926380 3.6735982347 -3.0000152588
4.6517447333 3.5911235546 -3.0000152588
4.9258259179 3.8189363243 -3.0000152588
7.5598879359 0.2324867925 -3.0000152588
7.5705355280 0.2541884990 -3.0000152588
7.6831996138 0.2226143665 -3.0000152588
7.7066496766 0.2648924422 -3.0000152588
7.7669417728 0.2863059525 -3.0000152588
7.9631096747 0.2482718324 -3.0000152588
7.7843035477 0.3599224320 -3.0000152588
7.4694324244 0.5098126696 -3.0000152588
7.9707183737 0.2723515787 -3.0000152588
8.4865941933 -0.0863526579 -3.0000152588
7.9864717040 0.3491545997 -3.0000152588
7.4071920927 0.7378417361 -3.0000152588
8.9544723154 -0.5071753571 -3.0000152588
11.0329587746 -2.2849443520 -3.0000152588
11.0470609595 -2.1395756487 -3.0000152588
11.0602561810 -1.8876729576 -3.0000152588
11.1076010431 -1.6338812477 -3.0000152588
11.1021330657 -1.5132198492 -3.0000152588
11.1186688267 -1.4041344087 -3.0000152588
11.1126284019 -1.3369435639 -3.0000152588
11.1274853649 -2.3093203708 -3.0000152588
11.1311108145 -1.2806328766 -3.0000152588
11.1488928737 -1.2238232902 -3.0000152588
11.1472307796 -1.2102894720 -3.0000152588
11.1739011695 -2.3285254715 -3.0000152588
11.1677568453 -1.1801129640 -3.0000152588
11.2082132020 -1.1189732188 -3.0000152588
11.1769151426 -0.9276295070 -3.0000152588
11.1691791333 -0.8868060808 -3.0000152588
11.2746163062 -1.5728259801 -3.0000152588
11.2776954458 -2.2704643369 -3.0000152588
11.3030933753 -1.8235752365 -3.0000152588
11.1855389240 -0.6258657432 -3.0000152588
11.3354903661 -1.3862576664 -3.0000152588
11.3982121369 -1.9101470327 -3.0000152588
11.1249979294 -0.0329914604 -3.0000152588
4.5208617604 3.7168451968 -3.0000152588
4.4712030233 3.7497983616 -3.0000152588
7.5188838734 0.2644297101 -3.0000152588
7.6353527605 0.2532439855 -3.0000152588
7.5650018880 0.3012588116 -3.0000152588
7.4395653046 0.3353433359 -3.0000152588
7.7160606623 0.2757009002 -3.0000152588
7.6966061206 0.2828921488 -3.0000152588
7.6705689160 0.2922113800 -3.0000152588
7.4854779734 0.3487337700 -3.0000152588
7.7571561685 0.2858409914 -3.0000152588
7.3438350388 0.4548318604 -3.0000152588
7.5168293557 0.4404737963 -3.0000152588
8.3597018141 0.0918556043 -3.0000152588
8.4795957451 0.0298506038 -3.0000152588
8.4890595319 0.0533085177 -3.0000152588
7.2989596544 0.7810905834 -3.0000152588
10.9907570219 -1.6726316314 -3.0000152588
10.9900284670 -1.6605196997 -3.0000152588
10.9892640859 -1.6484099763 -3.0000152588
11.0125819061 -1.6346727315 -3.0000152588
11.0080171247 -1.5738175684 -3.0000152588
11.0069961844 -1.5616550106 -3.0000152588
10.9988428538 -1.4766091164 -3.0000152588
11.0330991288 -1.5840679961 -3.0000152588
11.0277836396 -1.5229149107 -3.0000152588
11.0241603932 -1.4862631515 -3.0000152588
11.0159388479 -1.4130633098 -3.0000152588
11.0097366028 -1.3643494645 -3.0000152588
11.0599671538 -1.6190940563 -3.0000152588
11.0336975715 -1.3611545845 -3.0000152588
11.0303610812 -1.3366843301 -3.0000152588
11.0268798750 -1.3122342437 -3.0000152588
11.0505267320 -1.1573551797 -3.0000152588
11.1240479852 -1.5138297420 -3.0000152588
11.1596777652 -1.6627214695 -3.0000152588
11.1443853045 -1.4738392727 -3.0000152588
11.2335015123 -1.6841322715 -3.0000152588
11.3028596596 -1.6281496986 -3.0000152588
11.1040097453 -0.4957497074 -3.0000152588
11.2365496946 -0.8686229820 -3.0000152588
11.2206302428 -0.8045390422 -3.0000152588
11.3497881565 -1.0483708990 -3.0000152588
11.3038985516 -0.8386164433 -3.0000152588
11.0611073055 -0.1141265413 -3.0000152588
11.3865952737 -0.9859592316 -3.0000152588
7.4347488050 0.2915969359 -3.0000152588
7.6672034104 0.2840048491 -3.0000152588
7.5049035631 0.3087716231 -3.0000152588
7.4845044393 0.3110554982 -3.0000152588
7.4231967130 0.3168197513 -3.0000152588
7.4027293842 0.3183782070 -3.0000152588
7.6988378700 0.3024566844 -3.0000152588
7.6852746634 0.3051468747 -3.0000152588
7.6716957781 0.3077567736 -3.0000152588
7.6172329641 0.3173916683 -3.0000152588
7.5557095281 0.3266869784 -3.0000152588
7.7718740369 0.3113503146 -3.0000152588
7.7172981366 0.3233547485 -3.0000152588
7.4827240513 0.3598608848 -3.0000152588
7.3504051563 0.3699361197 -3.0000152588
7.4922533568 0.3831593942 -3.0000152588
7.4782163015 0.3846259488 -3.0000152588
7.3938341361 0.3916791377 -3.0000152588
7.6360518817 0.3877773811 -3.0000152588
7.4877477761 0.4079452203 -3.0000152588
7.3242320592 0.4194232914 -3.0000152588
7.3028580786 0.4200994510 -3.0000152588
7.2814789391 0.4205859019 -3.0000152588
7.4544293790 0.4354631674 -3.0000152588
7.3041722952 0.4684276411 -3.0000152588
7.2169255904 0.4692510800 -3.0000152588
7.8135280216 0.4257115443 -3.0000152588
7.3488568181 0.4910033557 -3.0000152588
7.2020400912 0.4932577777 -3.0000152588
7.2387663773 0.5176816358 -3.0000152588
7.6190923754 0.5128963120 -3.0000152588
7.4033480824 0.5364049301 -3.0000152588
7.8670495745 0.4872072641 -3.0000152588
7.2690219856 0.5658318140 -3.0000152588
8.1636107019 0.4181181831 -3.0000152588
7.9832472668 0.4799779395 -3.0000152588
7.0059799184 0.6283389702 -3.0000152588
7.0818348040 0.8034305084 -3.0000152588
4.2475597082 0.3756851749 -3.0000152588
10.9929807260 -1.0969021613 -3.0000152588
10.9903262555 -1.0857962424 -3.0000152588
10.9876389433 -1.0746982244 -3.0000152588
10.9849188129 -1.0636082046 -3.0000152588
10.9765617521 -1.0303871039 -3.0000152588
10.9912722827 -0.9910327351 -3.0000152588
10.9993737827 -0.9290663746 -3.0000152588
10.9930389152 -0.9068275516 -3.0000152588
10.9898221694 -0.8957222922 -3.0000152588
11.0162674306 -0.9001364113 -3.0000152588
10.9929181066 -0.8221243103 -3.0000152588
10.9945764234 -0.7480743866 -3.0000152588
11.0847206063 -0.9661977734 -3.0000152588
11.0063047184 -0.7069973408 -3.0000152588
10.9986558947 -0.6847213987 -3.0000152588
10.9947820941 -0.6736004950 -3.0000152588
11.0097041949 -0.6432730043 -3.0000152588
11.1630530226 -1.0810196197 -3.0000152588
11.0154367127 -0.3304890799 -3.0000152588
11.2318357716 -0.6958918693 -3.0000152588
10.9503155749 0.0224556673 -3.0000152588
11.2421296142 -0.3705128159 -3.0000152588
11.4045969746 -0.6807190500 -3.0000152588
11.0366237748 0.2622939660 -3.0000152588
4.2696897294 1.3465302439 -3.0000152588
7.5541112942 0.2844975698 -3.0000152588
7.5948195132 0.3088879552 -3.0000152588
7.5400849651 0.3084329690 -3.0000152588
7.5195645905 0.3079284268 -3.0000152588
7.4375521024 0.3040900011 -3.0000152588
7.4238988342 0.3031673310 -3.0000152588
7.3829751267 0.2999148968 -3.0000152588
7.7330831617 0.3284851497 -3.0000152588
7.6985676837 0.3303954082 -3.0000152588
7.6156450540 0.3328957855 -3.0000152588
7.5395980289 0.3326010921 -3.0000152588
7.5041984998 0.3558074580 -3.0000152588
7.3439509008 0.3447400058 -3.0000152588
7.3231160452 0.3424934541 -3.0000152588
7.5668480922 0.3813389575 -3.0000152588
7.2643965862 0.3595510737 -3.0000152588
7.8654079910 0.3894194503 -3.0000152588
7.6521778316 0.4047039986 -3.0000152588
7.6022880573 0.4055438310 -3.0000152588
7.5666471585 0.4055111504 -3.0000152588
7.4526641439 0.4018649716 -3.0000152588
7.3938541349 0.4221171341 -3.0000152588
7.3508240175 0.4183127253 -3.0000152588
7.2864223818 0.4111757268 -3.0000152588
7.2507327357 0.4064706547 -3.0000152588
7.1866818133 0.3966733707 -3.0000152588
8.2557364050 0.3611310281 -3.0000152588
8.0862707458 0.4026335662 -3.0000152588
8.0005400772 0.4188483128 -3.0000152588
7.6244136878 0.4536507630 -3.0000152588
7.4935547033 0.4521758425 -3.0000152588
7.2906572757 0.4360504579 -3.0000152588
7.1683714094 0.4180852621 -3.0000152588
7.9538585806 0.4508053224 -3.0000152588
7.6247848035 0.4778209420 -3.0000152588
7.6101004078 0.4780029629 -3.0000152588
7.4779656325 0.4757317440 -3.0000152588
7.4046666236 0.4714313845 -3.0000152588
7.1497937883 0.4393636929 -3.0000152588
8.0451748974 0.4599923196 -3.0000152588
7.6770378110 0.5006571137 -3.0000152588
7.4546900500 0.4988088265 -3.0000152588
7.0531565649 0.4695783505 -3.0000152588
7.7391684557 0.5460773740 -3.0000152588
7.3015313057 0.5346693035 -3.0000152588
7.9303971749 0.5517969859 -3.0000152588
6.9908826285 0.5050392015 -3.0000152588
6.7491681022 0.4350239716 -3.0000152588
7.4034844014 0.5925244314 -3.0000152588
7.1588724198 0.5635837252 -3.0000152588
8.6024037204 0.4188610661 -3.0000152588
8.3681063855 0.5548422513 -3.0000152588
8.2154324454 0.5965702981 -3.0000152588
8.6397863960 0.5080344931 -3.0000152588
8.2189587025 0.6454444551 -3.0000152588
9.0935392890 0.2940491458 -3.0000152588
8.9313433587 0.4202444262 -3.0000152588
6.9238667757 0.7872681088 -3.0000152588
6.9073638538 0.7832978473 -3.0000152588
