38.1164570833 -30.3162850399 -2.8500121063
38.2482639129 -30.2639617050 -2.8500120544
37.0931268787 -30.9229855719 -2.8500120285
37.2386039867 -30.9066718307 -2.8500120026
38.5183092536 -30.3026160095 -2.8500118210
41.0053457576 -28.1476215566 -2.8500100056
41.0048519996 -28.1340665573 -2.8500100056
41.0031301686 -28.0934111536 -2.8500100056
41.0024760561 -28.0798629456 -2.8500100056
41.0017818683 -28.0663167320 -2.8500100056
41.0317723105 -28.3785453542 -2.8500099796
41.0323151705 -28.3103706251 -2.8500099796
41.0322499646 -28.2830997380 -2.8500099796
41.0321568578 -28.2694645585 -2.8500099796
41.0299600888 -28.1604052072 -2.8500099796
41.0284710098 -28.1195259461 -2.8500099796
41.0656015478 -28.6820141590 -2.8500099278
41.0771159113 -28.4894726622 -2.8500099278
41.0797173459 -28.2139547532 -2.8500099278
41.0822844752 -28.7667243588 -2.8500099018
41.0873890120 -28.7115602402 -2.8500099018
41.1049558617 -28.7829464739 -2.8500098759
41.1179372474 -28.6303675701 -2.8500098759
41.1291226125 -28.9832578723 -2.8500098240
41.2002523866 -28.1973879235 -2.8500097981
41.1607822614 -29.3499132208 -2.8500097203
41.2584786789 -28.9289779968 -2.8500096944
41.2423405008 -29.1898093474 -2.8500096684
41.3176921005 -28.0931997469 -2.8500096684
41.1799556423 -29.5777568093 -2.8500096425
41.4129096558 -28.0594385301 -2.8500095647
41.3314956267 -29.5716564216 -2.8500094869
41.4860621957 -28.0708109309 -2.8500094869
41.0656690486 -30.4010995106 -2.8500094609
40.9552297390 -30.7347205379 -2.8500094091
41.1159730537 -30.4070975961 -2.8500094091
37.8056408427 -30.5253625646 -2.8500202002
37.9434477885 -30.4360488015 -2.8500202492
37.3805021271 -30.8666533267 -2.8500202982
37.5295727994 -30.8102041708 -2.8500203472
37.8875738070 -30.7694133194 -2.8500206901
38.2865532513 -30.4300431773 -2.8500207391
41.0283404418 -27.7218029145 -2.8500249521
41.0159932572 -27.6496696045 -2.8500249521
41.0967692592 -28.0679957027 -2.8500250011
41.0397889367 -27.6454150873 -2.8500250011
41.0177110131 -27.5298427086 -2.8500250011
41.1379907053 -28.3312443496 -2.8500250501
41.1234450840 -28.0952400801 -2.8500250501
41.1015695768 -27.8894996725 -2.8500250501
41.1647314203 -28.4193968497 -2.8500250990
41.1091506979 -27.7687774585 -2.8500250990
41.1981651146 -28.1189543126 -2.8500251970
41.2820848541 -28.7362747269 -2.8500253440
41.2667134487 -29.1938370711 -2.8500253930
41.2732315891 -29.3185530448 -2.8500254420
41.2971170821 -29.3222703696 -2.8500254909
35.0251688372 -33.7608842668 -2.8500257849
35.1494871075 -33.7859250625 -2.8500257849
35.3683440741 -33.8226434269 -2.8500257849
35.3997269225 -33.8271479151 -2.8500257849
35.6990101805 -33.8606566209 -2.8500257849
34.8340003646 -33.7412699353 -2.8500258339
35.3896359948 -33.8989614982 -2.8500259318
37.6221246104 -30.7381507327 -2.8500215134
37.5364091273 -30.8407611041 -2.8500215768
35.0841356237 -33.6077405047 -2.8500275360
35.5279973802 -33.6870936416 -2.8500275994
35.5425204424 -33.6881995098 -2.8500275994
35.6283501447 -33.7180661905 -2.8500276628
35.7599514464 -33.7237890502 -2.8500276628
35.8623858761 -33.7258168492 -2.8500276628
35.0284642833 -33.6716018421 -2.8500277262
36.0983576680 -33.7707971808 -2.8500277896
35.8763953054 -33.8226234471 -2.8500279164
35.7712962544 -33.8450290643 -2.8500279798
35.9364736086 -33.8951752345 -2.8500281066
34.6565971656 -33.7645228460 -2.8500281700
34.8596414958 -33.9099046843 -2.8500284236
41.2552560478 -27.9685540788 -2.8500288673
41.1348234404 -27.3894137333 -2.8500288673
41.3392879556 -28.6688102580 -2.8500289307
41.3168696647 -27.8936460338 -2.8500290575
41.0076928500 -26.7705237169 -2.8500290575
41.1039281300 -26.9600482424 -2.8500291209
40.9810331835 -26.6410498462 -2.8500291209
41.2914939078 -27.4157532810 -2.8500292477
41.2015161415 -27.0998800124 -2.8500292477
38.2120604336 -29.9812733261 -2.8500153187
38.2209403059 -30.0266321436 -2.8500153245
37.8916383147 -30.7584564585 -2.8500153418
35.1813671759 -33.4803133023 -2.8500157452
35.1784289486 -33.5043070953 -2.8500157510
35.2965840992 -33.5171821725 -2.8500157510
35.3491990610 -33.5218938067 -2.8500157510
35.4545778112 -33.5294478192 -2.8500157510
35.4677618600 -33.5302166619 -2.8500157510
35.4809481256 -33.5309465004 -2.8500157510
35.3604189260 -33.5470692818 -2.8500157567
35.3736555143 -33.5481165864 -2.8500157567
35.4266311110 -33.5519141103 -2.8500157567
35.4929077104 -33.5557791050 -2.8500157567
35.4250453971 -33.5760350720 -2.8500157625
35.5583626434 -33.5828207304 -2.8500157625
35.7585689748 -33.5855992480 -2.8500157625
35.6916655785 -33.6098327444 -2.8500157683
35.4892213640 -33.6282044347 -2.8500157740
36.1093054070 -33.6175481314 -2.8500157740
36.1227472079 -33.6163797859 -2.8500157740
35.3256160605 -33.6411890550 -2.8500157798
35.4338243302 -33.6492677140 -2.8500157798
35.2420899681 -33.6574930371 -2.8500157856
35.2556537276 -33.6588898970 -2.8500157856
35.9229342718 -33.6780249417 -2.8500157856
36.2219886861 -33.6551484886 -2.8500157856
35.9239928866 -33.7021747785 -2.8500157913
35.2507721548 -33.7069888718 -2.8500157971
36.4593521107 -33.6719105010 -2.8500157971
35.3172767878 -33.7375208828 -2.8500158028
36.4495054950 -33.6979530080 -2.8500158028
36.4905203865 -33.6913064566 -2.8500158028
36.4944930760 -33.7151508064 -2.8500158086
36.6635746101 -33.7084653594 -2.8500158144
36.1397777397 -33.8090126467 -2.8500158201
36.0432554190 -33.8407849520 -2.8500158259
35.4201951548 -33.8663976370 -2.8500158317
35.2312458638 -33.8993847710 -2.8500158432
37.0362654094 -33.7424946077 -2.8500158432
35.1714473308 -33.9172699564 -2.8500158490
37.1120816631 -33.7456998790 -2.8500158490
35.7907679222 -33.9720277476 -2.8500158547
35.2819196460 -33.9770728140 -2.8500158605
35.4841796249 -34.0151952581 -2.8500158662
41.3483565367 -27.5953397492 -2.8500160737
41.3439606329 -27.5786996927 -2.8500160737
41.2316376478 -26.7318427173 -2.8500161141
41.7172178706 -27.5740907413 -2.8500161602
37.9110267441 -30.1969088150 -2.8500122878
38.0557990314 -30.1419286251 -2.8500121582
37.9033579818 -30.5839023121 -2.8500121322
37.8258362532 -30.7710127541 -2.8500121063
37.7914138053 -30.8695007697 -2.8500120804
38.1297112130 -30.1478739792 -2.8500120804
37.8059390150 -30.9761197994 -2.8500120026
38.2081888967 -30.2219412716 -2.8500119766
37.6341656302 -31.2655641753 -2.8500119507
38.1909909774 -30.4158553579 -2.8500119248
38.3071988716 -30.0451543045 -2.8500119248
37.7628474408 -31.1910684310 -2.8500118988
38.2329268915 -30.4413177922 -2.8500118729
38.3081561797 -30.3790312372 -2.8500118210
38.4049441551 -30.3207319968 -2.8500117432
35.8165957818 -33.5156014180 -2.8500104983
35.8409645201 -33.5141717987 -2.8500104983
35.9018456308 -33.5099672219 -2.8500104983
35.9261795434 -33.5080333344 -2.8500104983
35.9383421026 -33.5070124111 -2.8500104983
35.9748109149 -33.5037338309 -2.8500104983
35.9869605426 -33.5025690659 -2.8500104983
35.9159290806 -33.5331153241 -2.8500104724
35.9403996986 -33.5310977091 -2.8500104724
35.9526304242 -33.5300346190 -2.8500104724
35.9893029831 -33.5266283314 -2.8500104724
36.0259438689 -33.5228967295 -2.8500104724
36.0747441269 -33.5174157276 -2.8500104724
36.1234761149 -33.5113576821 -2.8500104724
35.9547592599 -33.5541137249 -2.8500104465
36.0284997296 -33.5469342598 -2.8500104465
36.0653192756 -33.5428540091 -2.8500104465
36.1510800884 -33.5320639474 -2.8500104465
36.3383169315 -33.5267605433 -2.8500104205
36.2934308767 -33.5591920973 -2.8500103946
36.3426418727 -33.5505435239 -2.8500103946
36.3672081336 -33.5460010277 -2.8500103946
36.3388579073 -33.6003515896 -2.8500103427
36.5246140958 -33.5628684994 -2.8500103427
36.1044004238 -33.6599378747 -2.8500103168
36.6041438305 -33.5690594077 -2.8500103168
36.6288150609 -33.5629694539 -2.8500103168
36.6534498293 -33.5567336435 -2.8500103168
35.8300389020 -33.7569576086 -2.8500102390
36.2576109296 -33.7364107773 -2.8500102131
35.8734054501 -33.8269985319 -2.8500101612
36.0043372759 -33.8165929952 -2.8500101612
37.0291183808 -33.5955697502 -2.8500101612
35.9427399673 -33.8704740229 -2.8500101093
36.0881245257 -33.8565362434 -2.8500101093
36.2198360622 -33.8397669221 -2.8500101093
36.1968000763 -33.8673837917 -2.8500100834
37.2032250546 -33.6094566291 -2.8500100834
35.9599472959 -33.9175850838 -2.8500100574
37.2118818237 -33.6320264237 -2.8500100574
37.3300411962 -33.6371109000 -2.8500100056
36.2402802276 -33.9833569853 -2.8500099537
36.9160823575 -33.8601846425 -2.8500099278
36.9229793389 -33.8833528735 -2.8500099018
38.0941195783 -30.0614040661 -2.8500133735
37.9473462140 -30.7841017186 -2.8500133446
38.0604536912 -30.4666117370 -2.8500133446
37.8992376880 -30.9442198258 -2.8500133302
38.1868864824 -29.7388747630 -2.8500133302
37.8604970906 -31.0677609432 -2.8500133158
36.3754000354 -33.4746471153 -2.8500126386
36.3864518258 -33.4720746415 -2.8500126386
36.4252844711 -33.4876468660 -2.8500126242
36.4474564316 -33.4821738758 -2.8500126242
36.4695956241 -33.4765698046 -2.8500126242
36.4867230354 -33.4971170976 -2.8500126098
36.5200503603 -33.4883128390 -2.8500126098
36.5709162866 -33.4993821320 -2.8500125954
36.5931551281 -33.4930473297 -2.8500125954
36.6042603969 -33.4898306164 -2.8500125954
38.0252781623 -26.7447770270 -2.8500125954
36.6444838846 -33.5031313035 -2.8500125810
36.6778583698 -33.4929267691 -2.8500125810
36.7630174125 -33.4908989623 -2.8500125666
36.4539025191 -33.6050750968 -2.8500125522
36.7706644727 -33.5138305508 -2.8500125522
36.8152612646 -33.4986649598 -2.8500125522
36.8263821796 -33.4947911918 -2.8500125522
36.8790045894 -33.5016875489 -2.8500125378
36.9096407536 -33.5162006097 -2.8500125234
36.9964416395 -33.5089290755 -2.8500125090
36.4533415626 -33.7046604649 -2.8500124946
36.9940682746 -33.5358240438 -2.8500124946
37.0500868370 -33.5134780505 -2.8500124946
37.3116105920 -33.5302627803 -2.8500124225
37.4226173671 -33.5297728778 -2.8500123937
38.5905463974 -26.7776799416 -2.8500123793
37.5121459466 -33.5380334746 -2.8500123649
37.6132856663 -33.5107406029 -2.8500123505
38.0706555794 -30.2329983521 -2.8500152324
38.0714721822 -30.4641233375 -2.8500152353
38.0886086885 -30.3188438077 -2.8500152353
38.0988671920 -30.1112438931 -2.8500152353
38.0835666347 -29.8037914757 -2.8500152353
38.0907001204 -30.4983598395 -2.8500152382
38.1228903241 -30.0492991118 -2.8500152382
38.1553262245 -30.3804398447 -2.8500152440
38.1714945723 -30.0802694243 -2.8500152440
38.0972816023 -29.4608489374 -2.8500152440
38.2181863804 -29.9915366379 -2.8500152497
38.1592330688 -30.7640382770 -2.8500152526
38.0950701871 -29.1942185385 -2.8500152526
37.9990492010 -31.2782458235 -2.8500152555
38.2517756816 -29.7854027461 -2.8500152555
38.1125605977 -29.1708713430 -2.8500152555
38.2288432082 -30.6793350531 -2.8500152584
38.1615451439 -29.2413584213 -2.8500152584
38.1326322821 -29.1550819968 -2.8500152584
38.0729346766 -29.0008058697 -2.8500152584
38.2191242533 -30.9094774241 -2.8500152641
38.3382501866 -29.4295055885 -2.8500152728
36.9202479418 -33.4391470780 -2.8500153592
36.9297002807 -33.4613954167 -2.8500153621
36.9396770444 -33.4571392982 -2.8500153621
36.9893696104 -33.4354170430 -2.8500153621
37.0988455079 -33.4380884378 -2.8500153679
37.1087525853 -33.4333320592 -2.8500153679
37.1490760235 -33.4405695862 -2.8500153707
37.1688898649 -33.4307303187 -2.8500153707
37.2304819188 -33.4536792086 -2.8500153765
37.2503718963 -33.4433580871 -2.8500153765
37.2602938993 -33.4381534429 -2.8500153765
37.2815243269 -33.4542760942 -2.8500153794
37.3228525410 -33.4595526220 -2.8500153823
37.3527130073 -33.4432068875 -2.8500153823
37.3626341152 -33.4376995005 -2.8500153823
37.4042496672 -33.4420139354 -2.8500153852
37.4141670206 -33.4363540988 -2.8500153852
37.4560163948 -33.4400683851 -2.8500153880
37.4659277665 -33.4342554217 -2.8500153880
37.4881435339 -33.4492101012 -2.8500153909
37.2897556980 -26.6142459050 -2.8500153909
37.2794757797 -26.6089546367 -2.8500153909
37.5502867126 -33.4399891025 -2.8500153938
37.3420654699 -26.6143705542 -2.8500153938
37.3111780287 -26.5981238695 -2.8500153938
37.5927749160 -33.4421253312 -2.8500153967
37.6453833578 -33.4374261137 -2.8500153996
37.4371415114 -26.6111321650 -2.8500153996
37.4165450658 -26.5997081319 -2.8500153996
37.6882667847 -33.4384488712 -2.8500154024
37.4592641567 -26.5958205102 -2.8500154024
37.5660096243 -26.6016908946 -2.8500154082
37.6402476884 -26.6184193334 -2.8500154111
37.6299785823 -26.6120912281 -2.8500154111
37.9389095671 -26.6128683376 -2.8500154313
37.9939807304 -26.6224109097 -2.8500154341
38.0758184788 -29.8394879038 -2.8500155456
37.9629222202 -29.3534465463 -2.8500155571
37.7147782253 -33.3262444795 -2.8500157877
37.8768651234 -33.3224838911 -2.8500158107
37.8854014357 -33.3155625695 -2.8500158107
36.7668953030 -26.5442680298 -2.8500158972
36.7741602339 -26.5212125302 -2.8500159029
36.9630439831 -26.5343245403 -2.8500159145
37.0407032080 -26.5376099830 -2.8500159202
37.0291722948 -26.5331918664 -2.8500159202
36.9945018446 -26.5201424488 -2.8500159202
37.0956432331 -26.5331672762 -2.8500159260
37.1833113006 -26.5167796301 -2.8500159375
37.2159318591 -26.5043245265 -2.8500159433
37.4652609479 -26.5122076400 -2.8500159663
37.3012289050 -26.3041856451 -2.8500159952
38.0928645390 -29.9510677988 -2.8500149250
38.1660670156 -30.1132079501 -2.8500149250
38.0929997797 -29.8779766490 -2.8500149250
38.2112784997 -30.1978075968 -2.8500149250
38.0330271095 -29.6685019569 -2.8500149250
37.9339702318 -29.4748134795 -2.8500149250
38.2667483780 -30.3621249451 -2.8500149250
38.1876163873 -30.0104018596 -2.8500149250
38.3142054952 -30.5628154395 -2.8500149250
38.3108953201 -30.5233802892 -2.8500149250
38.0427963000 -29.5768901250 -2.8500149250
37.8636516599 -29.2693589097 -2.8500149250
38.1865954558 -29.8524676060 -2.8500149250
38.1343276370 -29.7185703415 -2.8500149250
37.7952654288 -29.1325353096 -2.8500149250
38.3124702921 -30.2083698663 -2.8500149250
38.2850710553 -30.0906587027 -2.8500149250
38.2705034090 -30.0361684030 -2.8500149250
38.2661342801 -30.0206562755 -2.8500149250
38.1004734674 -29.5300955572 -2.8500149250
38.4215042510 -30.4219122202 -2.8500149250
38.3145317811 -29.9294660903 -2.8500149250
38.1473586094 -29.5157298437 -2.8500149250
37.8772247879 -29.0805921289 -2.8500149250
38.4297338843 -30.0711067130 -2.8500149250
38.3476753467 -29.7308132605 -2.8500149250
38.2990578974 -29.6120105272 -2.8500149250
38.5793342033 -30.5425339881 -2.8500149250
38.6094632472 -30.8913512914 -2.8500149250
38.6690681959 -31.0736577757 -2.8500149250
38.3604145864 -29.3483695667 -2.8500149250
38.0752058125 -28.8622647782 -2.8500149250
36.1781011329 -26.5291210073 -2.8500149250
36.3194804671 -26.5247876378 -2.8500149250
36.2818076713 -26.5189817154 -2.8500149250
36.2566644903 -26.5152969363 -2.8500149250
36.2314999490 -26.5117609773 -2.8500149250
36.2189099435 -26.5100488442 -2.8500149250
36.1937150135 -26.5067363456 -2.8500149250
36.3988751214 -26.5135978776 -2.8500149250
36.3484954997 -26.5049923200 -2.8500149250
36.3358849593 -26.5029341225 -2.8500149250
36.2853835687 -26.4950746403 -2.8500149250
36.2094659554 -26.4844071869 -2.8500149250
36.4914847369 -26.5063786697 -2.8500149250
36.3904304332 -26.4875748470 -2.8500149250
36.3777681853 -26.4853926746 -2.8500149250
36.5594601301 -26.4957044679 -2.8500149250
36.5468211916 -26.4930222395 -2.8500149250
36.5088575433 -26.4852000465 -2.8500149250
36.3818383317 -26.4615647668 -2.8500149250
36.5899068922 -26.4775723796 -2.8500149250
36.5772141825 -26.4748001635 -2.8500149250
36.7535988947 -26.4669405015 -2.8500149250
36.4457848870 -26.3992336529 -2.8500149250
36.2772708458 -26.3717300590 -2.8500149250
36.2807052384 -26.3478022461 -2.8500149250
36.3497838153 -26.3337924411 -2.8500149250
37.0281180135 -26.4708938011 -2.8500149250
36.2910084162 -26.2760188074 -2.8500149250
36.6525952875 -26.3181867921 -2.8500149250
37.2125689053 -26.4316977779 -2.8500149250
36.3725113264 -26.1905460436 -2.8500149250
36.3664050463 -26.1406471779 -2.8500149250
37.4658931731 -26.4267318878 -2.8500149250
36.5620299657 -26.1507119589 -2.8500149250
36.9335495616 -26.1648721489 -2.8500149250
37.2247127528 -26.2308257135 -2.8500149250
36.8440126328 -26.1157983730 -2.8500149250
37.8237047180 -26.4588616283 -2.8500149250
36.6554708800 -26.0465642083 -2.8500149250
37.9449423062 -29.7677872966 -2.8500149250
38.0717201808 -29.8421471838 -2.8500149250
38.0380428515 -29.7823169913 -2.8500149250
38.3761539260 -30.4188695236 -2.8500149250
38.1934734440 -29.8658778400 -2.8500149250
37.7257458040 -29.2116178158 -2.8500149250
38.4399015300 -30.4767235550 -2.8500149250
38.1345100103 -29.7078443535 -2.8500149250
38.1263683301 -29.6941024733 -2.8500149250
38.5377104385 -30.0484973507 -2.8500149250
38.2953536888 -29.5531136852 -2.8500149250
38.7359159587 -30.6070266891 -2.8500149250
35.5675846669 -26.5223560773 -2.8500149250
35.8103519540 -26.4918559423 -2.8500149250
35.7832240830 -26.4919208470 -2.8500149250
35.9330697081 -26.4693858509 -2.8500149250
35.8240010963 -26.4677107992 -2.8500149250
35.6195209541 -26.4715273648 -2.8500149250
36.3630972401 -26.4282150090 -2.8500149250
36.1701445406 -26.4092086865 -2.8500149250
36.5351743561 -26.4030821935 -2.8500149250
36.7513356263 -26.3925555636 -2.8500149250
36.6402198321 -26.3715391762 -2.8500149250
36.7978544114 -26.3774599514 -2.8500149250
35.5832357739 -26.2795488482 -2.8500149250
36.9004239348 -26.3754226983 -2.8500149250
35.5764554900 -26.1346692502 -2.8500149250
36.6594213710 -26.1785711121 -2.8500149250
36.0617286947 -26.0873729303 -2.8500149250
39.8760955347 -34.1407567447 -2.8500149250
38.1132025220 -26.4817640566 -2.8500149250
41.3479022138 -33.0785464765 -2.8500149250
37.8616477482 -29.7261034716 -2.8500149250
38.1703275021 -29.9302198758 -2.8500149250
38.1139746463 -29.8486188950 -2.8500149250
37.8955700885 -29.5840856442 -2.8500149250
38.0204429454 -29.6884358580 -2.8500149250
38.4124057405 -30.2106132059 -2.8500149250
37.5854166756 -29.1844157757 -2.8500149250
37.4169560041 -28.9877690285 -2.8500149250
38.9110624028 -30.9604921462 -2.8500149250
35.4246528837 -26.4427805752 -2.8500149250
35.3230772194 -26.4561711979 -2.8500149250
34.9487577847 -26.5242407942 -2.8500149250
35.4071433652 -26.4205763160 -2.8500149250
34.9527190498 -26.4738624930 -2.8500149250
36.1569890519 -26.3361079084 -2.8500149250
35.9342429645 -26.3349934358 -2.8500149250
35.8154865991 -26.3384402189 -2.8500149250
36.0382818768 -26.3101106001 -2.8500149250
35.3952151646 -26.3246227723 -2.8500149250
36.2191898799 -26.2656103116 -2.8500149250
36.5672927181 -26.2668579649 -2.8500149250
36.5371823074 -26.2637120233 -2.8500149250
36.4919831106 -26.2593272656 -2.8500149250
35.7964143490 -26.2424692962 -2.8500149250
35.9145259835 -26.0935893245 -2.8500149250
35.2444246013 -26.1256276871 -2.8500149250
35.0285958487 -26.1622431625 -2.8500149250
41.2859278319 -32.3505102425 -2.8500149250
35.0574145944 -26.0585130580 -2.8500149250
41.3480157440 -32.4113078343 -2.8500149250
41.1729920361 -33.1473795717 -2.8500149250
41.8088356118 -31.9420699753 -2.8500149250
38.1162010142 -29.7819387406 -2.8500149250
37.9369872122 -29.6163085197 -2.8500149250
37.7881756713 -29.4705648355 -2.8500149250
37.7248005085 -29.4268310951 -2.8500149250
37.6199184764 -29.3321239304 -2.8500149250
37.6119804014 -29.2994141245 -2.8500149250
37.9213260636 -29.4487696373 -2.8500149250
37.8637189159 -29.4057878680 -2.8500149250
37.3366821516 -29.1073143171 -2.8500149250
38.4166695427 -29.9036994386 -2.8500149250
37.3238797203 -29.0756977910 -2.8500149250
38.0801432139 -29.4841461980 -2.8500149250
38.0042374019 -29.4215210395 -2.8500149250
37.2815667451 -29.0065894107 -2.8500149250
38.5434345874 -29.9511617649 -2.8500149250
38.2625245602 -29.5188651318 -2.8500149250
38.4166704758 -29.6422838236 -2.8500149250
37.7483502231 -29.0991510350 -2.8500149250
38.6545202673 -29.8166006465 -2.8500149250
38.5178130195 -29.5379613697 -2.8500149250
38.9055082278 -29.7936759124 -2.8500149250
38.8043584318 -29.4989599101 -2.8500149250
41.0950088415 -32.4872052290 -2.8500149250
41.1554912546 -32.0567683864 -2.8500149250
41.1618480125 -31.9845803798 -2.8500149250
41.0535183394 -32.7904022594 -2.8500149250
41.1432971957 -32.3480609813 -2.8500149250
41.1736721651 -32.1170291938 -2.8500149250
41.1809182149 -32.0445656930 -2.8500149250
41.0352063997 -32.9517775718 -2.8500149250
41.0431745052 -32.9236096965 -2.8500149250
41.1992492692 -32.1050571082 -2.8500149250
41.2245829441 -31.7107865079 -2.8500149250
41.2252056154 -31.6815199368 -2.8500149250
41.1997712171 -32.2973106725 -2.8500149250
41.2303921343 -32.0343726676 -2.8500149250
41.2329291482 -32.0050660641 -2.8500149250
41.2469755198 -31.7701776142 -2.8500149250
41.2466396090 -31.4025583869 -2.8500149250
41.2425305482 -32.1541587799 -2.8500149250
41.2649186484 -31.2835544774 -2.8500149250
41.3044199019 -31.1615232540 -2.8500149250
41.3017915500 -31.1317939536 -2.8500149250
41.3016757292 -32.2664943464 -2.8500149250
41.3152302075 -31.0251767661 -2.8500149250
41.3100113084 -30.9804982107 -2.8500149250
41.3632741870 -31.0197807347 -2.8500149250
41.2608356730 -32.9527536957 -2.8500149250
41.4537964727 -31.2103912084 -2.8500149250
41.4502157913 -31.1644756617 -2.8500149250
41.4738193407 -32.0252016891 -2.8500149250
41.4584835739 -32.3657509824 -2.8500149250
35.8993844153 -26.2213020507 -2.8500149250
35.7407304278 -26.2348556929 -2.8500149250
35.6615711332 -26.2433909148 -2.8500149250
35.5352040428 -26.2594797121 -2.8500149250
35.4564314282 -26.2710520551 -2.8500149250
35.4092530506 -26.2785542631 -2.8500149250
35.3151053127 -26.2948132140 -2.8500149250
35.2994427203 -26.2976853897 -2.8500149250
34.9727171518 -26.3686587620 -2.8500149250
34.9264240270 -26.3804498193 -2.8500149250
35.7064957837 -26.2140917412 -2.8500149250
35.5160286179 -26.2377692713 -2.8500149250
35.0757523262 -26.3191795726 -2.8500149250
34.6284810891 -26.4415944418 -2.8500149250
35.7518920990 -26.1851706672 -2.8500149250
35.2748575742 -26.2530899272 -2.8500149250
34.8676818185 -26.3459639868 -2.8500149250
34.8211914263 -26.3586880674 -2.8500149250
35.4932401483 -26.1922043392 -2.8500149250
35.4294151297 -26.2018702700 -2.8500149250
35.0754346153 -26.2448950072 -2.8500149250
34.8864582470 -26.2909499765 -2.8500149250
35.0066777269 -26.2359818251 -2.8500149250
34.2768233828 -26.4638720673 -2.8500149250
34.9098199071 -26.1850720787 -2.8500149250
35.0166001839 -26.1343459145 -2.8500149250
37.9353647495 -29.5608335919 -2.8500149250
38.2480103190 -29.2732105398 -2.8500149250
41.0184181963 -32.1902701083 -2.8500149250
41.0218935839 -32.1508036048 -2.8500149250
41.0358826420 -32.2585571316 -2.8500149250
41.0550843918 -32.0203547526 -2.8500149250
41.0557789683 -32.0070949758 -2.8500149250
41.0564343169 -31.9938332023 -2.8500149250
41.0700716192 -32.1548307683 -2.8500149250
41.0850888414 -31.7013887059 -2.8500149250
41.0794719613 -32.3037360070 -2.8500149250
41.1033604622 -32.0229551665 -2.8500149250
41.1064741911 -31.9559231702 -2.8500149250
41.1091671270 -31.8620166104 -2.8500149250
41.1095793241 -31.8351778597 -2.8500149250
41.1098631195 -31.7546535517 -2.8500149250
41.1087177104 -31.6741368903 -2.8500149250
41.1055755504 -31.5802442884 -2.8500149250
41.1274984974 -32.0242553735 -2.8500149250
41.1218239325 -31.4444973189 -2.8500149250
41.1530155378 -31.9984627042 -2.8500149250
41.1404591355 -31.3751267125 -2.8500149250
41.1814041600 -31.8769775680 -2.8500149250
41.1566105306 -31.2915709803 -2.8500149250
41.1521050257 -31.2509134868 -2.8500149250
41.1641418000 -31.1529475694 -2.8500149250
41.1603579443 -31.1257959799 -2.8500149250
41.1651780588 -30.9998672499 -2.8500149250
41.2448816199 -32.0860573999 -2.8500149250
41.2548046261 -31.7400278693 -2.8500149250
41.2506861854 -32.2956441246 -2.8500149250
41.1981418201 -30.9095566559 -2.8500149250
41.2805293612 -32.2426294257 -2.8500149250
41.1969893335 -30.7816455449 -2.8500149250
41.2987399418 -32.3009523853 -2.8500149250
41.3227668199 -32.3036065157 -2.8500149250
41.3663974567 -32.0798077175 -2.8500149250
41.3278797181 -31.1019446879 -2.8500149250
41.4212179134 -31.6095007397 -2.8500149250
41.4387740949 -32.0843508193 -2.8500149250
41.4306572756 -31.3639490052 -2.8500149250
41.2246160864 -30.3189627193 -2.8500149250
41.4693375850 -31.9555855948 -2.8500149250
41.0584223051 -29.6336617321 -2.8500149250
37.6599185591 -29.6529730805 -2.8500149250
38.0838971663 -29.5966384500 -2.8500149250
37.6186264509 -29.3869545419 -2.8500149250
38.4083855236 -29.7350807522 -2.8500149250
37.4272507555 -29.3152169474 -2.8500149250
41.0149023850 -31.6712111256 -2.8500149250
41.0134006507 -31.6468467250 -2.8500149250
41.0117547946 -31.6224916356 -2.8500149250
41.0090159098 -31.5859783248 -2.8500149250
41.0070100127 -31.5616502423 -2.8500149250
41.0048602175 -31.5373344531 -2.8500149250
41.0037313815 -31.5251814345 -2.8500149250
41.0397348071 -31.6820522053 -2.8500149250
41.0254181095 -31.4984720456 -2.8500149250
41.0174131385 -31.4252482034 -2.8500149250
41.0303749095 -31.3366795617 -2.8500149250
41.0433762938 -31.2596322491 -2.8500149250
41.0394390223 -31.2351065906 -2.8500149250
41.0374159903 -31.2228526040 -2.8500149250
41.0353567177 -31.2106046556 -2.8500149250
41.0332612224 -31.1983628524 -2.8500149250
41.1564333571 -31.6122845926 -2.8500149250
41.0628652813 -30.9753781710 -2.8500149250
41.0485438504 -30.9138516175 -2.8500149250
41.1740247940 -31.3166600503 -2.8500149250
41.2064309445 -31.2077912700 -2.8500149250
41.2440374403 -31.2937853948 -2.8500149250
41.1209701494 -30.6278609795 -2.8500149250
41.3178053173 -31.5087332777 -2.8500149250
41.3153370081 -31.4825796453 -2.8500149250
41.0965231948 -30.4007311986 -2.8500149250
41.3534915572 -31.3854862637 -2.8500149250
41.4594224923 -31.2631188456 -2.8500149250
41.5474590681 -31.0527624187 -2.8500149250
37.6187414931 -29.5849098993 -2.8500149250
38.0563121357 -29.5178137556 -2.8500149250
38.0416792950 -29.5130118154 -2.8500149250
37.4925279262 -29.3981687697 -2.8500149250
38.2551989154 -29.5404358070 -2.8500149250
37.5471655061 -29.2581125564 -2.8500149250
37.6552684124 -29.0770478911 -2.8500149250
34.2389366475 -29.6746322068 -2.8500149250
40.9849259655 -31.0636145227 -2.8500149250
40.9821730407 -31.0525325980 -2.8500149250
41.0083945604 -31.0578213946 -2.8500149250
40.9971161475 -31.0132659505 -2.8500149250
40.9853113234 -30.9688470769 -2.8500149250
41.0024990015 -30.9402060616 -2.8500149250
40.9930460678 -30.9068338697 -2.8500149250
40.9832973469 -30.8735468815 -2.8500149250
40.9963597075 -30.8332453682 -2.8500149250
40.9982370702 -30.7592006741 -2.8500149250
40.9945835759 -30.7480807047 -2.8500149250
40.9986630472 -30.6847277168 -2.8500149250
41.0826638023 -30.8686893096 -2.8500149250
41.0057148867 -30.6321259172 -2.8500149250
41.0120453516 -30.5791758129 -2.8500149250
40.9993881011 -30.5457331194 -2.8500149250
41.0826234672 -30.7063830819 -2.8500149250
41.1822156064 -30.8649694212 -2.8500149250
34.2833370985 -29.1429262724 -2.8500149250
41.0226274188 -30.2871213252 -2.8500149250
34.2827976543 -29.0742206370 -2.8500149250
41.0045017985 -29.8755501527 -2.8500149250
41.2693453484 -30.3733833899 -2.8500149250
41.6546034560 -30.9536013282 -2.8500149250
37.5174532512 -29.6195784928 -2.8500149250
37.5282113501 -29.4742112547 -2.8500149250
37.5654344038 -29.4494511625 -2.8500149250
37.6643959261 -29.4263614500 -2.8500149250
37.7189815285 -29.4043816805 -2.8500149250
37.4034772489 -29.4074710386 -2.8500149250
37.2655402297 -29.4209011224 -2.8500149250
37.9676184125 -29.4046093502 -2.8500149250
37.6969199472 -29.3791581272 -2.8500149250
37.2009549639 -29.4053123364 -2.8500149250
37.8751443063 -29.3197810747 -2.8500149250
37.0360301081 -29.3363881047 -2.8500149250
38.4820530309 -29.4059370008 -2.8500149250
36.5852116401 -29.3931040067 -2.8500149250
38.3675854449 -29.2434392420 -2.8500149250
40.9391398317 -30.5797439810 -2.8500149250
40.9349117484 -30.5698330008 -2.8500149250
40.9528463681 -30.5503507157 -2.8500149250
40.9485312742 -30.5403993176 -2.8500149250
40.9394630314 -30.4609967204 -2.8500149250
40.9348836708 -30.4510853036 -2.8500149250
40.9285386700 -30.3813463992 -2.8500149250
40.9502837064 -30.3707875794 -2.8500149250
40.9423203166 -30.3004037285 -2.8500149250
40.9372658804 -30.2904845620 -2.8500149250
40.9436448134 -30.1985749694 -2.8500149250
40.9376911883 -30.1373578111 -2.8500149250
40.9420055229 -30.0957422487 -2.8500149250
40.9363456624 -30.0858249089 -2.8500149250
40.9400598479 -30.0439755257 -2.8500149250
40.9342468606 -30.0340641681 -2.8500149250
40.9609292906 -30.0317770978 -2.8500149250
40.9373559828 -29.9919893659 -2.8500149250
34.1111236733 -30.0628668623 -2.8500149250
40.9384397744 -29.8117251398 -2.8500149250
34.1133728474 -30.0098421608 -2.8500149250
34.1163931638 -29.9566005791 -2.8500149250
34.1201900498 -29.9031529767 -2.8500149250
40.9360070967 -29.5946225159 -2.8500149250
34.1093605949 -29.7387058874 -2.8500149250
34.1163123173 -29.6842856560 -2.8500149250
34.1240678389 -29.6297146391 -2.8500149250
37.8890539292 -29.3800861062 -2.8500149250
37.5925284948 -29.4023282950 -2.8500149250
37.8270634040 -29.3577038937 -2.8500149250
37.7348230838 -29.3631152941 -2.8500149250
37.5207688060 -29.3884401153 -2.8500149250
37.1025958547 -29.4916638324 -2.8500149250
37.0581471130 -29.4814288826 -2.8500149250
37.0205755023 -29.4692629656 -2.8500149250
36.9765383311 -29.4858554790 -2.8500149250
38.2428634992 -29.3009737916 -2.8500149250
37.6977396495 -29.2934089601 -2.8500149250
37.6819756926 -29.2948496656 -2.8500149250
37.0719539866 -29.4254744060 -2.8500149250
38.1662072690 -29.2688994727 -2.8500149250
37.8949623761 -29.2591133880 -2.8500149250
36.6898888970 -29.5622585409 -2.8500149250
38.5027833512 -29.2948478881 -2.8500149250
37.6694120890 -29.2474864565 -2.8500149250
37.2649435717 -29.3179531872 -2.8500149250
36.8165574205 -29.4741411316 -2.8500149250
38.3720213463 -29.2457290714 -2.8500149250
37.5299154843 -29.2402713763 -2.8500149250
37.4576955178 -29.2519748512 -2.8500149250
37.0102216922 -29.3701871816 -2.8500149250
37.2530798845 -29.2710853512 -2.8500149250
36.8947904423 -29.3882148665 -2.8500149250
38.5421884267 -29.2292264553 -2.8500149250
38.4205196458 -29.2049068326 -2.8500149250
38.0424606601 -29.1642767868 -2.8500149250
37.8439664559 -29.1635775419 -2.8500149250
37.5473817737 -29.1889146961 -2.8500149250
37.5192688026 -29.1685380806 -2.8500149250
37.0252581828 -29.2881588131 -2.8500149250
36.9858608688 -29.3018822197 -2.8500149250
38.6264075770 -29.1995113515 -2.8500149250
36.5595071602 -29.4399715746 -2.8500149250
37.8408752051 -29.0669348563 -2.8500149250
37.4539249091 -29.0809496800 -2.8500149250
37.6050604414 -29.0354891381 -2.8500149250
36.2582804922 -29.5406610931 -2.8500149250
37.9885628704 -28.9450962461 -2.8500149250
39.0759615895 -29.0913483771 -2.8500149250
40.8456974491 -30.0659600274 -2.8500149250
40.8400859772 -30.0573531133 -2.8500149250
40.8546397385 -30.0354710288 -2.8500149250
40.8432108189 -30.0182214659 -2.8500149250
40.8399994045 -29.9702786374 -2.8500149250
40.8420695145 -29.9307376336 -2.8500149250
40.8300211770 -29.9135642734 -2.8500149250
40.8497687182 -29.8996226129 -2.8500149250
40.8375361590 -29.8824042462 -2.8500149250
40.8313817317 -29.8738222777 -2.8500149250
40.8198049308 -29.7766760644 -2.8500149250
40.8293822637 -29.6316940638 -2.8500149250
40.8460359973 -29.5754704645 -2.8500149250
34.0442701615 -30.7331058923 -2.8500149250
34.0406619870 -30.7446159111 -2.8500149250
34.0370878769 -30.7561365531 -2.8500149250
34.0398753612 -30.6681135291 -2.8500149250
34.0360749467 -30.6796368329 -2.8500149250
34.0285764646 -30.7027169152 -2.8500149250
34.0212146633 -30.7258409571 -2.8500149250
34.0446472264 -30.5796936180 -2.8500149250
34.0365572966 -30.6027247330 -2.8500149250
34.0325634648 -30.6142581383 -2.8500149250
34.0385492022 -30.5254293593 -2.8500149250
34.0343267080 -30.5369572104 -2.8500149250
34.0301383336 -30.5484975020 -2.8500149250
34.0259841159 -30.5600501330 -2.8500149250
34.0177782953 -30.5831920090 -2.8500149250
34.0376121648 -30.4592979860 -2.8500149250
34.0331940461 -30.4708288984 -2.8500149250
34.0288100572 -30.4823728300 -2.8500149250
34.0244602366 -30.4939296796 -2.8500149250
34.0158632518 -30.5170817286 -2.8500149250
34.0285888463 -30.4159022552 -2.8500149250
34.0195301529 -30.4390312436 -2.8500149250
34.0294846143 -30.3491041325 -2.8500149250
34.0247405577 -30.3606595698 -2.8500149250
34.0153550974 -30.3838122928 -2.8500149250
34.0107137757 -30.3954093759 -2.8500149250
33.9212353360 -30.6419506834 -2.8500149250
34.0216559997 -30.3051111014 -2.8500149250
34.0023651632 -30.3515120564 -2.8500149250
33.8828816737 -30.6822513463 -2.8500149250
34.0295232588 -30.2261404446 -2.8500149250
34.0143025066 -30.2608531041 -2.8500149250
34.0043267404 -30.2840693289 -2.8500149250
34.0010371523 -30.1715621969 -2.8500149250
33.9957680191 -30.1832025637 -2.8500149250
34.0060412232 -30.1032715489 -2.8500149250
34.0159449794 -29.9201752780 -2.8500149250
34.0568457780 -29.7934118793 -2.8500149250
33.9945012887 -29.9090171683 -2.8500149250
34.0102555382 -29.8278953359 -2.8500149250
34.1725078155 -29.5084830449 -2.8500149250
33.7887331185 -30.2354857086 -2.8500149250
33.9855868338 -29.7228664294 -2.8500149250
33.9750919788 -29.4131020115 -2.8500149250
33.6990854046 -29.8499385342 -2.8500149250
33.9704439329 -28.9559015004 -2.8500149250
38.1576218698 -29.1802304639 -2.8500149250
34.0275629815 -31.3344350953 -2.8500149250
34.0092168161 -31.1262997702 -2.8500149250
34.0029303537 -31.1641128495 -2.8500149250
33.9990432699 -31.0463560099 -2.8500149250
33.9875710819 -31.1095673745 -2.8500149250
33.9930184847 -30.9531766165 -2.8500149250
33.9980237321 -30.8214793336 -2.8500149250
33.9861103911 -30.8720627675 -2.8500149250
33.9277875199 -31.0328787835 -2.8500149250
33.8641082289 -30.9802949711 -2.8500149250
33.8185935558 -31.0937385868 -2.8500149250
37.3241895765 -29.5775215262 -2.8500149250
37.4124661171 -29.3642597034 -2.8500149250
37.0135687628 -29.6110773346 -2.8500149250
37.7386187445 -29.2024121542 -2.8500149250
37.2850270908 -29.4046988791 -2.8500149250
37.1130786521 -29.5107405536 -2.8500149250
36.9620177813 -29.6200891086 -2.8500149250
36.7344486470 -29.7523154467 -2.8500149250
37.2563217304 -29.3376385462 -2.8500149250
36.8613405055 -29.6078272589 -2.8500149250
37.7309222056 -29.0776723727 -2.8500149250
38.3308341417 -28.9066724228 -2.8500149250
37.9230116051 -28.9733792746 -2.8500149250
37.1946121117 -29.2614443790 -2.8500149250
36.6997276411 -29.6196768022 -2.8500149250
36.7334971653 -29.5575376605 -2.8500149250
38.1692997477 -28.8280004229 -2.8500149250
37.2028766100 -29.1188879751 -2.8500149250
38.3138040074 -28.7140395269 -2.8500149250
34.0179498231 -31.8245628672 -2.8500149250
34.0198346319 -31.8784995734 -2.8500149250
34.0210163334 -31.9054586192 -2.8500149250
33.9918578548 -31.6896428549 -2.8500149250
33.9937869691 -31.8252641309 -2.8500149250
33.9956817672 -31.8794866941 -2.8500149250
33.9723379804 -31.4851663186 -2.8500149250
33.9693880043 -31.5669250566 -2.8500149250
33.9677809823 -31.6623583386 -2.8500149250
33.9677500239 -31.7169000212 -2.8500149250
33.9574123183 -31.3335922322 -2.8500149250
33.9544113887 -31.3746034819 -2.8500149250
33.9447470418 -31.7992619822 -2.8500149250
33.9366941289 -31.2905243612 -2.8500149250
33.9333118120 -31.3317211691 -2.8500149250
33.9223669816 -31.5242958799 -2.8500149250
33.9205127070 -31.2057169346 -2.8500149250
33.9150818644 -31.2608498850 -2.8500149250
33.8961144846 -31.7865317881 -2.8500149250
33.8870587369 -30.7763908110 -2.8500149250
33.8715427186 -30.8597747405 -2.8500149250
33.8553145489 -30.9573855937 -2.8500149250
33.8606314828 -30.7857060903 -2.8500149250
33.8597799551 -30.6692297141 -2.8500149250
33.8618127239 -30.5522082190 -2.8500149250
33.8584609189 -30.5661618763 -2.8500149250
33.7289130640 -31.8616644917 -2.8500149250
33.7252629582 -31.2143179161 -2.8500149250
33.8586848657 -30.3725551833 -2.8500149250
33.8433999946 -30.4284780359 -2.8500149250
33.6811240907 -31.8778368965 -2.8500149250
33.8407420542 -30.2611561080 -2.8500149250
33.8323581430 -30.2892030318 -2.8500149250
33.8043242209 -30.3877475577 -2.8500149250
33.6927033112 -30.9024526502 -2.8500149250
33.8349514662 -30.1979485132 -2.8500149250
33.5873753365 -31.4382653198 -2.8500149250
33.5809871087 -31.7189687431 -2.8500149250
33.8024190622 -30.1409848106 -2.8500149250
33.5603456950 -31.8824152357 -2.8500149250
34.1414317963 -29.0928195780 -2.8500149250
34.0592094626 -29.2385069618 -2.8500149250
34.0304919681 -29.2921365044 -2.8500149250
40.6851869549 -26.1659148820 -2.8500149250
37.2632355667 -29.4501723324 -2.8500149250
37.0966015619 -29.5271308656 -2.8500149250
36.8990371134 -29.7250559012 -2.8500149250
37.8062916192 -28.9915948447 -2.8500149250
33.9582528899 -32.1914055801 -2.8500149250
33.9693178611 -32.2637466735 -2.8500149250
33.9740432408 -32.2926359568 -2.8500149250
33.9866037212 -32.3647324319 -2.8500149250
33.8842841831 -31.6090355535 -2.8500149250
33.9852403865 -32.4845638843 -2.8500149250
33.8587404497 -31.5357807069 -2.8500149250
33.8823017171 -32.1724341162 -2.8500149250
33.8786658128 -32.3085265435 -2.8500149250
33.7862612291 -30.9802445485 -2.8500149250
33.7758664707 -31.1003179847 -2.8500149250
33.7684965667 -30.9176543228 -2.8500149250
33.7398837381 -31.3252463904 -2.8500149250
33.7496805226 -30.8696727941 -2.8500149250
33.7460440432 -30.7153724998 -2.8500149250
33.7438059742 -30.7304878952 -2.8500149250
33.7373601867 -30.7758728790 -2.8500149250
33.6967856777 -30.5670173746 -2.8500149250
33.6290150272 -31.1204295263 -2.8500149250
33.7242821771 -32.6496797350 -2.8500149250
40.6616796256 -26.3832753370 -2.8500149250
40.5709463200 -26.3520057946 -2.8500149250
40.0630230049 -26.2091348113 -2.8500149250
39.7650472278 -26.1495734034 -2.8500149250
37.1866832157 -29.4826782220 -2.8500149250
37.2935371125 -29.2726024014 -2.8500149250
36.7576339182 -29.8636963119 -2.8500149250
39.7835749444 -26.3959359367 -2.8500149250
39.4267690696 -26.3338318099 -2.8500149250
40.1966723738 -26.3991030365 -2.8500149250
39.0205264114 -26.2744614524 -2.8500149250
38.9473610912 -26.2760436387 -2.8500149250
39.3877067786 -26.2586539808 -2.8500149250
38.9172585889 -26.2528212123 -2.8500149250
39.1085140413 -26.2256457444 -2.8500149250
38.9897969331 -26.2024600896 -2.8500149250
39.4515973646 -26.1901797693 -2.8500149250
38.4953876985 -26.1882014285 -2.8500149250
38.4358695364 -26.1956003293 -2.8500149250
38.4061443277 -26.1995637466 -2.8500149250
39.0483916847 -26.1049262611 -2.8500149250
33.8303141020 -32.2428853708 -2.8500149250
33.8065839601 -32.2474914157 -2.8500149250
33.8499257265 -32.4498992430 -2.8500149250
33.9465016138 -32.8867425340 -2.8500149250
33.7415958042 -32.1619109643 -2.8500149250
33.7855118341 -32.9388455059 -2.8500149250
33.6306420663 -32.4672511649 -2.8500149250
33.6496600657 -32.5478744336 -2.8500149250
33.7765231417 -33.0641658087 -2.8500149250
37.1223120773 -29.5128843543 -2.8500149250
36.9697807472 -29.7254157570 -2.8500149250
37.2523918662 -29.2550021690 -2.8500149250
37.0201425506 -29.5852495947 -2.8500149250
37.1041130449 -29.3684852578 -2.8500149250
36.8053306027 -29.9071607651 -2.8500149250
37.4487789973 -28.9422315459 -2.8500149250
37.3513240130 -29.0367385042 -2.8500149250
36.9537250893 -29.5550865909 -2.8500149250
36.6968931214 -30.1384723203 -2.8500149250
37.0461964891 -29.3666338137 -2.8500149250
37.5003769045 -28.6450931149 -2.8500149250
37.9599105404 -28.2707938737 -2.8500149250
36.3363746192 -30.3974213578 -2.8500149250
36.8315813932 -28.9679269670 -2.8500149250
36.8355601652 -28.8866851447 -2.8500149250
39.7664445768 -26.5136109273 -2.8500149250
39.7011159705 -26.5068831013 -2.8500149250
39.7690986848 -26.4895840466 -2.8500149250
39.7559699513 -26.4881534451 -2.8500149250
39.7165591633 -26.4840947496 -2.8500149250
39.6244719906 -26.4759857161 -2.8500149250
39.5717816921 -26.4722086613 -2.8500149250
39.5322366562 -26.4697851611 -2.8500149250
39.5190503904 -26.4690553270 -2.8500149250
39.5058620233 -26.4683645034 -2.8500149250
39.4926716703 -26.4677126964 -2.8500149250
39.4794794469 -26.4670999117 -2.8500149250
39.4530898504 -26.4659914304 -2.8500149250
39.4134943140 -26.4646214985 -2.8500149250
39.2682437309 -26.4626057201 -2.8500149250
39.5336082396 -26.4456510765 -2.8500149250
39.5070907974 -26.4442227264 -2.8500149250
39.3212970897 -26.4386198940 -2.8500149250
39.1088910389 -26.4416417253 -2.8500149250
39.6814259942 -26.4322325925 -2.8500149250
39.5749531039 -26.4239667368 -2.8500149250
39.5899295585 -26.4007459727 -2.8500149250
39.7663020333 -26.3920149378 -2.8500149250
39.3219816429 -26.3661040411 -2.8500149250
38.7564473556 -26.3959251800 -2.8500149250
39.7149066754 -26.3625020547 -2.8500149250
39.7714680743 -26.3439456841 -2.8500149250
39.5949007179 -26.3283974750 -2.8500149250
39.4587480386 -26.3210636723 -2.8500149250
38.7644572526 -26.3463554375 -2.8500149250
38.7509092187 -26.3478973738 -2.8500149250
39.6512333295 -26.3083632820 -2.8500149250
39.6806368493 -26.2865638478 -2.8500149250
39.8205090822 -26.2764649117 -2.8500149250
39.8067496788 -26.2748831614 -2.8500149250
38.3189285912 -26.3445129984 -2.8500149250
39.1836556006 -26.1976491431 -2.8500149250
39.2534851454 -26.1725846734 -2.8500149250
39.5656222914 -26.1327350964 -2.8500149250
39.3810867299 -26.1252571855 -2.8500149250
38.6441635118 -26.1663021833 -2.8500149250
37.9702865852 -26.2807754464 -2.8500149250
39.0234764454 -26.0825548812 -2.8500149250
39.5843462839 -26.0612275277 -2.8500149250
37.7229565739 -26.3066142661 -2.8500149250
39.8024643203 -26.0555301620 -2.8500149250
37.5243385651 -26.3524277004 -2.8500149250
37.5108139201 -26.3576381055 -2.8500149250
37.4073928356 -26.3728693072 -2.8500149250
37.3804820043 -26.3840216353 -2.8500149250
37.3001519779 -26.4184311403 -2.8500149250
37.1573008885 -26.4570930482 -2.8500149250
33.6201092433 -32.6480589187 -2.8500149250
33.8128598212 -33.2492563758 -2.8500149250
33.4787875810 -32.8421168308 -2.8500149250
33.5077477910 -32.9276936467 -2.8500149250
37.1043870084 -29.4543652095 -2.8500149250
37.1554379034 -29.3078422820 -2.8500149250
37.0290764451 -29.4431469078 -2.8500149250
36.7792559084 -30.2972706035 -2.8500149250
37.3093146466 -28.9505495916 -2.8500149250
36.7516558916 -30.1493990254 -2.8500149250
36.7542774137 -30.0109377952 -2.8500149250
36.6410017459 -30.6516070185 -2.8500149250
36.6034879376 -30.3523949203 -2.8500149250
36.6000743506 -30.3939740938 -2.8500149250
37.4414646965 -28.3884142717 -2.8500149250
36.7345064150 -29.1697791157 -2.8500149250
36.7260681382 -29.1856502382 -2.8500149250
36.7526152819 -28.9916769642 -2.8500149250
36.3540227819 -31.1695724735 -2.8500149250
39.1968642885 -26.5078792557 -2.8500149250
39.1363051554 -26.5115219180 -2.8500149250
39.1120977008 -26.5132297166 -2.8500149250
39.0395418901 -26.5192119854 -2.8500149250
39.0033066585 -26.5226858001 -2.8500149250
39.1590352057 -26.4858301256 -2.8500149250
39.0738201829 -26.4919685955 -2.8500149250
39.0494981379 -26.4940464184 -2.8500149250
39.0130391840 -26.4974328680 -2.8500149250
38.9523456522 -26.5037955173 -2.8500149250
38.9159770418 -26.5080437568 -2.8500149250
38.9038627266 -26.5095315392 -2.8500149250
38.8796475644 -26.5126145801 -2.8500149250
39.1943184681 -26.4596002756 -2.8500149250
38.9618497651 -26.4784213171 -2.8500149250
38.9374495295 -26.4811618317 -2.8500149250
38.9130659348 -26.4840466583 -2.8500149250
38.9008806445 -26.4855431572 -2.8500149250
38.8765236111 -26.4886442609 -2.8500149250
38.8643520812 -26.4902488386 -2.8500149250
38.8521853513 -26.4918894148 -2.8500149250
38.8035685589 -26.4988114134 -2.8500149250
38.9714999940 -26.4530676770 -2.8500149250
38.8856468034 -26.4630962405 -2.8500149250
38.8366869743 -26.4696243233 -2.8500149250
38.8122368833 -26.4731054970 -2.8500149250
38.7634006275 -26.4805014994 -2.8500149250
38.7512055048 -26.4824407509 -2.8500149250
38.7390161721 -26.4844160693 -2.8500149250
39.1793710031 -26.4119936477 -2.8500149250
38.9565958482 -26.4303615888 -2.8500149250
38.8087587415 -26.4491840043 -2.8500149250
38.7228600260 -26.4625830909 -2.8500149250
38.6739055211 -26.4710373784 -2.8500149250
38.6616827935 -26.4732414141 -2.8500149250
38.6494666392 -26.4754815971 -2.8500149250
38.7065688461 -26.4408098571 -2.8500149250
38.6573578507 -26.4494584337 -2.8500149250
38.5837418425 -26.4635215516 -2.8500149250
38.5592600724 -26.4684993404 -2.8500149250
38.9263732046 -26.3851062252 -2.8500149250
38.4317319098 -26.4720368614 -2.8500149250
39.0241414816 -26.3507030650 -2.8500149250
38.4015795356 -26.4544282052 -2.8500149250
39.1739937485 -26.3154511718 -2.8500149250
38.5321607623 -26.4000642701 -2.8500149250
39.0706651894 -26.2982072566 -2.8500149250
38.7660901648 -26.3333282877 -2.8500149250
38.9767570205 -26.2581112627 -2.8500149250
38.9355801804 -26.2381226755 -2.8500149250
38.0358316124 -26.4335723165 -2.8500149250
39.1672721803 -26.1947730770 -2.8500149250
38.8810437569 -26.2200785745 -2.8500149250
38.7774554652 -26.2338905702 -2.8500149250
38.6999946031 -26.2458561284 -2.8500149250
38.8520634621 -26.1993222305 -2.8500149250
38.0706599094 -26.3714863200 -2.8500149250
37.9336695847 -26.4173943506 -2.8500149250
38.6751875039 -26.1764509339 -2.8500149250
37.8925511105 -26.3807305908 -2.8500149250
38.0286444454 -26.2833934771 -2.8500149250
38.8501852487 -26.0777406641 -2.8500149250
38.2413722255 -26.1959120653 -2.8500149250
37.5105612542 -26.4054013540 -2.8500149250
38.6337907299 -26.0118250354 -2.8500149250
36.9691949436 -29.8399375473 -2.8500149250
36.9912689371 -29.6195886230 -2.8500149250
36.9700199146 -29.7086291116 -2.8500149250
37.0395769582 -29.3117630225 -2.8500149250
36.8382699518 -30.1905574758 -2.8500149250
36.9958010048 -29.2262359492 -2.8500149250
36.8626855243 -29.6359586248 -2.8500149250
36.7890641879 -30.2371525289 -2.8500149250
36.7407202864 -30.2366961086 -2.8500149250
36.7820777112 -30.7383084791 -2.8500149250
36.8001059456 -29.4934960154 -2.8500149250
37.0827124220 -28.6128126468 -2.8500149250
36.5635887214 -31.2477057478 -2.8500149250
36.7299908599 -28.4885727611 -2.8500149250
37.1746268384 -33.2610581728 -2.8500149250
37.1835068266 -33.2678904690 -2.8500149250
38.6135524862 -26.5279252420 -2.8500149250
38.5804434495 -26.5358386592 -2.8500149250
38.5584103370 -26.5412773727 -2.8500149250
38.4972630337 -26.5320815166 -2.8500149250
38.4862317049 -26.5350306580 -2.8500149250
38.4135402559 -26.5301810621 -2.8500149250
38.4960239735 -26.4824042927 -2.8500149250
38.3514194529 -26.5233641727 -2.8500149250
38.3403629748 -26.5267447839 -2.8500149250
38.3293165455 -26.5301580873 -2.8500149250
36.9570641286 -33.2402968068 -2.8500149250
38.2777899976 -26.5211390723 -2.8500149250
38.1736221354 -26.5052086331 -2.8500149250
38.1292545246 -26.5210321631 -2.8500149250
38.0987526364 -26.5064698625 -2.8500149250
38.0346260023 -26.5048943279 -2.8500149250
38.0235162731 -26.5092121522 -2.8500149250
38.5405850161 -26.3216459291 -2.8500149250
37.9812747992 -26.4999232441 -2.8500149250
37.9590396855 -26.5089074691 -2.8500149250
36.6771154740 -33.2159330928 -2.8500149250
38.2764424596 -26.3187896791 -2.8500149250
38.1330732886 -26.3145914293 -2.8500149250
36.6015138190 -33.2774367833 -2.8500149250
38.1252230276 -26.2917286061 -2.8500149250
38.1134823193 -26.2957793608 -2.8500149250
37.6330173590 -26.4695906911 -2.8500149250
37.6218049525 -26.4750967008 -2.8500149250
37.5549832138 -26.4816011486 -2.8500149250
37.4090800274 -26.4768891927 -2.8500149250
37.9072407027 -26.1394924606 -2.8500149250
36.0463015179 -33.2178705950 -2.8500149250
37.9180897255 -25.7750973289 -2.8500149250
36.4189875996 -30.0560876934 -2.8500149250
36.4226407260 -30.1475556345 -2.8500149250
36.4268787993 -30.2084373253 -2.8500149250
36.4054782655 -29.7566670833 -2.8500149250
36.3948225720 -29.9411282950 -2.8500149250
36.4222185992 -29.4777574988 -2.8500149250
36.3800093574 -29.7698977746 -2.8500149250
36.3731345537 -30.1270596826 -2.8500149250
36.3958948168 -30.3668238977 -2.8500149250
36.4066104337 -30.4359425321 -2.8500149250
36.4222000024 -30.5199953040 -2.8500149250
36.4361913452 -29.3126439663 -2.8500149250
36.3511986212 -29.8303571903 -2.8500149250
36.3502476431 -29.8460149764 -2.8500149250
36.3612701945 -30.2846009465 -2.8500149250
