29.8343446265 -30.0094685821 -3.0302598476
29.6196261633 -29.8898718564 -3.0302598476
29.6171007043 -30.0450721819 -3.0302598476
29.6314475832 -30.2703471547 -3.0302598476
29.6261909925 -29.6053883340 -3.0302598476
29.6226775931 -29.4953089682 -3.0302598476
29.5842067533 -29.7296700436 -3.0302598476
29.6000006910 -30.3969508898 -3.0302598476
29.6021383307 -29.4760248117 -3.0302598476
29.5875052582 -29.5472471125 -3.0302598476
29.6119262406 -30.5790134813 -3.0302598476
29.6188706210 -30.6072571756 -3.0302598476
29.6457970882 -30.7054216096 -3.0302598476
29.5623969235 -29.5499485962 -3.0302598476
29.5455963271 -29.6513577985 -3.0302598476
29.5534709807 -30.4119573324 -3.0302598476
29.5679662877 -30.4914128791 -3.0302598476
29.5972371454 -30.6202848084 -3.0302598476
29.6027809453 -30.6416040459 -3.0302598476
29.6399959606 -30.7684101968 -3.0302598476
29.5362683673 -29.4384742777 -3.0302598476
29.4999314797 -29.6296338948 -3.0302598476
29.4890023168 -30.3012779918 -3.0302598476
29.5281394346 -30.5375138449 -3.0302598476
29.6299357179 -29.0583677687 -3.0302598476
29.5307551354 -29.3596658986 -3.0302598476
29.4925140725 -29.5291905580 -3.0302598476
29.4844422091 -29.5738094988 -3.0302598476
29.4897347339 -30.4684759183 -3.0302598476
29.5029294818 -30.5351974122 -3.0302598476
29.5077218925 -30.5573569279 -3.0302598476
29.6554425954 -28.9371646870 -3.0302598476
29.6103292842 -29.0423185895 -3.0302598476
29.4360537694 -29.7511147860 -3.0302598476
29.4824833540 -30.5551198389 -3.0302598476
29.5172949052 -30.6958051196 -3.0302598476
29.5575157793 -30.8270842041 -3.0302598476
29.6529683477 -31.1272527426 -3.0302598476
29.4665984423 -29.3187814448 -3.0302598476
29.4605972743 -29.3413112788 -3.0302598476
29.4491959230 -29.3865262778 -3.0302598476
29.3767771546 -29.4910774848 -3.0302598476
29.4683824261 -30.8653593997 -3.0302598476
29.6699221187 -28.5991981442 -3.0302598476
29.3711784519 -29.3012596263 -3.0302598476
29.2917272149 -29.7367650179 -3.0302598476
29.5759830408 -31.2443306534 -3.0302598476
29.3076586672 -30.7539756066 -3.0302598476
29.6927537405 -31.5830156302 -3.0302598476
29.6917734711 -28.3884260607 -3.0302598476
29.2252490103 -30.5001634458 -3.0302598476
29.2377139029 -30.5657388158 -3.0302598476
29.6225904341 -31.6516426506 -3.0302598476
29.6528300728 -31.7356379185 -3.0302598476
29.6669407284 -28.1783528861 -3.0302598476
28.9928110405 -30.4228616811 -3.0302598476
30.4017316324 -33.4123040165 -3.0302598476
30.3813230041 -26.5831231064 -3.0302598476
30.3510083824 -26.5976429995 -3.0302598476
30.3308653065 -33.4050526546 -3.0302598476
30.3711983652 -33.4245916880 -3.0302598476
30.3404695234 -26.5758882820 -3.0302598476
30.2899092781 -33.4116823834 -3.0302598476
30.3201978891 -33.4267446228 -3.0302598476
30.3709721162 -33.4512491400 -3.0302598476
30.3197259562 -26.5590957844 -3.0302598476
30.2588100235 -26.5895010441 -3.0302598476
30.2184979273 -33.4021548166 -3.0302598476
30.2386203785 -33.4126488436 -3.0302598476
30.2376595541 -26.5731742549 -3.0302598476
30.2072622992 -26.5889694723 -3.0302598476
30.1971611787 -26.5942944150 -3.0302598476
30.1757083854 -26.5783157690 -3.0302598476
30.1655758874 -26.5837341005 -3.0302598476
30.1453591981 -26.5946605658 -3.0302598476
30.1352697412 -33.4123558784 -3.0302598476
30.1453537467 -33.4178639328 -3.0302598476
30.1034119484 -26.5901457169 -3.0302598476
30.0731651607 -33.4053927451 -3.0302598476
30.0832288398 -33.4110845465 -3.0302598476
30.0309637193 -26.6034686996 -3.0302598476
30.0410329811 -33.4148722572 -3.0302598476
30.0697012448 -26.5535908629 -3.0302598476
30.0087269915 -26.5884344730 -3.0302598476
29.9684197855 -33.4002618147 -3.0302598476
29.9986197051 -33.4181775428 -3.0302598476
29.9358273712 -33.4088305671 -3.0302598476
29.9131674225 -26.5891974419 -3.0302598476
29.8929874737 -26.6016171449 -3.0302598476
29.7997941362 -33.3802826635 -3.0302598476
29.8398712831 -33.4061073118 -3.0302598476
29.8370308729 -26.5795995684 -3.0302598476
29.8167954724 -26.5924698888 -3.0302598476
29.7966311371 -33.4070642381 -3.0302598476
29.5080429474 -33.2320448411 -3.0302598476
29.6045448658 -33.3044069512 -3.0302598476
29.6758906508 -26.5987125430 -3.0302598476
29.9129325742 -33.5640889694 -3.0302598476
29.6218632879 -33.4058470327 -3.0302598476
29.9204832273 -26.3881288735 -3.0302598476
29.5293786397 -26.5834732273 -3.0302598476
29.2899085168 -33.4296687907 -3.0302598476
29.2242814571 -33.4079000812 -3.0302598476
28.8580868467 -26.5698735134 -3.0302598476
28.8213879466 -26.5707983083 -3.0302598476
28.6093470879 -33.4395794733 -3.0302598476
29.6531221434 -29.7048407542 -3.1244900227
29.8662700022 -30.6431176510 -3.1244900227
29.8224604624 -26.6949976508 -3.1244900227
29.8140139909 -26.7013367576 -3.1244900227
29.6937073424 -26.7027499346 -3.1244900227
30.7740540915 -33.4544425472 -3.1244900227
30.7091082052 -33.4594777617 -3.1244900227
30.7206684097 -33.4631644067 -3.1244900227
30.7322394694 -33.4668168384 -3.1244900227
30.6437552918 -33.4634402004 -3.1244900227
30.6011869845 -33.4744335097 -3.1244900227
30.2343737352 -33.4862292007 -3.1244900227
30.6577330094 -33.7474424070 -3.1244900227
30.4034999371 -33.6856543257 -3.1244900227
29.7770117637 -30.2591004548 -3.1308979988
30.0769664695 -30.9022772425 -3.1308979988
31.2691457021 -33.4680247301 -3.1308979988
31.2816644630 -33.4697300821 -3.1308979988
31.3067168452 -33.4730296509 -3.1308979988
31.3317883102 -33.4761809437 -3.1308979988
31.0858945173 -33.4878492690 -3.1308979988
31.1110575250 -33.4923067615 -3.1308979988
31.1282363094 -33.5442931653 -3.1308979988
30.9455333258 -33.5342911943 -3.1308979988
30.7877643191 -33.5228773067 -3.1308979988
30.8131397821 -33.5290980245 -3.1308979988
30.6676010504 -33.5163281747 -3.1308979988
30.6230169064 -33.5288889597 -3.1308979988
30.2802295837 -33.5444476979 -3.1308979988
29.8532341341 -29.9734398908 -3.1314668655
29.7549718513 -30.0449879986 -3.1314668655
29.6886695085 -29.9750628165 -3.1314668655
29.5234659071 -29.6506003432 -3.1314668655
29.8957085819 -30.3378137777 -3.1314668655
29.8351500415 -30.2984523353 -3.1314668655
29.1867670386 -28.8668151863 -3.1314668655
31.7036040522 -33.5053181566 -3.1314668655
31.5809536621 -33.5281530860 -3.1314668655
31.7718358788 -33.5288227452 -3.1314668655
31.4297214370 -33.5462166716 -3.1314668655
31.4981723933 -33.5495981636 -3.1314668655
31.5118681671 -33.5501529474 -3.1314668655
31.2634753398 -33.5580440501 -3.1314668655
31.1482546171 -33.5946133589 -3.1314668655
31.5925303741 -33.6251333482 -3.1314668655
31.0482890702 -33.6062886264 -3.1314668655
30.7025393977 -33.6197421669 -3.1314668655
31.8745752025 -33.7194385624 -3.1314668655
30.6556789899 -33.6343799330 -3.1314668655
30.6835884612 -33.6404319738 -3.1314668655
31.7613001709 -33.7465722779 -3.1314668655
31.0602721159 -33.7298524553 -3.1314668655
31.7619886386 -33.7949134316 -3.1314668655
30.1787299545 -33.5798456388 -3.1314668655
30.2478151345 -33.6017260999 -3.1314668655
29.9377922466 -33.5204430926 -3.1314668655
29.9514086017 -33.5256138907 -3.1314668655
29.9923486093 -33.5408842922 -3.1314668655
30.1159591070 -33.5845073037 -3.1314668655
30.4085763798 -33.6733884762 -3.1314668655
27.7400391450 -25.9437404934 -3.1314668655
29.7797065362 -33.4832110266 -3.1314668655
29.3864213377 -33.3521954739 -3.1314668655
29.6211649842 -29.9832328079 -3.1286361217
29.9022149148 -30.4043347191 -3.1286361217
30.0440458931 -30.5523153498 -3.1286361217
29.0636010063 -29.1006183201 -3.1286361217
29.9147796781 -30.5427008818 -3.1286361217
29.5737532016 -30.3119384577 -3.1286361217
32.3781884044 -33.5124759719 -3.1286361217
31.7843972996 -33.6096052991 -3.1286361217
31.6087026895 -33.6414687550 -3.1286361217
32.2266473617 -33.5869443103 -3.1286361217
32.2558608937 -33.5824368221 -3.1286361217
32.2850472466 -33.5777565756 -3.1286361217
32.1452352963 -33.6473517334 -3.1286361217
30.9792692769 -33.7152192702 -3.1286361217
31.0392742948 -33.7207821125 -3.1286361217
31.7918117751 -33.7302428041 -3.1286361217
31.3393940602 -33.7620922590 -3.1286361217
32.4282691496 -33.6998578829 -3.1286361217
26.2549871058 -27.3501203155 -3.1286361217
26.1964025236 -27.6143798242 -3.1286361217
26.2990364172 -27.0974618159 -3.1286361217
26.3881135672 -26.7554235954 -3.1286361217
26.1751005459 -27.4792620894 -3.1286361217
26.2691178417 -26.7287349222 -3.1286361217
30.1427126940 -30.4814474510 -3.1308021545
28.9901601859 -29.3795601483 -3.1308021545
29.0815837884 -29.5672020435 -3.1308021545
29.5802554272 -30.2052351381 -3.1308021545
30.6025419144 -30.8120302943 -3.1308021545
29.7736886518 -30.4540033936 -3.1308021545
26.3742123078 -27.6972056408 -3.1308021545
26.3302623768 -28.1296433835 -3.1308021545
26.4378332983 -27.1455775311 -3.1308021545
26.4196799217 -27.2164726812 -3.1308021545
26.3804051514 -27.3876552142 -3.1308021545
26.3658384789 -27.4593732694 -3.1308021545
26.3242752198 -27.7046732738 -3.1308021545
26.2811836561 -28.1415075088 -3.1308021545
26.2743726810 -28.3462922915 -3.1308021545
26.4144797651 -27.0477030766 -3.1308021545
26.2664523989 -27.7710197954 -3.1308021545
26.2609917219 -27.8150210070 -3.1308021545
26.2259468470 -28.4639203575 -3.1308021545
26.2113701553 -28.0931193440 -3.1308021545
26.2415526983 -27.4656405989 -3.1308021545
26.2206400171 -27.5837540086 -3.1308021545
26.1702988620 -27.4521532581 -3.1308021545
26.1366866428 -27.2574655611 -3.1308021545
25.9582788750 -27.5404966363 -3.1308021545
32.1684926846 -33.7073894507 -3.1308021545
32.6497772474 -33.5984319356 -3.1308021545
31.8563441878 -33.7780998513 -3.1308021545
32.3766880737 -33.6906901705 -3.1308021545
32.3347178160 -33.7243910820 -3.1308021545
32.4288928424 -33.7038018478 -3.1308021545
32.8781810455 -33.5809033063 -3.1308021545
32.6066743746 -33.6851085225 -3.1308021545
32.6378693032 -33.6768229115 -3.1308021545
33.0992381475 -33.5305866971 -3.1308021545
32.3287533865 -33.7750093188 -3.1308021545
33.3282063683 -33.4931296414 -3.1308021545
33.1335870045 -33.6724443532 -3.1308021545
32.6741730665 -33.9423020212 -3.1308021545
32.5094774110 -34.0573291675 -3.1308021545
29.9492031535 -30.0473480445 -3.1296076944
29.3052197980 -29.8365157748 -3.1296077463
29.4444045191 -29.9651530998 -3.1296077463
29.4860822633 -29.9997471219 -3.1296077463
29.2641308089 -29.8291554237 -3.1296077521
29.5029893566 -30.0440889779 -3.1296077521
29.3815257986 -30.0067576162 -3.1296077636
30.4265008584 -30.5290911595 -3.1296077636
29.0387201641 -29.7570264081 -3.1296077809
30.9026019716 -30.8001779581 -3.1296078155
26.4670997137 -28.0208220537 -3.1296082650
26.4563107821 -27.8210314572 -3.1296082708
26.4322341155 -27.8188752092 -3.1296082765
26.4215172668 -27.9653212890 -3.1296082765
26.3912814944 -28.3261681918 -3.1296082823
26.3963643180 -28.4602767865 -3.1296082823
26.3664372801 -28.1513361414 -3.1296082881
26.3452179159 -28.0424954546 -3.1296082938
26.3703711584 -28.7331454048 -3.1296082938
26.3616668760 -28.8575993628 -3.1296082996
26.3170644471 -27.7535146977 -3.1296083054
26.3473626932 -29.1949234237 -3.1296083169
26.2760168228 -28.9398126505 -3.1296083226
26.3124617443 -29.1454134105 -3.1296083226
26.2345614026 -28.8188001360 -3.1296083284
26.3284101673 -29.4289274511 -3.1296083342
26.3741628652 -29.5913730539 -3.1296083342
26.3234857364 -29.5032943028 -3.1296083399
26.3429488075 -29.5712413623 -3.1296083399
26.3551082923 -29.6118688034 -3.1296083399
26.3531532406 -29.6867112899 -3.1296083457
26.3753258748 -29.7541994928 -3.1296083457
26.1324032177 -27.6630122903 -3.1296083515
33.0038598351 -33.7337182762 -3.1296086050
33.0209056027 -33.7789596614 -3.1296086166
29.9388941850 -30.0740805194 -3.1301813581
29.9961281207 -30.1427945081 -3.1301813811
29.2124060241 -30.1424436572 -3.1301815425
26.5078797478 -28.3031161946 -3.1301823148
26.5092300189 -28.3273462215 -3.1301823148
26.4837402943 -28.3043897991 -3.1301823263
26.4866009256 -28.3531269802 -3.1301823263
26.4874061760 -28.3653057200 -3.1301823263
26.4882474497 -28.3774820244 -3.1301823263
26.4900380376 -28.4018269010 -3.1301823263
26.4919726266 -28.4261607578 -3.1301823263
26.4940511490 -28.4504827431 -3.1301823263
26.4659354812 -28.4036713674 -3.1301823378
26.4418329247 -28.4055158338 -3.1301823493
26.4510012236 -28.7035113417 -3.1301823609
26.3878590626 -28.3219572458 -3.1301823724
26.3049650638 -28.5056866719 -3.1301824185
26.3635878749 -29.1338481419 -3.1301824416
26.4105659989 -29.3085137606 -3.1301824416
26.2230039319 -28.3962022124 -3.1301824531
26.3250169356 -29.0764628622 -3.1301824531
26.2308043759 -28.8556953267 -3.1301824761
26.3990574649 -29.5868124750 -3.1301824877
29.7304731143 -30.2125857710 -3.1299268708
29.6001794677 -30.3533206204 -3.1299269918
33.2802233984 -30.3401642810 -3.1299279774
26.5123642092 -28.9253852278 -3.1299280119
26.5146999543 -29.0312426719 -3.1299280292
26.5207994605 -29.0533988944 -3.1299280292
26.5167148064 -29.1265428489 -3.1299280465
26.5036528161 -29.1668444822 -3.1299280638
26.5070873666 -29.1779591904 -3.1299280638
26.5054297301 -29.2520091294 -3.1299280811
26.4963749079 -29.4432217305 -3.1299281330
26.3579965128 -29.1863792398 -3.1299281675
26.2799186794 -29.2614551029 -3.1299282367
26.4758602950 -29.7678098793 -3.1299282367
26.4863182599 -29.7901829991 -3.1299282367
30.0040324207 -30.0651665476 -3.1300153902
29.9873538336 -30.1142065905 -3.1300154017
30.0061496406 -30.1134662216 -3.1300154017
29.7928185014 -30.2331216156 -3.1300154306
30.0994125528 -30.2528795047 -3.1300154363
30.1013988671 -30.2769707860 -3.1300154421
29.2508883523 -30.2119932621 -3.1300154478
29.1387686600 -30.2009762700 -3.1300154536
29.5881177560 -30.3103203935 -3.1300154536
30.2914391637 -30.3512460145 -3.1300154651
28.5538166743 -30.6858694690 -3.1300156150
28.5268946735 -30.6992883922 -3.1300156207
28.4082480243 -30.6905882832 -3.1300156323
31.4792201130 -30.7116616035 -3.1300156438
31.5922454988 -30.7003534128 -3.1300156553
26.5608512328 -29.4202210777 -3.1300157648
26.5471445907 -29.4496142938 -3.1300157706
26.5514570156 -29.5191050482 -3.1300157764
26.5605276062 -29.5389683372 -3.1300157764
26.5651069311 -29.5488797704 -3.1300157764
26.5524849520 -29.5789624854 -3.1300157821
26.5619096612 -29.5988186452 -3.1300157821
26.5448898143 -29.6192200978 -3.1300157879
26.5692676972 -29.6688630109 -3.1300157879
26.5618444647 -29.7602670365 -3.1300157994
26.5670854786 -29.8212195034 -3.1300158052
26.5734009609 -29.8824003894 -3.1300158109
26.5523533388 -29.8942887402 -3.1300158167
26.5636436263 -29.9141401599 -3.1300158167
26.5750511639 -29.9339244350 -3.1300158167
33.4124505660 -29.8430517358 -3.1300158398
33.4233176551 -29.8223174132 -3.1300158398
33.4059558732 -29.9062028413 -3.1300158455
33.4115915925 -29.8958626528 -3.1300158455
33.4193881340 -29.9814755447 -3.1300158570
33.4044150851 -30.0556726093 -3.1300158628
33.4104929698 -30.0453363249 -3.1300158628
33.3879062411 -30.1299598148 -3.1300158686
33.3942425269 -30.5532308949 -3.1300159262
33.3960912294 -30.7501319236 -3.1300159550
30.0047177518 -30.2632801962 -3.1300124667
30.1019870875 -30.2667396963 -3.1300124408
29.6200555372 -30.3537858244 -3.1300124148
29.3100195393 -30.3644451097 -3.1300123889
30.1468439244 -30.3054107920 -3.1300123889
30.2862773211 -30.2650232038 -3.1300123889
30.5562880094 -30.1587017614 -3.1300123889
30.6727917948 -30.1276338634 -3.1300123630
29.9030283515 -30.6226515354 -3.1300121036
29.5571167615 -30.7411544727 -3.1300119999
28.7116590281 -30.7546913107 -3.1300118443
28.5916823428 -30.7653322619 -3.1300117924
30.7784478967 -30.6951335720 -3.1300117665
26.6543008212 -29.9340428850 -3.1300111700
26.6510601201 -29.9731651079 -3.1300111440
26.7031861032 -30.3701501009 -3.1300109366
26.7053470139 -30.4108876345 -3.1300109106
33.4751217069 -29.2857494021 -3.1300104957
33.4787855401 -29.2741819475 -3.1300104957
33.4860104709 -29.2510147766 -3.1300104957
33.4753217024 -29.3626627545 -3.1300104697
33.4792130584 -29.3510943718 -3.1300104697
33.4830701759 -29.3395145283 -3.1300104697
33.4868930214 -29.3279233254 -3.1300104697
33.4944357623 -29.3047072473 -3.1300104697
33.4822214902 -29.4168309057 -3.1300104438
33.4798549357 -29.4945235615 -3.1300104179
33.4938003844 -29.5261987457 -3.1300103919
33.4981754285 -29.5145749841 -3.1300103919
33.4892854597 -29.6046135595 -3.1300103660
33.5028095935 -29.7604301763 -3.1300102882
33.6862848329 -29.3395669716 -3.1300102622
33.4373629442 -30.0121001890 -3.1300102363
33.7015445837 -29.3713187625 -3.1300102363
33.5114886724 -30.7809527822 -3.1300097435
29.7236476221 -30.3572919809 -3.1300089256
30.2041771071 -30.1922951508 -3.1300089256
29.7207516179 -30.4074148615 -3.1300087931
29.4251527760 -30.4756735967 -3.1300087268
29.6268168768 -30.6461464049 -3.1300081966
33.4882368426 -28.7315019321 -3.1300033583
33.4932614920 -28.6937169989 -3.1300033583
33.4964248827 -28.6685029135 -3.1300033583
33.5121845542 -28.7347947108 -3.1300032920
33.5172374821 -28.6967971254 -3.1300032920
33.5124228989 -28.8904324276 -3.1300032257
33.5146050772 -28.8777701807 -3.1300032257
33.5270850051 -28.9454373372 -3.1300031594
33.5167682483 -29.1152694285 -3.1300030932
33.5224252733 -29.0899088913 -3.1300030932
33.5279321579 -29.0645153291 -3.1300030932
33.6131414426 -28.7091176314 -3.1300030269
33.5562060487 -29.5227387580 -3.1300026955
33.6363380201 -29.3359232175 -3.1300026292
33.5725358190 -29.6275739712 -3.1300025629
33.7876940830 -28.8552553375 -3.1300024967
33.5525597963 -29.8234662034 -3.1300024304
33.4116901973 -30.2582850413 -3.1300022978
33.8572294087 -29.0210300619 -3.1300022315
33.8810749041 -28.8838772482 -3.1300022315
33.5736139114 -30.0267314675 -3.1300021653
33.7530343712 -29.5413468573 -3.1300021653
33.3619343626 -30.9597220279 -3.1300014362
30.0175326006 -30.0945306559 -3.1300126483
29.9241190478 -30.3390399273 -3.1300124667
30.0073612726 -30.2958449218 -3.1300124667
30.0413799499 -30.3873833037 -3.1300123630
28.9956103848 -30.8130628269 -3.1300122074
33.5539478604 -28.4611334297 -3.1300099251
33.5633041510 -28.7094753835 -3.1300098992
33.5697030147 -28.6270533707 -3.1300098992
33.5746380298 -28.5445307722 -3.1300098992
33.5794175807 -28.2001794591 -3.1300098992
33.6207983942 -29.0388967818 -3.1300097954
33.6519931452 -29.2748808633 -3.1300097176
33.6545316836 -29.3779258771 -3.1300096917
33.7987919559 -28.7880514014 -3.1300096398
33.6189363641 -29.7875211940 -3.1300096139
33.5713848025 -30.0026530276 -3.1300095879
30.3124165679 -30.0888337195 -3.1300195348
30.2409826635 -30.2611766555 -3.1300196818
29.8224636261 -30.6783596297 -3.1300198777
33.6029223109 -28.1412779629 -3.1300249725
33.5812208601 -27.9217441734 -3.1300249725
33.5737905406 -27.8633831087 -3.1300249725
33.5397908441 -27.6454150873 -3.1300249725
33.6379926126 -28.3312443496 -3.1300250214
33.5784185636 -27.7285880156 -3.1300250214
33.6650104535 -28.4342454018 -3.1300250704
33.6615637733 -28.3154890334 -3.1300250704
33.6360198441 -27.9749352600 -3.1300250704
33.6898931992 -28.5382843356 -3.1300251194
33.6898523613 -28.4935165461 -3.1300251194
33.7089801242 -28.7482111594 -3.1300251684
33.6753815836 -27.8952176108 -3.1300251684
33.7222640760 -28.1170393007 -3.1300252174
33.7572773692 -28.7503830833 -3.1300252664
33.7575347125 -28.2964168664 -3.1300252664
33.7996634866 -28.8593509835 -3.1300253644
33.7050159783 -27.3664446874 -3.1300254133
33.8195263175 -27.7055752950 -3.1300255113
27.5201175000 -33.7845232178 -3.1300258053
27.1979447185 -33.7553737879 -3.1300259032
26.8140886509 -33.6850748545 -3.1300260012
29.7532266826 -30.6007931722 -3.1300205972
29.8255865983 -30.6066954775 -3.1300207240
30.6110328462 -30.0252140188 -3.1300212946
28.2461184474 -33.6991664437 -3.1300275708
27.5327419235 -33.6478109946 -3.1300276342
27.5515705622 -33.7983637542 -3.1300280146
26.8651641889 -33.8339729683 -3.1300285217
33.7229298184 -28.0856722275 -3.1300287119
33.7107882000 -27.8464571984 -3.1300287753
33.7452978607 -27.9053524617 -3.1300288387
33.6980245363 -27.6538563115 -3.1300288387
33.5914564281 -27.2354570737 -3.1300288387
33.6821135508 -27.4765866219 -3.1300289021
33.5645660738 -26.7832769203 -3.1300291557
33.5096331332 -26.6467423879 -3.1300291557
33.7441275131 -27.1555860073 -3.1300292825
30.0592248802 -30.1284338080 -3.1300151633
30.1738651208 -30.1713290784 -3.1300151921
30.0887753800 -30.3537517647 -3.1300151979
30.3019921832 -30.0261326134 -3.1300152037
29.8773083504 -30.6875750465 -3.1300152094
30.3035756676 -30.0795344052 -3.1300152094
30.5076656037 -29.9067487570 -3.1300152382
29.5859298651 -31.1462966849 -3.1300152498
30.6870546316 -29.9065925280 -3.1300152786
27.6784289486 -33.5043070953 -3.1300157224
27.8228846111 -33.5196158122 -3.1300157224
28.0857755570 -33.5595424078 -3.1300157281
28.1388714996 -33.5608292289 -3.1300157281
28.2052567414 -33.5615541311 -3.1300157281
27.6990629139 -33.5554615192 -3.1300157339
28.3119611375 -33.5848396729 -3.1300157339
27.7471138049 -33.6094087134 -3.1300157454
27.7605353003 -33.6107909222 -3.1300157454
28.6496201469 -33.6139238312 -3.1300157454
28.6518913863 -33.6379899225 -3.1300157512
27.6714691792 -33.6739096050 -3.1300157627
28.5608227397 -33.6941476114 -3.1300157627
28.2046604878 -33.7307642765 -3.1300157685
28.2873293331 -33.7303219258 -3.1300157685
28.9865476970 -33.6674621067 -3.1300157685
29.0859805610 -33.6743843190 -3.1300157742
29.1996478911 -33.6762739926 -3.1300157800
28.4002646449 -33.7999170111 -3.1300157858
28.5399958540 -33.7925489036 -3.1300157858
28.5696849613 -33.8146874101 -3.1300157915
28.1052934651 -33.8502555343 -3.1300157973
29.5302057406 -33.6688389321 -3.1300157973
29.7134437428 -33.6380852900 -3.1300158031
27.7763235871 -33.8794714574 -3.1300158088
29.7480730840 -33.6521076123 -3.1300158088
29.7886496768 -33.6383760269 -3.1300158088
33.9694133802 -27.0802280577 -3.1300161085
30.0762518210 -30.1955184966 -3.1300125964
29.9593344032 -30.7126656224 -3.1300124408
30.3536810964 -29.7145113463 -3.1300124408
30.3446383752 -29.8995970674 -3.1300124148
29.9942409498 -30.7884490242 -3.1300123630
30.4920791705 -29.5469874780 -3.1300123111
30.6594229404 -29.5804226158 -3.1300121296
30.8038204116 -28.8436604264 -3.1300119221
30.8171880243 -28.7902952269 -3.1300118961
28.3273655045 -33.4907730934 -3.1300104957
28.3287812082 -33.5149046302 -3.1300104697
28.3896744904 -33.5108801691 -3.1300104697
28.4140140173 -33.5090182742 -3.1300104697
28.4505015885 -33.5059555131 -3.1300104697
28.4626578947 -33.5048626499 -3.1300104697
28.3547040601 -33.5375256685 -3.1300104438
28.5137339377 -33.5241767253 -3.1300104438
28.5503521048 -33.5202284089 -3.1300104438
28.5775842319 -33.5414213329 -3.1300104179
28.7893876496 -33.5353596069 -3.1300103919
28.8016294557 -33.5332641287 -3.1300103919
28.8057431659 -33.5570845542 -3.1300103660
28.8180491668 -33.5549405984 -3.1300103660
28.8672081336 -33.5460010277 -3.1300103660
28.9040060599 -33.5389149667 -3.1300103660
28.4861672076 -33.6240642787 -3.1300103401
28.9210042463 -33.5601828857 -3.1300103401
29.0102778717 -33.6155709708 -3.1300102622
29.1346775521 -33.5864208181 -3.1300102622
29.3402155623 -33.6053341009 -3.1300101844
28.8128940755 -33.7520179826 -3.1300101585
28.6247781622 -33.8279175657 -3.1300101066
29.5494529568 -33.6141252399 -3.1300101066
29.5743830181 -33.6053998991 -3.1300101066
28.7592467993 -33.8339771375 -3.1300100807
29.6448676185 -33.6056132526 -3.1300100807
30.0446756392 -33.4888905166 -3.1300100288
30.3420291557 -33.3607310459 -3.1300100029
29.9744107460 -33.6278588915 -3.1300099251
30.7300720762 -29.5697930360 -3.1300132728
28.8808434438 -33.4981988418 -3.1300125956
28.9141845379 -33.4903341457 -3.1300125956
28.9474545243 -33.4821738758 -3.1300125956
29.0089480424 -33.4912804505 -3.1300125812
29.0422226950 -33.4822791704 -3.1300125812
29.0709143792 -33.4993821320 -3.1300125668
29.1153541942 -33.4865810658 -3.1300125668
29.1264402376 -33.4832987063 -3.1300125668
29.1444819772 -33.5031313035 -3.1300125524
28.9189606546 -33.6630609268 -3.1300124948
29.4964397321 -33.5089290755 -3.1300124804
29.5816532708 -33.5266394290 -3.1300124515
29.3047827930 -33.8584786556 -3.1300123219
30.1362629318 -33.5255887842 -3.1300123075
30.2306535137 -30.2468663558 -3.1300151635
30.2211094424 -30.5075406470 -3.1300151664
30.2583880142 -29.9874960166 -3.1300151664
30.2253219410 -30.6047802823 -3.1300151692
30.2839566961 -30.0270362971 -3.1300151692
30.3088037785 -30.1085058698 -3.1300151721
30.3089064486 -30.0879795503 -3.1300151721
30.2715853635 -29.6728447320 -3.1300151721
30.2583496960 -29.6057174967 -3.1300151721
30.3149004271 -30.3776128501 -3.1300151750
30.3024276268 -29.7093964991 -3.1300151750
30.2339493179 -29.4132207035 -3.1300151750
30.3174051220 -30.5186447914 -3.1300151779
30.3274010217 -29.7123896154 -3.1300151779
30.2488877203 -29.3795476633 -3.1300151779
30.3811446676 -30.1233027494 -3.1300151808
30.3813196319 -30.1091903757 -3.1300151808
30.3508606327 -30.5973655170 -3.1300151836
30.3910305184 -30.3512448297 -3.1300151836
30.2274521029 -29.1151306901 -3.1300151865
30.3591253737 -29.2517166268 -3.1300151952
30.3027311440 -29.1066154408 -3.1300151952
30.2386052885 -28.9144918445 -3.1300151981
30.4500179554 -30.7965897288 -3.1300152009
30.5887179461 -30.9974188508 -3.1300152240
30.7089382531 -28.5648463998 -3.1300152672
29.4202479418 -33.4391470780 -3.1300153306
29.4301589322 -33.4349190186 -3.1300153306
29.4595925826 -33.4485386154 -3.1300153335
29.4695311827 -33.4441941263 -3.1300153335
29.4794568877 -33.4398202561 -3.1300153335
29.4893696104 -33.4354170430 -3.1300153335
29.5091802468 -33.4530323759 -3.1300153364
29.5191319234 -33.4485411779 -3.1300153364
29.5489066294 -33.4348912272 -3.1300153364
29.5690404619 -33.4521814422 -3.1300153393
29.5889244037 -33.4428154888 -3.1300153393
29.6087525853 -33.4333320592 -3.1300153393
29.6192469807 -33.4551082606 -3.1300153421
29.6589902208 -33.4356646057 -3.1300153421
29.6597632572 -33.4622517983 -3.1300153450
29.6896540995 -33.4473532834 -3.1300153450
29.6995881866 -33.4423282359 -3.1300153450
29.7194115487 -33.4321900907 -3.1300153450
29.7602938993 -33.4381534429 -3.1300153479
29.7702004626 -33.4329194704 -3.1300153479
29.8014169425 -33.4436529781 -3.1300153508
29.8113395945 -33.4382973322 -3.1300153508
29.8212463601 -33.4329123566 -3.1300153508
29.8328221332 -33.4541334961 -3.1300153537
30.0152243079 -33.4047522180 -3.1300153594
29.7691802538 -26.6036938014 -3.1300153623
29.8317856914 -26.6089245435 -3.1300153652
29.8214898477 -26.6035089662 -3.1300153652
29.8111780287 -26.5981238695 -3.1300153652
29.8183717731 -33.5987272874 -3.1300153681
30.0927749160 -33.4421253312 -3.1300153681
29.8946218605 -26.6152499168 -3.1300153681
29.8637401536 -26.5985367890 -3.1300153681
29.9268517372 -26.6054049165 -3.1300153710
30.0004321086 -26.6192959762 -3.1300153738
29.9901662075 -26.6133814669 -3.1300153738
29.9695821415 -26.6016436825 -3.1300153738
29.9592641567 -26.5958205102 -3.1300153738
30.4065850022 -33.3152483544 -3.1300153767
30.0331331317 -26.6103602850 -3.1300153767
30.0228406541 -26.6043490793 -3.1300153767
30.0125304394 -26.5983683468 -3.1300153767
30.0022025777 -26.5924181400 -3.1300153767
29.8629073346 -33.6845523903 -3.1300153796
30.0763097764 -26.6078298136 -3.1300153796
30.0990595758 -26.5932895658 -3.1300153825
29.9631947195 -26.5150135375 -3.1300153825
30.2276150084 -26.6163598008 -3.1300153882
31.3951339646 -26.5581579762 -3.1300154805
30.0843655466 -29.9673816107 -3.1300153960
30.3004324805 -30.2739959416 -3.1300154363
30.2730137770 -30.0479762272 -3.1300154363
30.2695057748 -30.0281872264 -3.1300154363
30.2618898538 -29.8782805766 -3.1300154421
30.1994814935 -29.6708852161 -3.1300154421
30.2245435724 -29.6692870684 -3.1300154478
30.1594257282 -29.3893923759 -3.1300154594
30.3189547025 -29.5752256042 -3.1300154767
30.1064017491 -29.1000725077 -3.1300154824
30.5540867048 -30.7335181991 -3.1300154997
29.9340424131 -33.3456951952 -3.1300157245
29.9512396020 -33.3344468121 -3.1300157245
29.9731646461 -33.3489357745 -3.1300157303
29.9817809742 -33.3432085563 -3.1300157303
29.9903803226 -33.3374558745 -3.1300157303
30.0606514716 -33.3480532521 -3.1300157418
30.0220140750 -33.4035435805 -3.1300157475
30.1175981929 -33.3375338715 -3.1300157475
30.1347438841 -33.3251996536 -3.1300157475
30.1575215025 -33.3385337347 -3.1300157533
30.2062110605 -33.3326610200 -3.1300157591
30.2488559498 -33.3003257310 -3.1300157591
30.2379031273 -33.3390861264 -3.1300157648
30.2464891601 -33.3325758070 -3.1300157648
29.2438646408 -26.5370857494 -3.1300158686
29.2323334757 -26.5335457372 -3.1300158686
29.3203643609 -26.5360728052 -3.1300158743
29.3088298645 -26.5323064975 -3.1300158743
29.2509930405 -26.5139876716 -3.1300158743
29.4203075774 -26.5446450666 -3.1300158801
29.4087980020 -26.5405830712 -3.1300158801
29.3972764609 -26.5365551410 -3.1300158801
29.3741978848 -26.5286016169 -3.1300158801
29.5840989372 -26.5285866565 -3.1300158974
29.5261769854 -26.5061969015 -3.1300158974
29.6393416219 -26.5247383578 -3.1300159032
29.6277722005 -26.5200285072 -3.1300159032
29.7180041589 -26.5315047581 -3.1300159089
29.7952720842 -26.5125970563 -3.1300159204
30.0691187150 -26.6195620101 -3.1300159262
30.2485799804 -26.6924418062 -3.1300159320
30.2264087829 -26.6794489563 -3.1300159320
30.1482124127 -26.6350116968 -3.1300159320
29.9199325584 -26.5170843685 -3.1300159320
29.6254345497 -26.3889907437 -3.1300159320
29.5172097923 -26.3482566303 -3.1300159320
30.1259581142 -26.5952223569 -3.1300159377
29.3737249175 -26.2484694347 -3.1300159435
30.2302873690 -26.4870382858 -3.1300159723
30.6102731180 -26.4902188141 -3.1300160184
30.8064355563 -26.4768118889 -3.1300160472
30.2406551905 -29.9707356602 -3.1300148964
30.1894131417 -29.7897703274 -3.1300148964
30.1492146202 -29.6589787255 -3.1300148964
30.2935129140 -29.9067234235 -3.1300148964
30.1115275726 -29.5469537506 -3.1300148964
30.4171176120 -30.2135040250 -3.1300148964
30.4104107350 -30.1866749009 -3.1300148964
30.0355576713 -29.3908602818 -3.1300148964
30.5213702334 -30.5427525326 -3.1300148964
30.3336226879 -29.8146460429 -3.1300148964
30.3962794307 -29.9039466756 -3.1300148964
30.5801853649 -30.7466653660 -3.1300148964
29.9562211625 -29.0680945929 -3.1300148964
30.1414266189 -29.0948057455 -3.1300148964
30.7647056778 -29.6544993708 -3.1300148964
28.7189099435 -26.5100469368 -3.1300148964
28.7063149282 -26.5083720547 -3.1300148964
28.6937150135 -26.5067344383 -3.1300148964
28.6811103095 -26.5051341018 -3.1300148964
28.6685009265 -26.5035710593 -3.1300148964
28.8988751214 -26.5135959702 -3.1300148964
28.8484954997 -26.5049904126 -3.1300148964
28.7727439662 -26.4932012753 -3.1300148964
28.6714391379 -26.4795772644 -3.1300148964
28.9157352862 -26.4920496081 -3.1300148964
29.0594601301 -26.4957025605 -3.1300148964
29.1785184749 -26.4980255707 -3.1300148964
29.5865265186 -26.4646185229 -3.1300148964
29.6069878816 -26.4459972951 -3.1300148964
28.9675439084 -26.2803413462 -3.1300148964
29.4075651757 -26.3584916073 -3.1300148964
28.8454234223 -26.1863284722 -3.1300148964
29.8450501582 -26.4299072464 -3.1300148964
28.9849511255 -26.1852290268 -3.1300148964
30.5258460201 -26.7066176925 -3.1300148964
30.0621163640 -26.4154579134 -3.1300148964
30.3260694240 -30.1044343813 -3.1300148964
30.5126692086 -30.4631001151 -3.1300148964
30.3732481083 -30.0361286193 -3.1300148964
30.3204507215 -29.7521157884 -3.1300148964
30.6096831330 -30.2866981456 -3.1300148964
30.0724179779 -29.4009214182 -3.1300148964
30.7642740115 -30.9912495955 -3.1300148964
30.4335154566 -29.8429998206 -3.1300148964
30.0949445349 -29.3895530056 -3.1300148964
29.9867311510 -29.2818561963 -3.1300148964
29.8664248878 -29.1764660914 -3.1300148964
30.0819907326 -29.3411942578 -3.1300148964
30.7689949073 -30.0910777819 -3.1300148964
30.9828821289 -31.1260966598 -3.1300148964
28.1484608537 -26.5188108554 -3.1300148964
28.3781691571 -26.4923958539 -3.1300148964
28.2967879705 -26.4918683323 -3.1300148964
28.1747306818 -26.4937853231 -3.1300148964
28.5420681420 -26.4736413537 -3.1300148964
28.3785403574 -26.4682256761 -3.1300148964
28.3512714884 -26.4678875688 -3.1300148964
28.2558247168 -26.4679747544 -3.1300148964
28.5706712243 -26.4509740934 -3.1300148964
28.6682735248 -26.4333091965 -3.1300148964
28.7529339775 -26.4163756272 -3.1300148964
28.5457544956 -26.4012160243 -3.1300148964
29.0351743561 -26.4030821935 -3.1300148964
28.9936664526 -26.3968108405 -3.1300148964
28.7157248011 -26.3644425623 -3.1300148964
28.5634861404 -26.3295264114 -3.1300148964
28.5083072693 -26.3026811493 -3.1300148964
29.2978544114 -26.3774599514 -3.1300148964
28.4099202899 -26.2753846406 -3.1300148964
28.2536458845 -26.2746028052 -3.1300148964
29.1907905230 -26.3315819053 -3.1300148964
29.2937742451 -26.3272147512 -3.1300148964
29.2515828773 -26.3186514568 -3.1300148964
29.2234137973 -26.3131507546 -3.1300148964
29.0537608333 -26.2836547053 -3.1300148964
28.8000268889 -26.2266951090 -3.1300148964
28.6851126666 -26.2164046065 -3.1300148964
29.6692606970 -26.3705775999 -3.1300148964
30.0897863728 -26.4872337116 -3.1300148964
29.9257659356 -26.4268797635 -3.1300148964
29.8291325105 -26.3943745477 -3.1300148964
30.2476484432 -26.5254028788 -3.1300148964
30.1393972693 -26.4807732706 -3.1300148964
30.0575323896 -26.4489889878 -3.1300148964
30.4448277850 -26.5877963966 -3.1300148964
30.3782318240 -30.0594660729 -3.1300148964
27.8375688272 -26.4541295161 -3.1300148964
27.6929235162 -26.4764730141 -3.1300148964
27.5490023548 -26.5030849887 -3.1300148964
27.5346549214 -26.5059800881 -3.1300148964
28.2733800123 -26.3887434661 -3.1300148964
28.1706107020 -26.3949249544 -3.1300148964
27.7469409007 -26.4431435510 -3.1300148964
27.4578834052 -26.4974770015 -3.1300148964
28.2721785487 -26.3646003146 -3.1300148964
28.1984015607 -26.3688189416 -3.1300148964
27.7431799840 -26.4192648829 -3.1300148964
28.5233436722 -26.3342531059 -3.1300148964
28.7620274085 -26.3158645458 -3.1300148964
28.6427266061 -26.3115601874 -3.1300148964
28.5833460665 -26.2862958441 -3.1300148964
28.9597427270 -26.2807099687 -3.1300148964
28.0656100192 -26.2092832271 -3.1300148964
33.7305572782 -32.5006198036 -3.1300148964
33.7178263503 -32.6601080188 -3.1300148964
33.7799416819 -32.3816448283 -3.1300148964
33.6914398247 -32.8504599513 -3.1300148964
33.7129984288 -32.7738161615 -3.1300148964
33.6580611528 -33.0405753821 -3.1300148964
29.9412623367 -29.6196386865 -3.1300148964
29.8153926850 -29.5235215798 -3.1300148964
30.1451720634 -29.6952152293 -3.1300148964
30.1056270935 -29.6673173748 -3.1300148964
30.4902792776 -29.9646774707 -3.1300148964
30.9701398836 -30.5899574568 -3.1300148964
31.1409018271 -30.6846843318 -3.1300148964
33.6077404498 -32.4158666052 -3.1300148964
33.6171636230 -32.3586634887 -3.1300148964
33.6448015084 -32.1576587523 -3.1300148964
33.5389929726 -32.8468240008 -3.1300148964
33.6781503255 -32.0735657984 -3.1300148964
33.6847530171 -32.0010408465 -3.1300148964
33.7012837459 -31.6665161122 -3.1300148964
33.7014858620 -31.6519524097 -3.1300148964
33.7017608439 -31.6228235297 -3.1300148964
33.5660789023 -32.8388320359 -3.1300148964
33.6227563986 -32.5965775043 -3.1300148964
33.7237890403 -31.7400507903 -3.1300148964
33.7245848515 -31.7107884153 -3.1300148964
33.7260365090 -31.5937071988 -3.1300148964
33.7239545113 -31.4473611596 -3.1300148964
33.7201500518 -32.1368187188 -3.1300148964
33.7705800011 -31.7858203135 -3.1300148964
33.7798501369 -32.0238927762 -3.1300148964
33.7972169714 -31.4749493640 -3.1300148964
33.8081588055 -32.3889669259 -3.1300148964
33.6937084390 -33.0128670712 -3.1300148964
33.7040562234 -33.0633566144 -3.1300148964
33.7800859999 -32.9739313066 -3.1300148964
33.9664656632 -32.6040441568 -3.1300148964
27.6802809668 -26.2717400713 -3.1300148964
27.3832053906 -26.3418162803 -3.1300148964
27.5912562587 -26.2413623133 -3.1300148964
27.2887698979 -26.2422550020 -3.1300148964
27.2188266210 -26.2370444365 -3.1300148964
30.2000945583 -29.8425933910 -3.1300148964
30.1420736495 -29.7825028958 -3.1300148964
30.1064723737 -29.7638438531 -3.1300148964
30.1210682369 -29.6899329394 -3.1300148964
29.9988353320 -29.6066608741 -3.1300148964
29.8225672424 -29.5397199828 -3.1300148964
30.4510586278 -29.8317132106 -3.1300148964
31.1138001162 -30.4527055731 -3.1300148964
30.0899832183 -29.5411480569 -3.1300148964
30.6776873240 -29.8222222903 -3.1300148964
33.5329687882 -32.2849524582 -3.1300148964
33.5535794872 -32.0468678521 -3.1300148964
33.5550862991 -32.0203547526 -3.1300148964
33.5615710634 -31.7681900693 -3.1300148964
33.5812009626 -31.9816554924 -3.1300148964
33.5823214729 -31.9549801163 -3.1300148964
33.6098346341 -31.8083371400 -3.1300148964
33.6339455651 -31.7410320549 -3.1300148964
33.6338135095 -31.7275402203 -3.1300148964
33.6139259953 -31.3503825740 -3.1300148964
33.6492694493 -32.0661784119 -3.1300148964
33.6478428510 -31.4697855824 -3.1300148964
33.6392465446 -31.3616172049 -3.1300148964
33.6339890805 -31.3076168744 -3.1300148964
33.6645401517 -31.3729979105 -3.1300148964
33.6489028873 -31.2238313964 -3.1300148964
33.6472407932 -31.2102975783 -3.1300148964
33.6800922959 -32.2740553891 -3.1300148964
33.6999145104 -32.0281559943 -3.1300148964
33.6436201205 -31.0174277313 -3.1300148964
33.6413474701 -31.0039104437 -3.1300148964
33.7639247920 -32.1570645743 -3.1300148964
33.6879588437 -30.7406497924 -3.1300148964
33.6785629879 -30.6997358117 -3.1300148964
33.6338543127 -30.4358917360 -3.1300148964
33.6298614164 -30.4224058818 -3.1300148964
33.6570428545 -30.4290633530 -3.1300148964
33.6448830613 -30.3884360042 -3.1300148964
33.6201101204 -30.2326476300 -3.1300148964
27.1825698915 -25.9961222677 -3.1300148964
30.2130922709 -29.8266993191 -3.1300148964
30.5178312790 -29.9455977682 -3.1300148964
30.2592027466 -29.8191810252 -3.1300148964
29.9282178288 -29.7116478576 -3.1300148964
29.6091394160 -29.6097203176 -3.1300148964
30.8129785700 -30.0542227225 -3.1300148964
29.8439506395 -29.6190328581 -3.1300148964
29.9645098719 -29.6209867670 -3.1300148964
30.7099684785 -29.9218394166 -3.1300148964
30.6505041608 -29.8838474577 -3.1300148964
33.4921204566 -31.6968607416 -3.1300148964
33.4884777138 -31.6363016133 -3.1300148964
26.5976502689 -28.9139129370 -3.1300148964
33.5108778388 -31.6103216637 -3.1300148964
33.5080309530 -31.5738166148 -3.1300148964
33.5070100127 -31.5616540570 -3.1300148964
33.5059530978 -31.5494945725 -3.1300148964
33.5375233871 -31.6452920568 -3.1300148964
33.5367137550 -31.6330419423 -3.1300148964
33.5266258618 -31.5106931491 -3.1300148964
33.5215780823 -31.4618461790 -3.1300148964
33.5581700886 -31.5944629142 -3.1300148964
33.5399497709 -31.4101512171 -3.1300148964
33.5394390223 -31.2351104053 -3.1300148964
33.5632950112 -31.2312082166 -3.1300148964
33.6348057423 -31.6515960461 -3.1300148964
33.6323202633 -31.6139895812 -3.1300148964
33.5762751441 -31.0371136287 -3.1300148964
33.5656202760 -30.9877123387 -3.1300148964
33.5572459261 -30.9507459987 -3.1300148964
33.6025214388 -31.0445968340 -3.1300148964
33.7063825422 -31.6343826765 -3.1300148964
33.6607629354 -31.2282123164 -3.1300148964
33.5894979255 -30.8777190025 -3.1300148964
33.5801465061 -30.8405450932 -3.1300148964
33.7278494415 -31.5943691882 -3.1300148964
33.6190512275 -30.8968929057 -3.1300148964
33.5905090897 -30.7848339370 -3.1300148964
33.6053304416 -30.6597804598 -3.1300148964
33.6895586047 -30.8799303793 -3.1300148964
33.5893799382 -30.5282487114 -3.1300148964
33.7600659819 -30.8629678529 -3.1300148964
33.8155871862 -31.0006179169 -3.1300148964
33.6046533461 -30.2843139684 -3.1300148964
33.5282714022 -30.0992299498 -3.1300148964
30.2875566219 -29.7421000343 -3.1300148964
30.7442085642 -29.7198721068 -3.1300148964
33.4746445840 -31.1245890163 -3.1300148964
33.4981962945 -31.1191436315 -3.1300148964
33.4929859712 -31.0969084794 -3.1300148964
33.4876441885 -31.0747045425 -3.1300148964
33.4849240581 -31.0636145227 -3.1300148964
33.4821711334 -31.0525325980 -3.1300148964
26.7485491617 -29.5079185454 -3.1300148964
33.5055822122 -30.9513486057 -3.1300148964
33.5024970941 -30.9402060616 -3.1300148964
33.4993790279 -30.9290726927 -3.1300148964
33.4898274146 -30.8957286103 -3.1300148964
33.4865778315 -30.8846329152 -3.1300148964
33.4929233518 -30.8221306284 -3.1300148964
33.4894560390 -30.8110260969 -3.1300148964
26.7640025036 -29.4149234201 -3.1300148964
33.5427244554 -30.9047038025 -3.1300148964
33.5025020259 -30.6958600312 -3.1300148964
33.5136728896 -30.6544445011 -3.1300148964
26.5917611970 -29.4707179495 -3.1300148964
33.6933556734 -30.6564390649 -3.1300148964
33.7819408628 -30.8623892203 -3.1300148964
33.3846309514 -29.8131651863 -3.1300148964
33.7291726154 -30.4031643013 -3.1300148964
33.5320921291 -29.9766086118 -3.1300148964
30.0045390546 -29.8376877172 -3.1300148964
30.0216635321 -29.7645555936 -3.1300148964
29.8366012621 -29.7776119218 -3.1300148964
30.4811745434 -29.7740654904 -3.1300148964
30.2819787133 -29.7478768100 -3.1300148964
30.2619485710 -29.7462324167 -3.1300148964
30.2084716584 -29.7427170226 -3.1300148964
30.1950906014 -29.7420359914 -3.1300148964
30.0811298610 -29.6910998221 -3.1300148964
30.0742877003 -29.6911263365 -3.1300148964
30.5597712312 -29.6906260965 -3.1300148964
30.9697504831 -29.7880458843 -3.1300148964
30.8772437627 -29.7533841515 -3.1300148964
31.2212701785 -29.8235828045 -3.1300148964
29.9559577761 -29.5253261304 -3.1300148964
29.2366015958 -29.6205886478 -3.1300148964
29.2181973661 -29.4989412697 -3.1300148964
33.4349136558 -30.5698330008 -3.1300148964
33.4398147744 -30.5205350335 -3.1300148964
33.4394649388 -30.4609967204 -3.1300148964
33.4348855782 -30.4510853036 -3.1300148964
33.4302769179 -30.4411874768 -3.1300148964
33.4380826685 -30.4011464174 -3.1300148964
33.4333262660 -30.3912393515 -3.1300148964
33.4551024421 -30.3807449036 -3.1300148964
33.4502856137 -30.3707875794 -3.1300148964
33.4405636959 -30.3509158958 -3.1300148964
33.4356586915 -30.3410017104 -3.1300148964
33.4473472953 -30.3103378036 -3.1300148964
33.4423222239 -30.3004037285 -3.1300148964
33.4485272470 -30.2595573597 -3.1300148964
33.4433519527 -30.2496200163 -3.1300148964
33.4329132882 -30.2297914752 -3.1300148964
33.4420074302 -30.0957422487 -3.1300148964
33.4342487680 -30.0340641681 -3.1300148964
26.6089484322 -30.2205325993 -3.1300148964
26.6152434349 -30.1053865033 -3.1300148964
26.6168832185 -30.0525940615 -3.1300148964
26.6074906645 -30.0201255273 -3.1300148964
26.6163950712 -29.9566005791 -3.1300148964
26.6139922311 -29.9134166435 -3.1300148964
26.6160790745 -29.7284292894 -3.1300148964
26.6094670665 -29.6945617515 -3.1300148964
26.6240697463 -29.6297146391 -3.1300148964
26.5855055367 -28.7874482619 -3.1300148964
30.1375793351 -29.6889750372 -3.1300148964
30.7687564228 -29.6700538679 -3.1300148964
30.1344553786 -29.6650047185 -3.1300148964
29.3025984008 -29.8856155000 -3.1300148964
30.7932300620 -29.6003890069 -3.1300148964
29.5922741119 -29.7262882763 -3.1300148964
31.0923185461 -29.4903242314 -3.1300148964
31.5313085754 -29.5984130382 -3.1300148964
33.3344490692 -30.0487628365 -3.1300148964
33.3374581387 -30.0096221165 -3.1300148964
33.2946498595 -29.5891154275 -3.1300148964
33.3246848845 -29.4011879406 -3.1300148964
26.5479123690 -30.7216065975 -3.1300148964
26.5406619870 -30.7446159111 -3.1300148964
26.5335478626 -30.7676677177 -3.1300148964
26.5437098471 -30.6566015181 -3.1300148964
26.5360749467 -30.6796368329 -3.1300148964
26.5446472264 -30.5796936180 -3.1300148964
26.5405852289 -30.5912031926 -3.1300148964
26.5325634648 -30.6142581383 -3.1300148964
26.5259841159 -30.5600501330 -3.1300148964
26.5153550974 -30.3838122928 -3.1300148964
30.1530978606 -29.6988281377 -3.1300148964
30.1593720885 -29.6719474820 -3.1300148964
29.6353546920 -29.8640329203 -3.1300148964
29.8060973526 -29.7495869309 -3.1300148964
29.6894212886 -29.8068825446 -3.1300148964
30.4854282855 -29.5334303371 -3.1300148964
30.1666025004 -29.5948255499 -3.1300148964
30.9374495182 -29.4741802506 -3.1300148964
30.6976757546 -29.4690789554 -3.1300148964
30.2915776766 -29.5159066619 -3.1300148964
29.4788630207 -29.8456891015 -3.1300148964
29.5880150060 -29.7519597803 -3.1300148964
29.1221037577 -30.0269535104 -3.1300148964
30.8589966321 -29.3005246440 -3.1300148964
30.5606641927 -29.2586991008 -3.1300148964
30.6037767689 -29.2071932781 -3.1300148964
33.3416670779 -29.4509955626 -3.1300148964
33.1262711301 -29.0784924580 -3.1300148964
26.5291153207 -31.3218966776 -3.1300148964
26.5189760356 -31.2181901386 -3.1300148964
26.5117552942 -31.2684978603 -3.1300148964
26.5067306600 -31.3062827956 -3.1300148964
26.5035672794 -31.3314968823 -3.1300148964
26.4989240071 -31.1893519195 -3.1300148964
26.5063730040 -31.0085130721 -3.1300148964
26.4875691745 -31.1095673745 -3.1300148964
26.4851943819 -30.9911402643 -3.1300148964
26.4777094005 -31.0291718346 -3.1300148964
26.4919903364 -30.8467534295 -3.1300148964
26.4861084837 -30.8720627675 -3.1300148964
26.4277856125 -31.0328787835 -3.1300148964
26.3975273087 -31.2132331941 -3.1300148964
26.3835983056 -31.3168058173 -3.1300148964
26.4769297099 -30.7082828584 -3.1300148964
26.4701821809 -30.5553351923 -3.1300148964
26.4561699878 -30.4389501715 -3.1300148964
26.4437857721 -30.4772610616 -3.1300148964
26.4416918798 -30.4057982945 -3.1300148964
26.2207669783 -31.2558705358 -3.1300148964
26.2347054627 -30.5859812371 -3.1300148964
26.2036194948 -30.5188711053 -3.1300148964
30.5088905833 -29.4750928919 -3.1300148964
30.0773546642 -29.6333284233 -3.1300148964
30.7028199293 -29.3607730381 -3.1300148964
26.5163176408 -31.7436254321 -3.1300148964
26.4544094814 -31.3746034819 -3.1300148964
26.4322637270 -31.3454599085 -3.1300148964
26.4298792606 -31.1231476434 -3.1300148964
26.4042137259 -31.1340301577 -3.1300148964
26.3897866142 -30.7625208314 -3.1300148964
26.3451632471 -30.7391125854 -3.1300148964
26.3721136892 -30.5104075929 -3.1300148964
26.2322240735 -31.4456383115 -3.1300148964
26.3780985126 -30.3929610517 -3.1300148964
26.3557787253 -30.4765643696 -3.1300148964
26.2023538679 -31.6173706802 -3.1300148964
25.7192172292 -31.5940957192 -3.1300148964
29.9550227655 -29.8876959028 -3.1300148964
30.3792977607 -29.4088958308 -3.1300148964
29.7855767258 -29.7473287790 -3.1300148964
29.4310186040 -30.1520671235 -3.1300148964
26.4445638892 -32.0898699538 -3.1300148964
26.4582547972 -32.1914055801 -3.1300148964
26.4866056285 -32.3647324319 -3.1300148964
26.5002310697 -32.4366352464 -3.1300148964
26.3911316971 -31.7706729139 -3.1300148964
26.3970813271 -31.8587197266 -3.1300148964
26.4343332953 -32.1948836582 -3.1300148964
26.4736907715 -32.4268769200 -3.1300148964
26.5006402377 -32.5564737554 -3.1300148964
26.3350944241 -31.3875479240 -3.1300148964
26.4000930799 -32.2899010899 -3.1300148964
26.3182067474 -31.1932593697 -3.1300148964
26.4203398221 -32.5284343885 -3.1300148964
26.2974390582 -31.8212284770 -3.1300148964
26.2231240330 -31.7957636441 -3.1300148964
26.2363892425 -32.4729368003 -3.1300148964
26.2242840844 -32.6496797350 -3.1300148964
32.2528385200 -26.2210570968 -3.1300148964
32.9267833528 -26.3312521060 -3.1300148964
33.1859175708 -26.3149259990 -3.1300148964
29.9958827457 -29.6484129583 -3.1300148964
29.7544602166 -29.9384022653 -3.1300148964
29.9786734799 -29.6314371975 -3.1300148964
29.8874575989 -29.7295500338 -3.1300148964
30.3884614712 -29.2459485819 -3.1300148964
29.7514997407 -29.8195022844 -3.1300148964
29.7706546382 -29.7558711753 -3.1300148964
29.4019770390 -30.2735549803 -3.1300148964
29.3748880296 -30.3387130925 -3.1300148964
30.5770058503 -29.0358189478 -3.1300148964
29.7141742064 -29.7103851515 -3.1300148964
29.4104256531 -30.0871934965 -3.1300148964
29.1101980016 -30.7221257584 -3.1300148964
30.0770592947 -29.1042183447 -3.1300148964
32.4827830854 -26.4287520879 -3.1300148964
32.4686004866 -26.4261347375 -3.1300148964
32.1405328750 -26.3775600366 -3.1300148964
32.8686624166 -26.4918548530 -3.1300148964
32.8406561220 -26.4843780222 -3.1300148964
32.7282033168 -26.4561314842 -3.1300148964
32.1000332417 -26.3488310375 -3.1300148964
32.0856158966 -26.3473462800 -3.1300148964
32.0567683454 -26.3445047446 -3.1300148964
32.7621288658 -26.4394643436 -3.1300148964
32.0300605240 -26.3177572451 -3.1300148964
31.9429535600 -26.3107355642 -3.1300148964
31.7393201856 -26.3003710370 -3.1300148964
32.1487083724 -26.3055032619 -3.1300148964
