54.0078161868 -34.0104100704 -1.7096061273
47.7152442903 -29.5597635711 -1.7096061388
54.1565676190 -34.0909975645 -1.7096061503
52.5836991267 -34.2222506707 -1.7096061849
53.9938164951 -34.4245732365 -1.7096062253
52.1612565988 -30.7710485790 -1.7101748442
51.9865327815 -31.9078729850 -1.7101753859
52.1859305042 -31.9854594925 -1.7101753974
50.7644109182 -31.4561411225 -1.7101754435
48.9844071059 -28.3165772145 -1.7101754551
48.9858374277 -28.3409459116 -1.7101754551
48.9866066477 -28.3531269802 -1.7101754551
48.9874118980 -28.3653057200 -1.7101754551
48.9641401247 -28.3791838597 -1.7101754666
48.9517925678 -28.5162010529 -1.7101754781
48.9557649435 -28.5530323934 -1.7101754781
48.9571616852 -28.5653014939 -1.7101754781
48.9474321745 -28.6789302303 -1.7101754897
48.9605795703 -28.7648678287 -1.7101754897
48.9429380712 -28.8057257943 -1.7101755012
48.9326059234 -28.8839998362 -1.7101755127
48.9526334569 -28.9824847808 -1.7101755127
48.9186401585 -28.9381186972 -1.7101755242
48.9344051028 -29.0122666134 -1.7101755242
48.8333468919 -28.7338953386 -1.7101755473
48.9025389342 -29.4468976180 -1.7101755934
48.7199192326 -28.7909305253 -1.7101756049
48.7378039969 -28.8944743939 -1.7101756049
48.9002261215 -29.5166729404 -1.7101756049
48.8525313662 -30.1051025007 -1.7101757317
48.8367179965 -30.2377798908 -1.7101757663
48.5469034344 -29.8195974442 -1.7101758124
53.3410364171 -34.3356908928 -1.7101764694
54.0328382019 -34.3441359753 -1.7101765040
52.3298414294 -31.0918000156 -1.7099332409
49.0018212317 -28.8809462358 -1.7099337769
48.9971989460 -28.9645629191 -1.7099337942
48.9913846103 -29.0375897359 -1.7099338115
48.9944368557 -29.0487413295 -1.7099338115
49.0006402446 -29.0710171854 -1.7099338115
48.9910224723 -29.2074652197 -1.7099338461
48.9861942462 -29.2707655467 -1.7099338633
48.9899362905 -29.2819314740 -1.7099338633
48.9903124583 -29.3568106506 -1.7099338806
48.8810874704 -29.0923085988 -1.7099338979
48.9955083697 -29.5076930860 -1.7099339152
52.3534146493 -32.0440937269 -1.7099339152
48.9758698318 -29.7678098793 -1.7099340017
50.8707872744 -31.8674432195 -1.7099340881
52.5728910881 -30.8604238828 -1.7100258753
52.3938084090 -31.0098384202 -1.7100259099
52.3287780056 -31.1054441139 -1.7100259330
52.4508438551 -31.3239398546 -1.7100259848
49.0386219564 -29.4296733903 -1.7100260655
49.0514787223 -29.4595657074 -1.7100260655
49.0558231996 -29.4695043127 -1.7100260655
49.0336882514 -29.4792192163 -1.7100260713
49.0425231753 -29.4991884422 -1.7100260713
49.0431969569 -29.5590509134 -1.7100260770
49.0478357656 -29.5690135825 -1.7100260770
49.0576888171 -29.6995613188 -1.7100260886
49.0627432176 -29.7094805035 -1.7100260886
49.0617195884 -29.8113127315 -1.7100261001
49.0600275346 -30.0502598476 -1.7100261289
55.9072476324 -29.8008315802 -1.7100261289
55.9178650242 -29.7801288917 -1.7100261289
55.9124696395 -29.8430517358 -1.7100261347
55.9233367285 -29.8223174132 -1.7100261347
49.0625904107 -30.1453564958 -1.7100261404
51.8360973611 -31.9347489461 -1.7100261404
55.9172157726 -29.8855058382 -1.7100261404
49.0550969500 -30.1783151644 -1.7100261462
51.7740449577 -31.9496434665 -1.7100261462
55.9041962349 -29.9592454085 -1.7100261462
55.9157509096 -29.9385580006 -1.7100261462
55.9214822986 -29.9281887515 -1.7100261462
53.0048851345 -31.9815101254 -1.7100261520
55.9075985542 -30.0021838334 -1.7100261520
51.4841067900 -31.9413918381 -1.7100261577
55.9105120433 -30.0453363249 -1.7100261577
55.9225759502 -30.0246100437 -1.7100261577
55.9191087206 -30.0783360031 -1.7100261635
51.4258477917 -31.9770445276 -1.7100261692
53.4668605261 -31.9600857507 -1.7100261692
55.9021578166 -30.1529409632 -1.7100261692
51.4318788487 -32.0034274574 -1.7100261750
52.7036989848 -32.1116318944 -1.7100261750
52.9949239620 -32.0806668412 -1.7100261750
49.0587739539 -30.4393484256 -1.7100261808
52.1166065697 -32.1354118848 -1.7100261808
52.2504964904 -32.1670293247 -1.7100261865
53.1844752820 -32.0983623411 -1.7100261865
55.9041448416 -30.2848151793 -1.7100261865
50.8015974651 -31.8726898649 -1.7100261923
52.8696020984 -32.1695153010 -1.7100261923
55.9037911072 -30.3291376860 -1.7100261923
49.0599422735 -30.5621160492 -1.7100261981
55.9029240408 -30.3736331244 -1.7100261981
55.9015405549 -30.4182958602 -1.7100262038
51.9318481748 -32.2396712291 -1.7100262096
53.6923395494 -32.0708975781 -1.7100262096
55.9069208307 -30.4527963395 -1.7100262096
49.0571307152 -30.6762555345 -1.7100262154
53.8643052915 -32.0642479681 -1.7100262211
55.9018113970 -30.5429225256 -1.7100262211
53.3541902748 -32.2362962604 -1.7100262269
49.0557508534 -30.8269793546 -1.7100262384
50.7996000216 -32.0805412582 -1.7100262384
55.8932952779 -30.7145966040 -1.7100262442
52.0173119649 -32.4184134995 -1.7100262499
50.4005740615 -32.0078676309 -1.7100262615
50.8592239401 -32.2583156609 -1.7100262730
55.8969735431 -30.9399995981 -1.7100262788
54.3369838422 -32.3438301880 -1.7100263249
54.7757826418 -32.1497190536 -1.7100263306
52.7796688434 -32.7847151526 -1.7100263364
51.7767298446 -32.9513651683 -1.7100263825
52.4255875537 -33.1129405315 -1.7100264113
47.2365056197 -30.1953107034 -1.7100265323
52.6963632847 -30.8404192483 -1.7099979138
52.6450102651 -30.9747729265 -1.7099977841
52.5267559098 -31.0200933960 -1.7099977582
52.6774166051 -31.0915616144 -1.7099976544
52.5818318965 -31.1336623863 -1.7099976285
52.6869092048 -31.1389665897 -1.7099976025
49.1482936437 -30.0124928553 -1.7099972135
49.1659006795 -30.0383139487 -1.7099972135
49.1639474322 -30.0778608975 -1.7099971876
49.1563402148 -30.1089985355 -1.7099971617
49.0529634838 -29.9999031898 -1.7099971357
49.1677417225 -30.1661067666 -1.7099971357
49.1737582925 -30.2147787578 -1.7099971098
49.1739625297 -30.2550564297 -1.7099970839
49.1746553267 -30.2955004870 -1.7099970579
49.1758396425 -30.3361054169 -1.7099970320
49.1826403686 -30.3446468951 -1.7099970320
49.1823703965 -30.4588297305 -1.7099969542
49.1855246572 -30.6823962013 -1.7099967986
49.1897490230 -30.7579119661 -1.7099967467
52.3350345380 -32.0132839975 -1.7099967208
53.0953165247 -31.9121580201 -1.7099966948
53.2433737390 -31.8697468217 -1.7099966948
53.0322490745 -31.9532740417 -1.7099966689
53.2390775926 -31.8963380941 -1.7099966689
53.4201531803 -31.8365492217 -1.7099966689
51.6573536385 -32.0741442225 -1.7099966430
51.8845416667 -32.0907682959 -1.7099966430
52.2920516149 -32.0885885478 -1.7099966430
53.1077338064 -31.9588822348 -1.7099966430
53.2804804398 -31.9088452991 -1.7099966430
52.0281424257 -32.1188520854 -1.7099966170
52.0764489147 -32.1431951536 -1.7099965911
52.2947401071 -32.1368597932 -1.7099965911
52.4399465045 -32.1261843375 -1.7099965911
53.0849297222 -32.0147996410 -1.7099965911
53.6257622506 -31.8353359817 -1.7099965911
55.9895791346 -29.2394152630 -1.7099965911
51.8081586938 -32.1592751479 -1.7099965652
52.0276859474 -32.1671959863 -1.7099965652
55.9944433917 -29.3047072473 -1.7099965652
56.0018486465 -29.2814469502 -1.7099965652
56.0054996354 -29.2698004738 -1.7099965652
56.0126981765 -29.2464753752 -1.7099965652
51.3194960799 -32.1237446333 -1.7099965392
53.9014611809 -31.7639245112 -1.7099965392
53.9124649775 -31.7584804990 -1.7099965392
56.0136792869 -29.3237901856 -1.7099965392
53.6304566676 -31.9117317239 -1.7099965133
55.9849548659 -29.5494071882 -1.7099964873
55.9981830579 -29.5145749841 -1.7099964873
56.0068298953 -29.4912888888 -1.7099964873
56.0153388129 -29.4679520435 -1.7099964873
56.0237095131 -29.4445652650 -1.7099964873
51.2083643237 -32.1759268825 -1.7099964614
55.9892930891 -29.6046135595 -1.7099964614
55.9939001182 -29.5930028107 -1.7099964614
56.0075148447 -29.5580895058 -1.7099964614
56.0119841675 -29.5464250574 -1.7099964614
56.0164189652 -29.5347474390 -1.7099964614
53.4813959704 -32.0456669377 -1.7099964355
53.7618800643 -31.9352214083 -1.7099964355
53.8649341631 -31.8887133894 -1.7099964355
55.9880647182 -29.6717398859 -1.7099964355
56.0023784218 -29.6368752664 -1.7099964355
56.0117487553 -29.6135622094 -1.7099964355
51.9378947165 -32.3104770908 -1.7099964095
55.9857039640 -29.7391698208 -1.7099964095
55.9956797982 -29.7159536253 -1.7099964095
56.0006161634 -29.7043234963 -1.7099964095
56.0200169407 -29.6576584825 -1.7099964095
55.9874070215 -29.7952938246 -1.7099963836
56.0129185410 -29.7371123609 -1.7099963836
51.1262559662 -32.2571530542 -1.7099963577
56.0094729341 -29.8051645278 -1.7099963577
54.2027851407 -31.8233547702 -1.7099963317
55.9939647858 -29.8967514002 -1.7099963317
56.0315388467 -29.8150352311 -1.7099963317
54.3592980705 -31.7590054735 -1.7099963058
55.9934698688 -29.9536747917 -1.7099963058
54.0894834717 -31.9396981193 -1.7099962799
54.5996118345 -31.6292495621 -1.7099962799
56.0037577348 -29.9875855239 -1.7099962799
53.5131055960 -32.2138435829 -1.7099962539
56.0019960819 -30.0450024870 -1.7099962539
56.0079058055 -30.0333522337 -1.7099962539
53.7146091649 -32.1905057322 -1.7099962021
56.0022869511 -30.1488798921 -1.7099962021
53.9913176628 -32.0963861486 -1.7099961761
54.3202043050 -31.9232471904 -1.7099961761
54.8259681710 -31.5816518219 -1.7099961761
56.0046375189 -30.1953233267 -1.7099961761
50.3622170165 -32.2459893256 -1.7099961243
56.0153493397 -30.3242012227 -1.7099960983
56.1614094474 -30.0504636571 -1.7099960983
54.2734809333 -32.1157355920 -1.7099960205
56.0221320455 -30.4547719907 -1.7099960205
54.9191104001 -31.7235669532 -1.7099959946
56.0194939945 -30.5505035497 -1.7099959687
50.0816450889 -32.3084183362 -1.7099959427
50.4676364200 -32.4675550066 -1.7099959427
56.0173646537 -30.5986191670 -1.7099959427
56.0249120084 -30.5869210283 -1.7099959427
56.0223812029 -30.6352031235 -1.7099959168
54.6337478191 -32.0432745589 -1.7099958908
56.0271024469 -30.6719354855 -1.7099958908
56.0348666419 -30.6602082199 -1.7099958908
56.2171449304 -31.0343365822 -1.7099955018
54.0911449056 -32.8460568699 -1.7099953981
57.0531388638 -30.2543463071 -1.7099951387
56.9674598630 -31.1319255567 -1.7099947756
49.2479748703 -34.2928659243 -1.7099936345
49.3407444042 -34.3338713060 -1.7099936345
49.2009724447 -34.2980577746 -1.7099936086
52.5554847164 -30.7939127442 -1.7099936292
52.6254209203 -30.8221807433 -1.7099934967
52.6321084682 -30.8963422913 -1.7099932978
52.6312478421 -31.0993830737 -1.7099927676
52.6184107166 -32.0276597210 -1.7099903153
56.0139273099 -28.7221338500 -1.7099893874
56.0229799176 -28.8270583034 -1.7099893211
56.0269316805 -28.8016661842 -1.7099893211
56.0288512088 -28.7889614682 -1.7099893211
56.0247235813 -28.9581362059 -1.7099892549
56.0468543155 -28.8308462331 -1.7099892549
56.0403667410 -29.1206019902 -1.7099891223
56.0569781315 -29.0440028947 -1.7099891223
56.0521367355 -29.5355212460 -1.7099887909
56.0751149920 -29.8322151715 -1.7099884595
56.0839749616 -29.9401855155 -1.7099883270
56.0945112914 -29.9144130475 -1.7099883270
56.3276274864 -29.2716465351 -1.7099882607
56.3980649511 -29.2888970743 -1.7099880619
49.7187828639 -34.3464974049 -1.7099833561
52.8314756619 -30.8900376639 -1.7099978360
52.6707284129 -30.9981060706 -1.7099978100
52.7580357502 -31.0368331289 -1.7099977322
52.7874773661 -31.0762360751 -1.7099976804
52.9883977372 -31.0793981175 -1.7099975766
53.0167809396 -31.0910644956 -1.7099975507
52.9138901035 -31.2020051552 -1.7099974988
52.8435485372 -32.0782593474 -1.7099966689
53.9052660461 -31.5121538541 -1.7099966430
52.7812782778 -32.1524513435 -1.7099966170
53.8671941847 -31.6016907055 -1.7099965911
54.0109012889 -31.4900236315 -1.7099965911
54.3602371008 -31.2052572023 -1.7099965652
52.1049350490 -32.4014558944 -1.7099965392
52.4169900637 -32.3868433283 -1.7099964873
54.5062075148 -31.1573796865 -1.7099964873
53.9090269054 -31.7209488700 -1.7099964614
52.6706483710 -32.3671384379 -1.7099964355
54.2081879641 -31.5136275031 -1.7099964355
54.6355219301 -31.1220759721 -1.7099964095
54.6620630631 -31.1284347933 -1.7099963836
52.8212992862 -32.4200007071 -1.7099963317
51.3153062656 -32.7466563616 -1.7099962280
51.4734586450 -32.7960212161 -1.7099961761
56.0320157867 -28.2558297140 -1.7099960465
56.0307436075 -28.1876646940 -1.7099960465
56.0259137322 -28.0650438812 -1.7099960465
56.0523986392 -28.5022253485 -1.7099960205
56.0551209090 -28.4200294314 -1.7099960205
56.0557040821 -28.3926216535 -1.7099960205
56.0559348583 -28.3789165907 -1.7099960205
56.0564805652 -28.3103843346 -1.7099960205
56.0564150173 -28.2829704316 -1.7099960205
56.0563214222 -28.2692637455 -1.7099960205
56.0561872807 -28.2555573962 -1.7099960205
56.0552452789 -28.2007377662 -1.7099960205
56.0545310467 -28.1733330905 -1.7099960205
56.0520362478 -28.1048440849 -1.7099960205
56.0746323078 -28.5445307722 -1.7099959946
56.0789326097 -28.4343891097 -1.7099959946
56.0792868399 -28.4206151500 -1.7099959946
56.0799668233 -28.2277308681 -1.7099959946
56.0786939004 -28.1726318156 -1.7099959946
56.0778129735 -28.1450889019 -1.7099959946
56.0861664487 -28.7253568720 -1.7099959687
56.0885554982 -28.6977600747 -1.7099959687
56.0896887852 -28.6839564963 -1.7099959687
56.0956305783 -28.6010701222 -1.7099959687
56.1007020973 -28.5042544037 -1.7099959687
56.1012629065 -28.4904157402 -1.7099959687
56.1037678805 -28.4073544314 -1.7099959687
56.0957769975 -28.8659695718 -1.7099959427
56.1020549047 -28.8106387654 -1.7099959427
56.1035220483 -28.7967947594 -1.7099959427
56.1188634173 -28.6164773927 -1.7099959427
56.1270196076 -28.1712292657 -1.7099959427
56.1128115981 -28.9243733030 -1.7099959168
56.1180990445 -28.8827286295 -1.7099959168
56.1197793728 -28.8688368467 -1.7099959168
56.1270961359 -28.9971767709 -1.7099958908
56.1470356285 -28.8437638914 -1.7099958908
56.1751858057 -28.4510766898 -1.7099958908
56.1284500400 -29.1402249738 -1.7099958649
56.1366589727 -29.2282418172 -1.7099958390
56.1446421427 -29.1863735457 -1.7099958390
56.1472205914 -29.1724019150 -1.7099958390
56.1497576982 -29.1584227179 -1.7099958390
56.1432185112 -29.3168108347 -1.7099958130
56.1491058024 -29.2888661467 -1.7099958130
56.1902324445 -29.0641547358 -1.7099958130
56.1481116682 -29.4059010739 -1.7099957871
56.1545259616 -29.3779258771 -1.7099957871
56.1668574608 -29.3218640856 -1.7099957871
56.1947767314 -29.1811056312 -1.7099957871
56.2248262036 -28.9969956593 -1.7099957871
56.2687351541 -28.0809810311 -1.7099957871
56.1843832712 -29.3551062392 -1.7099957612
56.2022218347 -29.2704334968 -1.7099957612
56.2236636436 -29.1570693854 -1.7099957612
56.1676217661 -29.5294629729 -1.7099957352
56.2706013802 -29.0182080580 -1.7099957352
56.3220079573 -28.3685079910 -1.7099957352
56.3223706129 -28.2960415495 -1.7099957352
56.3117983746 -28.8917750458 -1.7099957093
56.3463877486 -28.2668539896 -1.7099957093
56.1758526979 -29.6827006254 -1.7099956834
56.1878673915 -29.6404666356 -1.7099956834
56.3072894275 -29.0975469808 -1.7099956834
56.3706598852 -28.2812894486 -1.7099956834
56.2556604382 -29.4761951969 -1.7099956574
56.2940846041 -29.3039404801 -1.7099956574
56.3679857848 -28.8244262847 -1.7099956574
56.3884753778 -28.5605054414 -1.7099956574
56.3918706365 -28.1341140650 -1.7099956574
56.1925181158 -29.7952132751 -1.7099956315
56.2012349337 -29.7669685412 -1.7099956315
56.2097844937 -29.7386727301 -1.7099956315
56.3838055003 -28.9003768704 -1.7099956315
56.2021420432 -29.8448837155 -1.7099956056
56.2111525596 -29.8165811740 -1.7099956056
56.3880138600 -29.0504251039 -1.7099956056
56.4424076542 -28.3997054069 -1.7099956056
56.2159321397 -29.8806697421 -1.7099955796
56.2769452369 -29.6808760276 -1.7099955796
56.4666781816 -28.2210857523 -1.7099955796
56.2198622668 -29.9450816170 -1.7099955537
56.4888182026 -28.4755362128 -1.7099955537
56.4184486266 -29.2986187875 -1.7099955278
56.4980687638 -28.7319913733 -1.7099955278
55.2114729539 -31.7473566449 -1.7099955018
56.2507568518 -30.0036100336 -1.7099955018
56.2704849999 -29.9463657918 -1.7099955018
56.5771616416 -28.6466066897 -1.7099954500
56.6115904670 -28.4028045490 -1.7099954240
56.5429160374 -29.2918595829 -1.7099953981
56.6320401363 -28.5265740112 -1.7099953981
56.6342646159 -28.4649216499 -1.7099953981
56.3053542886 -30.2701863882 -1.7099953462
56.5448397328 -29.5140820504 -1.7099953462
56.6440474398 -28.9628184589 -1.7099953462
56.6796672865 -28.5441545883 -1.7099953462
56.5460500749 -29.6107556190 -1.7099953203
56.5808908636 -29.5709893902 -1.7099952943
56.3059776022 -30.6856724655 -1.7099951647
56.7739174006 -29.2380995261 -1.7099951647
56.5910865246 -30.0547372717 -1.7099951387
56.3505185965 -31.2150974976 -1.7099948535
56.3364452272 -31.2857290294 -1.7099948275
56.7475743635 -30.4662478268 -1.7099948275
50.3371366381 -34.0482172668 -1.7099947238
51.6135187389 -34.2678130702 -1.7099945941
51.7897191370 -34.2595672550 -1.7099945941
52.0182767713 -34.2410634266 -1.7099945941
51.1185340370 -34.2872928117 -1.7099945682
57.1177890296 -30.2327761314 -1.7099945422
50.8489950493 -34.3160332554 -1.7099945163
52.0787887949 -34.3076357008 -1.7099945163
50.3099009212 -34.2890549389 -1.7099944644
51.7252760473 -34.3842068079 -1.7099944644
50.1460168172 -34.2809457394 -1.7099944385
50.6594991798 -34.3923700297 -1.7099944126
52.7751040098 -30.7031324091 -1.7100063928
53.0771787153 -30.7707012866 -1.7100068827
53.2489977164 -30.9417121325 -1.7100073726
52.9694474652 -32.1132574336 -1.7100090381
53.5389789673 -31.9108486927 -1.7100092831
54.2539060227 -31.3426496289 -1.7100093811
53.4881108727 -32.0337000012 -1.7100094300
52.9996089323 -32.3680173432 -1.7100095280
56.0568895435 -27.7469451517 -1.7100109487
56.1395041776 -28.3755583029 -1.7100109977
56.1368141317 -28.3017097794 -1.7100109977
56.1321447660 -28.2131561536 -1.7100109977
56.1259044702 -28.1246993486 -1.7100109977
56.1247118224 -28.1099679181 -1.7100109977
56.1166412941 -28.0216592877 -1.7100109977
56.1034450283 -27.9041636990 -1.7100109977
56.1016000944 -27.8894996725 -1.7100109977
56.0807682148 -27.7431842556 -1.7100109977
56.0736756081 -27.6994164530 -1.7100109977
56.0687315371 -27.6702736312 -1.7100109977
56.0583265776 -27.6120782890 -1.7100109977
56.0528660533 -27.5830278057 -1.7100109977
56.0500713627 -27.5685148061 -1.7100109977
56.1657657692 -28.5084968857 -1.7100110467
56.1644408886 -28.4045491823 -1.7100110467
56.1449451922 -28.0635956917 -1.7100110467
56.1376405036 -27.9897008172 -1.7100110467
56.1327333535 -27.9454185974 -1.7100110467
56.0793747857 -27.5930834861 -1.7100110467
56.1861126918 -28.7173062341 -1.7100110956
56.1880884911 -28.6576486850 -1.7100110956
56.1895653567 -28.5830507246 -1.7100110956
56.1897790718 -28.4785942478 -1.7100110956
56.1889300633 -28.4189100277 -1.7100110956
56.1857452475 -28.3145018950 -1.7100110956
56.1803992589 -28.2101820905 -1.7100110956
56.2075729099 -28.7781650426 -1.7100111446
56.2108301277 -28.7032657176 -1.7100111446
56.2317146849 -28.7793938569 -1.7100111936
56.2355083939 -28.6890806783 -1.7100111936
56.1786048362 -27.7430263291 -1.7100111936
56.2616139372 -28.6142206492 -1.7100112426
56.2412360232 -28.0547956699 -1.7100112426
56.2521319089 -29.1152208630 -1.7100112916
56.2572086093 -29.0698782748 -1.7100112916
56.2588113972 -29.0547542874 -1.7100112916
56.2661538722 -28.9790668710 -1.7100112916
56.2835089260 -28.3409488356 -1.7100112916
56.2778213704 -28.2194152070 -1.7100112916
56.2738994716 -28.1587073736 -1.7100112916
56.3174420913 -28.0940776216 -1.7100113896
56.3042575438 -27.9565469203 -1.7100113896
56.3541626755 -28.2921825359 -1.7100114386
56.3375268542 -28.0459956480 -1.7100114386
56.3425929871 -29.1725535105 -1.7100114875
56.3610557413 -29.0031220964 -1.7100114875
56.3523172837 -27.9512931090 -1.7100114875
56.3684929224 -29.1601147506 -1.7100115365
56.3780158601 -27.9641427224 -1.7100115365
56.3571450694 -27.7941985589 -1.7100115365
56.4316077927 -28.4922234179 -1.7100115855
56.4266121901 -28.2890067881 -1.7100115855
56.3968863383 -27.9149592842 -1.7100115855
56.3932118344 -27.8839004667 -1.7100115855
56.4092728713 -27.8186559723 -1.7100116345
56.4125913535 -27.6749467771 -1.7100116835
50.2587560170 -33.8054172692 -1.7100117325
56.4644680787 -29.1718677879 -1.7100117325
56.4860810765 -28.0801736122 -1.7100117325
50.1606758834 -33.8126131885 -1.7100117815
50.3019036241 -33.8369522286 -1.7100117815
50.9977621459 -33.9497921751 -1.7100118794
56.5178720505 -27.7231341908 -1.7100118794
56.5508821984 -27.7834936515 -1.7100119284
56.6220648988 -28.7018830492 -1.7100119774
56.6247199214 -28.4587704795 -1.7100119774
56.6198108957 -28.2805381272 -1.7100119774
56.6412731640 -28.8165427111 -1.7100120264
56.6488914154 -28.4584981552 -1.7100120264
49.3288171895 -33.7414801185 -1.7100120754
56.6662666339 -28.8015125139 -1.7100120754
56.6731673285 -28.5726934609 -1.7100120754
56.6331828836 -27.8547899232 -1.7100120754
56.4156446498 -30.2672949932 -1.7100121244
51.8198692195 -34.0802523997 -1.7100122224
56.7162686512 -27.9448384373 -1.7100122224
51.6904608680 -34.1187144434 -1.7100122714
51.9052919648 -34.0936203706 -1.7100122714
51.9876374213 -34.0817720194 -1.7100122714
56.4844811721 -30.2901105742 -1.7100122714
56.7664482317 -28.7233128323 -1.7100122714
56.7250661106 -27.8101222357 -1.7100122714
56.7765249281 -28.0729940248 -1.7100123203
49.6821354991 -34.0015634531 -1.7100123693
51.9782801704 -34.1320613201 -1.7100123693
56.7884036243 -27.9373843645 -1.7100123693
50.9736865375 -34.2151140807 -1.7100124183
50.4163978918 -34.1952392709 -1.7100124673
56.8474503307 -28.0503793064 -1.7100124673
50.0776383505 -34.1659555904 -1.7100125163
56.8015447270 -29.6597856899 -1.7100125653
56.9020159721 -28.1315064047 -1.7100125653
56.7063291137 -30.1470108307 -1.7100126143
56.8622670074 -29.4622570271 -1.7100126143
51.8489797631 -34.3202234489 -1.7100127122
56.9714482748 -28.9554716996 -1.7100127122
52.0924030355 -34.3099772616 -1.7100127612
57.1073188295 -28.4004107920 -1.7100129572
52.8249532194 -30.6458471803 -1.7100078896
53.3766512969 -31.9634832648 -1.7100114398
53.1511922926 -32.1840489118 -1.7100115666
53.0491475254 -32.3903013006 -1.7100118835
52.9543303224 -32.5276418914 -1.7100120737
52.6352635002 -32.7112301347 -1.7100121371
53.8250738624 -31.9973696409 -1.7100122639
54.5473635362 -31.1947134501 -1.7100123273
53.1044108832 -32.8312498897 -1.7100129613
50.2847840075 -33.6377548233 -1.7100137220
50.3567269871 -33.6464567971 -1.7100137220
50.1807208948 -33.6476935751 -1.7100137854
50.2239635990 -33.6539655704 -1.7100137854
50.2817038826 -33.6617308136 -1.7100137854
50.2961529946 -33.6635653283 -1.7100137854
50.3829558733 -33.6736741075 -1.7100137854
50.5715608044 -33.6902823368 -1.7100137854
50.6297064710 -33.6939321060 -1.7100137854
49.5904768549 -33.5470980240 -1.7100138488
49.6328500730 -33.5586120653 -1.7100138488
50.0615560700 -33.6529105267 -1.7100138488
50.3221999527 -33.6911084693 -1.7100138488
50.4531921165 -33.7049903540 -1.7100138488
50.7891985626 -33.7245848594 -1.7100138488
50.8623706173 -33.7258168492 -1.7100138488
49.5698643501 -33.5664561492 -1.7100139122
50.7004136403 -33.7458298602 -1.7100139122
50.3752068070 -33.7457779875 -1.7100139756
50.5960852001 -33.7645698666 -1.7100139756
50.7732524702 -33.7725367832 -1.7100139756
51.0835725761 -33.7713352183 -1.7100139756
51.1131105860 -33.7702154538 -1.7100139756
50.2988545862 -33.7613322670 -1.7100140390
50.7577502764 -33.7962751822 -1.7100140390
51.0992581333 -33.7949528578 -1.7100140390
51.2327393081 -33.7881122473 -1.7100140390
51.2771867222 -33.7850426397 -1.7100140390
50.3674577407 -33.8178818675 -1.7100141658
50.6813757128 -33.8417853586 -1.7100141658
51.3703911660 -33.8258661310 -1.7100141658
51.4599053838 -33.8168835744 -1.7100141658
50.8459367365 -33.8706840574 -1.7100142292
51.0869496291 -33.8679683390 -1.7100142292
50.8456370465 -33.8948552275 -1.7100142926
51.6303584936 -33.8441587298 -1.7100142926
49.5829692692 -33.7454525413 -1.7100143560
50.2357498933 -33.8995213026 -1.7100144194
51.7730477671 -33.8708274977 -1.7100144194
50.7373057979 -33.9649240550 -1.7100144828
51.9025261451 -33.8964173924 -1.7100145462
50.7341053596 -34.0615631863 -1.7100147364
50.0304165649 -34.0154370607 -1.7100147998
50.7019072389 -34.0845901558 -1.7100147998
50.9060748114 -34.0886318710 -1.7100147998
50.7640522556 -34.1108340952 -1.7100148632
52.2334296162 -33.9458017416 -1.7100148632
52.0595256947 -34.0367774854 -1.7100149900
56.2051714631 -27.8151068674 -1.7100149900
56.1872441160 -27.7212625268 -1.7100149900
52.4671433990 -33.9559820548 -1.7100150534
56.2979157353 -28.3338904864 -1.7100150534
56.2951927365 -28.3020160810 -1.7100150534
56.2687684510 -28.0635662853 -1.7100150534
56.2528223177 -27.9527427010 -1.7100150534
50.6169454101 -34.2016357884 -1.7100151168
50.8578068971 -34.2092558684 -1.7100151168
51.5312422893 -34.1737450508 -1.7100151168
56.2883882874 -28.0285325172 -1.7100151168
56.2611506782 -27.8539172678 -1.7100151168
56.2468947472 -27.7748591261 -1.7100151168
56.2377804626 -27.7275284954 -1.7100151168
50.5512075435 -34.2219204441 -1.7100151802
51.8056514247 -34.1594931836 -1.7100151802
56.3645135643 -28.7974222689 -1.7100151802
50.4849489621 -34.2414053874 -1.7100152435
50.5819777122 -34.2480723655 -1.7100152435
56.4119704737 -28.8789935657 -1.7100153069
56.3785044313 -28.1639042190 -1.7100153069
56.4364147393 -28.8630857610 -1.7100153703
56.4437888108 -28.3383432880 -1.7100154337
56.4246911084 -28.1421892166 -1.7100154337
56.3656796419 -27.7525313217 -1.7100154337
56.4715874415 -28.3857769469 -1.7100154971
56.4575468694 -28.2214232662 -1.7100154971
51.7967875274 -34.3079080509 -1.7100155605
56.1081637283 -26.5693415404 -1.7100156873
56.5747705459 -29.0665744055 -1.7100157507
56.5156088674 -27.9121496171 -1.7100157507
52.1153144593 -34.3709732915 -1.7100158775
53.1087273734 -34.0860102489 -1.7100159409
56.5651993490 -29.9174747111 -1.7100160043
56.6991212131 -29.3485318464 -1.7100161311
56.7261671368 -28.8847485295 -1.7100161311
53.8363764752 -33.8899425591 -1.7100163213
56.6620850932 -27.3038191678 -1.7100164481
56.6173101480 -30.5029273730 -1.7100165115
56.8639407416 -29.4003610967 -1.7100165749
56.8548864625 -28.0747541548 -1.7100165749
56.6263547091 -30.6356897864 -1.7100166383
56.9051410800 -29.2080228226 -1.7100166383
56.9443169760 -28.7101954368 -1.7100167017
56.9638179421 -28.5307304669 -1.7100167651
52.9521366271 -30.5932293415 -1.7100015163
52.8081168787 -30.9343029078 -1.7100015393
52.8354175010 -30.9032311880 -1.7100015393
52.9145206915 -30.8076413267 -1.7100015393
52.9991124243 -30.7362819382 -1.7100015451
53.1768073446 -30.7356993438 -1.7100015797
54.4730757970 -30.6069297012 -1.7100018390
54.5415327019 -30.7549659627 -1.7100018678
54.7842084534 -30.0299781063 -1.7100018678
50.2046591698 -33.5074400060 -1.7100019370
50.3207323750 -33.5436924965 -1.7100019428
50.4001415105 -33.5500937044 -1.7100019428
50.4133868718 -33.5510235005 -1.7100019428
50.4796517478 -33.5550845364 -1.7100019428
50.4650224918 -33.5784848302 -1.7100019485
50.5983947071 -33.5840871057 -1.7100019485
50.6250857690 -33.5847339842 -1.7100019485
50.6384326183 -33.5849982029 -1.7100019485
50.7051753770 -33.5857270090 -1.7100019485
50.7185248134 -33.5857543038 -1.7100019485
50.1829419400 -33.5779000858 -1.7100019543
50.2629799014 -33.5867414348 -1.7100019543
50.3164202734 -33.5918458651 -1.7100019543
50.7990331709 -33.6092582542 -1.7100019543
50.8392865610 -33.6083878063 -1.7100019543
50.9331694550 -33.6049678526 -1.7100019543
50.9733794881 -33.6029071894 -1.7100019543
50.2202871888 -33.6065252166 -1.7100019601
50.7050050188 -33.6340727648 -1.7100019601
51.0958640235 -33.6186767084 -1.7100019601
50.9896099419 -33.6504040885 -1.7100019658
51.0708076580 -33.6449171292 -1.7100019658
51.2328470264 -33.6296246508 -1.7100019658
51.3032378185 -33.6455364147 -1.7100019716
51.3302800991 -33.6420121291 -1.7100019716
50.4992291328 -33.7013062812 -1.7100019773
51.2683166571 -33.6985339220 -1.7100019831
51.4729570083 -33.6697064163 -1.7100019831
51.5723689601 -33.6769227387 -1.7100019889
51.6131923817 -33.6691867050 -1.7100019889
51.2048132880 -33.7542118293 -1.7100019946
51.5219476862 -33.7104937496 -1.7100019946
51.6587619838 -33.6847770252 -1.7100019946
50.4387088627 -33.7948769520 -1.7100020004
50.6764233063 -33.8031015083 -1.7100020004
50.6904159017 -33.8032129058 -1.7100020004
51.3386290926 -33.8115865236 -1.7100020119
51.7837552961 -33.7320001592 -1.7100020119
51.8662761069 -33.7124057136 -1.7100020119
51.0590628192 -33.8639241151 -1.7100020177
51.9409085153 -33.7183406631 -1.7100020177
50.5184995261 -33.8957516503 -1.7100020235
51.2030313092 -33.8758834905 -1.7100020235
50.9908552938 -33.9166702511 -1.7100020292
50.2718728727 -33.9276118593 -1.7100020350
50.8777090065 -33.9700191450 -1.7100020407
52.1744478887 -33.7519987116 -1.7100020407
51.5053345112 -33.9583197367 -1.7100020523
50.9398759228 -34.0644223304 -1.7100020638
52.2386401412 -33.8585290853 -1.7100020696
52.4857348311 -33.7988400448 -1.7100020753
50.3736174039 -34.1298114685 -1.7100020811
51.5096841555 -34.0800116686 -1.7100020811
52.1741581436 -33.9542140081 -1.7100020868
51.5359869018 -34.1492592272 -1.7100020984
51.2672199351 -34.2094734803 -1.7100021041
51.8654746823 -34.1596268616 -1.7100021157
51.0913841155 -34.3220729672 -1.7100021272
52.5787453903 -34.3308446472 -1.7100022021
56.4325480882 -27.9644335207 -1.7100022597
56.6875465801 -29.5717612095 -1.7100023001
56.7399494465 -29.5223919225 -1.7100023116
56.9014631486 -29.1313775850 -1.7100023462
56.9016500629 -29.0399609022 -1.7100023462
52.8422209247 -30.5441432100 -1.7099982769
52.8284840573 -30.6219407345 -1.7099982509
50.8653091151 -33.5125980307 -1.7099965652
50.9139987585 -33.5090182742 -1.7099965652
50.9036741435 -33.5340698315 -1.7099965392
50.9159138218 -33.5331153241 -1.7099965392
53.7249728163 -32.1121847465 -1.7099965392
50.8685687187 -33.5608340765 -1.7099965133
51.0284844708 -33.5469342598 -1.7099965133
51.0407616583 -33.5456104846 -1.7099965133
51.0653040168 -33.5428540091 -1.7099965133
51.1388272326 -33.5337140785 -1.7099965133
51.1173906916 -33.5608851576 -1.7099964873
51.2157962574 -33.5471711807 -1.7099964873
51.3180339080 -33.5549405984 -1.7099964614
51.3469515550 -33.5743265045 -1.7099964355
51.3963378805 -33.5650434096 -1.7099964355
51.4086670286 -33.5626313783 -1.7099964355
51.4628671752 -33.5762782759 -1.7099964095
51.3556014373 -33.6218924657 -1.7099963836
51.5299047506 -33.5864520225 -1.7099963836
51.5670552493 -33.5779203920 -1.7099963836
51.6965251756 -33.5704690159 -1.7099963577
51.7027338803 -33.5938311063 -1.7099963317
51.7646989176 -33.5768716884 -1.7099963317
50.9331493918 -33.7499887734 -1.7099963058
51.8580480838 -33.5747198120 -1.7099963058
50.8196679921 -33.8059360382 -1.7099962539
51.4670188692 -33.7235162658 -1.7099962539
51.1739705442 -33.7972847840 -1.7099962280
51.6894413789 -33.6972312589 -1.7099962280
52.0415198040 -33.5912857513 -1.7099962280
51.3338478888 -33.7975170009 -1.7099962021
51.4377923273 -33.7786146780 -1.7099962021
51.9944697435 -33.6582460784 -1.7099961761
52.0698946042 -33.6325969724 -1.7099961761
52.1074333495 -33.6192714178 -1.7099961761
50.9978435440 -33.8900258988 -1.7099961502
50.8394338275 -33.9259069420 -1.7099961243
52.2493946562 -33.6174409700 -1.7099961243
52.2833304732 -33.6299718476 -1.7099960983
52.3083501948 -33.6198624413 -1.7099960983
51.9472840815 -33.7748924937 -1.7099960724
52.4618687213 -33.6334232549 -1.7099960205
51.5286816318 -33.9576342416 -1.7099959946
52.6891370073 -33.6605814817 -1.7099958908
52.8709715189 -33.7033265642 -1.7099957612
56.8084362450 -29.0864262815 -1.7099943088
56.5938583445 -27.4911896200 -1.7099942310
56.7891593949 -27.7281235088 -1.7099941013
56.8024890120 -27.6850436120 -1.7099940754
52.8532364917 -30.5599858051 -1.7099997507
52.9654129481 -30.4472798836 -1.7099997075
52.8968168409 -30.7791468562 -1.7099996787
53.0969228544 -30.5943433510 -1.7099996067
53.3184743158 -30.5314462895 -1.7099994914
53.3605164385 -30.3640724804 -1.7099994914
51.3919782322 -33.4956101566 -1.7099989295
52.9146338073 -26.7167468718 -1.7099989295
51.4421790023 -33.5083953800 -1.7099989151
51.4533303341 -33.5056252481 -1.7099989151
51.4644734226 -33.5028221407 -1.7099989151
52.9654800098 -26.7266586302 -1.7099989151
51.4367431344 -33.5346181583 -1.7099989007
51.5151700658 -33.5146425495 -1.7099989007
51.5709277306 -33.4993821320 -1.7099989007
51.5438469503 -33.5319623189 -1.7099988862
51.5774812580 -33.5226498470 -1.7099988862
51.6221959286 -33.5097696075 -1.7099988862
51.6850404174 -33.5160117800 -1.7099988718
51.7073756484 -33.5090015577 -1.7099988718
51.7371122677 -33.5248578642 -1.7099988574
54.3010555421 -30.9562288199 -1.7099988574
51.4250680058 -33.6368232475 -1.7099988430
51.8119906471 -33.5253686353 -1.7099988430
51.8231905708 -33.5215044594 -1.7099988430
54.3347999617 -30.9297458352 -1.7099988430
51.8648413087 -33.5324817150 -1.7099988286
51.8760620429 -33.5284611662 -1.7099988286
51.9096521977 -33.5162006097 -1.7099988286
51.9208245733 -33.5120475733 -1.7099988286
54.1990369382 -31.3608561631 -1.7099988286
54.3751983783 -30.8799193820 -1.7099988286
51.8955256356 -33.5471273351 -1.7099988142
51.9405076702 -33.5304821332 -1.7099988142
51.9828366874 -33.5401936781 -1.7099987998
52.0165267569 -33.5269850945 -1.7099987998
52.0277305675 -33.5225158567 -1.7099987998
52.0612619884 -33.5089095612 -1.7099987998
54.2084655643 -31.4572570889 -1.7099987998
54.3856496186 -31.0087778677 -1.7099987998
54.5855325121 -29.5708423569 -1.7099987998
51.5999778237 -33.6920338962 -1.7099987854
52.0816666222 -33.5266394290 -1.7099987854
52.1040577883 -33.5172824468 -1.7099987854
52.1359112804 -33.5300134494 -1.7099987710
54.4000450893 -31.1162583355 -1.7099987710
54.6315559627 -29.5201003583 -1.7099987710
51.8706977435 -33.6585414569 -1.7099987566
52.1904543185 -33.5326312077 -1.7099987566
52.2016740703 -33.5276474361 -1.7099987566
54.6597061659 -29.6169580231 -1.7099987566
52.2565103971 -33.5293401512 -1.7099987422
52.2677201243 -33.5241609881 -1.7099987422
52.2789144815 -33.5189486873 -1.7099987422
54.5107640739 -30.9328834830 -1.7099987422
54.7046100835 -29.5286853138 -1.7099987278
52.3106947625 -33.5574402785 -1.7099987133
52.3445249754 -33.5413214593 -1.7099987133
52.3669984048 -33.5304090618 -1.7099987133
54.4827587150 -31.1720943843 -1.7099987133
52.4338390916 -33.5241023045 -1.7099986989
53.9995200865 -32.1597504244 -1.7099986989
54.7121293062 -29.1138820941 -1.7099986989
52.4672794197 -33.5341509315 -1.7099986845
52.4785024558 -33.5283482545 -1.7099986845
54.7200199242 -29.0105382430 -1.7099986845
52.5009055567 -33.5439356666 -1.7099986701
52.5121573907 -33.5380334746 -1.7099986701
54.1031990581 -32.0925441809 -1.7099986701
54.6192162152 -30.9918249860 -1.7099986701
52.5459953912 -33.5474524154 -1.7099986557
52.6138266594 -33.5380944044 -1.7099986413
54.2057435979 -32.0215161077 -1.7099986413
54.4494002409 -31.6263379480 -1.7099986269
52.4879039877 -33.6592920713 -1.7099986125
53.8512373482 -32.6631759153 -1.7099985837
54.6505040166 -31.3444106114 -1.7099985837
52.8096152132 -33.5646990606 -1.7099985693
54.0919857302 -32.4839106383 -1.7099985404
52.9966908520 -33.5617957034 -1.7099985116
54.3128328006 -32.3441298818 -1.7099984828
55.1932306015 -29.7538606479 -1.7099984396
54.7139547763 -31.9084099557 -1.7099984108
54.4480617632 -32.4885394394 -1.7099983675
54.0667909968 -33.3498951765 -1.7099982091
53.5952141050 -33.9711964207 -1.7099981082
56.8584392859 -28.0505618517 -1.7099973157
56.8270346299 -27.4638051453 -1.7099972293
52.7997275588 -30.4801937908 -1.7100012704
53.1219194776 -30.5994584693 -1.7100013108
51.9396923032 -33.4571412055 -1.7100014289
51.9391678783 -33.4836456627 -1.7100014318
51.9792613714 -33.4663309703 -1.7100014318
51.9992305868 -33.4574960228 -1.7100014318
52.0091955056 -33.4530342833 -1.7100014318
52.0790046182 -33.4475150780 -1.7100014347
52.1391626186 -33.4454471246 -1.7100014376
52.1797204496 -33.4523508294 -1.7100014404
52.1996034454 -33.4423301433 -1.7100014404
52.4141822794 -33.4363560061 -1.7100014520
52.4240828466 -33.4306668570 -1.7100014520
52.4659430253 -33.4342573291 -1.7100014549
52.2905220851 -26.5874472136 -1.7100014606
52.6453986166 -33.4374280210 -1.7100014664
52.4489442499 -26.5900297931 -1.7100014693
54.4915091066 -30.7691736385 -1.7100014750
52.5557066161 -26.5955843795 -1.7100014750
52.8616245925 -33.4375216157 -1.7100014808
54.6226692142 -30.9815996246 -1.7100014952
52.8633339162 -26.5900756564 -1.7100014952
54.5206690039 -28.7312897213 -1.7100014981
54.8175459843 -31.6190615149 -1.7100015384
52.7237097523 -30.9405290096 -1.7100015260
52.8651776720 -30.6831021008 -1.7100015490
52.9219418961 -30.2795715380 -1.7100015606
53.0390596867 -30.6421389611 -1.7100015894
53.3550260469 -30.2348695066 -1.7100016643
53.3873911634 -30.0710192985 -1.7100016758
53.3829044636 -30.0373696765 -1.7100016758
53.6336725300 -30.0953177211 -1.7100017335
54.5202896116 -30.3060959978 -1.7100019409
54.5024310336 -30.0358831430 -1.7100019409
54.4211142377 -29.4390720219 -1.7100019467
53.3846990883 -33.2883014180 -1.7100019525
54.5694879227 -30.5309856212 -1.7100019525
54.4123982202 -29.2309628859 -1.7100019582
54.3941907785 -29.1738409756 -1.7100019582
54.3470620053 -29.0378962739 -1.7100019582
54.6038235343 -30.7850378830 -1.7100019640
54.4895704097 -29.3213296307 -1.7100019698
51.7972766478 -26.5285743273 -1.7100019698
51.7741526045 -26.5212125302 -1.7100019698
51.7625743510 -26.5175829677 -1.7100019698
51.8278939572 -26.5131048817 -1.7100019755
51.7930531720 -26.5018424197 -1.7100019755
51.9168015520 -26.5177761361 -1.7100019813
54.3071587464 -28.6322815504 -1.7100019871
54.3018143338 -28.6211496607 -1.7100019871
51.9944942152 -26.5201424488 -1.7100019871
51.9829118321 -26.5158610806 -1.7100019871
51.9713168345 -26.5116139939 -1.7100019871
51.9597093240 -26.5074012259 -1.7100019871
54.7040592381 -30.9806482927 -1.7100019928
52.0493778260 -26.5150499772 -1.7100019928
52.0145455808 -26.5018218935 -1.7100019928
52.0029089144 -26.4974812899 -1.7100019928
54.6833662022 -31.2549071445 -1.7100019986
54.7523359266 -30.7477429805 -1.7100019986
52.1484815018 -26.5023629616 -1.7100020043
54.7596383263 -31.1026299930 -1.7100020101
52.2275397206 -26.5092952380 -1.7100020101
54.3361429782 -28.4212941376 -1.7100020159
52.2836584350 -26.5074259883 -1.7100020159
52.2720371690 -26.5022892757 -1.7100020159
54.4489595071 -28.5927881064 -1.7100020216
52.3400560910 -26.5063384601 -1.7100020216
52.5333228001 -26.4920975312 -1.7100020447
52.5216550974 -26.4862223333 -1.7100020447
52.6836351585 -26.4890109617 -1.7100020620
54.5832150918 -28.4262630237 -1.7100020677
54.1493681788 -27.7227777401 -1.7100020677
52.7185962089 -26.4805804757 -1.7100020677
55.1176442132 -30.7206101878 -1.7100020850
53.0025230821 -26.4789197841 -1.7100021023
53.0751711044 -26.4675769254 -1.7100021138
53.1117247248 -26.4623439073 -1.7100021196
53.2829712270 -26.4605223520 -1.7100021427
53.5205935030 -26.4527459495 -1.7100021772
52.8541048093 -30.5717111512 -1.7100009918
53.1054484450 -30.2820408465 -1.7100009918
53.1323211631 -29.9947275525 -1.7100009918
54.6731831978 -30.3025610826 -1.7100009918
54.3385754791 -29.0940480482 -1.7100009918
54.1519481488 -28.7317783300 -1.7100009918
54.3142846972 -28.8773552724 -1.7100009918
54.0310448861 -28.4072544985 -1.7100009918
54.0448492053 -28.2606003240 -1.7100009918
54.8873582727 -30.5432620980 -1.7100009918
54.9004011815 -31.1478287803 -1.7100009918
51.2189137582 -26.5100488442 -1.7100009918
51.2063187429 -26.5083739621 -1.7100009918
51.1685047412 -26.5035729667 -1.7100009918
54.8739958697 -29.8812395052 -1.7100009918
51.2221356696 -26.4860914952 -1.7100009918
51.4157391009 -26.4920515155 -1.7100009918
51.4030899851 -26.4897944671 -1.7100009918
51.3777720000 -26.4853926746 -1.7100009918
51.3270601188 -26.4770388386 -1.7100009918
51.5341781885 -26.4903774111 -1.7100009918
51.4961915669 -26.4826675557 -1.7100009918
51.4835143396 -26.4801725555 -1.7100009918
51.4581380205 -26.4752951139 -1.7100009918
51.4454391507 -26.4729127152 -1.7100009918
51.4327332889 -26.4705678924 -1.7100009918
51.5772179972 -26.4748001635 -1.7100009918
51.6842029776 -26.4745314132 -1.7100009918
54.2508742916 -28.1739402630 -1.7100009918
51.7536027094 -26.4669405015 -1.7100009918
51.7281433780 -26.4604653580 -1.7100009918
51.9644312273 -26.4509279715 -1.7100009918
51.3744740414 -26.2643032247 -1.7100009918
52.1275757635 -26.4274615834 -1.7100009918
52.1018763164 -26.4187745806 -1.7100009918
52.1997415804 -26.4270838157 -1.7100009918
52.1740386353 -26.4179698623 -1.7100009918
52.2722408162 -26.4278964214 -1.7100009918
51.5613658588 -26.2245319692 -1.7100009918
52.3667582433 -26.4124709011 -1.7100009918
52.4273088581 -26.4107560570 -1.7100009918
51.6352619052 -26.1411200524 -1.7100009918
51.7226771230 -26.1358530599 -1.7100009918
51.9537411896 -26.1454395376 -1.7100009918
52.9805308936 -26.3768046063 -1.7100009918
52.9414794217 -26.3562636543 -1.7100009918
52.5233903149 -26.1366787151 -1.7100009918
53.1062932819 -26.3627624079 -1.7100009918
52.8353361630 -26.0615430159 -1.7100009918
52.8659239532 -25.9957904142 -1.7100009918
53.5979119407 -26.3231569059 -1.7100009918
53.3563080328 -25.9486721226 -1.7100009918
53.5617471151 -25.9566962001 -1.7100009918
53.0128033420 -25.2145017474 -1.7100009918
56.6734650762 -32.4333632793 -1.7100009918
56.7814369904 -32.4047514738 -1.7100009918
52.6186257556 -30.6809254919 -1.7100008726
52.7615678953 -30.6557057189 -1.7100008726
53.5683047466 -29.3971103341 -1.7100008726
54.5031638716 -29.5966487899 -1.7100008726
53.9337671915 -28.5348402119 -1.7100008726
54.5389247092 -29.3732591639 -1.7100008726
53.7396599955 -28.2085422265 -1.7100008726
54.8864644144 -30.3104321365 -1.7100008726
53.6045061681 -27.9782218486 -1.7100008726
53.8518730354 -28.1856284504 -1.7100008726
53.6994118258 -27.9668142053 -1.7100008726
55.0643149534 -30.7261461356 -1.7100008726
55.0102569058 -30.0792220656 -1.7100008726
54.3980521316 -28.5898267661 -1.7100008726
54.6409172963 -28.6500878336 -1.7100008726
50.7159047209 -26.5169533866 -1.7100008726
50.6754396224 -26.5179481756 -1.7100008726
50.5945438763 -26.5210148448 -1.7100008726
50.5810670944 -26.5216655291 -1.7100008726
50.7154178692 -26.4927852617 -1.7100008726
50.6611806286 -26.4941988969 -1.7100008726
50.6205157517 -26.4956802276 -1.7100008726
51.0284568920 -26.4729683650 -1.7100008726
50.9875891432 -26.4711911610 -1.7100008726
50.9467072320 -26.4697767053 -1.7100008726
51.1253988829 -26.4544088575 -1.7100008726
51.0980439486 -26.4526105392 -1.7100008726
51.0706788537 -26.4509740934 -1.7100008726
51.0159220135 -26.4481870425 -1.7100008726
50.7281487844 -26.4441932191 -1.7100008726
50.6185414154 -26.4473745020 -1.7100008726
50.5911537344 -26.4485750458 -1.7100008726
51.3191726634 -26.4474966338 -1.7100008726
51.2506431457 -26.4404391340 -1.7100008726
50.7966220953 -26.4193494559 -1.7100008726
50.7690654920 -26.4194969051 -1.7100008726
51.3631048695 -26.4282150090 -1.7100008726
51.3080582617 -26.4219694310 -1.7100008726
51.2805082081 -26.4190910062 -1.7100008726
51.2391524025 -26.4150791098 -1.7100008726
51.4488193724 -26.4148558045 -1.7100008726
51.4350248151 -26.4129798518 -1.7100008726
51.4074193539 -26.4093504076 -1.7100008726
51.5766325998 -26.4097216588 -1.7100008726
51.4798259481 -26.3948022785 -1.7100008726
51.5527933205 -26.3813800757 -1.7100008726
50.9088995340 -26.3237197578 -1.7100008726
51.6263039282 -26.3690971934 -1.7100008726
51.7142960903 -26.3606277950 -1.7100008726
51.5041896180 -26.3250582026 -1.7100008726
51.8168133003 -26.3567704405 -1.7100008726
51.7748833157 -26.3480015913 -1.7100008726
51.5076947967 -26.3011406567 -1.7100008726
51.9059035321 -26.3518771500 -1.7100008726
51.8499156601 -26.3392142701 -1.7100008726
51.7421429058 -26.2921553542 -1.7100008726
51.1131875010 -26.2113550708 -1.7100008726
52.0154242868 -26.3287736193 -1.7100008726
50.7086019446 -26.1544315142 -1.7100008726
52.1263675427 -26.3081995474 -1.7100008726
51.5686376445 -26.1881127148 -1.7100008726
50.9569082748 -26.1315080930 -1.7100008726
52.2176537164 -26.3091726813 -1.7100008726
50.6488160501 -26.1076281408 -1.7100008726
52.2810997398 -26.3030908431 -1.7100008726
52.2245083395 -26.2859918827 -1.7100008726
51.0469747068 -26.0866434722 -1.7100008726
50.9435920100 -26.0827603552 -1.7100008726
52.3731348436 -26.3070238812 -1.7100008726
52.3307414790 -26.2933199493 -1.7100008726
51.9875589061 -26.1973361536 -1.7100008726
51.5504272027 -26.1119754907 -1.7100008726
52.4450839677 -26.2801257437 -1.7100008726
51.6759915365 -26.0833080714 -1.7100008726
51.8133942652 -26.0844933379 -1.7100008726
51.1283310533 -25.9700996024 -1.7100008726
51.0225177788 -25.9645569214 -1.7100008726
51.3722550308 -25.9669590440 -1.7100008726
50.7498405573 -25.9362018940 -1.7100008726
50.6434065470 -25.9385034350 -1.7100008726
50.9481921793 -25.9136117008 -1.7100008726
51.6209761830 -25.9516409355 -1.7100008726
51.8009867861 -25.9095959112 -1.7100008726
52.1014855472 -25.9266616457 -1.7100008726
52.0307087023 -25.8845611485 -1.7100008726
51.6631444658 -25.7870273767 -1.7100008726
51.7455041423 -25.7764539959 -1.7100008726
51.7969295913 -25.7612195291 -1.7100008726
52.9144285735 -25.8357674307 -1.7100008726
52.6878701369 -25.7246718009 -1.7100008726
52.4110932078 -25.5346235028 -1.7100008726
54.0418589843 -26.2698274528 -1.7100008726
56.5925208777 -31.6987916925 -1.7100008726
53.1933493259 -25.7441099045 -1.7100008726
56.7465724922 -31.1155929182 -1.7100008726
56.6499562335 -32.2718462915 -1.7100008726
56.6734419965 -32.1506228320 -1.7100008726
56.6827379544 -32.0985259737 -1.7100008726
56.7911502022 -31.2929745164 -1.7100008726
56.7923323791 -32.1723819444 -1.7100008726
52.7377848677 -30.5948309803 -1.7100009918
52.7355297943 -30.5897542321 -1.7100009918
52.8297841694 -30.1169474806 -1.7100009918
52.9338914368 -30.2362126931 -1.7100009918
53.1979971993 -29.7586502267 -1.7100009918
53.2820758028 -29.4361984952 -1.7100009918
53.3922042162 -29.4947346104 -1.7100009918
54.5135594244 -29.3952220110 -1.7100009918
54.4106490189 -29.2221096159 -1.7100009918
54.6230167320 -29.4444566509 -1.7100009918
54.8325794274 -29.8404839194 -1.7100009918
54.5307101581 -29.2325919573 -1.7100009918
53.6681200015 -28.2217731637 -1.7100009918
53.4294064310 -28.0347102958 -1.7100009918
53.5702034735 -28.1107754913 -1.7100009918
54.7644347489 -29.5639594158 -1.7100009918
54.5909975473 -29.2391835559 -1.7100009918
53.3370493858 -27.9111941306 -1.7100009918
54.6731567707 -29.3340148446 -1.7100009918
53.9694684075 -28.4002386319 -1.7100009918
54.8783457848 -29.5791048022 -1.7100009918
55.0281448849 -29.6798596185 -1.7100009918
52.8339673564 -27.0643834709 -1.7100009918
50.6285117521 -26.4223224019 -1.7100009918
50.6139228728 -26.4235035216 -1.7100009918
50.5264687764 -26.4314960304 -1.7100009918
50.3665603078 -26.4501748201 -1.7100009918
50.3520549671 -26.4521307177 -1.7100009918
50.2651501985 -26.4647663958 -1.7100009918
50.2362334699 -26.4693208127 -1.7100009918
50.2217853367 -26.4716621568 -1.7100009918
50.2073441929 -26.4740462309 -1.7100009918
50.1784833787 -26.4789424851 -1.7100009918
50.1640639608 -26.4814546224 -1.7100009918
50.0777092488 -26.4974221798 -1.7100009918
50.6852705226 -26.3939116131 -1.7100009918
50.6265967193 -26.3982253496 -1.7100009918
50.5972799856 -26.4006424920 -1.7100009918
50.5826271098 -26.4019160958 -1.7100009918
50.5533329814 -26.4045933126 -1.7100009918
50.5240552050 -26.4074437965 -1.7100009918
50.4655528068 -26.4136641602 -1.7100009918
50.4509390278 -26.4153273798 -1.7100009918
50.3050964387 -26.4343342479 -1.7100009918
50.2614599356 -26.4408767068 -1.7100009918
50.0586687406 -26.4765159268 -1.7100009918
50.9937574961 -26.3584968407 -1.7100009918
50.9789782111 -26.3585977767 -1.7100009918
50.9198659968 -26.3594386995 -1.7100009918
50.7574049370 -26.3653567339 -1.7100009918
50.6983882093 -26.3688189416 -1.7100009918
50.6394165796 -26.3729792201 -1.7100009918
50.5952224200 -26.3765571914 -1.7100009918
50.4041460563 -26.3965879301 -1.7100009918
51.1272802693 -26.3353882491 -1.7100009918
51.0975830075 -26.3348442792 -1.7100009918
51.0530323798 -26.3343577822 -1.7100009918
50.9639269441 -26.3345709382 -1.7100009918
50.9342277057 -26.3349934358 -1.7100009918
50.7116514336 -26.3437606798 -1.7100009918
50.5783694993 -26.3537578786 -1.7100009918
50.1076654388 -26.4179365455 -1.7100009918
49.9330342373 -26.4534434269 -1.7100009918
