41.3252968829 2.6998554720 -3.5008025169
41.3125271450 2.6418399916 -3.5008025169
47.5168940431 -3.6580667689 -3.5008025169
47.6098633843 -3.6342546162 -3.5008025169
47.6160687681 -3.6576175890 -3.5008025169
47.8475455889 -3.5906041355 -3.5008025169
47.9622119787 -3.5787410304 -3.5008025169
47.9699236169 -3.6016509828 -3.5008025169
47.9930581374 -3.6193440841 -3.5008025169
48.2858623352 -3.5625703148 -3.5008025169
47.8396567516 -3.8457745445 -3.5008025169
47.9199017446 -3.8212513010 -3.5008025169
44.8786244748 0.2498147591 -3.4996075281
44.9896441761 0.1235453408 -3.4996075397
44.9845545102 0.0434439356 -3.4996075570
44.9896915210 0.0406637331 -3.4996075570
45.0624502857 0.0033486030 -3.4996075570
44.9878777485 -0.0131257242 -3.4996075685
41.4803760047 2.1768188513 -3.4996081506
41.4759753096 2.1241769708 -3.4996081506
41.4697739686 2.0319416893 -3.4996081506
41.4670255159 2.2846533576 -3.4996081563
45.0208414881 0.2044123911 -3.5001811053
44.9036907651 0.1705807614 -3.5001811399
45.4511898654 0.0170991511 -3.5001811514
44.2513016572 0.5416434738 -3.5001811629
44.4226495874 0.3915490996 -3.5001811629
45.1060045284 0.0022554225 -3.5001811860
45.1798345540 -0.0154767973 -3.5001811860
45.1912514311 -0.0179523260 -3.5001811860
45.0542817969 -0.0086671567 -3.5001811975
44.9846524896 -0.0127787385 -3.5001812090
45.0074824295 -0.0199718802 -3.5001812090
45.0822398695 -0.0414755383 -3.5001812090
45.1461032003 -0.0574147427 -3.5001812090
44.8125808760 0.0250734208 -3.5001812206
45.0818585149 -0.0663839178 -3.5001812206
45.1170710261 -0.0753385292 -3.5001812206
44.8032357919 0.0027798189 -3.5001812321
44.8543703380 -0.0178589718 -3.5001812321
44.8658070051 -0.0222600144 -3.5001812321
44.9002704279 -0.0350560967 -3.5001812321
44.9698513832 -0.0588033881 -3.5001812321
44.7370864347 0.0052916209 -3.5001812436
44.7540503196 -0.0023262904 -3.5001812436
44.6760270426 0.0073109370 -3.5001812551
44.6427040195 -0.0031825853 -3.5001812667
44.5976259809 -0.0072310990 -3.5001812782
41.4784266614 1.4618635472 -3.5001822234
41.4786090329 1.2756152207 -3.5001822349
41.4491937518 1.3087716827 -3.5001822464
41.4660089122 1.0715107009 -3.5001822580
41.4607361766 0.9807048151 -3.5001822695
41.4635121717 0.9684524830 -3.5001822695
41.4691728346 0.9439727227 -3.5001822695
41.4795120560 0.5510038746 -3.5001823156
45.0775812145 0.2171013990 -3.4999264106
45.0667412162 -0.0004721903 -3.4999265662
45.0465140019 -0.0226899415 -3.4999265835
45.1957157468 -0.0331618582 -3.4999265835
45.2316094359 -0.0340313558 -3.4999265835
45.2375929735 -0.0341143280 -3.4999265835
44.9001005793 -0.0260819721 -3.4999266007
44.9359151760 -0.0321992157 -3.4999266007
44.7640235882 -0.0217009506 -3.4999266180
44.9441597881 -0.0579824589 -3.4999266180
45.1879926035 -0.0812696499 -3.4999266180
45.2181014923 -0.1063150058 -3.4999266353
45.3420519197 -0.1052836490 -3.4999266353
44.5321055042 -0.0525117223 -3.4999266872
48.2714270940 -0.3906998727 -3.4999278802
41.5208089973 0.9466020592 -3.4999279148
41.5105643182 0.8109372636 -3.4999279494
41.5017856705 0.7591117601 -3.4999279666
41.5052342804 0.6735179308 -3.4999279839
41.4943090215 0.6320369346 -3.4999280012
44.7597191716 0.2295583389 -3.5000156835
44.8284405910 -0.0170265187 -3.5000157411
44.8403996926 -0.0174934256 -3.5000157411
44.8942411986 -0.0187186462 -3.5000157411
44.9301454119 -0.0187389589 -3.5000157411
44.9660443303 -0.0181220339 -3.5000157411
45.1272208826 -0.0074699737 -3.5000157411
44.7367861187 -0.0353541829 -3.5000157468
44.9969350577 -0.0412741481 -3.5000157468
45.0271776692 -0.0398139812 -3.5000157468
45.0634353472 -0.0374715908 -3.5000157468
45.0815471680 -0.0360591645 -3.5000157468
45.1117033927 -0.0333481222 -3.5000157468
44.7530209935 -0.0609411785 -3.5000157526
44.9611787067 -0.0666022595 -3.5000157526
45.2052926880 -0.0464751815 -3.5000157526
45.1163882255 -0.0814666578 -3.5000157584
45.2087000250 -0.0704068621 -3.5000157584
45.3663379339 -0.0665274346 -3.5000157641
41.5936979861 0.1805269788 -3.5000161618
48.3902355534 -0.2173218548 -3.5000162425
44.5277307777 0.1294681979 -3.5000132959
44.6467672845 0.1308092323 -3.5000132959
44.8298857449 0.1480906950 -3.5000132959
44.7080335088 0.1102807452 -3.5000132700
44.8588115210 0.1035748155 -3.5000132441
45.1607038571 0.1771475781 -3.5000132441
45.1764895952 0.1824896193 -3.5000132441
44.2367037630 0.0608312763 -3.5000131922
44.7759721478 0.0437693790 -3.5000131922
44.7696092296 -0.0055255116 -3.5000131403
44.8565332634 0.0054106607 -3.5000131403
44.7485549132 -0.0318622253 -3.5000131144
44.8425251348 -0.0210266357 -3.5000131144
44.8542322693 -0.0193598218 -3.5000131144
44.6791425680 -0.0611998148 -3.5000130885
44.7745785826 -0.0536154966 -3.5000130885
44.8399335688 -0.0457854878 -3.5000130885
44.8754641966 -0.0406195002 -3.5000130885
44.8931937276 -0.0378002256 -3.5000130885
44.9285742425 -0.0316902249 -3.5000130885
44.9462224398 -0.0283999800 -3.5000130885
44.9697066279 -0.0237696072 -3.5000130885
44.9872829144 -0.0201146474 -3.5000130885
45.7087727725 0.2889348413 -3.5000130885
44.7770632591 -0.0776604891 -3.5000130625
45.0631054066 -0.0273908932 -3.5000130625
44.7978233475 -0.0997350045 -3.5000130366
44.8039111766 -0.0990421472 -3.5000130366
44.8646664940 -0.0911243290 -3.5000130366
45.1281815523 -0.0351058200 -3.5000130366
45.1634772332 -0.0248256376 -3.5000130366
44.9171286996 -0.1073308499 -3.5000130106
45.2371741543 -0.0521684089 -3.5000129847
45.3139851429 -0.0249021762 -3.5000129847
45.3198493446 -0.0226827463 -3.5000129847
45.4084638738 -0.0392554172 -3.5000129328
41.6801574660 0.0705785708 -3.5000115583
41.6625552254 0.0096156036 -3.5000115064
41.6741367249 -0.0075318887 -3.5000115064
41.6897394878 -0.0725006586 -3.5000114805
41.6866748387 -0.2318595728 -3.5000113768
48.4751369656 0.7142470216 -3.5000108581
48.4942885082 0.6179683120 -3.5000108062
48.4846593628 0.3837857947 -3.5000107284
48.4734498036 0.2935203172 -3.5000107024
48.4755985789 0.2376698340 -3.5000106765
48.4874146509 0.2047025992 -3.5000106506
48.4763527273 0.0115485460 -3.5000105728
48.5077947207 -0.2888286069 -3.5000103912
48.5156390410 -0.4188634135 -3.5000103134
44.6188407853 0.0651773981 -3.5000104810
45.3245083156 0.3552240566 -3.5000104147
44.6236016582 0.0167548881 -3.5000103485
44.9090173848 0.0756773386 -3.5000102822
44.2550990341 -0.0966864612 -3.5000101496
44.2724056133 -0.0964146447 -3.5000101496
44.7964971247 -0.0389075852 -3.5000100833
44.8466762493 -0.0232396195 -3.5000100833
44.8909159366 -0.0081954260 -3.5000100833
43.9316063465 -0.1222827795 -3.5000100171
44.8766232126 -0.0387343319 -3.5000100171
44.8989688045 -0.0309876747 -3.5000100171
44.9267693293 -0.0209334293 -3.5000100171
44.9654337729 -0.0061690598 -3.5000100171
44.9575575377 -0.0351644660 -3.5000099508
44.9798552233 -0.0264604063 -3.5000099508
45.1707680289 0.0067128260 -3.5000098182
45.1595367160 -0.0259347455 -3.5000097520
45.2149498697 -0.0249097495 -3.5000096857
45.3982750114 0.0253532069 -3.5000095531
45.4297820247 -0.0118851481 -3.5000094206
45.5337573102 -0.0003180586 -3.5000092880
41.8064588916 -0.4242581387 -3.5000063718
48.4932786581 1.3062815706 -3.5000037207
48.5030314752 1.2019789997 -3.5000036544
48.5068117842 1.2272526115 -3.5000036544
48.5104424999 1.2525481466 -3.5000036544
48.5148148103 0.9911390307 -3.5000035218
48.5294469999 1.0672670930 -3.5000035218
48.5279493240 0.9354832404 -3.5000034556
48.5374622950 0.8666592493 -3.5000033893
48.5297802069 0.7336824840 -3.5000033230
48.5179777918 0.6003019181 -3.5000032567
48.5531717462 0.7275856675 -3.5000032567
48.6643986038 1.3109280980 -3.5000032567
48.5298268372 0.5553339527 -3.5000031904
48.5485582816 0.6190258580 -3.5000031904
48.3949359079 0.1088692947 -3.5000031242
48.6317088312 0.8450501094 -3.5000031242
40.9160451625 -1.2416526172 -3.5000030579
48.7330385595 1.2754803056 -3.5000030579
48.4678348827 -0.0860052587 -3.5000027265
44.4787853679 -0.0253890208 -3.5000133219
44.8293010254 0.1309294490 -3.5000133219
44.6877731197 0.0302863384 -3.5000132959
45.0433115049 0.2459363260 -3.5000132959
45.0475850304 0.2492570533 -3.5000132959
44.3890825771 -0.1268355056 -3.5000132441
44.7587551774 -0.0162900144 -3.5000132181
44.7642560905 -0.0405002579 -3.5000131922
45.4014111883 0.4576286093 -3.5000131922
44.8619321633 -0.0172029298 -3.5000131663
44.9120824358 0.0113194209 -3.5000131663
44.9444082772 0.0024548354 -3.5000131403
45.2720622767 0.1849672389 -3.5000130885
45.0836575191 0.0060792556 -3.5000130625
45.0936130970 0.0129762358 -3.5000130625
45.1914027609 0.0244064790 -3.5000130106
45.1402249345 -0.0429194149 -3.5000129847
45.2957182506 0.0143510045 -3.5000129328
45.4220933348 0.0272919387 -3.5000128550
48.5053381282 1.8523748671 -3.5000103394
48.5048443702 1.8659298664 -3.5000103394
48.5017742390 1.9336796918 -3.5000103394
48.5309549781 1.5805527110 -3.5000103134
48.5278864093 1.8940937627 -3.5000103134
48.5554327649 1.5936704500 -3.5000102875
48.5561872807 1.7444390275 -3.5000102875
48.5531557276 1.8677612246 -3.5000102875
48.5677268978 1.3454565896 -3.5000102616
48.5696972926 1.3729430530 -3.5000102616
48.5715050338 1.4004406929 -3.5000102616
48.5765503683 1.4967565476 -3.5000102616
48.5806535893 1.6895983795 -3.5000102616
48.5761860863 1.8962109150 -3.5000102616
48.5717746223 1.1368941268 -3.5000102356
48.5896887852 1.3160399274 -3.5000102356
48.5990410384 1.9249392229 -3.5000102356
48.5902676526 0.9233663689 -3.5000101838
48.6071547867 1.0340270102 -3.5000101838
48.6180990445 1.1172677942 -3.5000101838
48.6389822483 1.3261046942 -3.5000101838
48.6483975978 1.4797331393 -3.5000101838
48.6523799751 1.6056038318 -3.5000101838
48.5996644514 0.8362982250 -3.5000101578
48.6571212995 1.2541646651 -3.5000101578
48.6772465217 1.6614146527 -3.5000101578
48.6773169064 1.6754790236 -3.5000101578
48.5899487146 0.6656622581 -3.5000101319
48.5988752340 0.7071201800 -3.5000101319
48.6966948422 1.4775612026 -3.5000101319
48.6948901847 1.9438624979 -3.5000101319
48.5093125765 0.1116171928 -3.5000100541
48.5160237747 2.3503312300 -3.5000252859
48.6126642935 1.6972324724 -3.5000253349
48.5738191508 2.1366177257 -3.5000253349
48.5613802073 2.2239842640 -3.5000253349
48.5372093736 2.3690604255 -3.5000253349
44.6918392559 -0.0139587803 -3.5000199301
44.8117859133 0.0852779383 -3.5000199935
44.8284420129 0.1061488664 -3.5000199935
44.8888731567 0.1876447672 -3.5000199935
44.5252140436 -0.2278142241 -3.5000200569
44.7653230512 -0.0770362418 -3.5000201837
44.9580111604 0.0767706464 -3.5000203105
44.9566253971 0.0347479696 -3.5000203739
45.1660487123 0.3207318417 -3.5000204373
42.4416353816 -3.5812317614 -3.5000281082
42.7704112974 -3.6358912007 -3.5000281082
42.9143691293 -3.6526560587 -3.5000281082
42.9287908029 -3.6540981653 -3.5000281082
43.0298531284 -3.6629975417 -3.5000281082
42.0969189729 -3.5238036280 -3.5000281716
42.2378561907 -3.5605377699 -3.5000281716
42.6087788750 -3.6363926787 -3.5000281716
42.6375355539 -3.6410424829 -3.5000281716
42.7528222552 -3.6579380062 -3.5000281716
42.8106074701 -3.6653615027 -3.5000281716
42.1895034712 -3.5733827245 -3.5000282350
42.1408309954 -3.5857442707 -3.5000282984
42.0954394702 -3.6987468330 -3.5000286154
48.6427056628 2.4808809376 -3.5000293761
48.6006560459 2.8175706784 -3.5000295029
48.5969574462 2.9859918764 -3.5000296297
48.5917159349 3.0013308469 -3.5000296297
41.7521917630 -4.2038822976 -3.5000301369
44.9651467777 0.1093545132 -3.5000157180
45.0049232012 0.0254160849 -3.5000157353
44.9633343039 -0.1009698619 -3.5000157411
42.6915436496 -3.5058874031 -3.5000163232
42.9282206396 -3.5277876053 -3.5000163232
43.1521513887 -3.5610472170 -3.5000163289
43.3119649522 -3.5848341297 -3.5000163347
43.4197622422 -3.6055698881 -3.5000163405
43.5166865104 -3.6487297024 -3.5000163520
43.8270852718 -3.6180456101 -3.5000163520
43.7654765713 -3.6745227712 -3.5000163635
44.6554093764 -0.2903067971 -3.5000133219
44.8406500912 0.1745383693 -3.5000133219
44.8443921374 0.1901168080 -3.5000133219
44.5612867035 -0.5198567639 -3.5000132700
44.8432058811 0.0103904914 -3.5000132700
44.5496738390 -0.5738633728 -3.5000132441
44.9409130153 0.3042385950 -3.5000132441
44.4584347129 -0.7487148690 -3.5000131922
44.9963658327 0.1003223765 -3.5000131403
44.9916679292 -0.0023474820 -3.5000131144
45.0241875766 0.1113273240 -3.5000131144
45.0339731719 0.1515413505 -3.5000131144
45.0128780665 -0.0153800201 -3.5000130885
45.0269950307 0.0303629669 -3.5000130885
45.0286834205 0.0361039552 -3.5000130885
45.0320092147 0.0476007898 -3.5000130885
45.0533773903 0.1286013206 -3.5000130885
44.9954203238 -0.1369133635 -3.5000130625
44.9973142791 -0.1967962693 -3.5000130366
45.0223559162 -0.1342257780 -3.5000130366
45.0089494619 -0.2900368693 -3.5000129847
45.0004199332 -0.3629923089 -3.5000129588
45.0388148807 -0.2829475936 -3.5000129588
44.9977819027 -0.4706104623 -3.5000129069
43.4018303720 -3.5099499366 -3.5000108321
43.4139987585 -3.5090009889 -3.5000108321
43.6388272326 -3.5336967932 -3.5000107803
43.6510648296 -3.5320466620 -3.5000107803
43.6632974917 -3.5303603370 -3.5000107803
43.6877475829 -3.5268791650 -3.5000107803
43.6666340434 -3.5543019891 -3.5000107543
43.7893723908 -3.5353423215 -3.5000107543
43.6199783861 -3.6823601739 -3.5000106246
44.2581453578 -3.5535866973 -3.5000106246
44.7881262252 -0.0571147415 -3.5000141827
44.7353442090 -0.4184770133 -3.5000141539
45.0040574015 0.1079394181 -3.5000140675
45.0053518458 0.1256298849 -3.5000140675
45.0206469062 0.0286431556 -3.5000140530
45.0271962595 0.0941388748 -3.5000140530
45.0276859075 0.1001029214 -3.5000140530
45.0336327335 0.2136304947 -3.5000140530
45.0337688755 0.2196130587 -3.5000140530
45.0238542969 -0.1118428446 -3.5000140386
45.0340501883 -0.0521533665 -3.5000140386
45.0367641852 -0.0341904263 -3.5000140386
45.0124852089 -0.2716075199 -3.5000140242
45.0328887708 -0.1882959094 -3.5000140242
45.0441766036 -0.1343210419 -3.5000140242
45.0814376960 0.1940853246 -3.5000140242
45.0823284193 0.2308368394 -3.5000140242
45.0042050422 -0.3848256675 -3.5000140098
45.0135633784 -0.3552793910 -3.5000140098
45.0171841775 -0.3434226666 -3.5000140098
45.0224836901 -0.3255979330 -3.5000140098
45.0509407757 -0.2177260204 -3.5000140098
45.0348035659 -0.3683964060 -3.5000139954
45.0385015978 -0.3564137879 -3.5000139954
45.0623940648 -0.2719523091 -3.5000139954
45.0436726338 -0.4920253944 -3.5000139666
45.0630420821 -0.4376558165 -3.5000139666
45.1749118003 0.8444925602 -3.5000139234
43.9474678757 -3.4821700015 -3.5000129580
44.0311533876 -3.4853085293 -3.5000129436
44.0931665722 -3.4930434554 -3.5000129292
44.1153675457 -3.4865771915 -3.5000129292
44.1778698139 -3.4929228948 -3.5000129148
45.4656651968 3.3661956279 -3.5000129004
44.5612619884 -3.5089056869 -3.5000128283
44.8608014315 0.1339543650 -3.5000154826
45.0127772995 -0.2432495838 -3.5000154999
45.0180981225 -0.1416696061 -3.5000154999
45.0187556237 -0.1057714079 -3.5000154999
45.0188454178 -0.0878193462 -3.5000154999
45.0187758938 -0.0698671946 -3.5000154999
45.0185470573 -0.0519163670 -3.5000154999
45.0181589263 -0.0339682770 -3.5000154999
45.0146372893 0.0437406687 -3.5000154999
45.0115040946 0.0855113809 -3.5000154999
45.0247542467 -0.3595216738 -3.5000155028
45.0319366850 -0.2993951191 -3.5000155028
45.0337442618 -0.2813184583 -3.5000155028
45.0416877779 -0.1604844730 -3.5000155028
45.0426754932 -0.1241646379 -3.5000155028
45.0423237471 -0.0333384207 -3.5000155028
45.0401786245 0.0211183465 -3.5000155028
45.0345227955 0.0996331532 -3.5000155028
45.0295432494 0.1478204059 -3.5000155028
45.0667232027 -0.1307332393 -3.5000155057
45.0654638656 -0.0020903277 -3.5000155057
45.0620565539 0.0590839370 -3.5000155057
45.0606816441 0.0774137784 -3.5000155057
45.0591441214 0.0957306964 -3.5000155057
45.0562205562 0.1262262568 -3.5000155057
45.0542500258 0.1445016630 -3.5000155057
45.0326656666 0.2899288866 -3.5000155057
45.0586538190 0.2821269441 -3.5000155086
45.0575538041 0.2882271962 -3.5000155086
45.0652147285 0.3724486671 -3.5000155115
45.0772394831 0.4270788956 -3.5000155143
44.4396923032 -3.4571428596 -3.5000156959
44.6787901279 -3.4257703298 -3.5000157045
44.9474295571 3.3831066110 -3.5000157334
44.9124558395 -0.2735203241 -3.5000157065
45.0865182958 -0.3437133928 -3.5000157468
45.0688883362 -0.1508097378 -3.5000157468
45.0334134775 0.1340687953 -3.5000157526
45.0923065177 -0.0037106302 -3.5000157584
45.0514879190 0.1585528013 -3.5000157584
45.0108632593 0.2822006554 -3.5000157584
45.0799099072 0.1473135357 -3.5000157641
44.4745642056 3.4614559776 -3.5000162483
44.8925743606 -0.3083553380 -3.5000152588
44.8101118291 -0.0658623758 -3.5000152588
44.8257273602 0.0180547145 -3.5000152588
45.0232417177 -0.1533305650 -3.5000152588
45.1248832877 -1.0508539495 -3.5000152588
45.0188753569 -0.0676953977 -3.5000152588
44.9596162362 0.0741105896 -3.5000152588
45.0430458073 0.0655315772 -3.5000152588
45.0355839007 0.0823301906 -3.5000152588
45.0175952170 0.1212645826 -3.5000152588
45.1968424572 -1.1988527355 -3.5000152588
45.0120290922 0.1872271846 -3.5000152588
45.0006090033 0.2092350147 -3.5000152588
44.9977133542 0.2147157377 -3.5000152588
44.9299567700 0.3330342939 -3.5000152588
45.0306876177 0.2038121498 -3.5000152588
44.9842940120 0.3367426957 -3.5000152588
45.0017080181 0.3546803024 -3.5000152588
44.9883072687 0.3765542860 -3.5000152588
43.7980213945 3.5030240899 -3.5000152588
43.9030899851 3.5102131027 -3.5000152588
44.0468250063 3.5069853303 -3.5000152588
44.1025951605 3.5196254389 -3.5000152588
44.2222543993 3.5160974850 -3.5000152588
44.7833449154 3.4125407408 -3.5000152588
44.4573711751 3.5259605381 -3.5000152588
44.5026810813 3.5372131287 -3.5000152588
44.9191281575 -0.3181015443 -3.5000152588
44.9455194983 -0.3174770428 -3.5000152588
44.7887310275 -0.0446245202 -3.5000152588
44.9266542957 -0.2248502504 -3.5000152588
44.6959182655 0.1146053251 -3.5000152588
45.0223202765 -0.3724957761 -3.5000152588
44.8125444172 0.0053992661 -3.5000152588
45.1059793570 -0.5359942480 -3.5000152588
44.8256528403 0.0285152831 -3.5000152588
45.1557152624 -0.6267423674 -3.5000152588
45.2058780548 -0.7493049473 -3.5000152588
45.1764698168 -0.6099546906 -3.5000152588
45.1349194088 -0.3948261411 -3.5000152588
45.0059766406 -0.1178986246 -3.5000152588
44.5972787853 0.3861643189 -3.5000152588
45.2809033939 -1.0023015123 -3.5000152588
44.9945203684 -0.0505894918 -3.5000152588
44.9822561245 -0.0307028921 -3.5000152588
45.3052743114 -1.0072944825 -3.5000152588
44.9739583168 0.0268535325 -3.5000152588
45.0200765082 -0.0000122831 -3.5000152588
44.9941095929 0.0402049876 -3.5000152588
44.9907970213 0.0451886083 -3.5000152588
44.9807710552 0.0600803707 -3.5000152588
45.0469563213 0.0025878504 -3.5000152588
44.8844117146 0.2285403345 -3.5000152588
45.0099025652 0.1859924077 -3.5000152588
44.9872168514 0.2160032815 -3.5000152588
44.9756751420 0.2308565454 -3.5000152588
44.2526325537 0.8202395356 -3.5000152588
45.0102316823 0.2257200680 -3.5000152588
44.9709525959 0.2755048131 -3.5000152588
44.9727117759 0.4221013125 -3.5000152588
43.0810670944 3.4783304178 -3.5000152588
43.3103595834 3.5081400045 -3.5000152588
43.2018570502 3.5069174445 -3.5000152588
43.0798656221 3.5024735689 -3.5000152588
43.4603359106 3.5297880692 -3.5000152588
43.2967377650 3.5323005734 -3.5000152588
43.1059052994 3.5278915905 -3.5000152588
43.6390722405 3.5446272475 -3.5000152588
43.5569927953 3.5497793561 -3.5000152588
43.8768546732 3.5701178041 -3.5000152588
43.1719330667 3.6028620341 -3.5000152588
44.1318053271 3.5808499562 -3.5000152588
44.0766325998 3.5902742881 -3.5000152588
43.9659719331 3.6071612564 -3.5000152588
43.8410411686 3.6230229921 -3.5000152588
43.7853897856 3.6290039150 -3.5000152588
43.3384274968 3.6530795314 -3.5000152588
44.3703115044 3.5571000819 -3.5000152588
44.2051707539 3.5918911115 -3.5000152588
43.1417144478 3.6744513355 -3.5000152588
43.0714553154 3.6714756268 -3.5000152588
47.1250716155 -3.9517215842 -3.5000152588
44.4993273996 3.5505817268 -3.5000152588
44.3481382172 3.5868985337 -3.5000152588
44.9786047364 -0.3316247702 -3.5000152588
45.1187570464 -0.4642742824 -3.5000152588
45.1134616436 -0.4548339725 -3.5000152588
44.9226451179 -0.1793968780 -3.5000152588
45.1658475428 -0.5008027887 -3.5000152588
44.8757850226 -0.0899450306 -3.5000152588
44.7624430626 0.0215289930 -3.5000152588
45.3071127741 -0.7763704328 -3.5000152588
45.1500643245 -0.4213998332 -3.5000152588
44.5315304239 0.2278606323 -3.5000152588
45.3528078594 -0.8443527222 -3.5000152588
44.8800368632 -0.0244179096 -3.5000152588
44.4966895363 0.2778187975 -3.5000152588
44.4577879574 0.3004618038 -3.5000152588
44.9326874766 -0.0446418961 -3.5000152588
44.9660042938 -0.0452149500 -3.5000152588
44.1779451866 0.6095379804 -3.5000152588
42.8955880296 3.5536227478 -3.5000152588
42.6208511783 3.5107677336 -3.5000152588
43.1852705226 3.6061029304 -3.5000152588
43.0240552050 3.5925707470 -3.5000152588
42.9947948054 3.5895470959 -3.5000152588
42.9655528068 3.5863503833 -3.5000152588
42.9071281064 3.5794382275 -3.5000152588
42.7614599356 3.5591378367 -3.5000152588
42.7178832116 3.5522083860 -3.5000152588
42.4435064297 3.4993728718 -3.5000152588
42.4291522301 3.4961657251 -3.5000152588
43.2721651973 3.6354142290 -3.5000152588
43.2426469789 3.6338577300 -3.5000152588
42.8308824328 3.5937683400 -3.5000152588
42.5684972096 3.5500526573 -3.5000152588
43.3154713404 3.6615743247 -3.5000152588
43.0019686339 3.6632155275 -3.5000152588
42.6179480903 3.6085396805 -3.5000152588
42.5739386040 3.6003346973 -3.5000152588
42.7022747111 3.6476323831 -3.5000152588
48.6640633531 -2.9419845234 -3.5000152588
48.6113457910 -3.1767278519 -3.5000152588
48.6377389981 -3.1012327963 -3.5000152588
48.6530379275 -3.0557512906 -3.5000152588
45.0422277269 -0.3019191610 -3.5000152588
44.9435316777 -0.2120480076 -3.5000152588
45.3151964969 -0.5985459339 -3.5000152588
45.2665225587 -0.5269375724 -3.5000152588
45.0396922465 -0.2658570608 -3.5000152588
44.9508471586 -0.1866229856 -3.5000152588
44.7677809916 -0.0521299135 -3.5000152588
45.1222325148 -0.3142963548 -3.5000152588
45.0403844619 -0.2333195898 -3.5000152588
44.8933148152 -0.1101423309 -3.5000152588
44.8535004581 -0.0809825249 -3.5000152588
44.7483580179 -0.0113718712 -3.5000152588
45.2524702220 -0.4277665437 -3.5000152588
45.1841132324 -0.3098362979 -3.5000152588
45.4931596038 -0.7138608329 -3.5000152588
45.0517436723 -0.1457939211 -3.5000152588
44.7668197630 0.0622359258 -3.5000152588
44.5215079555 0.2904694220 -3.5000152588
45.3739973513 -0.3087441167 -3.5000152588
44.0979640058 0.5044122423 -3.5000152588
43.9922315062 0.5178364534 -3.5000152588
44.6693057813 0.3854145671 -3.5000152588
44.8186448296 0.3659669437 -3.5000152588
48.5738763560 -2.4686163498 -3.5000152588
48.5863331990 -2.3975906371 -3.5000152588
48.5886984275 -2.3833638199 -3.5000152588
48.5977381816 -2.3263884519 -3.5000152588
48.6100322083 -2.2407348205 -3.5000152588
48.6119333253 -2.2264385837 -3.5000152588
48.5438795056 -2.7282191680 -3.5000152588
48.5868802863 -2.5299322808 -3.5000152588
48.6555065134 -2.0567842413 -3.5000152588
48.5276733181 -2.8890378578 -3.5000152588
48.6240334404 -2.4629889844 -3.5000152588
48.6688256170 -2.1604689156 -3.5000152588
48.6781636770 -2.0735797459 -3.5000152588
48.5187861987 -3.0079852880 -3.5000152588
48.6136542428 -2.6395445690 -3.5000152588
48.5419466207 -3.0149084472 -3.5000152588
48.5704100940 -2.9159661782 -3.5000152588
48.6341397246 -2.6590370651 -3.5000152588
48.6636073601 -2.5149434139 -3.5000152588
48.6577483731 -2.6642300410 -3.5000152588
48.6362668716 -2.8571364330 -3.5000152588
42.3648813557 3.6031747417 -3.5000152588
42.4513579399 3.6508746072 -3.5000152588
42.1364290919 3.5862895119 -3.5000152588
42.2303226989 3.6655511365 -3.5000152588
41.7012267154 3.5059501556 -3.5000152588
42.1688670854 3.8742479631 -3.5000152588
45.2586259137 -0.4174296487 -3.5000152588
45.2745005664 -0.3991997095 -3.5000152588
45.1431041294 -0.2949730027 -3.5000152588
44.7553338376 -0.0813889149 -3.5000152588
44.6588961272 -0.0457410173 -3.5000152588
45.3591082345 -0.4439300526 -3.5000152588
44.7897120790 -0.0693726671 -3.5000152588
45.1848551403 -0.2655660138 -3.5000152588
45.0320626378 -0.1644079616 -3.5000152588
45.2572672389 -0.2905146316 -3.5000152588
44.6137795928 0.0698327907 -3.5000152588
45.1985025571 -0.1271777867 -3.5000152588
45.4460388241 -0.2933201541 -3.5000152588
44.9747229352 0.0588736172 -3.5000152588
45.0010325128 0.1267322445 -3.5000152588
44.5922011570 0.4254014619 -3.5000152588
44.6895319370 0.4252962829 -3.5000152588
43.9254826725 0.5051244017 -3.5000152588
48.5349703009 -1.9266897337 -3.5000152588
48.5357664753 -1.9002888694 -3.5000152588
48.5344519114 -2.2717483682 -3.5000152588
48.5550920211 -2.0203461695 -3.5000152588
48.5586709528 -1.9407598799 -3.5000152588
48.5613896033 -1.8212926903 -3.5000152588
48.5613047502 -1.7283486631 -3.5000152588
48.5611355181 -1.7150717855 -3.5000152588
48.5830096099 -1.6213115496 -3.5000152588
48.5808290088 -1.5679585275 -3.5000152588
48.6083955066 -1.6607113882 -3.5000152588
48.6076167787 -1.6338807708 -3.5000152588
48.6071678908 -1.6204673072 -3.5000152588
48.6330766727 -1.8759405755 -3.5000152588
48.6228009621 -1.4579463472 -3.5000152588
48.6070966821 -1.2832593230 -3.5000152588
48.6710271591 -1.4545441344 -3.5000152588
45.2810258423 -0.3393135057 -3.5000152588
44.8098961131 -0.1555948862 -3.5000152588
45.0883507320 -0.2193950183 -3.5000152588
45.0328885453 -0.1977673524 -3.5000152588
45.0023484628 -0.1867344269 -3.5000152588
44.7147375867 -0.1113171018 -3.5000152588
44.5995551657 -0.0703771643 -3.5000152588
45.6375933537 -0.5039988788 -3.5000152588
45.3310643684 -0.2843392831 -3.5000152588
45.1981501676 -0.2149282787 -3.5000152588
44.7777097822 -0.0741949672 -3.5000152588
45.6151424738 -0.4528923391 -3.5000152588
45.6461299373 -0.4157827953 -3.5000152588
44.8543704609 0.0077625618 -3.5000152588
44.8202107154 0.0155947430 -3.5000152588
45.7482701331 -0.4410038317 -3.5000152588
44.6988493789 0.1116923274 -3.5000152588
41.8622250435 0.9347573381 -3.5000152588
48.5162599450 -1.6955887529 -3.5000152588
48.5125957344 -1.6346727315 -3.5000152588
48.5108778388 -1.6103226174 -3.5000152588
48.5349857947 -1.6085501201 -3.5000152588
48.5277974679 -1.5229149107 -3.5000152588
48.5428514332 -1.4346777875 -3.5000152588
48.5320612515 -1.3489169898 -3.5000152588
48.5433762938 -1.2596370174 -3.5000152588
48.5332612224 -1.1983676208 -3.5000152588
48.5289616376 -1.1739028788 -3.5000152588
48.5710688857 -1.2805659006 -3.5000152588
48.6274364884 -1.5513668620 -3.5000152588
48.5365061066 -0.9684364777 -3.5000152588
48.6535981933 -1.5744925110 -3.5000152588
48.6374411452 -1.4110522790 -3.5000152588
48.5981065094 -1.1487052309 -3.5000152588
48.5911595933 -1.1114442543 -3.5000152588
48.5514809145 -0.9261446426 -3.5000152588
48.6796335298 -1.5979151364 -3.5000152588
48.6756070787 -1.5472516025 -3.5000152588
48.5471034757 -0.8096653274 -3.5000152588
48.5405039553 -0.7851254930 -3.5000152588
48.5303327413 -0.7483900239 -3.5000152588
48.5704655574 -0.8034565901 -3.5000152588
48.5430445421 -0.7049864432 -3.5000152588
48.7248524424 -1.5559402198 -3.5000152588
48.4183868479 -0.2737319366 -3.5000152588
48.3512329837 0.0512425267 -3.5000152588
48.3728834731 0.0619938798 -3.5000152588
48.0932085269 0.6323221527 -3.5000152588
45.1405477021 -0.2537430466 -3.5000152588
45.0216638487 -0.2303457666 -3.5000152588
44.8594493812 -0.2116982824 -3.5000152588
45.0571076887 -0.2118778449 -3.5000152588
44.9408780312 -0.1948443743 -3.5000152588
45.5188230206 -0.3344611157 -3.5000152588
44.9735474299 -0.1500987923 -3.5000152588
45.1027012395 -0.1466993864 -3.5000152588
45.1624248570 -0.1347496908 -3.5000152588
44.7890583272 -0.0873464264 -3.5000152588
45.8266815597 -0.4000804663 -3.5000152588
45.4345050713 -0.1930565652 -3.5000152588
45.3703378454 -0.1694453833 -3.5000152588
44.8864400249 -0.0682486957 -3.5000152588
45.3290176460 -0.1302058308 -3.5000152588
44.2526158545 -0.0496223843 -3.5000152588
45.9968287692 -0.4056910134 -3.5000152588
45.8340066305 -0.2031434091 -3.5000152588
44.2415720910 0.0721153314 -3.5000152588
45.7508349411 0.4089747103 -3.5000152588
43.6231713526 0.4704309177 -3.5000152588
46.3946513593 0.3531746206 -3.5000152588
41.7252907785 0.3075940400 -3.5000152588
48.4903257787 -1.0857961232 -3.5000152588
48.4876384665 -1.0746981052 -3.5000152588
48.4849183361 -1.0636080854 -3.5000152588
48.5138282370 -1.0801419446 -3.5000152588
48.4942065998 -1.0021417480 -3.5000152588
48.4853036940 -0.9688406396 -3.5000152588
41.7225718440 0.4986192763 -3.5000152588
48.5064579380 -0.8666434273 -3.5000152588
48.5031222619 -0.8554986464 -3.5000152588
48.4963520781 -0.8332389309 -3.5000152588
48.4894503169 -0.8110196596 -3.5000152588
48.5054376649 -0.7814663553 -3.5000152588
48.5018500241 -0.7703249652 -3.5000152588
48.4796335047 -0.7037039250 -3.5000152588
48.4626104156 -0.5850555900 -3.5000152588
48.5120377222 -0.5791693756 -3.5000152588
48.4993804717 -0.5457266820 -3.5000152588
48.3619103744 -0.2286944917 -3.5000152588
48.6755235016 -1.0289086781 -3.5000152588
48.6389794807 -0.8897446824 -3.5000152588
48.6278323772 -0.7675860834 -3.5000152588
41.6923084988 0.7594665624 -3.5000152588
48.3747912021 0.0094721307 -3.5000152588
48.5084138895 -0.1987372652 -3.5000152588
45.1677579761 -0.2005536215 -3.5000152588
45.4849668350 -0.2184420783 -3.5000152588
45.3144044867 -0.1887885367 -3.5000152588
45.1363930680 -0.1752343000 -3.5000152588
45.6906313619 -0.2515376866 -3.5000152588
45.4848757682 -0.1936629692 -3.5000152588
45.4149765707 -0.1796914237 -3.5000152588
44.6744297640 -0.1968035664 -3.5000152588
45.6529246776 -0.1882867120 -3.5000152588
45.5881242220 -0.1693335642 -3.5000152588
44.7187121750 -0.1379686457 -3.5000152588
44.6144629606 -0.1615853808 -3.5000152588
45.9299810956 -0.2722858049 -3.5000152588
45.7034743101 -0.1792946324 -3.5000152588
44.8919176932 -0.0634400610 -3.5000152588
44.4043810547 -0.1769237487 -3.5000152588
44.3469270970 -0.1733213788 -3.5000152588
45.2692388290 0.0348408105 -3.5000152588
44.6691459323 0.0493283208 -3.5000152588
48.4220442186 -0.5401802410 -3.5000152588
48.4348760414 -0.4510898336 -3.5000152588
48.4302673811 -0.4411920067 -3.5000152588
48.4209623229 -0.4214374692 -3.5000152588
48.4237161078 -0.3714721771 -3.5000152588
48.4858565216 0.2481167332 -3.5000152588
48.4582326557 0.4978626751 -3.5000152588
41.5906678428 0.5325976571 -3.5000152588
41.5615926872 0.8520250878 -3.5000152588
45.3237670932 -0.1807801881 -3.5000152588
45.2477706159 -0.1627962977 -3.5000152588
45.0736281177 -0.1894328563 -3.5000152588
45.6126839617 -0.1378718928 -3.5000152588
45.0423348408 -0.1713321781 -3.5000152588
44.9837811131 -0.1602277829 -3.5000152588
44.9625336813 -0.1656730912 -3.5000152588
44.7695041280 -0.2278302851 -3.5000152588
45.7001394381 -0.0997636940 -3.5000152588
44.5340871651 -0.3100295837 -3.5000152588
44.6959024275 -0.1791213124 -3.5000152588
44.5342640309 -0.2005880910 -3.5000152588
45.1106949547 0.0139369573 -3.5000152588
46.2581591080 -0.0850275145 -3.5000152588
44.2477616514 -0.2897719579 -3.5000152588
45.8303036473 0.0742743648 -3.5000152588
45.1751724634 0.1695866666 -3.5000152588
44.6184737830 0.0242800104 -3.5000152588
44.5286617069 0.0381473922 -3.5000152588
44.4786268765 0.0682853633 -3.5000152588
44.3590669721 0.4124607936 -3.5000152588
48.3198293738 -0.0705764329 -3.5000152588
48.3316533423 -0.0010311199 -3.5000152588
48.3102469329 0.0725027684 -3.5000152588
48.3364213947 0.5486303516 -3.5000152588
41.5370611740 -0.7561278508 -3.5000152588
41.5360482438 -0.6796281306 -3.5000152588
41.5248517598 -0.7142647895 -3.5000152588
41.5365305937 -0.6027160307 -3.5000152588
41.5325367619 -0.6142494360 -3.5000152588
41.5385224993 -0.5254206570 -3.5000152588
41.5218373882 -0.5716063001 -3.5000152588
41.4863016977 -0.6762241190 -3.5000152588
41.5287833543 -0.4823641277 -3.5000152588
41.5244335337 -0.4939209773 -3.5000152588
41.5201179193 -0.5054906440 -3.5000152588
41.5518061480 -0.3583090942 -3.5000152588
41.5285621435 -0.4158935529 -3.5000152588
41.5240156918 -0.4274513478 -3.5000152588
41.5247138549 -0.3606508676 -3.5000152588
41.5265376893 -0.2935380802 -3.5000152588
41.5119152471 -0.3282743436 -3.5000152588
41.5170241306 -0.1367266287 -3.5000152588
41.5136473178 0.0224343492 -3.5000152588
41.5039269171 0.0566209545 -3.5000152588
41.5066694586 0.1142593254 -3.5000152588
45.0364340950 -0.2025936956 -3.5000152588
45.1203842742 -0.0904992256 -3.5000152588
46.1023584903 0.4837987898 -3.5000152588
46.1824366089 0.4954500395 -3.5000152588
41.5339871576 -1.2843095404 -3.5000152588
41.5117419428 -1.2684976219 -3.5000152588
41.5100298088 -1.2810876274 -3.5000152588
41.4663472133 -0.5680510605 -3.5000152588
41.6640253609 0.0256077928 -3.5000152588
41.7177332567 0.1928638850 -3.5000152588
41.6691823466 0.3095455594 -3.5000152588
45.3806195324 -0.0528863697 -3.5000152588
45.1890367834 0.0442301325 -3.5000152588
41.5179536378 -1.8245571451 -3.5000152588
41.5223613276 -1.9324044798 -3.5000152588
41.4918894309 -1.6760731721 -3.5000152588
41.4921518686 -1.7438920166 -3.5000152588
41.4956855819 -1.8794809721 -3.5000152588
41.4711972362 -1.5124075325 -3.5000152588
41.4258033524 -1.9374958379 -3.5000152588
41.4315888105 -1.1093971010 -3.5000152588
41.4019467357 -1.4404033546 -3.5000152588
41.3473012291 -1.7595177584 -3.5000152588
41.4162602238 -0.7534264667 -3.5000152588
41.4028846327 -0.8224648190 -3.5000152588
41.3836117598 -0.9333156632 -3.5000152588
48.9517307507 2.1250602474 -3.5000152588
41.3953749353 -0.7347996790 -3.5000152588
48.9662722666 2.1443703380 -3.5000152588
45.0470234046 -0.2346852859 -3.5000152588
45.3171789682 0.0274615419 -3.5000152588
45.2171273301 -0.0465536376 -3.5000152588
45.4381631304 0.1318188850 -3.5000152588
44.7811614086 -0.4544516187 -3.5000152588
45.8756065309 0.4858793490 -3.5000152588
45.8581837620 0.4815513349 -3.5000152588
44.4934370869 -0.6270563500 -3.5000152588
41.4692911582 -2.2637477464 -3.5000152588
41.4839796341 -2.3503291984 -3.5000152588
41.5006116275 -2.5564748283 -3.5000152588
41.4706951345 -2.5328346256 -3.5000152588
41.3446671598 -1.8031512597 -3.5000152588
41.3802469396 -2.1577231800 -3.5000152588
41.3843466008 -2.1871411344 -3.5000152588
41.4439558790 -2.5234090319 -3.5000152588
41.3485817194 -2.1017990996 -3.5000152588
48.7310487975 3.1882770820 -3.5000152588
48.1697316020 3.6395067028 -3.5000152588
48.3741482535 3.5883905922 -3.5000152588
47.9931698057 3.7747395452 -3.5000152588
45.0521327368 -0.2322282061 -3.5000152588
45.0179816831 -0.2874646224 -3.5000152588
44.9963128143 -0.3249472849 -3.5000152588
44.9755369756 -0.3629322081 -3.5000152588
45.1200993086 -0.0935971608 -3.5000152588
44.9490733417 -0.3612829265 -3.5000152588
45.6577312291 0.4077795093 -3.5000152588
44.9966191090 -0.2295502129 -3.5000152588
44.8677991302 -0.4753382218 -3.5000152588
45.4710775862 0.3156302089 -3.5000152588
45.3562570773 0.2250391822 -3.5000152588
44.8663633253 -0.4195362606 -3.5000152588
44.8303371593 -0.5020295029 -3.5000152588
44.8198841281 -0.5281480397 -3.5000152588
45.4613474958 0.3681855967 -3.5000152588
44.9442611805 -0.1765774177 -3.5000152588
44.7488639033 -0.5808646754 -3.5000152588
44.6730507037 -0.7520969567 -3.5000152588
45.7138647368 0.6545910603 -3.5000152588
45.1750122761 0.3228632879 -3.5000152588
44.7559048698 -0.1609617854 -3.5000152588
44.4955908486 -0.9020454143 -3.5000152588
44.6099638256 -0.2279623219 -3.5000152588
47.6664187336 3.5334172206 -3.5000152588
47.5535936962 3.5575353435 -3.5000152588
47.3406435538 3.5955331734 -3.5000152588
47.0544870672 3.6314346081 -3.5000152588
47.0401283077 3.6327846673 -3.5000152588
47.0113991218 3.6353573291 -3.5000152588
47.7704683143 3.5335908709 -3.5000152588
47.9871023326 3.4997685545 -3.5000152588
47.8186508324 3.5463453189 -3.5000152588
47.6912853570 3.5773381883 -3.5000152588
47.6201839595 3.5930879647 -3.5000152588
47.2616121984 3.6559759169 -3.5000152588
47.1749350044 3.6671110515 -3.5000152588
47.0735810072 3.6781552867 -3.5000152588
47.7394428012 3.5908969092 -3.5000152588
47.3807069493 3.6626025565 -3.5000152588
47.9442965396 3.5624787851 -3.5000152588
47.9417359234 3.6635972760 -3.5000152588
41.3463309711 -2.4343872236 -3.5000152588
41.3674194494 -2.7097340551 -3.5000152588
41.4088803138 -2.8482592441 -3.5000152588
41.3354207309 -2.6852886845 -3.5000152588
41.4207596953 -2.9629239489 -3.5000152588
41.3627529353 -2.8627370230 -3.5000152588
41.5164396051 -3.2896616690 -3.5000152588
41.5225789315 -3.3046638730 -3.5000152588
41.4638919403 -3.2231719895 -3.5000152588
41.4065080634 -3.1402503134 -3.5000152588
45.0890607534 -0.1650480118 -3.5000152588
44.4912888882 -1.0001451589 -3.5000152588
44.4721719950 -1.0965692245 -3.5000152588
47.0570842629 3.5045086238 -3.5000152588
47.2165553486 3.5159012569 -3.5000152588
47.1639545533 3.5207684976 -3.5000152588
46.9002894780 3.5357530582 -3.5000152588
47.0601129525 3.5527597188 -3.5000152588
46.8876730666 3.5602584877 -3.5000152588
46.8212932750 3.5613761125 -3.5000152588
46.7681820709 3.5615632452 -3.5000152588
46.7017960518 3.5609134092 -3.5000152588
46.6885204081 3.5606656172 -3.5000152588
47.0749492892 3.5760292697 -3.5000152588
46.6213121142 3.5829959328 -3.5000152588
46.4462617166 3.5977097608 -3.5000152588
47.0661703317 3.6492619088 -3.5000152588
46.6865729592 3.6573381157 -3.5000152588
46.6730121404 3.6570448691 -3.5000152588
47.1512295148 3.6916327245 -3.5000152588
45.2848127146 0.1185126770 -3.5000152588
45.2763777622 0.0991981854 -3.5000152588
45.2641553099 0.0700426953 -3.5000152588
45.2306188272 -0.0186607085 -3.5000152588
45.2124662695 -0.0737013741 -3.5000152588
45.4416870242 0.4835609520 -3.5000152588
45.4101637561 0.4395712134 -3.5000152588
45.3539139672 0.3535074823 -3.5000152588
45.2173639176 0.0833251263 -3.5000152588
45.1676020857 0.0206832041 -3.5000152588
45.1498895168 -0.0312107779 -3.5000152588
45.1219039136 -0.1258521487 -3.5000152588
45.0582045576 -0.3097237431 -3.5000152588
45.2522950580 0.3235039042 -3.5000152588
45.2334466542 0.2889215326 -3.5000152588
45.0516873804 -0.2118823541 -3.5000152588
45.4752975863 0.6780719669 -3.5000152588
45.0392721670 -0.1568645461 -3.5000152588
45.0212829079 -0.2404140453 -3.5000152588
44.9995901231 -0.3811718571 -3.5000152588
45.5365618915 0.7779590212 -3.5000152588
45.3974673142 0.6238376064 -3.5000152588
45.1278148954 0.1818728674 -3.5000152588
44.9658345169 -0.7182098956 -3.5000152588
45.5487715914 0.8236376373 -3.5000152588
45.2159455277 0.4521235836 -3.5000152588
45.6306876487 0.9917981639 -3.5000152588
44.9604319137 0.0112407232 -3.5000152588
44.8756539390 -0.4033160994 -3.5000152588
45.5223452028 0.9311074599 -3.5000152588
45.8573133261 1.3447897617 -3.5000152588
44.9866116432 0.5402121087 -3.5000152588
44.5542532558 -0.4909309771 -3.5000152588
44.0110708431 -3.1859929290 -3.5000152588
44.0495771504 -3.2286292084 -3.5000152588
46.6861040153 3.4673129987 -3.5000152588
46.5637266655 3.4829099237 -3.5000152588
46.5130506281 3.5025518732 -3.5000152588
46.4887619753 3.5001145452 -3.5000152588
46.4159884859 3.4919409844 -3.5000152588
46.4984908957 3.5254034024 -3.5000152588
46.4374609736 3.5188229095 -3.5000152588
46.3887112785 3.5129090453 -3.5000152588
46.3734111020 3.5353107994 -3.5000152588
46.3333618650 3.5543020698 -3.5000152588
46.2106235189 3.5353423940 -3.5000152588
46.1739169652 3.5289473628 -3.5000152588
46.1616942375 3.5267433272 -3.5000152588
46.1250659225 3.5199144146 -3.5000152588
46.0960051084 3.5388977462 -3.5000152588
45.9684505742 3.5364921054 -3.5000152588
45.9562064268 3.5336802300 -3.5000152588
46.0000658800 3.5683247400 -3.5000152588
45.8648059505 3.5364186122 -3.5000152588
46.5852591275 3.6786683010 -3.5000152588
46.5346077207 3.6744920631 -3.5000152588
45.7728844223 3.5371360383 -3.5000152588
45.7361791886 3.5268562475 -3.5000152588
45.6315888233 3.5209402330 -3.5000152588
45.5828704910 3.5054907668 -3.5000152588
45.5464535738 3.4935259552 -3.5000152588
45.6982407572 3.5662395217 -3.5000152588
45.5510015058 3.5205042278 -3.5000152588
44.7869598708 3.2390510580 -3.5000152588
45.4911047148 3.5769138051 -3.5000152588
45.3558347802 3.5284444378 -3.5000152588
45.3070469590 3.5097315964 -3.5000152588
45.2573819419 0.1559356194 -3.5000152588
45.2120588054 -0.1352871737 -3.5000152588
45.2001546436 -0.0167235719 -3.5000152588
45.1930687966 0.0879925114 -3.5000152588
45.1834834331 0.0347296319 -3.5000152588
45.1702150708 -0.0617678105 -3.5000152588
45.1630944933 -0.1426289700 -3.5000152588
45.2606524989 0.4082655105 -3.5000152588
45.1480669632 -0.0427706961 -3.5000152588
45.1354002234 -0.2232121853 -3.5000152588
45.1426738616 -0.4313506027 -3.5000152588
45.3305937350 0.6189172269 -3.5000152588
45.2189237237 0.4978012205 -3.5000152588
45.0441398220 -0.1116811552 -3.5000152588
45.0845936751 -0.6851135936 -3.5000152588
45.1007554643 0.4639268199 -3.5000152588
44.9789847948 0.4836109821 -3.5000152588
44.9015933800 -1.3144900206 -3.5000152588
44.5230080513 -1.3622507674 -3.5000152588
44.5060882649 -1.9287233701 -3.5000152588
46.1135334127 3.4720709433 -3.5000152588
46.0914529023 3.4668279756 -3.5000152588
45.9862126314 3.4649655273 -3.5000152588
44.5943080103 -3.2903528272 -3.5000152588
46.0243885161 3.4999823959 -3.5000152588
45.8514003794 3.4766320126 -3.5000152588
45.8403439013 3.4732514014 -3.5000152588
44.4924553029 -3.2700475341 -3.5000152588
45.7999280928 3.4859557181 -3.5000152588
45.7888442587 3.4824228018 -3.5000152588
45.7667081858 3.4752586828 -3.5000152588
45.7369678285 3.4908953143 -3.5000152588
45.7147825374 3.4834241286 -3.5000152588
45.7037065647 3.4796393474 -3.5000152588
45.6513958520 3.4869414112 -3.5000152588
45.6292354511 3.4789640222 -3.5000152588
45.4772650219 3.4463172674 -3.5000152588
45.4334846789 3.4281739676 -3.5000152588
45.7633928245 3.6011666387 -3.5000152588
45.9180690708 3.6719083925 -3.5000152588
45.3193227006 3.5105214985 -3.5000152588
45.2970286039 3.5005790405 -3.5000152588
44.3570066697 -3.4716782910 -3.5000152588
43.6715888472 -3.3578647544 -3.5000152588
44.6955506632 0.1157782495 -3.5000152588
44.6987655323 -0.1563120864 -3.5000152588
44.6686089201 0.0578518806 -3.5000152588
44.6701747052 -0.0936340761 -3.5000152588
44.6725259219 -0.1314447067 -3.5000152588
44.7201310298 0.5282984781 -3.5000152588
44.6751507169 0.3418074875 -3.5000152588
44.6496800453 -0.1495967024 -3.5000152588
44.6501336270 -0.1550614658 -3.5000152588
44.6537610445 -0.1932738939 -3.5000152588
44.6892529245 0.5084893403 -3.5000152588
44.6363683281 0.2530280705 -3.5000152588
44.6309256352 0.2089231395 -3.5000152588
44.6938091061 -0.5224461317 -3.5000152588
44.6069012378 0.2115996327 -3.5000152588
44.5967242294 0.0769743435 -3.5000152588
44.6217055348 -0.3153880377 -3.5000152588
44.5742391592 0.1120871755 -3.5000152588
44.7022461574 -0.6977611633 -3.5000152588
44.5582221031 0.2112175674 -3.5000152588
44.5833511478 -0.3745119052 -3.5000152588
44.7037010111 -0.7652875651 -3.5000152588
44.7495802397 -0.8648313384 -3.5000152588
44.7491903071 0.9192511155 -3.5000152588
44.7027966068 0.8249145655 -3.5000152588
44.6551078933 0.7119226339 -3.5000152588
44.6663126633 0.8026317299 -3.5000152588
44.5968988652 0.6203633468 -3.5000152588
44.5794110993 0.5638848998 -3.5000152588
44.5272622484 -0.4586799466 -3.5000152588
44.6007587120 -0.8901409694 -3.5000152588
44.4438510949 0.6168899734 -3.5000152588
44.4332436350 0.5803490149 -3.5000152588
44.4461784490 0.7032109824 -3.5000152588
44.4272092010 -0.7907578484 -3.5000152588
44.4639675539 -1.2921728361 -3.5000152588
44.8866871448 3.4023225681 -3.5000152588
44.8865657650 -3.4002613357 -3.5000152588
44.9067169700 -3.4097311093 -3.5000152588
44.8561178895 3.4145204328 -3.5000152588
44.8460272649 3.4096507553 -3.5000152588
44.8358296234 -3.4026882063 -3.5000152588
44.8761952405 3.4508281392 -3.5000152588
44.8558132808 3.4411771046 -3.5000152588
44.7950149783 3.4115028675 -3.5000152588
44.7648157265 3.3962622571 -3.5000152588
44.7747457552 -3.3993070086 -3.5000152588
44.7235755820 3.4021879219 -3.5000152588
44.6807536480 -3.4323005575 -3.5000152588
44.5968634625 3.4439175198 -3.5000152588
44.5158037204 -3.3959098156 -3.5000152588
44.5359356692 -3.4075732181 -3.5000152588
44.3878847891 -3.4036053880 -3.5000152588
44.3979654625 -3.4098303515 -3.5000152588
44.3752758317 3.4262336441 -3.5000152588
44.3218006791 -3.4192015374 -3.5000152588
44.2783800184 -3.4200417915 -3.5000152588
44.1911106816 3.4222964442 -3.5000152588
44.1809999639 3.4154595212 -3.5000152588
44.1370424479 3.4146530306 -3.5000152588
44.1369206286 -3.4125650461 -3.5000152588
44.1298974152 -3.4663973846 -3.5000152588
43.9305873009 -3.4429391141 -3.5000152588
44.8101772961 0.2832913156 -3.5000152588
44.6961736118 -0.1174755144 -3.5000152588
44.5935857862 0.4102876101 -3.5000152588
44.6652259909 -0.3423468268 -3.5000152588
44.4267449751 0.4597329682 -3.5000152588
44.4139185588 0.5832519148 -3.5000152588
44.5158691677 3.3191229137 -3.5000152588
44.1652948613 3.3065893149 -3.5000152588
45.2394124315 -3.4546821351 -3.5000152588
45.2618332699 -3.4618951863 -3.5000152588
45.1116742458 -3.4621512002 -3.5000152588
45.0161837179 -3.4783868575 -3.5000152588
44.9510451645 -3.4789257401 -3.5000152588
44.6432344869 -3.4758295966 -3.5000152588
43.9535498818 -3.1794034439 -3.5000152588
44.9166407273 0.1249252139 -3.5000152588
44.6764390028 0.0849195435 -3.5000152588
44.5411866457 0.4314990123 -3.5000152588
44.8116747144 -0.4001516233 -3.5000152588
44.7884980211 -0.4541042301 -3.5000152588
44.5401025945 0.0342387082 -3.5000152588
44.8358428739 -0.5658047779 -3.5000152588
44.5663749472 -0.1201882031 -3.5000152588
44.6884112921 -0.3812934482 -3.5000152588
44.6313702790 -0.4757685022 -3.5000152588
44.8916608437 -0.8925435889 -3.5000152588
44.9646786503 -0.9964414103 -3.5000152588
45.8817558446 -3.4730447047 -3.5000152588
45.7346252456 -3.4763392513 -3.5000152588
45.7466062864 -3.4782587151 -3.5000152588
45.7705851403 -3.4819912745 -3.5000152588
45.8426483212 -3.4923368615 -3.5000152588
45.8907875480 -3.4985226486 -3.5000152588
45.6946460477 -3.4941961097 -3.5000152588
45.5578521043 -3.4931198802 -3.5000152588
45.5819221853 -3.4979689127 -3.5000152588
45.4685083055 -3.4986059916 -3.5000152588
45.5409139480 -3.5143102754 -3.5000152588
45.6500164812 -3.5354511247 -3.5000152588
45.4027095206 -3.5080349971 -3.5000152588
45.3848910114 -3.5285770754 -3.5000152588
45.4822250288 -3.5512004990 -3.5000152588
45.8017853507 -3.6087192934 -3.5000152588
45.2696915524 -3.5236984525 -3.5000152588
45.0456466179 -3.4812401060 -3.5000152588
45.2633176783 -3.5470160212 -3.5000152588
44.7489649986 -3.5792014630 -3.5000152588
44.7268087777 -0.1741206275 -3.5000152588
44.6512217224 -0.1432541331 -3.5000152588
46.1389546215 -3.5084346413 -3.5000152588
46.2028243069 -3.5098973388 -3.5000152588
46.2922633438 -3.5103577899 -3.5000152588
46.3050404566 -3.5102723790 -3.5000152588
46.0868608099 -3.5307360059 -3.5000152588
45.9955260021 -3.5501434855 -3.5000152588
45.7869337835 -3.5563124355 -3.5000152588
45.9292092195 -3.5697106017 -3.5000152588
45.6805478435 -3.5676212824 -3.5000152588
45.7583163302 -3.5773897109 -3.5000152588
45.7294326732 -3.5982803227 -3.5000152588
45.2919242580 -3.5718172523 -3.5000152588
45.4088883650 -3.5962957756 -3.5000152588
46.0011896787 -3.6715842592 -3.5000152588
45.1180518776 -3.5543553081 -3.5000152588
44.4929580305 0.1080034234 -3.5000152588
44.4403104148 0.1548922461 -3.5000152588
44.7557255078 -0.2864816578 -3.5000152588
46.6477242412 -3.5390025874 -3.5000152588
46.8759435007 -3.5062070953 -3.5000152588
46.9693858432 -3.4893749427 -3.5000152588
47.0491874532 -3.4734100167 -3.5000152588
46.3517157028 -3.5884838658 -3.5000152588
46.4469740414 -3.5824886386 -3.5000152588
47.0006896059 -3.5079279765 -3.5000152588
46.0652493999 -3.6187932843 -3.5000152588
46.7621322700 -3.5728638441 -3.5000152588
46.7245860632 -3.6024335454 -3.5000152588
46.9152160151 -3.5730221533 -3.5000152588
46.5488884118 -3.6467218069 -3.5000152588
46.4697683753 -3.7019859291 -3.5000152588
41.4076303458 2.8412074768 -3.5000152588
41.4532133500 3.0164887360 -3.5000152588
41.3680411540 2.8727488239 -3.5000152588
44.9370268048 0.0059531226 -3.5000152588
44.9725744513 -0.0225084114 -3.5000152588
