46.3451417853 -31.7621886994 -2.0000259946
48.4016368910 -30.0125116881 -2.0000259946
48.4193957634 -29.9814755447 -2.0000259946
41.5677655868 -30.2844672807 -2.0000260004
48.4044227145 -30.0556726093 -2.0000260004
48.4105005992 -30.0453363249 -2.0000260004
48.4225645061 -30.0246100437 -2.0000260004
41.5478139868 -30.2981153186 -2.0000260061
41.5614935275 -30.3179865721 -2.0000260061
46.0651758456 -31.9074472271 -2.0000260061
48.4129217352 -30.0886975737 -2.0000260061
41.5568751636 -30.3954240411 -2.0000260177
42.6204042969 -31.4260630822 -2.0000260177
43.0305040578 -31.6672076702 -2.0000260177
46.1372442729 -31.9361531964 -2.0000260177
48.4033135175 -30.1967112890 -2.0000260177
48.4098086249 -30.1863776686 -2.0000260177
48.4162731353 -30.1760248797 -2.0000260177
41.5587625098 -30.4393484256 -2.0000260234
45.5871703879 -32.1154610523 -2.0000260292
48.4041333975 -30.2848151793 -2.0000260292
46.9564885847 -31.6636986462 -2.0000260349
48.3968622720 -30.3394528470 -2.0000260349
48.4037796631 -30.3291376860 -2.0000260349
41.5599308295 -30.5621160492 -2.0000260407
45.3846329528 -32.1921693406 -2.0000260407
43.6369946458 -32.0463923094 -2.0000260465
44.3816562465 -32.2336768418 -2.0000260522
48.4141620243 -30.4424509614 -2.0000260522
41.5492049998 -30.6663155170 -2.0000260580
48.3972008281 -30.5081004813 -2.0000260580
48.4017999529 -30.5429225256 -2.0000260638
48.4093192225 -30.5325918678 -2.0000260638
47.0158362344 -31.7966403937 -2.0000260695
48.4023672600 -30.6233226449 -2.0000260753
41.5557394093 -30.8269793546 -2.0000260811
48.4093076106 -30.6939604699 -2.0000260868
42.0417535951 -31.4141936718 -2.0000260983
48.3986145521 -30.7857951908 -2.0000260983
43.3340218537 -32.2490463576 -2.0000261156
48.4167128281 -31.0284753466 -2.0000261387
48.3986731599 -31.0857524564 -2.0000261444
41.6543160800 -29.9340428850 -1.9999972272
41.6579436185 -30.0692652895 -1.9999971494
41.6746629561 -30.2955004870 -1.9999970198
43.9842020361 -31.7839049768 -1.9999968901
46.5189277705 -31.4273051659 -1.9999967604
43.4446498611 -31.8357543676 -1.9999967086
48.4714389298 -29.2973059679 -1.9999965529
48.4860257297 -29.2510147766 -1.9999965529
48.4792283171 -29.3510943718 -1.9999965270
48.4862883139 -29.4052418751 -1.9999965011
48.4903055787 -29.3936409099 -1.9999965011
48.4841515988 -29.4829411917 -1.9999964751
48.4804844690 -29.5609916660 -1.9999964492
48.4849624953 -29.5494071882 -1.9999964492
48.4894062330 -29.5378095143 -1.9999964492
48.4846593628 -29.6162106290 -1.9999964233
48.4893007185 -29.6046135595 -1.9999964233
48.4994436204 -29.8851255535 -1.9999962936
48.5896860444 -29.7419702739 -1.9999962677
48.4979910449 -29.9992237068 -1.9999962417
48.5095052304 -29.9759303105 -1.9999962417
48.5109995366 -30.1836646017 -1.9999961380
48.5210897216 -30.5025525567 -1.9999959564
48.5223888323 -30.6352031235 -1.9999958786
45.0030638484 -30.4552754248 -1.9999945190
45.1249678877 -30.6946108420 -1.9999937899
45.1325019737 -30.6919614565 -1.9999937899
45.1924858066 -30.6699664389 -1.9999937899
41.8063818866 -30.5632666278 -1.9999918016
45.1417614224 -31.6488008746 -1.9999912713
44.7785392338 -31.7478549117 -1.9999912051
45.7265497303 -31.4686912675 -1.9999912051
45.9507726544 -31.3858911204 -1.9999911388
45.9794534412 -31.3705203846 -1.9999911388
46.1456384301 -31.3313301734 -1.9999910062
46.1540790209 -31.4106771673 -1.9999908074
48.5104424999 -28.7474504229 -1.9999893493
48.5204358424 -28.6714411360 -1.9999893493
48.5146222433 -28.8777701807 -1.9999892830
48.5188741809 -28.8524265982 -1.9999892830
48.5229761029 -28.8270583034 -1.9999892830
48.5249707630 -28.8143651663 -1.9999892830
48.5269278658 -28.8016661842 -1.9999892830
48.5307293312 -28.7762511295 -1.9999892830
48.5361494320 -28.7380874895 -1.9999892830
48.5340238475 -28.9072992239 -1.9999892167
48.5384501492 -28.8818403382 -1.9999892167
48.5224424395 -29.0899088913 -1.9999891504
48.5665773195 -28.8602848229 -1.9999891504
48.5345239970 -29.1460680138 -1.9999890842
48.5460510879 -29.0951018673 -1.9999890842
48.5488385684 -29.0823392974 -1.9999890842
48.5647695308 -29.0055958015 -1.9999890842
48.5297802069 -29.2663160855 -1.9999890179
48.5430091369 -29.3107065645 -1.9999889516
48.5464344284 -29.2979520500 -1.9999889516
48.5498219747 -29.2851874585 -1.9999889516
48.5531717462 -29.2724129020 -1.9999889516
48.6423480920 -28.8459979517 -1.9999889516
48.5411787682 -29.4064826646 -1.9999888853
48.5485582816 -29.3809727115 -1.9999888853
48.5529666779 -29.4516562584 -1.9999888191
48.6806944803 -29.0422715712 -1.9999887528
48.5583170786 -29.5942015259 -1.9999886865
48.5668068999 -29.5685868914 -1.9999886865
48.5751450278 -29.5429224765 -1.9999886865
48.5683167510 -29.7125709257 -1.9999885539
48.5775067104 -29.6868950581 -1.9999885539
48.7401493801 -29.2219995634 -1.9999884877
48.7260882212 -29.3744362449 -1.9999884214
48.5772893004 -29.8924885591 -1.9999883551
48.8144920458 -29.1116055368 -1.9999883551
48.5945074767 -29.9144130475 -1.9999882888
48.5901468004 -29.9881378564 -1.9999882225
48.7047263559 -29.7618506359 -1.9999881563
48.8156311151 -29.4134903514 -1.9999881563
48.9047504046 -29.0300148985 -1.9999881563
48.5996996918 -30.1464003703 -1.9999880237
48.8238861778 -29.6379228427 -1.9999879574
48.8699555972 -29.7290843108 -1.9999877586
48.8928565143 -29.6603306588 -1.9999877586
48.6274494506 -30.3673211822 -1.9999876923
48.7851052102 -30.0231086514 -1.9999876923
48.9497439973 -29.8661569114 -1.9999874272
48.6584382935 -30.8106138557 -1.9999870295
49.0799896252 -30.1951940891 -1.9999867644
48.3010477731 -31.8177334863 -1.9999861679
46.3702737449 -33.2183685309 -1.9999861017
46.4846799518 -33.1951068109 -1.9999860354
46.6287104248 -33.1551871743 -1.9999859691
46.6093357050 -33.1911410916 -1.9999859028
49.7921069020 -28.8271669326 -1.9999858365
42.8051438016 -34.2095459298 -1.9999841133
42.5960321267 -34.2065509375 -1.9999839808
42.6319145060 -34.2161304592 -1.9999839808
42.2353687155 -34.1738527198 -1.9999837819
42.0414053437 -34.1575480558 -1.9999836494
45.4274466678 -31.0854910822 -1.9999975644
45.3574287922 -31.6295560276 -1.9999970716
45.3867714401 -31.6431456599 -1.9999970457
46.1193724063 -31.2134818804 -1.9999970457
45.1008277333 -31.8055798401 -1.9999969938
44.8345148709 -31.9091819819 -1.9999969679
44.9194811180 -31.8866015865 -1.9999969679
46.6254471039 -30.9267397086 -1.9999969160
46.3558261281 -31.2105544071 -1.9999968901
46.5479922908 -31.0714405976 -1.9999968642
47.0074822367 -30.7471045089 -1.9999967345
46.6204559538 -31.2681441190 -1.9999966567
46.3525996436 -31.5220185687 -1.9999966307
47.3451181683 -30.4800167014 -1.9999966048
46.7659041668 -31.2307991280 -1.9999965789
43.8455547825 -32.5296944365 -1.9999964233
48.5037365708 -28.1069612372 -1.9999960342
48.5297823570 -28.4603332751 -1.9999960083
48.5309549781 -28.4194437128 -1.9999960083
48.5319539218 -28.3649111701 -1.9999960083
48.5322796397 -28.3240060939 -1.9999960083
48.5316279035 -28.2285615076 -1.9999960083
48.5303681931 -28.1740343655 -1.9999960083
48.5299524594 -28.1604052072 -1.9999960083
48.5482179704 -28.5843600035 -1.9999959824
48.5490159760 -28.5706762470 -1.9999959824
48.5547685172 -28.4337319065 -1.9999959824
48.5551209090 -28.4200294314 -1.9999959824
48.5559348583 -28.3789165907 -1.9999959824
48.5564525175 -28.3240913116 -1.9999959824
48.5564680651 -28.2966773346 -1.9999959824
48.5564150173 -28.2829704316 -1.9999959824
48.5555415910 -28.2144415688 -1.9999959824
48.5655939184 -28.6820141590 -1.9999959564
48.5706214990 -28.6133058877 -1.9999959564
48.5723478892 -28.5858030205 -1.9999959564
48.5739115331 -28.5582904208 -1.9999959564
48.5753123758 -28.5307690515 -1.9999959564
48.5804467303 -28.3517329479 -1.9999959564
48.5794798904 -28.7942828026 -1.9999959305
48.5808987489 -28.7805056491 -1.9999959305
48.5822768458 -28.7667243588 -1.9999959305
48.5873813826 -28.7115602402 -1.9999959305
48.5907812339 -28.6701496258 -1.9999959305
48.5918328345 -28.6563395841 -1.9999959305
48.6038778421 -28.2134679376 -1.9999959305
48.5941052562 -28.8797903638 -1.9999959046
48.5974078471 -28.8521438949 -1.9999959046
48.6089809047 -28.7413771526 -1.9999959046
48.6254175310 -28.4913588182 -1.9999959046
48.6256227637 -28.1294881619 -1.9999959046
48.6109670134 -28.9382442310 -1.9999958786
48.6128115981 -28.9243733030 -1.9999958786
48.6455523040 -28.5761627672 -1.9999958786
48.6521029962 -28.4083828891 -1.9999958786
48.6118125984 -29.0944333228 -1.9999958527
48.6163847792 -29.0666783347 -1.9999958527
48.6291149831 -28.9832578723 -1.9999958527
48.6259668586 -29.1541412186 -1.9999958268
48.6284500400 -29.1402249738 -1.9999958268
48.6332928484 -29.1123707516 -1.9999958268
48.7011521092 -28.3670093156 -1.9999958268
48.6641109413 -29.0743954962 -1.9999958008
48.7162583012 -28.6086420791 -1.9999958008
48.7256237923 -28.2820652869 -1.9999958008
48.7247184698 -28.2110338599 -1.9999958008
48.6461828232 -29.3028428447 -1.9999957749
48.6519874232 -29.2748808633 -1.9999957749
48.6603838849 -29.2328747238 -1.9999957749
48.6545259616 -29.3779258771 -1.9999957490
48.6576710135 -29.3639241702 -1.9999957490
48.6607746320 -29.3499132208 -1.9999957490
48.7583528531 -28.6975528576 -1.9999957490
48.6616762300 -29.4534722320 -1.9999957230
48.7972228465 -28.2095734132 -1.9999957230
48.6712150348 -29.5154218632 -1.9999956971
48.6782768856 -29.4873080623 -1.9999956971
48.7706013802 -29.0182080580 -1.9999956971
48.8087862644 -28.6725373342 -1.9999956971
48.8174379533 -28.5278650629 -1.9999956971
48.8210776559 -28.1945963880 -1.9999956971
48.7144406893 -29.5415182440 -1.9999956452
48.7422938290 -29.4277890868 -1.9999956452
48.7872326970 -29.2129066190 -1.9999956452
48.8669637763 -28.5007895981 -1.9999956452
48.6949655323 -29.7035407772 -1.9999956193
48.8524792780 -28.9558841172 -1.9999956193
48.7263806488 -29.6819318395 -1.9999955934
48.8086911583 -29.3521835908 -1.9999955934
48.8978232736 -28.7681047887 -1.9999955934
48.8260351060 -29.3862643496 -1.9999955674
48.8530079305 -29.2553579528 -1.9999955674
48.8740507805 -29.1384299703 -1.9999955674
48.9145049887 -28.8442186351 -1.9999955674
48.9205032158 -28.7851180137 -1.9999955674
48.9258017169 -28.7259505559 -1.9999955674
48.8496437451 -29.3914573680 -1.9999955415
48.9335583770 -28.8912915206 -1.9999955415
48.9431258259 -28.8022694298 -1.9999955415
48.9670349750 -28.3703064014 -1.9999955415
48.7178800003 -30.0239975782 -1.9999954896
48.9094585610 -29.3429125179 -1.9999954896
48.9331269936 -29.3478258243 -1.9999954637
48.7380960733 -30.1772814276 -1.9999954118
48.7705182890 -30.0915258788 -1.9999954118
49.0603230478 -28.8445219395 -1.9999954118
49.0771616416 -28.6466066897 -1.9999954118
49.0843652056 -28.8470338963 -1.9999953859
49.1116949410 -28.2185938339 -1.9999953859
48.7719151468 -30.2235014140 -1.9999953599
49.1344395339 -28.1565024920 -1.9999953599
48.7653983463 -30.3042244888 -1.9999953340
49.1459623870 -28.9473704751 -1.9999953081
49.1755958607 -28.6218784462 -1.9999953081
49.1660627877 -28.9813408799 -1.9999952821
49.1907808888 -28.7481002198 -1.9999952821
49.1771995722 -29.0777967045 -1.9999952562
49.1994707636 -28.9064439190 -1.9999952562
49.2012187022 -28.8908322297 -1.9999952562
49.1860152327 -29.5473318379 -1.9999951525
49.1786006002 -29.6776242804 -1.9999951265
49.1589848166 -29.8392618760 -1.9999951006
49.2487751852 -29.6959148562 -1.9999950487
48.6396888396 -31.2822082684 -1.9999949709
48.8388044843 -30.9401206188 -1.9999949709
49.1840881947 -30.1558236470 -1.9999949709
43.1644779814 -34.0761790576 -1.9999947116
42.4996075226 -33.9739734742 -1.9999946856
43.0415540196 -34.0831351458 -1.9999946856
42.8497005313 -34.0751691074 -1.9999946597
43.0894075251 -34.1146569183 -1.9999946597
43.2442856224 -34.1347868492 -1.9999946597
43.0058866049 -34.1999301747 -1.9999945560
42.2799983414 -34.1154793307 -1.9999944782
42.7568640804 -34.2789422187 -1.9999944263
42.1562055597 -34.1548256350 -1.9999944003
45.2550059273 -30.2150570112 -2.0000056900
45.6140262181 -30.8977217924 -2.0000072087
45.7108487512 -31.5207987503 -2.0000083354
46.0907915446 -31.2201200148 -2.0000083354
46.2004663540 -31.1165602390 -2.0000083354
45.6474278304 -31.6211919929 -2.0000084334
45.1075434919 -31.9619721753 -2.0000085313
46.5232713282 -31.0566316404 -2.0000087273
46.6517636019 -30.9416411631 -2.0000087763
48.5940359397 -28.0387096197 -2.0000110297
48.5925890581 -28.0240728383 -2.0000110297
48.5863687450 -27.9655704348 -2.0000110297
48.5812494703 -27.9217441734 -2.0000110297
48.5568895435 -27.7469451517 -2.0000110297
48.5545797324 -27.7324195327 -2.0000110297
48.5449111028 -27.6743872906 -2.0000110297
48.5345564856 -27.6164735150 -2.0000110297
48.5263412119 -27.5731208052 -2.0000110297
48.6368141317 -28.3017097794 -2.0000110787
48.6292208731 -28.1689139060 -2.0000110787
48.6247118224 -28.1099679181 -2.0000110787
48.5917251996 -27.8162649320 -2.0000110787
48.5852807114 -27.7723970145 -2.0000110787
48.5687315371 -27.6702736312 -2.0000110787
48.5583265776 -27.6120782890 -2.0000110787
48.6657657692 -28.5084968857 -2.0000111277
48.6656068780 -28.4787950673 -2.0000111277
48.6647619379 -28.4193968497 -2.0000111277
48.7059598933 -28.8081099067 -2.0000112257
48.7122525838 -28.6583058818 -2.0000112257
48.7136134289 -28.4484070553 -2.0000112257
48.7338119130 -28.7342456845 -2.0000112747
48.7277047299 -28.1921722850 -2.0000112747
48.7862500355 -28.5842496391 -2.0000113727
48.7759502138 -28.1890554894 -2.0000113727
48.8241641675 -29.1236096207 -2.0000115196
48.8589844285 -28.4771885119 -2.0000115196
48.8071103598 -27.7855991428 -2.0000115196
48.9061066843 -28.3989660468 -2.0000116176
48.8780158601 -27.9641427224 -2.0000116176
48.8943645351 -29.1475284377 -2.0000116666
48.8873557015 -27.8373543611 -2.0000116666
48.9507620283 -28.2879482055 -2.0000117156
48.9517737500 -27.9721700374 -2.0000117646
49.0023834299 -28.3808853266 -2.0000118135
48.9437882730 -27.7181036744 -2.0000118135
42.4579385430 -33.7708398949 -2.0000118625
42.8963937975 -33.8510857762 -2.0000118625
43.3558843918 -33.8956611940 -2.0000118625
48.9525451087 -27.6201505647 -2.0000118625
43.0994513525 -33.8999919654 -2.0000119115
49.0021477243 -29.2570528895 -2.0000119115
49.0441814246 -28.2198122177 -2.0000119115
49.0367979643 -28.1080909999 -2.0000119115
48.8845545024 -29.9524606204 -2.0000119605
49.0759198801 -28.4271848568 -2.0000119605
43.9339605166 -33.9925439777 -2.0000120585
43.8376405139 -34.0209613504 -2.0000121075
49.1464276937 -28.3445576601 -2.0000121075
49.1592644791 -28.9157658247 -2.0000121565
42.8078457346 -34.0091244264 -2.0000122055
44.0197518214 -34.0600319361 -2.0000122055
44.0361371147 -34.0589003685 -2.0000122055
44.2161181605 -34.0432568705 -2.0000122055
49.2390111404 -28.2421468018 -2.0000123034
44.5205250217 -34.0766918698 -2.0000123524
48.9467677475 -30.4712239248 -2.0000124014
49.1947362833 -29.8101653759 -2.0000124994
44.3542051919 -34.2221632731 -2.0000125974
42.2096858261 -34.3828741494 -2.0000131852
45.9899995688 -31.0662545308 -2.0000099993
45.8303948045 -31.4994091638 -2.0000105065
45.7882614919 -31.5998623074 -2.0000106333
45.4056975553 -31.9110622040 -2.0000106967
45.6405146209 -31.7483860516 -2.0000106967
45.7401198926 -31.7327063498 -2.0000108235
45.7462864192 -31.7586108379 -2.0000108869
46.5264067848 -30.9293975533 -2.0000108869
45.5841624097 -31.9377825732 -2.0000110137
45.6726559417 -31.9643852769 -2.0000112039
46.6789149599 -31.0061976543 -2.0000113306
47.2067102724 -29.8889631156 -2.0000113306
46.1163708420 -31.6968044085 -2.0000113940
42.3565427774 -33.5633004978 -2.0000138031
42.6842968018 -33.6237865015 -2.0000138031
42.7129776028 -33.6279897369 -2.0000138031
42.7991621807 -33.6395803313 -2.0000138031
42.6663192394 -33.6455176609 -2.0000138665
42.8684764780 -33.6720963272 -2.0000138665
42.9119283493 -33.6767011360 -2.0000138665
42.9264211764 -33.6781503576 -2.0000138665
42.9554193746 -33.6809201525 -2.0000138665
43.1151660692 -33.6930841699 -2.0000138665
42.4608029106 -33.6343168390 -2.0000139299
43.2745667865 -33.7242085957 -2.0000139299
43.3330996727 -33.7254539288 -2.0000139299
43.4062797792 -33.7260365091 -2.0000139299
41.9991906809 -33.5461249236 -2.0000139933
42.6735690808 -33.6955077225 -2.0000139933
42.7755436328 -33.7096827943 -2.0000139933
43.1563369301 -33.7437824744 -2.0000139933
43.1710271266 -33.7445083977 -2.0000139933
43.5239209144 -33.7488838063 -2.0000139933
42.0065152219 -33.5734757365 -2.0000140567
42.2925100098 -33.6480179568 -2.0000140567
42.9613003145 -33.7785474409 -2.0000141201
43.1390485733 -33.7912891706 -2.0000141201
43.2132236345 -33.7947346403 -2.0000141201
43.7475581181 -33.7871328742 -2.0000141201
42.7663032581 -33.7816107653 -2.0000141835
42.0438203025 -33.6595747408 -2.0000142469
42.8823684005 -33.8194620235 -2.0000142469
42.9271275127 -33.8239377463 -2.0000142469
42.7302688082 -33.8256350291 -2.0000143103
42.7720795057 -33.8554453043 -2.0000143737
42.5584141204 -33.8485581653 -2.0000144371
42.8899613296 -33.8931465284 -2.0000144371
43.1021793208 -33.9102534639 -2.0000144371
43.1933122622 -33.9148919768 -2.0000144371
43.1452779488 -33.9610584666 -2.0000145639
43.5135979761 -33.9667149092 -2.0000145639
43.1132474503 -33.9835411205 -2.0000146273
42.7877931910 -33.9791370363 -2.0000146906
42.8103990323 -34.0547785050 -2.0000148808
42.9823857155 -34.0714627438 -2.0000148808
44.1141260536 -34.0660089851 -2.0000149442
43.0101104923 -34.1221064300 -2.0000150076
43.0259204793 -34.1232632623 -2.0000150076
48.6840944092 -27.7056533775 -2.0000150710
48.6808985414 -27.6900536139 -2.0000150710
48.6676540266 -27.6277511455 -2.0000150710
44.3292458749 -34.1064537094 -2.0000151344
48.6878269004 -27.6069642429 -2.0000151344
43.8873895821 -34.1883953024 -2.0000151978
48.8380880893 -28.6206246223 -2.0000151978
48.7742357494 -27.9331776125 -2.0000151978
44.0500406570 -34.1958865714 -2.0000152612
48.8645135643 -28.7974222689 -2.0000152612
48.7519204855 -27.6753941120 -2.0000152612
43.7342385191 -34.3208332870 -2.0000155148
48.9997524016 -29.3957695398 -2.0000157050
48.6146751833 -26.5847310449 -2.0000157684
48.9749446033 -27.6807663464 -2.0000158318
49.0220756799 -29.7540801545 -2.0000158952
49.1764083309 -29.7107474430 -2.0000162756
49.2753656756 -28.8162239139 -2.0000163390
49.2984670651 -28.6595599064 -2.0000164023
44.4798810529 -34.7671952636 -2.0000169095
46.5504497672 -30.5505426682 -2.0000018221
46.8764104825 -29.9682453007 -2.0000018509
42.7965879139 -33.5171821725 -2.0000020181
43.0733081716 -33.5349627600 -2.0000020181
42.7018629492 -33.5314507626 -2.0000020238
42.8339591479 -33.5448572272 -2.0000020238
42.8471893084 -33.5459828256 -2.0000020238
42.8868989576 -33.5491247302 -2.0000020238
42.9133868718 -33.5510235005 -2.0000020238
42.9796517478 -33.5550845364 -2.0000020238
43.0725080556 -33.5591225427 -2.0000020238
43.1654280663 -33.5612370176 -2.0000020238
43.1787052308 -33.5613819992 -2.0000020238
42.8451757411 -33.5700718444 -2.0000020296
43.4187036274 -33.5814255946 -2.0000020296
43.4733794881 -33.6029071894 -2.0000020354
43.5001753330 -33.6013352026 -2.0000020354
43.5403504899 -33.5986800429 -2.0000020354
43.4612510846 -33.6277732169 -2.0000020411
43.5016623967 -33.6254624470 -2.0000020411
43.5978503427 -33.6427679894 -2.0000020469
43.1093970397 -33.6810940115 -2.0000020526
43.2321056213 -33.6824339436 -2.0000020526
43.6948743963 -33.6580318784 -2.0000020526
43.7490930717 -33.6521047093 -2.0000020526
42.6578651717 -33.6722636463 -2.0000020584
43.0814075107 -33.7045146706 -2.0000020584
43.8470589963 -33.6641414249 -2.0000020584
42.7644861087 -33.7083598317 -2.0000020642
43.4525821857 -33.7250363705 -2.0000020642
43.9457483818 -33.6740743417 -2.0000020642
44.0587460950 -33.6794208704 -2.0000020699
44.1724002558 -33.6819830050 -2.0000020757
44.1635784248 -33.7084653594 -2.0000020815
43.4597910344 -33.8698952766 -2.0000020988
43.4881667083 -33.8683990109 -2.0000020988
43.8940029146 -33.9016861163 -2.0000021160
42.8129586641 -33.9554961459 -2.0000021218
43.8374219588 -34.0310526976 -2.0000021449
42.6403460958 -34.0596874078 -2.0000021506
42.7117233875 -34.0917806702 -2.0000021564
43.2331466924 -34.1175472020 -2.0000021564
43.0976834400 -34.1644126481 -2.0000021679
44.5182169059 -34.0729051078 -2.0000021852
44.2390137402 -34.2357215237 -2.0000022083
44.9622027341 -34.2432008512 -2.0000022544
49.1112883071 -29.0066634124 -2.0000023581
45.8565551757 -30.3872696497 -1.9999977978
45.9307919949 -30.3949010027 -1.9999977200
46.5378153134 -30.5624434113 -1.9999970457
43.3043930886 -33.5162621562 -1.9999965270
43.4018303720 -33.5099672219 -1.9999965270
43.4526151654 -33.5300346190 -1.9999965011
43.4648426927 -33.5289353529 -1.9999965011
43.4770669146 -33.5277999204 -1.9999965011
43.4892877243 -33.5266283314 -1.9999965011
43.5259286101 -33.5228967295 -1.9999965011
43.6877475829 -33.5268964504 -1.9999964751
43.7280733262 -33.5452933024 -1.9999964492
43.8016141969 -33.5332641287 -1.9999964492
43.6575962564 -33.5799667823 -1.9999964233
43.8426266139 -33.5505435239 -1.9999964233
43.8794658196 -33.5436752959 -1.9999964233
43.9999300276 -33.5683419669 -1.9999963714
44.0615402542 -33.5543848846 -1.9999963714
43.4147367726 -33.6786854890 -1.9999963455
44.1841715828 -33.5737325494 -1.9999963195
44.1965251756 -33.5704690159 -1.9999963195
44.2523260863 -33.5803368642 -1.9999962936
44.2770614442 -33.5733699268 -1.9999962936
43.4609604004 -33.7719506893 -1.9999962417
44.4841307080 -33.5852695236 -1.9999962158
44.5166738216 -33.5998169996 -1.9999961899
43.4276431733 -33.8474037561 -1.9999961639
44.4366316390 -33.6515578497 -1.9999961639
43.5485050689 -33.8608065254 -1.9999961380
44.6199198026 -33.6147556002 -1.9999961380
44.6448523598 -33.6056132526 -1.9999961380
44.6782534785 -33.6189441716 -1.9999961120
44.2653691412 -33.7772615481 -1.9999960861
44.0538369705 -33.8782098046 -1.9999960342
44.1728122809 -33.8508870655 -1.9999960342
44.1497801770 -33.9309530036 -1.9999959564
44.2628640603 -33.9279357392 -1.9999959305
45.5332232158 -33.6969286494 -1.9999956452
49.1445223930 -27.5732743602 -1.9999941669
45.8284344034 -30.1332055586 -1.9999994965
46.5283146852 -30.5876737529 -1.9999990354
46.4184409206 -31.0255085594 -1.9999990210
46.4722272368 -30.8731070688 -1.9999990210
46.7637219823 -29.4503191334 -1.9999989490
46.7266228199 -30.5892180102 -1.9999989201
46.7999851505 -30.1558744522 -1.9999989201
43.8808567953 -33.4981988418 -1.9999988913
43.9198519991 -33.5138366205 -1.9999988769
43.9644734226 -33.5028221407 -1.9999988769
46.8737779743 -29.3266789439 -1.9999988769
44.1556302032 -33.4997627064 -1.9999988481
44.2185276130 -33.5054469235 -1.9999988337
44.2407997526 -33.4982387645 -1.9999988337
44.2929967441 -33.5063137183 -1.9999988193
44.3152727087 -33.4986649598 -1.9999988193
44.3678744875 -33.5057169533 -1.9999988049
44.3790160335 -33.5016875489 -1.9999988049
44.3901456109 -33.4976252034 -1.9999988049
44.4431322241 -33.5036424421 -1.9999987905
44.4852896021 -33.5133058483 -1.9999987761
44.5165267569 -33.5269850945 -1.9999987616
44.5367201743 -33.5449551582 -1.9999987472
44.6040577883 -33.5172824468 -1.9999987472
44.6152325137 -33.5125543189 -1.9999987472
44.3008897961 -33.6820502025 -1.9999987184
44.7240690997 -33.5175804319 -1.9999987184
44.7452853981 -33.5344861313 -1.9999987040
44.6950423615 -33.6361512435 -1.9999986608
45.9937025880 -26.7139673031 -1.9999986608
45.1025742003 -33.5442973522 -1.9999986032
45.4609687687 -33.5560864719 -1.9999984879
45.5799247422 -33.5647617399 -1.9999984447
45.7975616041 -33.9426145377 -1.9999981853
45.6708036145 -30.0248729500 -2.0000012726
45.8399696625 -30.0209643631 -2.0000012928
44.4301741910 -33.4349209260 -2.0000013879
44.4893848692 -33.4354189503 -2.0000013908
46.5770048022 -30.8743652856 -2.0000013908
46.5882633267 -30.8213138661 -2.0000013908
44.5290855294 -33.4440224681 -2.0000013937
46.6514571287 -29.5772361884 -2.0000013937
44.5889396625 -33.4428173961 -2.0000013965
44.5988607667 -33.4380903452 -2.0000013965
46.7258601642 -29.8235354291 -2.0000013994
46.7037748066 -29.6034489569 -2.0000013994
44.7095226241 -33.4372757310 -2.0000014023
46.6807481972 -30.8515903603 -2.0000014023
46.5543287617 -31.3840969422 -2.0000014052
46.7137469877 -30.9275335116 -2.0000014081
46.6709443007 -29.0750068663 -2.0000014081
46.6838809042 -31.1417052985 -2.0000014109
44.9560316536 -33.4400702925 -2.0000014167
44.8534287000 -26.5930286374 -2.0000014254
44.9268669960 -26.6054068238 -2.0000014282
45.2313518660 -33.4389747060 -2.0000014340
45.3180286941 -33.4385132554 -2.0000014398
45.3279338759 -33.4316294460 -2.0000014398
45.3616245925 -33.4375216157 -2.0000014426
45.1426449888 -26.5914949864 -2.0000014426
46.5657829720 -32.2502466048 -2.0000014513
45.2951655957 -26.6026596911 -2.0000014513
45.8678401473 -26.6057441864 -2.0000014916
46.0491834514 -26.6012960964 -2.0000015060
45.5197001199 -29.9218250458 -2.0000015570
46.1698270160 -29.8453200510 -2.0000017126
46.1588974961 -29.7898889435 -2.0000017126
44.9512319726 -33.3344468121 -2.0000017818
44.9731570167 -33.3489357745 -2.0000017875
45.1175905635 -33.3375338715 -2.0000018048
45.1261725309 -33.3313794426 -2.0000018048
45.1660986235 -33.3322612010 -2.0000018106
46.5568374168 -29.5766265315 -2.0000018163
45.2550482673 -33.3260401170 -2.0000018221
46.6829302912 -30.3492285871 -2.0000018221
46.6782651647 -30.2307987864 -2.0000018221
45.2954923223 -33.3253471941 -2.0000018279
45.1342549939 -33.4734804851 -2.0000018336
46.7282128241 -30.2608216691 -2.0000018336
46.7271274641 -30.2390123166 -2.0000018336
46.5693465738 -29.3489540899 -2.0000018336
46.7521610263 -30.6112305041 -2.0000018394
46.7223630290 -29.9314767773 -2.0000018394
46.5759203275 -29.2894498446 -2.0000018394
46.8001157219 -30.2463116802 -2.0000018509
46.8220440919 -30.9190503773 -2.0000018625
46.8503772647 -30.2889680523 -2.0000018625
45.5827915179 -33.3065760492 -2.0000018682
46.7877290933 -31.2574063863 -2.0000018682
46.8166410193 -31.1127626064 -2.0000018682
46.5492974637 -28.8813763544 -2.0000018682
45.6243649651 -33.3018731774 -2.0000018740
46.8690898647 -29.9345195593 -2.0000018740
46.3889898387 -28.4633680723 -2.0000018797
46.6156157618 -28.8520352420 -2.0000018855
46.8058963769 -31.5707927826 -2.0000018913
46.9721917000 -30.5519009233 -2.0000018913
47.0035895309 -30.0476023031 -2.0000019028
46.8807972637 -31.6556790029 -2.0000019143
46.7605324584 -28.7615398004 -2.0000019259
46.7199301528 -28.6740012935 -2.0000019259
44.2741526045 -26.5212125302 -2.0000019316
46.8322229553 -32.0622388108 -2.0000019374
46.9654589364 -31.7082497213 -2.0000019374
47.0027548586 -29.2795759008 -2.0000019374
44.3626334223 -26.5246760925 -2.0000019374
44.3510650274 -26.5207847726 -2.0000019374
44.4168015520 -26.5177761361 -2.0000019431
44.4052125088 -26.5137246072 -2.0000019431
44.3936115311 -26.5097073786 -2.0000019431
44.4944942152 -26.5201424488 -2.0000019489
44.4829118321 -26.5158610806 -2.0000019489
44.5493778260 -26.5150499772 -2.0000019547
44.5377801383 -26.5106062756 -2.0000019547
44.6484815018 -26.5023629616 -2.0000019662
44.6368458500 -26.4976261490 -2.0000019662
44.6251962367 -26.4929237774 -2.0000019662
44.7275397206 -26.5092952380 -2.0000019720
44.7159242297 -26.5043245265 -2.0000019720
44.7836584350 -26.5074259883 -2.0000019777
44.7604007585 -26.4971869633 -2.0000019777
44.8400560910 -26.5063384601 -2.0000019835
44.8051350894 -26.4905311129 -2.0000019835
44.8501221597 -26.4843609820 -2.0000019892
47.0613317051 -28.7254775988 -2.0000019950
46.1086586597 -27.3239223881 -2.0000019950
44.9420207537 -26.5008941550 -2.0000019950
44.9303794725 -26.4952890066 -2.0000019950
45.0333228001 -26.4920975312 -2.0000020065
45.0216550974 -26.4862223333 -2.0000020065
45.0909763885 -26.4944990061 -2.0000020123
45.0793155375 -26.4884532480 -2.0000020123
45.1371988883 -26.4914990518 -2.0000020181
45.1719576675 -26.4826911262 -2.0000020238
45.2185962089 -26.4805804757 -2.0000020296
45.2068936260 -26.4741572560 -2.0000020296
45.2654390896 -26.4789881304 -2.0000020354
45.3007698975 -26.4712166070 -2.0000020411
45.3836916353 -26.4634279461 -2.0000020526
45.4547425128 -26.4778699795 -2.0000020584
45.4430308785 -26.4707482082 -2.0000020584
45.5387698298 -26.4731027584 -2.0000020699
45.5634284945 -26.4600989495 -2.0000020757
45.5881858351 -26.4472065531 -2.0000020815
45.6601787024 -26.4651347437 -2.0000020872
45.7829712270 -26.4605223520 -2.0000021045
45.8202748875 -26.4569978291 -2.0000021103
45.8084999102 -26.4487948382 -2.0000021103
45.9211984691 -26.4397120151 -2.0000021276
46.3676721439 -26.4499535983 -2.0000021910
45.4136688404 -29.9507186160 -2.0000009537
45.5397271693 -29.8732119555 -2.0000009537
45.5093849725 -29.7958208480 -2.0000009537
45.4947639937 -29.7609780642 -2.0000009537
45.5623729003 -29.8647558246 -2.0000009537
46.1117203119 -29.6093681608 -2.0000009537
46.1444712184 -29.6271390593 -2.0000009537
45.4791065092 -33.2081999580 -2.0000009537
46.7339436663 -30.1364055110 -2.0000009537
46.6977149758 -29.9568656697 -2.0000009537
46.6667292446 -29.8313381886 -2.0000009537
46.4686943862 -29.2734639801 -2.0000009537
46.7988652989 -30.2358348728 -2.0000009537
46.7888647113 -30.1710944615 -2.0000009537
46.3654244968 -28.9612397077 -2.0000009537
46.8506215326 -30.4835334021 -2.0000009537
46.8450089906 -30.4178353966 -2.0000009537
46.7634669622 -29.9193242815 -2.0000009537
45.9327663707 -33.2965563441 -2.0000009537
46.8979612010 -30.4687468561 -2.0000009537
46.1949145218 -28.5601705351 -2.0000009537
46.8391213246 -29.9246117604 -2.0000009537
46.9581121484 -30.7803203369 -2.0000009537
46.9044384818 -30.1293389081 -2.0000009537
46.5459623806 -28.9900557640 -2.0000009537
46.1743528279 -28.3340156776 -2.0000009537
47.0503458184 -30.9540158823 -2.0000009537
47.0054181532 -30.1473879637 -2.0000009537
46.9669774695 -29.9428822981 -2.0000009537
46.0585897989 -28.1601890333 -2.0000009537
47.0771275891 -30.3136373883 -2.0000009537
47.0372182669 -30.0474546217 -2.0000009537
46.3855289342 -28.4944347557 -2.0000009537
47.1259876094 -31.2184081621 -2.0000009537
46.6107581639 -28.6162345445 -2.0000009537
43.7692426206 -26.5171207313 -2.0000009537
43.7566683050 -26.5152969363 -2.0000009537
43.7440886494 -26.5135103465 -2.0000009537
43.7063187429 -26.5083739621 -2.0000009537
43.6937188281 -26.5067363456 -2.0000009537
43.8611037110 -26.5070878127 -2.0000009537
43.8106497036 -26.4989296849 -2.0000009537
43.7980213945 -26.4969834799 -2.0000009537
43.7853873834 -26.4950746403 -2.0000009537
43.7727477809 -26.4932031827 -2.0000009537
43.7601026976 -26.4913691235 -2.0000009537
43.8904342479 -26.4875748470 -2.0000009537
43.8777720000 -26.4853926746 -2.0000009537
43.8524284156 -26.4811407488 -2.0000009537
43.7253575810 -26.4621341463 -2.0000009537
44.0341781885 -26.4903774111 -2.0000009537
43.9961915669 -26.4826675557 -2.0000009537
43.9708297871 -26.4777150677 -2.0000009537
43.9581380205 -26.4752951139 -2.0000009537
44.1279388549 -26.4861141404 -2.0000009537
44.0772179972 -26.4748001635 -2.0000009537
44.0645171422 -26.4720655069 -2.0000009537
44.1715008595 -26.4714802768 -2.0000009537
44.1587897712 -26.4684667289 -2.0000009537
44.1333411288 -26.4625525039 -2.0000009537
43.8384238744 -26.4054156399 -2.0000009537
43.7220738787 -26.3885400864 -2.0000009537
47.5861110401 -30.8350717046 -2.0000009537
44.2536027094 -26.4669405015 -2.0000009537
44.2281433780 -26.4604653580 -2.0000009537
44.2026461831 -26.4541409538 -2.0000009537
43.6861340096 -26.3596101970 -2.0000009537
44.3107083706 -26.4570055793 -2.0000009537
44.2724147033 -26.4468429878 -2.0000009537
44.4064844716 -26.4588359033 -2.0000009537
44.3682032759 -26.4478232806 -2.0000009537
44.0113114571 -26.3378230194 -2.0000009537
44.5355230479 -26.4478816906 -2.0000009537
44.5227405579 -26.4437914025 -2.0000009537
44.5099460241 -26.4397389452 -2.0000009537
44.4971395583 -26.4357243542 -2.0000009537
43.7112058894 -26.2652860271 -2.0000009537
44.5429242676 -26.4248695801 -2.0000009537
44.1657547728 -26.3211826844 -2.0000009537
43.8744740414 -26.2643032247 -2.0000009537
43.8478224752 -26.2600746802 -2.0000009537
44.6404061013 -26.4318620644 -2.0000009537
44.4142176093 -26.3352527928 -2.0000009537
43.8013154087 -26.2042353688 -2.0000009537
44.7722408162 -26.4278964214 -2.0000009537
44.7593981705 -26.4231059668 -2.0000009537
44.7465414099 -26.4183535240 -2.0000009537
43.8318740504 -26.1842826640 -2.0000009537
44.8450539729 -26.4299091537 -2.0000009537
44.7936178693 -26.4101138722 -2.0000009537
44.7807225260 -26.4052602582 -2.0000009537
44.3478345836 -26.2667397978 -2.0000009537
44.9401873024 -26.4160432759 -2.0000009537
44.8885804714 -26.3951233033 -2.0000009537
44.2252887072 -26.1861155785 -2.0000009537
44.0210317215 -26.1427682763 -2.0000009537
44.9195352907 -26.3554377857 -2.0000009537
45.0847894463 -26.3990507745 -2.0000009537
45.0945947741 -26.3769557336 -2.0000009537
45.1823972122 -26.3903060245 -2.0000009537
45.2444950293 -26.3929075539 -2.0000009537
45.0939952832 -26.2711149921 -2.0000009537
44.7506717465 -26.1119070632 -2.0000009537
44.7368944414 -26.1071817963 -2.0000009537
45.4303213049 -26.3777073413 -2.0000009537
45.0736866849 -26.1311971276 -2.0000009537
45.2189104703 -25.9827595539 -2.0000009537
45.9795647707 -26.3613165397 -2.0000009537
45.2710906737 -25.9792449985 -2.0000009537
45.4081773981 -26.0156750487 -2.0000009537
49.2462084879 -32.5314306438 -2.0000009537
49.1767664291 -32.9051754719 -2.0000009537
46.5437312846 -29.4582169361 -2.0000009537
46.7312944917 -29.8332270482 -2.0000009537
46.7163367775 -29.7928053466 -2.0000009537
46.0939312981 -28.6564399282 -2.0000009537
46.7803086325 -29.7569579608 -2.0000009537
46.0611280089 -28.5830406124 -2.0000009537
46.9675053526 -30.3104042618 -2.0000009537
47.0171053216 -30.3114608035 -2.0000009537
45.7199974315 -28.0636052419 -2.0000009537
47.2157645371 -30.6381735617 -2.0000009537
43.2159047209 -26.5169533866 -2.0000009537
43.1889269880 -26.5175766786 -2.0000009537
43.1754396224 -26.5179481756 -2.0000009537
43.0810670944 -26.5216655291 -2.0000009537
43.3781767865 -26.4923958539 -2.0000009537
43.3103595834 -26.4918559423 -2.0000009537
43.2967955999 -26.4918683323 -2.0000009537
43.2832317124 -26.4919208470 -2.0000009537
43.2696680396 -26.4920134858 -2.0000009537
43.2289794963 -26.4925321377 -2.0000009537
43.2018570502 -26.4930785024 -2.0000009537
43.1476242287 -26.4946525749 -2.0000009537
43.5556926004 -26.4743546266 -2.0000009537
43.4739632541 -26.4706793643 -2.0000009537
43.3649138023 -26.4680364559 -2.0000009537
43.3103732568 -26.4676829182 -2.0000009537
43.6800744396 -26.4584908540 -2.0000009537
43.6253988829 -26.4544088575 -2.0000009537
43.5980439486 -26.4526105392 -2.0000009537
43.5843626114 -26.4517720785 -2.0000009537
43.5706788537 -26.4509740934 -2.0000009537
43.5569927953 -26.4502165907 -2.0000009537
43.8631048695 -26.4282150090 -2.0000009537
43.8493502061 -26.4265925570 -2.0000009537
43.7529416069 -26.4163756272 -2.0000009537
43.4350488386 -26.3968935704 -2.0000009537
43.3658128989 -26.3955229456 -2.0000009537
43.1996236769 -26.3964121869 -2.0000009537
43.9350248151 -26.4129798518 -2.0000009537
43.8936086918 -26.4075969478 -2.0000009537
43.6442574294 -26.3830352261 -2.0000009537
43.3521918972 -26.3711997653 -2.0000009537
43.1990653336 -26.3722456080 -2.0000009537
44.0213522218 -26.4009508161 -2.0000009537
43.9936740820 -26.3968108405 -2.0000009537
43.9659719331 -26.3928346905 -2.0000009537
44.1498622465 -26.3978131827 -2.0000009537
44.0666808404 -26.3836045472 -2.0000009537
43.6897859457 -26.3380165052 -2.0000009537
43.3948377421 -26.3234413844 -2.0000009537
44.1958475297 -26.3817186650 -2.0000009537
44.1680525521 -26.3765466531 -2.0000009537
44.1402274615 -26.3715391762 -2.0000009537
44.1263039282 -26.3690971934 -2.0000009537
43.5083148987 -26.3026811493 -2.0000009537
43.4235461233 -26.2998737955 -2.0000009537
44.2978620407 -26.3774599514 -2.0000009537
44.2700400817 -26.3716844620 -2.0000009537
43.3531046767 -26.2745119618 -2.0000009537
44.4004315642 -26.3754226983 -2.0000009537
44.3865183805 -26.3722109677 -2.0000009537
44.3307724648 -26.3597760384 -2.0000009537
44.4198767820 -26.3551463144 -2.0000009537
44.5094659622 -26.3522008183 -2.0000009537
44.4534746699 -26.3383125169 -2.0000009537
44.3973229646 -26.3250877028 -2.0000009537
43.9432820872 -26.2433773052 -2.0000009537
43.0510447663 -26.2085426902 -2.0000009537
44.5294654019 -26.3323668670 -2.0000009537
43.7736277578 -26.1998040662 -2.0000009537
43.6869913117 -26.1923040965 -2.0000009537
44.6339580138 -26.3354007209 -2.0000009537
44.6199254162 -26.3314983519 -2.0000009537
44.5918258963 -26.3238182318 -2.0000009537
43.6307513418 -26.1640379295 -2.0000009537
43.1066953977 -26.1575401484 -2.0000009537
44.7107990932 -26.3323534799 -2.0000009537
43.7490760083 -26.1489798640 -2.0000009537
43.3691095864 -26.1296400748 -2.0000009537
43.7951625400 -26.1290337033 -2.0000009537
44.9090018102 -26.2934456945 -2.0000009537
44.0096989033 -26.0816424432 -2.0000009537
43.6088932863 -26.0415634212 -2.0000009537
44.1020364990 -26.0710129189 -2.0000009537
43.2206723774 -26.0091429522 -2.0000009537
43.2056808340 -26.0094227652 -2.0000009537
44.2838387455 -26.0786310820 -2.0000009537
44.4660951798 -26.0928761177 -2.0000009537
43.5829966934 -25.9674558735 -2.0000009537
44.6843466815 -26.0985103075 -2.0000009537
43.8900944556 -25.9446323408 -2.0000009537
43.1120920634 -25.9154100971 -2.0000009537
43.8775632675 -25.9189052850 -2.0000009537
43.3107014177 -25.8875303393 -2.0000009537
43.2339454005 -25.8880545770 -2.0000009537
44.7020132381 -25.7278216611 -2.0000009537
45.6853672373 -25.9263437182 -2.0000009537
49.0338469396 -32.1075776227 -2.0000009537
49.0805757634 -31.8013626350 -2.0000009537
49.1637167932 -31.4272856146 -2.0000009537
49.1733121036 -30.9762966096 -2.0000009537
49.2077787448 -32.2292188247 -2.0000009537
49.2182755162 -32.4138877455 -2.0000009537
49.0358792815 -33.1273169866 -2.0000009537
46.0954463899 -28.7442373858 -2.0000009537
47.1410238983 -30.0874526113 -2.0000009537
46.6210511798 -29.0961861821 -2.0000009537
46.8179307849 -29.2117173676 -2.0000009537
47.3463676835 -30.0155840663 -2.0000009537
45.2939077691 -27.6292249325 -2.0000009537
42.8955880296 -26.4463917957 -2.0000009537
42.8810713710 -26.4482618406 -2.0000009537
42.8665603078 -26.4501748201 -2.0000009537
42.5920818096 -26.4946545198 -2.0000009537
43.3321423834 -26.3861670435 -2.0000009537
43.2439912604 -26.3902924343 -2.0000009537
43.0386919851 -26.4059969023 -2.0000009537
42.9509390278 -26.4153273798 -2.0000009537
42.4866250727 -26.4912752004 -2.0000009537
43.5085370150 -26.3584396250 -2.0000009537
43.4937574961 -26.3584968407 -2.0000009537
43.4789782111 -26.3585977767 -2.0000009537
43.4641992893 -26.3587424320 -2.0000009537
43.4346430528 -26.3591628953 -2.0000009537
43.4050898212 -26.3597582158 -2.0000009537
43.3755406290 -26.3605283728 -2.0000009537
43.0216416335 -26.3833915626 -2.0000009537
42.8894820314 -26.3984328767 -2.0000009537
42.8455236009 -26.4042278745 -2.0000009537
42.8016183287 -26.4104127506 -2.0000009537
42.7869956487 -26.4125609322 -2.0000009537
43.5678830470 -26.3344760179 -2.0000009537
43.5084791890 -26.3342666661 -2.0000009537
43.4936281623 -26.3343241587 -2.0000009537
43.3599950935 -26.3368183342 -2.0000009537
43.1671951314 -26.3466987578 -2.0000009537
42.6807805739 -26.4049755277 -2.0000009537
43.6128747479 -26.3109253279 -2.0000009537
43.0316647551 -26.3338190970 -2.0000009537
43.7781473097 -26.2924592920 -2.0000009537
43.6283086723 -26.2870531323 -2.0000009537
43.1937129533 -26.2964507198 -2.0000009537
42.8654517644 -26.3284102242 -2.0000009537
44.0497126509 -26.2893048868 -2.0000009537
43.3727354198 -26.2638769614 -2.0000009537
43.4628375634 -26.2378849632 -2.0000009537
43.3417752826 -26.2406819352 -2.0000009537
42.9945144987 -26.2646640494 -2.0000009537
42.8892358055 -26.2766460005 -2.0000009537
42.7692513545 -26.2930054134 -2.0000009537
42.7319378327 -26.2497591945 -2.0000009537
43.5848312536 -26.1654399943 -2.0000009537
43.8009221578 -26.1484154294 -2.0000009537
44.4177006427 -26.1941096755 -2.0000009537
43.0260782442 -26.1158002034 -2.0000009537
43.2733671690 -26.0741283611 -2.0000009537
43.0549526414 -26.0888876842 -2.0000009537
48.8054046852 -32.2412718336 -2.0000009537
48.8502561558 -31.9114636736 -2.0000009537
43.4442631454 -25.9963720702 -2.0000009537
48.8242893765 -32.4066047923 -2.0000009537
48.9256148582 -31.5016084040 -2.0000009537
43.1878585950 -25.9577247578 -2.0000009537
48.9439241639 -31.6467437883 -2.0000009537
43.6042647712 -25.8997810822 -2.0000009537
44.8711488012 -26.0440329363 -2.0000009537
42.9871589649 -25.8766929967 -2.0000009537
43.3437667700 -25.8294442109 -2.0000009537
43.9010921052 -25.8155063171 -2.0000009537
42.8844818456 -25.8389936523 -2.0000009537
44.5003396211 -25.8159318792 -2.0000009537
43.0417257148 -25.7503393753 -2.0000009537
49.0958773524 -30.3066159867 -2.0000009537
49.2165528277 -30.8170447072 -2.0000009537
43.0938920827 -25.5522030769 -2.0000009537
45.3873688355 -29.7972754308 -2.0000009537
45.3903567032 -29.6718369062 -2.0000009537
45.7747895496 -29.3654394517 -2.0000009537
45.7031896740 -29.2717221569 -2.0000009537
46.3344136178 -29.0300341302 -2.0000009537
46.3623609776 -28.9556719286 -2.0000009537
45.5433269842 -28.2945658513 -2.0000009537
47.0305768306 -29.3801998057 -2.0000009537
48.6280030420 -32.2870093686 -2.0000009537
48.6320365205 -32.2583042021 -2.0000009537
48.5673922695 -32.7338163891 -2.0000009537
48.6579469032 -32.2471647182 -2.0000009537
48.6635786390 -32.2038339793 -2.0000009537
48.6688256170 -32.1604549681 -2.0000009537
48.6721096426 -32.1315104964 -2.0000009537
48.6809334737 -32.0445676003 -2.0000009537
48.6882128368 -31.9574817918 -2.0000009537
48.6892757393 -31.9429555219 -2.0000009537
48.6902956657 -31.9284261712 -2.0000009537
48.6939454389 -31.8702805048 -2.0000009537
48.5874864532 -32.7536593443 -2.0000009537
48.6992645280 -32.1050590156 -2.0000009537
48.7076146163 -32.0176383361 -2.0000009537
48.7172274233 -31.8862638802 -2.0000009537
48.7252208742 -31.6815218442 -2.0000009537
48.5857531270 -32.8591559733 -2.0000009537
48.7329444070 -32.0050679715 -2.0000009537
48.7496374531 -31.6672584982 -2.0000009537
48.7243711060 -32.4508527838 -2.0000009537
48.8328484762 -31.9682800319 -2.0000009537
48.7169427396 -33.0195844221 -2.0000009537
48.9193268772 -31.6242336643 -2.0000009537
48.9053083393 -32.2187617296 -2.0000009537
48.9022188112 -30.6277593236 -2.0000009537
48.9772897201 -32.2275763973 -2.0000009537
48.9178326755 -30.3544413226 -2.0000009537
49.1108474370 -31.7359347480 -2.0000009537
42.8350461454 -26.3157849640 -2.0000009537
42.6484221038 -26.3525820032 -2.0000009537
49.1462256948 -31.9916762187 -2.0000009537
42.7681586260 -26.3035705837 -2.0000009537
42.6900673164 -26.3190880347 -2.0000009537
42.5191283516 -26.3572809019 -2.0000009537
42.4727324106 -26.3686606694 -2.0000009537
42.4823934025 -26.3413530625 -2.0000009537
41.8007375815 -26.4805200717 -2.0000009537
42.6496945268 -26.2040329196 -2.0000009537
41.7616806988 -26.4698168364 -2.0000009537
44.4260525540 -26.0279966415 -2.0000009537
44.7168687611 -25.9960754763 -2.0000009537
43.1396357936 -25.9052842682 -2.0000009537
41.7047792655 -26.2325350505 -2.0000009537
44.6082546576 -25.8079357766 -2.0000009537
45.6151205643 -29.2174775621 -2.0000009537
46.3389293424 -28.8961868383 -2.0000009537
45.6978422939 -28.4919127061 -2.0000009537
46.7180174729 -28.9675060180 -2.0000009537
47.3321800392 -29.5353089120 -2.0000009537
48.5171895475 -32.2034185638 -2.0000009537
48.5286474409 -32.0586065755 -2.0000009537
48.5424960254 -32.1924973873 -2.0000009537
48.5550920211 -32.0203547526 -2.0000009537
48.5591300830 -31.9274984472 -2.0000009537
48.5665662250 -32.1947246663 -2.0000009537
48.5711715639 -32.1415260682 -2.0000009537
48.5760425240 -32.0749573012 -2.0000009537
48.5840946616 -31.9016118106 -2.0000009537
48.6096477378 -31.7278125623 -2.0000009537
48.6083955066 -31.6607199713 -2.0000009537
48.6036414983 -31.5400283343 -2.0000009537
48.6171134917 -32.1723018442 -2.0000009537
48.6254702445 -31.4983441459 -2.0000009537
48.6573517320 -31.6865810470 -2.0000009537
48.6367034063 -31.3346092633 -2.0000009537
48.6325806262 -31.2941268074 -2.0000009537
48.6296325868 -31.2671595187 -2.0000009537
48.6686265530 -32.1357023061 -2.0000009537
48.6455443929 -31.1967687361 -2.0000009537
48.6438022573 -31.1832449884 -2.0000009537
48.6564211462 -31.0986672522 -2.0000009537
48.7069962194 -32.2492306219 -2.0000009537
48.6823349207 -31.1087505922 -2.0000009537
48.6674701948 -31.0134550561 -2.0000009537
48.7481963029 -32.0307564083 -2.0000009537
48.7718643165 -31.5172170929 -2.0000009537
48.7693567561 -31.4755279689 -2.0000009537
48.7432000605 -31.1983693904 -2.0000009537
48.7699264175 -32.3400025814 -2.0000009537
48.7747206930 -32.2982982549 -2.0000009537
48.7868804073 -32.1729530040 -2.0000009537
48.7753057581 -31.2648794432 -2.0000009537
48.7499907669 -31.0706334642 -2.0000009537
48.7166551637 -30.8776021541 -2.0000009537
48.6969969628 -30.7816455449 -2.0000009537
48.8272810617 -31.8238115496 -2.0000009537
48.8509605251 -31.6968199232 -2.0000009537
48.8377458655 -31.4144489937 -2.0000009537
48.7823487971 -30.8359057480 -2.0000009537
48.8855311345 -32.1525415562 -2.0000009537
48.8968732859 -31.9529708068 -2.0000009537
48.8367064948 -30.9997347071 -2.0000009537
48.9248765968 -32.2568473099 -2.0000009537
48.9387817243 -32.0843508193 -2.0000009537
48.9967033416 -31.7817143579 -2.0000009537
49.0173258480 -31.5914968585 -2.0000009537
49.0448785795 -31.7376178238 -2.0000009537
49.0396144131 -31.5464964408 -2.0000009537
49.0619907607 -32.0476590988 -2.0000009537
49.0646520089 -32.3153840755 -2.0000009537
49.0776173523 -31.3812054303 -2.0000009537
48.9013296127 -30.4035737255 -2.0000009537
49.1416357979 -31.8117845605 -2.0000009537
49.1715179140 -31.3433733814 -2.0000009537
48.8419231054 -29.4980730719 -2.0000009537
49.2861787008 -30.7670577590 -2.0000009537
49.1485153486 -29.9856843725 -2.0000009537
49.1431884057 -29.9706780447 -2.0000009537
43.2733292579 -26.0404897525 -2.0000009537
42.4791500351 -26.1834457647 -2.0000009537
43.9726579519 -25.9375501156 -2.0000009537
44.0416535319 -25.9125985982 -2.0000009537
43.0191282448 -25.9833885237 -2.0000009537
43.4650710646 -25.8954976493 -2.0000009537
43.0320225720 -25.9565005436 -2.0000009537
43.4601016476 -25.8474076709 -2.0000009537
42.3269105059 -25.9761546993 -2.0000009537
45.2982735496 -29.3683375913 -2.0000009537
45.2832035383 -29.3630441062 -2.0000009537
45.7454178938 -28.5555680123 -2.0000009537
48.5133930213 -31.6468467250 -2.0000009537
48.5108702094 -31.6103178490 -2.0000009537
48.5349781653 -31.6085453518 -2.0000009537
48.5144485316 -31.4008732531 -2.0000009537
48.5428438038 -31.4346730191 -2.0000009537
48.5384369096 -31.3978911391 -2.0000009537
48.5608748795 -31.3825863191 -2.0000009537
48.5576647392 -31.3579549361 -2.0000009537
48.5433686644 -31.2596322491 -2.0000009537
48.5374083609 -31.2228526040 -2.0000009537
48.5674083076 -31.1159753505 -2.0000009537
48.5601721831 -31.0789880242 -2.0000009537
48.5576872334 -31.0666733657 -2.0000009537
48.6003410019 -31.1611343071 -2.0000009537
48.5720386800 -30.9081974420 -2.0000009537
48.5905014603 -30.7848301223 -2.0000009537
48.6333125286 -30.8535896338 -2.0000009537
48.5894541547 -30.6914620307 -2.0000009537
48.7215870639 -31.1526537766 -2.0000009537
48.8028658585 -31.6281449302 -2.0000009537
48.5998054641 -30.4833031347 -2.0000009537
48.5955581974 -30.4708738402 -2.0000009537
48.8194705768 -31.3097232585 -2.0000009537
48.7975064201 -31.1661287911 -2.0000009537
48.6311211678 -30.5005520199 -2.0000009537
48.6727424798 -30.4726001591 -2.0000009537
48.8743616410 -30.8214406491 -2.0000009537
48.6442931414 -30.0031601779 -2.0000009537
48.6491373945 -29.9554280818 -2.0000009537
45.2202794488 -29.5539277766 -2.0000009537
45.2163453839 -29.1845162905 -2.0000009537
45.2975665085 -28.9780214405 -2.0000009537
45.2708264927 -28.9731684608 -2.0000009537
45.3000388845 -28.6347950686 -2.0000009537
45.6809843479 -28.4955761717 -2.0000009537
45.8833280356 -28.5311557383 -2.0000009537
45.8806322221 -28.5048129480 -2.0000009537
45.9295834247 -28.4957074501 -2.0000009537
44.9685672754 -28.3050949730 -2.0000009537
45.9269860771 -28.4692957759 -2.0000009537
48.4746426766 -31.1245890163 -2.0000009537
