30.3688506915 -14.9772051131 -3.2800129820
29.9875569834 -15.1434640161 -3.2800129302
26.6768990280 -14.9683723903 -3.2800115038
33.4787855401 -14.2741838549 -3.2800108294
33.4713961421 -14.3742214827 -3.2800108035
33.4830701759 -14.3395164356 -3.2800108035
33.4906815612 -14.3163227719 -3.2800108035
33.4781356605 -14.4284098077 -3.2800107776
33.4976339436 -14.6485128108 -3.2800106738
33.6593927861 -14.3444166947 -3.2800106220
33.4933015809 -15.1142754776 -3.2800104664
29.6757751096 -15.1698221445 -3.2800097896
30.0147373314 -15.0645343203 -3.2800097896
30.0204080052 -15.0622137228 -3.2800097896
29.5529955147 -15.2172905437 -3.2800097233
29.9370046167 -15.1200863854 -3.2800097233
30.0410491619 -15.0798261338 -3.2800097233
30.3382951663 -14.9266966781 -3.2800097233
29.5566857935 -15.2411802303 -3.2800096571
29.8378617636 -15.1779203342 -3.2800096571
30.0271717474 -15.1116633392 -3.2800096571
30.3828296316 -14.9271090239 -3.2800096571
29.9592151108 -15.1634839048 -3.2800095908
30.2874163631 -15.0130232545 -3.2800095908
30.3906089918 -14.9508488625 -3.2800095908
30.2088002718 -15.0824022466 -3.2800095245
29.3809025900 -15.3335558772 -3.2800094582
29.1457021985 -15.3851843850 -3.2800093257
28.8517971267 -15.3787304777 -3.2800092594
29.4458863253 -15.4010446516 -3.2800092594
29.8984800752 -15.3111101711 -3.2800092594
30.4783376172 -15.0379798363 -3.2800092594
29.9378669948 -15.3240308026 -3.2800091931
30.7290800516 -14.9420750358 -3.2800090606
30.2076182939 -15.2972861782 -3.2800089943
30.4427385725 -15.1743958196 -3.2800089943
30.5835485833 -15.0834795549 -3.2800089943
26.7997141113 -15.4170729964 -3.2800063432
26.7820403890 -15.4335646556 -3.2800062769
26.8351317745 -15.5918165402 -3.2800060781
26.8307958158 -15.6549362103 -3.2800059455
26.8382269363 -15.6620317043 -3.2800059455
26.8467018566 -16.0564047122 -3.2800051502
33.5079462186 -13.9157420469 -3.2800035595
33.5146050772 -13.8777749491 -3.2800035595
33.5269106997 -13.8016709526 -3.2800035595
33.5224252733 -14.0899136597 -3.2800034269
33.5279321579 -14.0645200975 -3.2800034269
33.5460211623 -13.9753954009 -3.2800034269
33.5363134812 -14.2408807916 -3.2800032944
33.5458566466 -14.2026491467 -3.2800032944
33.5983803061 -13.9587085141 -3.2800032944
33.5395289641 -14.3234556591 -3.2800032281
33.5564665475 -14.2596332605 -3.2800032281
33.6197102600 -13.9761106474 -3.2800032281
33.5485411155 -14.3809774799 -3.2800031618
33.5765461194 -14.2785144869 -3.2800031618
33.6553174673 -13.9152809573 -3.2800031618
33.5562060487 -14.5227435264 -3.2800030293
33.7258661294 -13.7777276445 -3.2800030293
25.8983542741 -16.2581476143 -3.2800029630
33.5625637663 -14.5814052556 -3.2800029630
33.5709777778 -14.5557656187 -3.2800029630
33.6788149331 -14.1657577984 -3.2800029630
33.6934048686 -14.0998925561 -3.2800029630
33.5025634416 -14.8186101774 -3.2800028967
33.5774895442 -14.6868998264 -3.2800028304
33.7102107310 -14.2429004048 -3.2800028304
33.5750940112 -14.8322199399 -3.2800026979
33.7604268183 -14.2410129215 -3.2800026979
33.3341062509 -15.4052604853 -3.2800026316
33.1455800531 -15.7617700379 -3.2800025653
33.5062148762 -13.1747337331 -3.2800103107
33.5306139614 -13.4330727959 -3.2800102848
33.5322891764 -13.3240041866 -3.2800102848
33.5303777298 -13.1740324581 -3.2800102848
33.5677364346 -13.6545379268 -3.2800102329
33.5771178187 -13.4894707548 -3.2800102329
33.5792963766 -13.4206132426 -3.2800102329
33.5822863825 -13.7667224514 -3.2800102070
33.5928531147 -13.6425245847 -3.2800102070
33.5972936767 -13.5734175998 -3.2800102070
33.6109765502 -13.9382423236 -3.2800101551
33.6486101022 -13.8297847720 -3.2800101292
33.6641601812 -13.6617369268 -3.2800101292
33.6259763954 -14.1541393113 -3.2800101033
33.6510232134 -14.0006800781 -3.2800101033
33.5640790176 -14.8004741774 -3.2800099995
33.5358166056 -14.9588273832 -3.2800099736
33.5335281658 -15.0353553182 -3.2800099477
29.5662394533 -15.4027438418 -3.2800194767
33.6040205258 -13.1559467911 -3.2800253062
33.5863382275 -12.9655723421 -3.2800253062
33.5812189528 -12.9217460807 -3.2800253062
33.6221653010 -13.0805178709 -3.2800253552
33.5292776717 -12.4671660785 -3.2800253552
27.3398893901 -18.7178271277 -3.2800260901
26.8757438703 -18.6554173813 -3.2800262370
26.7311951876 -18.6291247788 -3.2800262860
26.7531053219 -18.6630463397 -3.2800263350
29.8493324263 -15.2329038937 -3.2800205988
29.7159425385 -15.3851051329 -3.2800206622
29.7301516261 -15.3734442886 -3.2800206622
29.7721501958 -15.3377116476 -3.2800206622
29.9343481275 -15.1794865309 -3.2800206622
30.1578014012 -14.8881714544 -3.2800206622
30.0371836264 -15.0973102691 -3.2800207256
30.1159372284 -14.9936906524 -3.2800207256
29.5693300477 -15.5520247875 -3.2800207890
29.7268951144 -15.4383222675 -3.2800207890
30.1918672626 -14.9246478833 -3.2800207890
29.9877508316 -15.2285494369 -3.2800208524
30.1842555853 -14.9800655606 -3.2800208524
30.2744900584 -14.8346005681 -3.2800208524
30.3108080039 -14.7677306183 -3.2800208524
29.4133127604 -15.6995086828 -3.2800209158
29.8065862277 -15.4355793239 -3.2800209158
29.9703972431 -15.2822704982 -3.2800209158
30.0098835786 -15.2401747046 -3.2800209158
29.5817613570 -15.6302613396 -3.2800209792
29.6839519094 -15.5614608983 -3.2800209792
30.4572477013 -14.5594703043 -3.2800209792
29.5780286016 -15.6611325486 -3.2800210426
29.6441195688 -15.6184598387 -3.2800210426
29.9590374146 -15.3623490595 -3.2800210426
30.0455819835 -15.2727778489 -3.2800210426
30.3628965219 -14.8243965593 -3.2800210426
29.4993945018 -15.7354476554 -3.2800211060
30.1160119007 -15.2294137928 -3.2800211060
29.1887314006 -15.9043786417 -3.2800211694
29.2699007362 -15.8728318810 -3.2800211694
29.2822783282 -15.8677023873 -3.2800211694
29.2946253558 -15.8624997533 -3.2800211694
29.6374876180 -15.6807051478 -3.2800211694
30.1473783028 -15.2297024558 -3.2800211694
29.6162773899 -15.7227446232 -3.2800212328
29.1796244026 -15.9590393475 -3.2800212962
29.5287031027 -15.8021212745 -3.2800212962
29.5466203479 -15.7921056537 -3.2800212962
29.7486710765 -15.6637554776 -3.2800212962
30.0236824451 -15.4679645677 -3.2800213596
30.3673397151 -15.0539304267 -3.2800213596
30.7042321952 -14.2193182086 -3.2800213596
30.0950630290 -15.4314652508 -3.2800214230
30.5974478189 -14.6652806377 -3.2800214230
27.5841356237 -18.6077214312 -3.2800280796
27.7129928616 -18.6279706634 -3.2800280796
27.7416980284 -18.6320041399 -3.2800280796
27.7704265562 -18.6358677165 -3.2800280796
27.8279496717 -18.6430846347 -3.2800280796
27.2378714495 -18.5605142857 -3.2800281430
27.3229336365 -18.5805480452 -3.2800281430
27.3655947208 -18.5899979804 -3.2800281430
27.8974551315 -18.6751899747 -3.2800281430
27.9699397508 -18.6822216279 -3.2800281430
28.1733570945 -18.6961987118 -3.2800281430
28.2897994949 -18.7003998540 -3.2800281430
28.3480498254 -18.7014667926 -3.2800281430
27.0201025041 -18.5270547093 -3.2800282064
27.2890682710 -18.5975834688 -3.2800282064
27.3033298354 -18.6008756145 -3.2800282064
27.9095028281 -18.7007315505 -3.2800282064
26.9992059397 -18.5461058501 -3.2800282698
27.5864269347 -18.6816601965 -3.2800282698
28.3033324627 -18.7490663234 -3.2800282698
27.3213562880 -18.6545196369 -3.2800283332
27.4080737490 -18.6730568856 -3.2800283332
27.4370509976 -18.6788935770 -3.2800283332
27.6992552530 -18.7236819095 -3.2800283332
28.0076507757 -18.7582103544 -3.2800283332
27.5345215866 -18.7217732313 -3.2800283966
27.9169579289 -18.7743576965 -3.2800283966
27.4569369519 -18.7320357708 -3.2800284600
27.5891485801 -18.7556270423 -3.2800284600
28.0335219171 -18.8087101364 -3.2800284600
27.1306861153 -18.6830176104 -3.2800285234
27.3986923273 -18.7944821415 -3.2800286502
27.1565971656 -18.7645037725 -3.2800287136
33.7051867219 -12.8150877939 -3.2800293475
33.6809138002 -12.6900345405 -3.2800293475
33.6607708088 -12.5966406973 -3.2800293475
33.6934608110 -12.5234139467 -3.2800294743
33.6100215856 -12.2131488930 -3.2800294743
33.5665164612 -12.0752520641 -3.2800294743
33.5614563232 -12.0600029207 -3.2800294743
33.6897453434 -12.4081954172 -3.2800295377
33.6563170473 -12.1992179436 -3.2800296011
33.5811121598 -11.9680145795 -3.2800296011
33.5136096114 -11.7855960115 -3.2800296011
33.5076928500 -11.7705046434 -3.2800296011
33.7406074485 -12.4118202948 -3.2800296645
33.6887554241 -12.2234615209 -3.2800296645
33.5536869861 -11.8223842538 -3.2800296645
33.6374568243 -11.9829451011 -3.2800297279
33.5478618128 -11.6128713721 -3.2800298547
33.6689758928 -11.6528887489 -3.2800301083
33.6434602229 -11.5908001418 -3.2800301083
33.8694790595 -12.1526743717 -3.2800301717
33.9485780094 -12.2532530880 -3.2800302985
34.0776194969 -12.4675746286 -3.2800304887
29.9902714824 -15.1028127021 -3.2800157182
29.8682431166 -15.3287773341 -3.2800157240
30.2080961953 -14.8108738386 -3.2800157355
29.9643894842 -15.3617558153 -3.2800157471
29.9784208346 -15.4627742560 -3.2800157643
30.1540628600 -15.2058174469 -3.2800157643
27.7414436352 -18.5358857904 -3.2800163003
27.9266292037 -18.5519169713 -3.2800163003
27.9796460258 -18.5550873974 -3.2800163003
28.0725023335 -18.5591254037 -3.2800163003
28.0857736496 -18.5595452688 -3.2800163003
28.1919770441 -18.5614905651 -3.2800163003
28.1651226478 -18.5854110487 -3.2800163061
28.2719158923 -18.5854714452 -3.2800163061
27.8008215898 -18.6147021077 -3.2800163176
28.1105626777 -18.6327650089 -3.2800163176
27.8760949666 -18.6937632284 -3.2800163349
28.9825731001 -18.6436206179 -3.2800163349
28.8912502624 -18.6823297507 -3.2800163407
29.0137145817 -18.6628557531 -3.2800163407
27.7207794072 -18.7281627982 -3.2800163464
27.6877965047 -18.7731592778 -3.2800163580
30.0223711750 -15.1342239898 -3.2800130080
30.0427389492 -15.1486277710 -3.2800129820
30.1766881461 -14.8751093858 -3.2800129302
30.1928527253 -14.9117123274 -3.2800129042
30.2508236884 -14.5318250690 -3.2800129042
29.6147512055 -16.1648218187 -3.2800127227
29.8587420677 -15.9203843640 -3.2800127227
30.2908989765 -15.2441325875 -3.2800126968
28.3273655045 -18.4907540199 -3.2800108294
28.4869605426 -18.5025499925 -3.2800108035
28.4526304242 -18.5300155455 -3.2800107776
28.5991190813 -18.5144397107 -3.2800107776
28.6266000665 -18.5353089279 -3.2800107516
28.6755403706 -18.5286360449 -3.2800107516
28.7365990980 -18.5194813777 -3.2800107516
28.7158115162 -18.5471521073 -3.2800107257
28.7771396983 -18.5373997889 -3.2800107257
28.9429518282 -18.6050555404 -3.2800106220
29.1041438305 -18.5690403342 -3.2800106220
29.1411370568 -18.5598506938 -3.2800106220
29.2399583173 -18.5837463502 -3.2800105701
29.0309430424 -18.7100099051 -3.2800104923
29.4717473330 -18.5893647080 -3.2800104923
29.6526994759 -18.5510632501 -3.2800104664
29.6649840153 -18.5464138707 -3.2800104664
29.8934214436 -18.4786614597 -3.2800104404
29.7316964700 -18.5724377327 -3.2800104145
30.0310213540 -15.3803531804 -3.2800139668
30.3204651063 -15.2309728870 -3.2800138227
30.4581380479 -15.3828357295 -3.2800137219
30.3164946805 -11.7321015946 -3.2800129726
28.8753981280 -18.4746394859 -3.2800129438
28.9141845379 -18.4903265163 -3.2800129294
28.9695937168 -18.4765621752 -3.2800129294
28.9755948187 -18.4999784528 -3.2800129150
29.1778564624 -18.4929191397 -3.2800128862
29.0356417448 -18.7840216413 -3.2800127421
30.0423084883 -15.0333396277 -3.2800154742
30.0668292088 -15.1246085170 -3.2800154771
30.0643028556 -14.9776099474 -3.2800154771
30.0765573083 -15.3352205884 -3.2800154800
30.0873807267 -14.9577715036 -3.2800154800
30.0750201668 -15.4990580181 -3.2800154829
30.1046700818 -15.4726141557 -3.2800154857
30.0330986669 -14.0974887175 -3.2800155001
30.3296967958 -15.2123842886 -3.2800155088
30.3320179175 -15.1571245229 -3.2800155088
30.4486508250 -15.2479181554 -3.2800155232
30.4499851517 -15.2261452821 -3.2800155232
30.4532234764 -15.1462304885 -3.2800155232
29.4202479418 -18.4391518464 -3.2800156644
29.4301589322 -18.4349237870 -3.2800156644
29.4695311827 -18.4441988947 -3.2800156673
29.4794568877 -18.4398250245 -3.2800156673
29.4893696104 -18.4354218113 -3.2800156673
29.5290702706 -18.4440253291 -3.2800156702
29.5588044674 -18.4302873591 -3.2800156702
29.5988455079 -18.4380932062 -3.2800156730
29.6087525853 -18.4333368275 -3.2800156730
29.6186455491 -18.4285511627 -3.2800156730
29.6688898649 -18.4307350871 -3.2800156759
29.8212463601 -18.4329171250 -3.2800156846
29.9856987057 -18.4225464318 -3.2800156932
29.7794757797 -11.6089594050 -3.2800156961
29.8946218605 -11.6152546852 -3.2800157019
30.3378033920 -18.4247192265 -3.2800157163
30.0626107856 -15.1088888851 -3.2800157182
30.0509842698 -15.0433025139 -3.2800157182
30.1237431591 -15.1994855581 -3.2800157298
30.1150317799 -15.1318623282 -3.2800157298
30.0787087748 -14.9432372917 -3.2800157298
30.1477651463 -15.1967875188 -3.2800157355
30.1455827268 -15.1781041692 -3.2800157355
30.0357232388 -14.7154400782 -3.2800157355
30.0089872000 -14.6451128786 -3.2800157355
30.1850865747 -15.4535974946 -3.2800157413
30.1031657515 -14.8460632895 -3.2800157413
30.0978726075 -14.8277895455 -3.2800157413
30.0407204835 -14.6597257700 -3.2800157413
29.9726212169 -14.5026754148 -3.2800157413
30.1995330399 -15.6394958745 -3.2800157471
30.2058625996 -15.5563705024 -3.2800157471
30.1877096281 -15.1277756672 -3.2800157471
30.1858641073 -15.1150828226 -3.2800157471
30.1461791756 -14.9138132591 -3.2800157471
30.0081042366 -14.5211693128 -3.2800157471
30.1610151758 -15.9925184751 -3.2800157528
30.1658939004 -15.9736862042 -3.2800157528
30.2167835616 -15.1629345118 -3.2800157528
30.2078332067 -15.0987108167 -3.2800157528
30.1665024252 -14.8954380194 -3.2800157528
30.1367754355 -14.7892943440 -3.2800157528
29.9140164116 -14.2937476000 -3.2800157528
30.1971658762 -15.9478164001 -3.2800157586
30.2472708464 -15.2185973133 -3.2800157586
30.2183349727 -15.0174980028 -3.2800157586
30.1816574767 -14.8577882167 -3.2800157586
29.9901904289 -14.3778071709 -3.2800157586
29.9581170777 -14.3206290445 -3.2800157586
30.1990725076 -16.0368289824 -3.2800157643
30.2810461735 -15.4942690980 -3.2800157643
30.2575974010 -15.1044361279 -3.2800157643
30.2342706557 -14.9739706285 -3.2800157643
29.9954478681 -14.3372734416 -3.2800157643
30.1960158202 -14.7360437358 -3.2800157701
30.3140628727 -15.7048423027 -3.2800157759
30.3235526615 -15.2587860363 -3.2800157759
30.2856660991 -14.9839563250 -3.2800157759
30.3414281752 -15.1888065681 -3.2800157816
29.8740924626 -14.0222780372 -3.2800157816
30.3567820708 -15.7517203927 -3.2800157874
30.2628728457 -14.7071392023 -3.2800157874
30.3180511408 -14.8066411366 -3.2800157932
30.2451673110 -14.5200870217 -3.2800157989
30.4171390006 -15.0303161508 -3.2800158047
30.2451198667 -16.4664544643 -3.2800158105
30.3050053705 -16.3276514872 -3.2800158105
30.4397567443 -15.0191763771 -3.2800158105
30.4856533506 -15.1734713487 -3.2800158162
30.4840729663 -15.1590149693 -3.2800158162
30.4824070809 -15.1445681929 -3.2800158162
30.1297400359 -14.1369284360 -3.2800158162
30.5112004083 -15.1855232142 -3.2800158220
30.5458255160 -15.9378068246 -3.2800158393
30.3305814362 -16.9538003435 -3.2800158854
29.9340424131 -18.3456913805 -3.2800160583
29.9645314134 -18.3546336644 -3.2800160640
29.9731646461 -18.3489319598 -3.2800160640
29.9817809742 -18.3432047416 -3.2800160640
29.9903803226 -18.3374520598 -3.2800160640
30.0778603956 -18.3360519513 -3.2800160756
30.1347438841 -18.3251958390 -3.2800160813
30.1917486474 -18.3132877993 -3.2800160871
30.2891283833 -18.2996409840 -3.2800160986
30.3125704289 -18.3119568482 -3.2800161044
30.1116145424 -18.5180992900 -3.2800161159
30.4108870037 -18.2946437036 -3.2800161159
30.5498478533 -18.3033567286 -3.2800161390
30.5975716871 -18.3579594138 -3.2800161562
30.5431232014 -18.4361997216 -3.2800161620
29.2438646408 -11.5370819347 -3.2800162024
29.2323334757 -11.5335419225 -3.2800162024
29.3741978848 -11.5285978022 -3.2800162139
29.4630439831 -11.5343207256 -3.2800162196
29.4399510589 -11.5259781378 -3.2800162196
29.5725411415 -11.5240363923 -3.2800162312
29.5493854554 -11.5150461625 -3.2800162312
29.6948900897 -11.5216499749 -3.2800162427
29.8999524937 -11.5879477010 -3.2800162485
29.8543216451 -11.5662258381 -3.2800162485
29.3490927321 -11.3674857125 -3.2800162485
31.2129402636 -18.3298920350 -3.2800162542
29.8068627562 -11.5177986196 -3.2800162542
29.7952720842 -11.5125932416 -3.2800162542
29.4930150800 -11.3395930211 -3.2800162658
29.9768520282 -11.5179120628 -3.2800162715
29.9420283831 -11.5008903403 -3.2800162715
30.0449807012 -11.4980034039 -3.2800162830
30.3830877081 -11.4911534123 -3.2800163234
30.1207776342 -15.1407752896 -3.2800152302
30.0993626688 -15.0768726353 -3.2800152302
30.0069514239 -14.8566503732 -3.2800152302
30.2200429218 -15.4653776117 -3.2800152302
30.0983981966 -15.0049103855 -3.2800152302
29.9364292261 -14.6775301588 -3.2800152302
30.1916569462 -15.2103620747 -3.2800152302
30.2292325006 -15.2592807416 -3.2800152302
30.0433852525 -14.7682369876 -3.2800152302
30.3135648465 -15.8258130216 -3.2800152302
30.3094330168 -15.6207099767 -3.2800152302
30.2009899113 -15.0749732155 -3.2800152302
30.0966161596 -14.8199230814 -3.2800152302
29.9815062537 -14.6125618320 -3.2800152302
29.9174702152 -14.5165309474 -3.2800152302
30.3294412531 -15.5673670551 -3.2800152302
30.3175570129 -15.4643049015 -3.2800152302
30.2715136890 -15.2289533295 -3.2800152302
30.3493128180 -16.0102162351 -3.2800152302
30.3612711062 -15.8467859630 -3.2800152302
30.2705882118 -15.1345331639 -3.2800152302
30.1196341553 -14.7577323497 -3.2800152302
29.9793663734 -14.5209827307 -3.2800152302
29.9455504404 -14.4726304640 -3.2800152302
30.3507339890 -15.3660237129 -3.2800152302
30.1530871950 -14.7703995780 -3.2800152302
30.4108290432 -15.7346615163 -3.2800152302
30.3298381604 -15.1658196550 -3.2800152302
30.3150037859 -15.1143213102 -3.2800152302
30.2656218118 -14.9683987671 -3.2800152302
30.4290701792 -15.5990531640 -3.2800152302
30.0240426159 -14.4161650507 -3.2800152302
30.4832322126 -15.7267170236 -3.2800152302
30.4715563415 -15.1342003443 -3.2800152302
30.4518260491 -15.0657055518 -3.2800152302
30.4483513510 -14.9764766184 -3.2800152302
30.4412463429 -14.9560794574 -3.2800152302
30.0346610133 -14.2312467046 -3.2800152302
30.4560089498 -14.8574319239 -3.2800152302
30.6233165484 -18.1671635501 -3.2800152302
28.6811103095 -11.5051217040 -3.2800152302
28.7980175798 -11.4969691748 -3.2800152302
28.9788776720 -11.5038831730 -3.2800152302
28.8397434860 -11.4790567276 -3.2800152302
29.0215197875 -11.4877557007 -3.2800152302
28.9708259724 -11.4777007626 -3.2800152302
28.7029553594 -11.4347940658 -3.2800152302
29.3743220814 -11.4746828185 -3.2800152302
29.3489065279 -11.4674933003 -3.2800152302
29.4446626143 -11.4701735114 -3.2800152302
29.4319465074 -11.4663518960 -3.2800152302
29.4260737566 -11.4393871101 -3.2800152302
29.6500012471 -11.4863763500 -3.2800152302
29.5227367432 -11.4437770974 -3.2800152302
29.1079528039 -11.3330424024 -3.2800152302
28.8573596523 -11.2860293368 -3.2800152302
28.6978830405 -11.2636207121 -3.2800152302
31.2581444001 -19.1016280633 -3.2800152302
29.6452758618 -11.4591167052 -3.2800152302
28.7409762270 -11.2447251306 -3.2800152302
29.7043556308 -11.4544184108 -3.2800152302
30.5014021388 -11.7483166577 -3.2800152302
30.2875819795 -15.3907537675 -3.2800152302
28.3781691571 -11.4924072980 -3.2800152302
28.2560970708 -11.4921576921 -3.2800152302
28.2154102398 -11.4927967058 -3.2800152302
28.1069562824 -11.4962656373 -3.2800152302
28.5843549820 -11.4517835226 -3.2800152302
28.5159143841 -11.4481984866 -3.2800152302
28.7942777342 -11.4205212881 -3.2800152302
28.9659643037 -11.3928461346 -3.2800152302
28.8437587218 -11.3529654758 -3.2800152302
29.0984278655 -11.3643482898 -3.2800152302
29.2839477031 -11.3745630752 -3.2800152302
29.9234926223 -11.4773117630 -3.2800152302
30.4572802788 -15.0464702259 -3.2800152302
27.8520683185 -11.4521059222 -3.2800152302
27.6784967301 -11.4789176896 -3.2800152302
28.3762552827 -11.3846664301 -3.2800152302
28.3615539996 -11.3851148837 -3.2800152302
27.4960730735 -11.4645539021 -3.2800152302
28.6124453921 -11.3350695061 -3.2800152302
28.7173018713 -11.3138947673 -3.2800152302
28.6874760182 -11.3128186541 -3.2800152302
27.4173393002 -11.3826212641 -3.2800152302
28.0246508765 -11.2616164961 -3.2800152302
27.8410151297 -11.2584622065 -3.2800152302
33.6896806717 -17.7674181812 -3.2800152302
33.6871747706 -17.9491027092 -3.2800152302
30.2168253378 -15.0343219561 -3.2800152302
29.8324074696 -14.5050456007 -3.2800152302
29.8619716624 -14.4930066428 -3.2800152302
33.5814631861 -17.4260300033 -3.2800152302
33.6540937226 -17.0712171511 -3.2800152302
33.6671382938 -16.9123291387 -3.2800152302
33.6705989713 -16.8544584515 -3.2800152302
33.6727449743 -16.8110307791 -3.2800152302
33.5426873630 -17.8327562003 -3.2800152302
33.6315683557 -17.4199577435 -3.2800152302
33.5187728472 -18.0079923213 -3.2800152302
33.7222707486 -16.7839552252 -3.2800152302
33.7254539238 -16.6669082860 -3.2800152302
33.6259013530 -18.0713146550 -3.2800152302
27.9131570990 -11.3024331480 -3.2800152302
27.4572764133 -11.3725663489 -3.2800152302
27.0295692896 -11.4488219425 -3.2800152302
30.3433456377 -15.1429531631 -3.2800152302
30.3238992429 -15.1280367764 -3.2800152302
30.0615706735 -14.9587892563 -3.2800152302
29.9522184774 -14.9035225011 -3.2800152302
30.2220237252 -15.0266004774 -3.2800152302
30.6954872100 -15.3777092251 -3.2800152302
30.1822632384 -14.8601839813 -3.2800152302
30.3975920995 -14.9420429649 -3.2800152302
30.2866617850 -14.8669368340 -3.2800152302
30.8140760948 -15.2931841044 -3.2800152302
31.1941246925 -15.7412148065 -3.2800152302
29.7147136792 -14.4311855226 -3.2800152302
29.7008124904 -14.4274302210 -3.2800152302
29.1176082385 -14.3454813692 -3.2800152302
33.5286417188 -17.0585951314 -3.2800152302
33.5329037160 -16.9794721598 -3.2800152302
33.5399652582 -17.2189215078 -3.2800152302
33.5459845089 -17.1528057425 -3.2800152302
33.5595442341 -16.9142156873 -3.2800152302
33.5608310870 -16.8611197454 -3.2800152302
33.5653108367 -17.2080040661 -3.2800152302
33.5722187947 -17.1282067509 -3.2800152302
33.5732323758 -17.1148958211 -3.2800152302
33.5777094075 -17.0482994009 -3.2800152302
33.5850907488 -16.7013772618 -3.2800152302
33.6043226580 -16.5534202741 -3.2800152302
33.6004918485 -16.4864254329 -3.2800152302
33.6099440913 -16.3100901388 -3.2800152302
33.6554787306 -16.6187759615 -3.2800152302
33.6641437073 -16.1529361253 -3.2800152302
33.6564154242 -16.0986558081 -3.2800152302
33.7272492258 -16.9606269954 -3.2800152302
33.7375225482 -17.1827145631 -3.2800152302
33.7539087423 -16.8785087380 -3.2800152302
33.7484727280 -16.5323796409 -3.2800152302
33.6407917826 -15.7512501095 -3.2800152302
33.7707487698 -17.0598433444 -3.2800152302
30.3412147140 -15.0698497341 -3.2800152302
30.0009623856 -14.9319215197 -3.2800152302
30.2685977166 -15.0077596499 -3.2800152302
30.1162018577 -14.9193646787 -3.2800152302
30.8038569483 -15.2961491671 -3.2800152302
30.1719217659 -14.9144302669 -3.2800152302
30.0885159370 -14.8840198058 -3.2800152302
30.5686436157 -15.0894197506 -3.2800152302
29.8400735230 -14.7415145431 -3.2800152302
30.4827502254 -14.9536027976 -3.2800152302
30.2866169317 -14.8570136498 -3.2800152302
29.3973742925 -14.5273650657 -3.2800152302
30.1473704950 -14.6233207838 -3.2800152302
28.1685277185 -14.2663740059 -3.2800152302
28.0691574960 -14.2606012001 -3.2800152302
26.9035037900 -14.0610705283 -3.2800152302
33.5059530978 -16.5494964799 -3.2800152302
33.5254181095 -16.4984777677 -3.2800152302
33.5241742215 -16.4862641052 -3.2800152302
33.5781904065 -16.5431098717 -3.2800152302
33.5471683944 -16.2841864946 -3.2800152302
33.5570816421 -16.1942548310 -3.2800152302
33.5576948628 -16.0666790877 -3.2800152302
33.7455872173 -16.5153392710 -3.2800152302
33.6138527027 -15.7785580250 -3.2800152302
33.5966145639 -15.7162988773 -3.2800152302
33.7510581744 -16.3452820944 -3.2800152302
33.5978431386 -15.6349006656 -3.2800152302
33.5664258498 -15.5358298739 -3.2800152302
33.5769271707 -15.4910915182 -3.2800152302
33.5191733320 -15.3314000718 -3.2800152302
33.8070043105 -16.4042184958 -3.2800152302
33.7250478392 -15.9254319303 -3.2800152302
33.7628234179 -15.9845412560 -3.2800152302
33.7426656127 -15.8943222631 -3.2800152302
33.4003902464 -14.9390927054 -3.2800152302
29.9861767309 -14.9567819817 -3.2800152302
29.9464920524 -14.9280161500 -3.2800152302
30.2537270296 -14.9329447642 -3.2800152302
30.5720202726 -15.0140705546 -3.2800152302
29.5485626154 -14.8532417712 -3.2800152302
30.3827876931 -14.9190446043 -3.2800152302
29.4063956980 -14.8461510031 -3.2800152302
30.0488015695 -14.8188026385 -3.2800152302
30.1941628617 -14.5734822929 -3.2800152302
29.4697885395 -14.3994130830 -3.2800152302
33.4942123218 -16.0021405559 -3.2800152302
33.4822761503 -15.9577567976 -3.2800152302
33.4929233518 -15.8221229990 -3.2800152302
33.4894560390 -15.8110184675 -3.2800152302
33.5054433870 -15.7814651632 -3.2800152302
33.4945816686 -15.7480730753 -3.2800152302
33.4986611399 -15.6847200874 -3.2800152302
33.6655059592 -15.8948052748 -3.2800152302
33.7046354292 -15.9468841199 -3.2800152302
33.7459861118 -16.0117364508 -3.2800152302
33.7114574324 -15.7928077520 -3.2800152302
26.6801818384 -14.1464175578 -3.2800152302
33.7700307169 -15.6571219763 -3.2800152302
33.5341896138 -14.5052313316 -3.2800152302
29.9970188365 -14.9589645382 -3.2800152302
30.3201716635 -14.9460308258 -3.2800152302
30.5307603351 -14.9562529547 -3.2800152302
30.0692559585 -14.9087266416 -3.2800152302
29.8959581353 -14.9173513322 -3.2800152302
29.6630848654 -14.9519150374 -3.2800152302
30.6515393742 -14.9611348493 -3.2800152302
30.5236201476 -14.9300076101 -3.2800152302
29.8937580160 -14.8932786348 -3.2800152302
30.1071316351 -14.8362316937 -3.2800152302
30.0173594462 -14.8372435221 -3.2800152302
29.7303789509 -14.8656136141 -3.2800152302
29.5174593048 -14.9121959596 -3.2800152302
29.4130244909 -14.9434538251 -3.2800152302
30.8981641476 -14.9676954102 -3.2800152302
30.7082724796 -14.9019395043 -3.2800152302
30.2239941984 -14.8162674478 -3.2800152302
29.4550085942 -14.9049423738 -3.2800152302
30.9435240113 -14.9601252833 -3.2800152302
29.7483264414 -14.8137681243 -3.2800152302
30.9406299377 -14.9327433832 -3.2800152302
30.7536891615 -14.8652093181 -3.2800152302
29.1174816764 -14.9306009652 -3.2800152302
31.2971840692 -15.0331535513 -3.2800152302
30.1294675121 -14.6673157844 -3.2800152302
29.7330892291 -14.6693738934 -3.2800152302
28.9375465903 -14.9412231944 -3.2800152302
30.0527321924 -14.6188193909 -3.2800152302
29.3360151110 -14.5874409573 -3.2800152302
30.6428597737 -14.5106453560 -3.2800152302
30.6054312715 -14.4285722993 -3.2800152302
29.4817591417 -14.4226021146 -3.2800152302
31.4120345431 -14.6798307709 -3.2800152302
29.4147720129 -14.4142408243 -3.2800152302
29.3918151540 -14.4203055592 -3.2800152302
31.3472665713 -14.4538387957 -3.2800152302
31.4523913635 -14.4535809610 -3.2800152302
31.5092302854 -14.4571173859 -3.2800152302
31.4941367370 -14.4487456397 -3.2800152302
31.5361861223 -14.4445440843 -3.2800152302
33.4391436464 -15.5797477957 -3.2800152302
33.4613919622 -15.5702954032 -3.2800152302
33.4528501828 -15.5503545304 -3.2800152302
33.4441905759 -15.5304645426 -3.2800152302
33.4398166818 -15.5205388482 -3.2800152302
33.4440168669 -15.4709254551 -3.2800152302
33.4380845759 -15.4011502321 -3.2800152302
33.4502875211 -15.3707913941 -3.2800152302
33.4473492026 -15.3103416183 -3.2800152302
33.3310175761 -15.0032425702 -3.2800152302
33.4376950030 -15.1373616258 -3.2800152302
33.2790544894 -14.8341206393 -3.2800152302
33.4253970085 -14.9722046113 -3.2800152302
26.6142415831 -15.2102564829 -3.2800152302
26.6089201204 -15.1682265023 -3.2800152302
26.6152453423 -15.1053903180 -3.2800152302
26.6096438812 -15.1156677386 -3.2800152302
26.6043441958 -14.9771715506 -3.2800152302
26.5056059497 -15.0039335326 -3.2800152302
26.6032118102 -14.7929678000 -3.2800152302
26.5481097894 -13.6153312364 -3.2800152302
30.1111125972 -14.9125537621 -3.2800152302
30.0026754639 -14.9326046695 -3.2800152302
29.8600443510 -14.9682603501 -3.2800152302
30.0973983518 -14.8657811355 -3.2800152302
29.7568919311 -14.9498332922 -3.2800152302
29.3534235703 -14.4578871898 -3.2800152302
29.2594597883 -14.4471256276 -3.2800152302
28.5648701668 -14.5018955775 -3.2800152302
33.3254265870 -15.0791245184 -3.2800152302
33.3456955417 -15.0659523981 -3.2800152302
33.3200459135 -14.9839190698 -3.2800152302
33.3117567852 -14.8879310082 -3.2800152302
33.3056188423 -14.8794252699 -3.2800152302
26.5442682542 -15.7330982629 -3.2800152302
26.5385472949 -15.5254217299 -3.2800152302
26.5288081499 -15.4823652006 -3.2800152302
26.5216540924 -15.3051034720 -3.2800152302
26.3709918412 -15.4909970045 -3.2800152302
25.6031924590 -15.1974496963 -3.2800152302
29.5481751051 -15.0606134795 -3.2800152302
30.4708785041 -14.4134429332 -3.2800152302
26.5323407743 -16.2968320023 -3.2800152302
26.5228152294 -16.1930672909 -3.2800152302
26.5189817577 -16.2181882312 -3.2800152302
26.4943460244 -16.0716182309 -3.2800152302
26.3836187208 -16.1448183005 -3.2800152302
26.3496979339 -16.2062209628 -3.2800152302
26.4548458274 -15.5228068518 -3.2800152302
30.2055940829 -14.8132707208 -3.2800152302
30.0852415062 -14.8739258781 -3.2800152302
29.9330914404 -14.9655970520 -3.2800152302
30.2691587670 -14.7588494436 -3.2800152302
30.3591805295 -14.6979360826 -3.2800152302
30.0292248280 -14.8497911431 -3.2800152302
30.5448969894 -14.6155906103 -3.2800152302
30.0190841586 -14.6082877886 -3.2800152302
31.1631131933 -14.3083005922 -3.2800152302
29.9471672504 -14.5913287933 -3.2800152302
26.5169532061 -16.7840977667 -3.2800152302
26.5183592827 -16.8380490756 -3.2800152302
26.5216650839 -16.9189354024 -3.2800152302
26.4683625229 -16.7714382518 -3.2800152302
26.4553693501 -16.3609301262 -3.2800152302
26.4488234950 -16.4703880984 -3.2800152302
26.4475919147 -16.4977744013 -3.2800152302
26.4448696066 -16.5799703171 -3.2800152302
26.4284855655 -16.4004440100 -3.2800152302
26.4253582658 -16.4554689672 -3.2800152302
26.4234707639 -16.1781755222 -3.2800152302
26.3977288344 -16.5372659876 -3.2800152302
26.3936572338 -16.2309056944 -3.2800152302
26.3729707920 -16.8287704492 -3.2800152302
26.4030836222 -15.9648202784 -3.2800152302
26.3494092725 -16.5356656558 -3.2800152302
26.3817204093 -15.8041546923 -3.2800152302
26.3765483428 -15.8319496598 -3.2800152302
26.2989543412 -16.7602110985 -3.2800152302
26.3834019431 -15.6743528822 -3.2800152302
26.3990575529 -15.5024529432 -3.2800152302
26.3538081038 -15.6971568614 -3.2800152302
26.2514124946 -16.8037283490 -3.2800152302
26.4722970118 -15.1659998245 -3.2800152302
26.2326816798 -16.9476842760 -3.2800152302
26.4891087793 -14.9731243046 -3.2800152302
30.1250265715 -14.8428396574 -3.2800152302
30.0489679785 -14.9028480316 -3.2800152302
30.0257915612 -14.9223313916 -3.2800152302
29.9273357440 -15.0120461974 -3.2800152302
30.4170938589 -14.6055018337 -3.2800152302
30.3894793094 -14.6195729945 -3.2800152302
30.2546928184 -14.6959674919 -3.2800152302
29.9896995192 -14.8895862815 -3.2800152302
29.7702965995 -15.1080930458 -3.2800152302
30.5605454195 -14.5142629999 -3.2800152302
30.2634289537 -14.6623539496 -3.2800152302
30.0319016499 -14.8232576447 -3.2800152302
30.0123968656 -14.8390244512 -3.2800152302
30.6165813021 -14.4667737496 -3.2800152302
30.0669482096 -14.7655333291 -3.2800152302
30.2330469867 -14.6242161905 -3.2800152302
30.1732804981 -14.6616874909 -3.2800152302
29.5558411808 -15.2693711845 -3.2800152302
30.7915806492 -14.3609218145 -3.2800152302
30.4146361676 -14.4991398789 -3.2800152302
30.2484116532 -14.5869613212 -3.2800152302
29.8685852037 -14.8679454547 -3.2800152302
29.7985623995 -14.9354489823 -3.2800152302
29.6351807105 -15.1197425852 -3.2800152302
29.7005494398 -15.0043641567 -3.2800152302
29.4039076706 -15.4275013631 -3.2800152302
29.8455829952 -14.8234465486 -3.2800152302
29.7925034417 -14.8734182481 -3.2800152302
29.7949688373 -14.8375204473 -3.2800152302
30.7015770870 -14.2858286403 -3.2800152302
29.2793646119 -15.5140973024 -3.2800152302
30.3136418154 -14.4140044579 -3.2800152302
29.7517792115 -14.8119207166 -3.2800152302
30.6408252579 -14.2286376774 -3.2800152302
29.0466319423 -15.7069412187 -3.2800152302
29.0126645346 -15.8170042856 -3.2800152302
29.1911448680 -15.3127602716 -3.2800152302
26.5089143780 -17.4796755251 -3.2800152302
26.3880319453 -16.7119204587 -3.2800152302
26.3894939697 -16.7413003147 -3.2800152302
26.4032305299 -16.9320000824 -3.2800152302
26.4205735919 -17.0928500647 -3.2800152302
26.4224095927 -17.1074431431 -3.2800152302
26.4386499633 -17.2239792311 -3.2800152302
26.4974736792 -17.5421082197 -3.2800152302
26.3697912322 -16.8163373522 -3.2800152302
26.4312985843 -17.3297221669 -3.2800152302
26.3349914136 -16.5657503515 -3.2800152302
26.3182048400 -16.1932574624 -3.2800152302
26.3145221619 -16.2677791015 -3.2800152302
26.3139179175 -16.2826895093 -3.2800152302
26.3128417647 -16.3125153610 -3.2800152302
26.3123698656 -16.3274305439 -3.2800152302
26.3119420904 -16.3423470575 -3.2800152302
26.3100781782 -16.4766340210 -3.2800152302
26.3103974615 -16.5363234255 -3.2800152302
26.3486084222 -17.1017961194 -3.2800152302
26.2877779980 -16.3416898495 -3.2800152302
26.2860108784 -16.4466322168 -3.2800152302
26.2859188250 -16.4916144549 -3.2800152302
26.3237472483 -17.2718550766 -3.2800152302
32.8741770794 -11.3406815468 -3.2800152302
32.7980058108 -11.3187686152 -3.2800152302
32.9875878197 -11.3502133099 -3.2800152302
33.0709463200 -11.3520038872 -3.2800152302
32.7956174625 -11.2679237728 -3.2800152302
32.7338508392 -11.2512379048 -3.2800152302
33.2385493807 -11.3596404693 -3.2800152302
33.3831236033 -11.3891507601 -3.2800152302
33.3076135427 -11.3597050109 -3.2800152302
32.7350655841 -11.0517862572 -3.2800152302
30.2417467300 -14.6502538363 -3.2800152302
29.9777514622 -14.9226742435 -3.2800152302
29.8939539828 -14.9517764434 -3.2800152302
29.8428258020 -15.0231241870 -3.2800152302
29.6502939871 -15.2554021086 -3.2800152302
30.1337226683 -14.5841515321 -3.2800152302
29.5314243287 -15.4709088569 -3.2800152302
30.3073321442 -14.4150698421 -3.2800152302
30.0606578098 -14.5524249357 -3.2800152302
29.5461427698 -15.2484366206 -3.2800152302
32.5818377130 -11.4482676033 -3.2800152302
32.3263744865 -11.4022939495 -3.2800152302
32.0544718084 -11.3685892338 -3.2800152302
32.5725555665 -11.4216742777 -3.2800152302
32.3729746338 -11.3851474644 -3.2800152302
32.3300210913 -11.3783975574 -3.2800152302
31.9267690696 -11.3338527907 -3.2800152302
32.1459851140 -11.3295431676 -3.2800152302
31.7538799145 -11.3008525755 -3.2800152302
31.6082585476 -11.2981853592 -3.2800152302
32.6966723738 -11.3991240174 -3.2800152302
31.9300831630 -11.2856204580 -3.2800152302
31.7107883467 -11.2754341741 -3.2800152302
31.8583379577 -11.2570058865 -3.2800152302
31.7701794440 -11.2530415747 -3.2800152302
32.7362688630 -11.3586919488 -3.2800152302
32.9983198291 -11.3021251734 -3.2800152302
26.2686485336 -17.0278471722 -3.2800152302
26.2922061724 -17.2991839072 -3.2800152302
26.3375451801 -17.5021063126 -3.2800152302
26.4088650550 -17.8482830860 -3.2800152302
26.4805227690 -18.1992968849 -3.2800152302
26.3982664281 -18.3199450805 -3.2800152302
26.0252341169 -17.6481927805 -3.2800152302
30.1220640968 -14.7247487863 -3.2800152302
29.8480984330 -15.1773165898 -3.2800152302
29.7535887520 -15.3019149421 -3.2800152302
29.7249831169 -15.0943531313 -3.2800152302
29.4533138187 -15.2092454914 -3.2800152302
29.4274391726 -15.2991887478 -3.2800152302
29.3451911409 -15.9039901935 -3.2800152302
29.7004279813 -14.4835471187 -3.2800152302
32.2794960493 -11.5150676348 -3.2800152302
32.3084567821 -11.4941040164 -3.2800152302
32.0322347488 -11.4697803928 -3.2800152302
31.9134924067 -11.4646167302 -3.2800152302
31.8870893020 -11.4638986824 -3.2800152302
31.7150742779 -11.4388693098 -3.2800152302
31.7280787908 -11.4145285718 -3.2800152302
31.7013825928 -11.4149083698 -3.2800152302
31.4730389919 -11.4003925308 -3.2800152302
31.3751205478 -11.3595383799 -3.2800152302
31.2402039918 -11.3734802191 -3.2800152302
31.1832388206 -11.3562030664 -3.2800152302
31.1426993319 -11.3616694368 -3.2800152302
31.5760036650 -11.2978224280 -3.2800152302
32.2766322079 -11.2958716621 -3.2800152302
31.5061433644 -11.2771985277 -3.2800152302
31.1360262507 -11.3137861295 -3.2800152302
30.9455792089 -11.3443595301 -3.2800152302
32.1827197521 -11.2624761218 -3.2800152302
31.7815712320 -11.2450316654 -3.2800152302
30.9004081538 -11.3281917978 -3.2800152302
32.1590005854 -11.2119790312 -3.2800152302
30.6725006507 -11.3279025507 -3.2800152302
26.3045009757 -18.2911338393 -3.2800152302
29.9855156423 -14.9141518178 -3.2800152302
29.9933270121 -14.8258648751 -3.2800152302
29.9116949930 -15.0697392314 -3.2800152302
30.1952893977 -14.4036743061 -3.2800152302
30.1742565567 -14.4343470336 -3.2800152302
30.0483359416 -14.6477699025 -3.2800152302
30.2158969276 -14.3339456652 -3.2800152302
30.0873191683 -14.5269118642 -3.2800152302
29.8602136877 -15.0754642874 -3.2800152302
29.8235237915 -15.2471005431 -3.2800152302
29.9585527271 -14.7228326027 -3.2800152302
29.9031684015 -14.8577361089 -3.2800152302
29.8138378154 -15.1682601595 -3.2800152302
30.3338611805 -14.1184786028 -3.2800152302
29.7055098491 -15.2202184294 -3.2800152302
30.1823267254 -14.1060239245 -3.2800152302
30.0683269425 -14.2488715459 -3.2800152302
30.1820841099 -14.0696165932 -3.2800152302
30.2765207543 -13.9015609569 -3.2800152302
30.5700627260 -13.6031343213 -3.2800152302
29.4857675007 -15.4227872636 -3.2800152302
29.4233185552 -15.3140659223 -3.2800152302
29.4140126084 -15.4099953148 -3.2800152302
29.4076326463 -15.5284410357 -3.2800152302
29.1415798115 -18.1142751446 -3.2800152302
28.8032977256 -18.2417027654 -3.2800152302
31.6847463503 -11.5085542434 -3.2800152302
31.6605203829 -11.5099754885 -3.2800152302
31.5758046155 -11.5160779946 -3.2800152302
31.5981521880 -11.4900528262 -3.2800152302
31.4644748162 -11.5024693011 -3.2800152302
31.2792898208 -11.5025061357 -3.2800152302
31.2512035975 -11.4824588707 -3.2800152302
31.1861328079 -11.4688876293 -3.2800152302
31.1739036138 -11.4710554982 -3.2800152302
31.6904978300 -11.3871999251 -3.2800152302
31.6281542311 -11.3909499239 -3.2800152302
31.0959917570 -11.4611051148 -3.2800152302
31.0592581651 -11.4685174602 -3.2800152302
31.0543716502 -11.4448434817 -3.2800152302
30.9684372228 -11.4635107557 -3.2800152302
31.0000525285 -11.4316781210 -3.2800152302
31.1777998025 -11.3476538199 -3.2800152302
30.7911134959 -11.4328511493 -3.2800152302
30.6612668343 -11.4447066968 -3.2800152302
30.8035318334 -11.3795268423 -3.2800152302
30.6419344719 -11.4253002998 -3.2800152302
30.5925792735 -11.4406309571 -3.2800152302
30.5111803346 -11.4418103702 -3.2800152302
30.4742985417 -11.4544133486 -3.2800152302
30.4130820878 -11.4761440530 -3.2800152302
30.5034654385 -11.4189015147 -3.2800152302
30.4048272535 -11.4534241720 -3.2800152302
31.0281472150 -11.2528154899 -3.2800152302
30.0490954796 -14.4696992876 -3.2800152302
29.8833234582 -15.0174616904 -3.2800152302
29.8739174994 -15.4055522725 -3.2800152302
29.9879726845 -14.4926655419 -3.2800152302
29.8499645392 -15.1156909016 -3.2800152302
29.8497994740 -15.4071820373 -3.2800152302
29.8112911946 -15.0090729758 -3.2800152302
29.7965818267 -15.2678909514 -3.2800152302
29.8596936984 -14.6467706340 -3.2800152302
29.7997825233 -14.9153522489 -3.2800152302
30.1712700303 -13.7174661749 -3.2800152302
29.7779301909 -14.3664645599 -3.2800152302
29.5325827278 -14.6534240447 -3.2800152302
29.5128028899 -14.6329452269 -3.2800152302
29.4690929331 -14.2929728582 -3.2800152302
29.3775190251 -16.1939103738 -3.2800152302
29.6243138939 -18.2524354348 -3.2800152302
31.1135505788 -11.5279328714 -3.2800152302
31.0804415421 -11.5358462886 -3.2800152302
31.0584084296 -11.5412850021 -3.2800152302
31.0304067811 -11.5234376972 -3.2800152302
31.0083011310 -11.5291726502 -3.2800152302
30.9972611264 -11.5320891460 -3.2800152302
30.9688604629 -11.5146950900 -3.2800152302
29.4902719531 -18.2367214558 -3.2800152302
30.7999452590 -11.5140480966 -3.2800152302
30.7441915948 -11.4558158396 -3.2800152302
30.3058731234 -11.5484823274 -3.2800152302
30.8265544494 -11.2282177260 -3.2800152302
30.2108634166 -11.4591598376 -3.2800152302
29.8749531369 -11.4681491511 -3.2800152302
30.6026548101 -10.8919091254 -3.2800152302
29.5848353781 -14.7687639028 -3.2800152302
29.5721488838 -14.6859020645 -3.2800152302
29.5438140698 -14.7108815929 -3.2800152302
29.4333454639 -14.8245653848 -3.2800152302
29.4538319883 -15.3375123802 -3.2800152302
29.4185273848 -14.5847008414 -3.2800152302
29.3819226799 -15.1336982452 -3.2800152302
29.4440672666 -14.1644936980 -3.2800152302
29.3001174240 -15.2898876498 -3.2800152302
29.2728297365 -15.2667587360 -3.2800152302
29.2737069578 -14.5694977679 -3.2800152302
29.2288736225 -14.5468999352 -3.2800152302
29.3597191853 -13.9399487288 -3.2800152302
29.2888148074 -13.5759197756 -3.2800152302
29.2874996161 -16.5075839361 -3.2800152302
29.9067074332 -18.4097516561 -3.2800152302
29.8662133386 -11.5806603078 -3.2800152302
29.8460177281 -11.5903697915 -3.2800152302
29.8258799156 -11.6001985893 -3.2800152302
29.8257586252 -18.3977791023 -3.2800152302
29.8253387560 -11.5735456704 -3.2800152302
29.7747362184 -18.3993275555 -3.2800152302
29.8150908380 -18.4194708887 -3.2800152302
29.8252165144 -18.4244320019 -3.2800152302
29.7435978991 -18.4105762143 -3.2800152302
29.6619620756 -11.6031718560 -3.2800152302
29.4733620427 -18.3989839358 -3.2800152302
29.4834286102 -18.4049560342 -3.2800152302
29.4206643635 -18.3954222785 -3.2800152302
29.4307206255 -18.4015502817 -3.2800152302
29.1508969155 -11.0034154114 -3.2800152302
29.5698091007 -14.7574250575 -3.2800152302
29.5274709444 -14.8460128873 -3.2800152302
29.5309245668 -14.8804572653 -3.2800152302
29.5328804964 -14.8976551114 -3.2800152302
29.5349889702 -14.9148349224 -3.2800152302
29.4601725412 -15.0585572791 -3.2800152302
29.2459483970 -14.3961547627 -3.2800152302
29.2471567472 -14.2344554960 -3.2800152302
29.3151160184 -15.3658042686 -3.2800152302
29.4094811820 -11.6941947681 -3.2800152302
30.0584513193 -18.4684640019 -3.2800152302
29.9510299057 -18.4789134615 -3.2800152302
29.5320644839 -18.5019008339 -3.2800152302
29.4643580950 -18.4942317705 -3.2800152302
29.2706070512 -18.4981506937 -3.2800152302
29.5586410301 -14.8447502311 -3.2800152302
29.5789648003 -14.9255526074 -3.2800152302
29.5456001229 -14.8938883997 -3.2800152302
29.5603960714 -15.0310912040 -3.2800152302
29.5429410926 -15.0550815652 -3.2800152302
29.3884197204 -14.8587272978 -3.2800152302
29.3908973592 -14.9709633139 -3.2800152302
29.4645074330 -15.1917228483 -3.2800152302
29.3022099701 -14.6116752794 -3.2800152302
29.3507452621 -14.9112363961 -3.2800152302
29.2811216364 -14.6450108389 -3.2800152302
29.2546192629 -14.6222476651 -3.2800152302
29.2305464921 -14.6244469798 -3.2800152302
29.2422965531 -14.7263729991 -3.2800152302
29.2096623489 -14.6589121916 -3.2800152302
29.1690351347 -14.1285147085 -3.2800152302
29.5751025984 -16.0129174524 -3.2800152302
28.7944793672 -11.8367700487 -3.2800152302
30.7586063044 -18.4801761069 -3.2800152302
30.7066934388 -18.4962671396 -3.2800152302
30.5819355367 -18.4980022913 -3.2800152302
30.6060338850 -18.5027088323 -3.2800152302
30.4805697312 -18.5013459585 -3.2800152302
30.4926257593 -18.5040168946 -3.2800152302
30.5893476491 -18.5240981641 -3.2800152302
30.3364449339 -18.5164365600 -3.2800152302
30.4091872476 -18.5344821618 -3.2800152302
30.7665518533 -18.6769548087 -3.2800152302
29.9093702772 -18.5621332011 -3.2800152302
29.5030796225 -18.4200426060 -3.2800152302
29.1443988446 -18.2579936552 -3.2800152302
28.7068193225 -18.0559664067 -3.2800152302
29.7322350284 -15.0413276156 -3.2800152302
29.4716953709 -15.0638460308 -3.2800152302
29.4852558304 -15.1437160681 -3.2800152302
29.4151825985 -15.0576215340 -3.2800152302
29.3028976373 -14.8401980986 -3.2800152302
29.4783758896 -15.2307176741 -3.2800152302
29.4876727605 -15.2465745859 -3.2800152302
29.2780084759 -14.8418847458 -3.2800152302
29.3188471045 -15.0196011917 -3.2800152302
29.4469973996 -15.4937768177 -3.2800152302
29.7684699292 -15.8540964651 -3.2800152302
31.2667258060 -18.5104031192 -3.2800152302
31.4072540250 -18.5082164459 -3.2800152302
31.0355419305 -18.5282557284 -3.2800152302
31.0997162700 -18.5312460240 -3.2800152302
31.2024667623 -18.5340553627 -3.2800152302
31.2795575244 -18.5345662705 -3.2800152302
31.4465445626 -18.5309795889 -3.2800152302
30.8667327309 -18.5401125119 -3.2800152302
31.2150111959 -18.5584066597 -3.2800152302
30.6513151318 -18.5879838716 -3.2800152302
31.3323125402 -18.6308292283 -3.2800152302
30.8291437174 -18.6579330255 -3.2800152302
31.0012068449 -18.6715721595 -3.2800152302
31.1603926636 -18.6782819080 -3.2800152302
30.6777415623 -18.6891646603 -3.2800152302
30.3156865887 -18.6512252282 -3.2800152302
29.7673088529 -18.5487298036 -3.2800152302
29.8708461619 -18.5830633662 -3.2800152302
29.5538641864 -18.4952164024 -3.2800152302
29.1449794951 -18.3630746263 -3.2800152302
29.7717527670 -15.0864364975 -3.2800152302
29.6250986014 -15.1351802491 -3.2800152302
29.5368045226 -15.2185104176 -3.2800152302
29.3596639721 -15.0931161085 -3.2800152302
29.2701078185 -14.9885225774 -3.2800152302
29.6918882347 -15.5282210414 -3.2800152302
29.4810891335 -15.3418441081 -3.2800152302
29.8763085623 -15.7387503136 -3.2800152302
29.1973029696 -15.0063058634 -3.2800152302
29.8105013029 -15.7208491361 -3.2800152302
31.7284535022 -18.5287408980 -3.2800152302
31.7821688530 -18.5211029850 -3.2800152302
31.8223940003 -18.5149577367 -3.2800152302
31.8491797830 -18.5106626881 -3.2800152302
31.3789409265 -18.5869743896 -3.2800152302
31.4877533560 -18.5793178185 -3.2800152302
31.9471110103 -18.5181545513 -3.2800152302
32.0140602899 -18.5052750187 -3.2800152302
32.1074536771 -18.4855831666 -3.2800152302
31.2571182312 -18.6166683641 -3.2800152302
31.2708176507 -18.6162123921 -3.2800152302
31.3803522231 -18.6111061845 -3.2800152302
31.0650129976 -18.6429673390 -3.2800152302
30.8433234074 -18.6597647940 -3.2800152302
31.1478794597 -18.6672013541 -3.2800152302
31.1894261255 -18.6666793152 -3.2800152302
30.8280496566 -18.6830856286 -3.2800152302
32.0193733761 -18.6027991830 -3.2800152302
30.7149485204 -18.6991910471 -3.2800152302
30.7567961250 -18.7025097678 -3.2800152302
31.1062936645 -18.7157007115 -3.2800152302
32.0237599703 -18.7743109757 -3.2800152302
26.2456529898 -13.0793952570 -3.2800152302
26.2429940813 -13.0937883334 -3.2800152302
26.2540972313 -12.9164250824 -3.2800152302
26.3817824852 -12.3706703684 -3.2800152302
26.2336885387 -12.8967985407 -3.2800152302
26.3541277313 -12.3769189030 -3.2800152302
26.2520061438 -12.7183253306 -3.2800152302
26.3556566544 -12.2986734070 -3.2800152302
26.2498981776 -12.0975231803 -3.2800152302
29.7501680284 -15.3088782789 -3.2800152302
29.6339397462 -15.3707368475 -3.2800152302
29.8733000701 -15.6237678655 -3.2800152302
29.1877487327 -15.1541025961 -3.2800152302
30.1172050712 -15.8477478395 -3.2800152302
29.0744461505 -15.1235251730 -3.2800152302
30.3714169167 -16.0046573885 -3.2800152302
30.1772855523 -15.9727153884 -3.2800152302
26.4511079734 -12.8791443102 -3.2800152302
26.3765105268 -13.3725093827 -3.2800152302
26.4633623502 -12.7154826900 -3.2800152302
26.4477100395 -12.7814710959 -3.2800152302
26.4274400771 -12.8742284210 -3.2800152302
26.3971744427 -13.0341490519 -3.2800152302
26.3511760390 -13.3837125464 -3.2800152302
26.3464907403 -13.4377655260 -3.2800152302
26.3433966733 -13.4783395732 -3.2800152302
26.3351349663 -13.6273080067 -3.2800152302
26.3324028825 -13.7222149530 -3.2800152302
26.4816364452 -12.5515294468 -3.2800152302
26.3780212448 -13.0032088575 -3.2800152302
26.3644757487 -13.0838916508 -3.2800152302
26.3338971852 -13.3136448003 -3.2800152302
26.3258683118 -13.3950618181 -3.2800152302
26.3121279642 -13.5991154815 -3.2800152302
26.3074819876 -13.7899423244 -3.2800152302
26.4659198461 -12.5185911784 -3.2800152302
26.3128758239 -13.2838112055 -3.2800152302
26.2892950245 -13.5706444810 -3.2800152302
26.2852141388 -13.9406128987 -3.2800152302
26.3739660355 -12.7786906233 -3.2800152302
26.2989148156 -13.1990274211 -3.2800152302
26.2742067760 -13.4319306262 -3.2800152302
26.2536389755 -13.3885856684 -3.2800152302
