26.0079519407 1.0842612909 -3.0000035881
26.0124286209 1.1095661419 -3.0000035881
26.0146107992 1.1222283888 -3.0000035881
26.0188627368 1.1475719712 -3.0000035881
26.0222883628 1.0291705981 -3.0000035218
26.0340124034 1.0926993456 -3.0000035218
26.0384387052 1.1181582313 -3.0000035218
26.0403514822 0.8793965793 -3.0000033893
26.0363192032 0.7591225463 -3.0000033230
26.0696482923 0.8997037263 -3.0000033230
26.0464229843 0.7020465195 -3.0000032567
26.1780135064 0.9445741995 -3.0000030579
26.0667954558 0.4314116781 -3.0000029916
26.2096302333 0.9794231350 -3.0000029916
26.0774952663 0.3131035114 -3.0000028591
26.2976854500 1.2121848756 -3.0000028591
26.2571467414 0.4720285793 -3.0000025277
26.2802657984 0.4649685164 -3.0000024614
26.3302913481 0.6408192759 -3.0000024614
26.0043200529 1.8794833457 -3.0000103394
26.0031320759 1.9065852701 -3.0000103394
26.0017837757 1.9336796918 -3.0000103394
26.0524081760 1.4977710752 -3.0000102875
26.1513490406 0.6080782045 -3.0000100541
26.1683812697 0.5745804736 -3.0000100281
26.3282204555 1.2675876170 -3.0000099763
22.0095389621 -0.8989159592 -3.0000203871
26.0397889367 2.3545857471 -3.0000253349
26.0234868131 2.4413145203 -3.0000253349
26.0164721866 2.5905513112 -3.0000253838
26.1657184141 1.4618017101 -3.0000254328
26.1871583132 1.3125204525 -3.0000254818
26.0946360777 2.4553430513 -3.0000254818
26.2126075452 1.3566841513 -3.0000255308
26.2291863570 1.1754791948 -3.0000255798
26.2378771785 1.4163506526 -3.0000255798
19.7877206195 -3.7294256370 -3.0000261677
19.9579080254 -3.7708390605 -3.0000261677
20.0150623481 -3.8081613342 -3.0000262166
22.7541317062 -0.3281531634 -3.0000215784
22.3767412421 -0.7197500104 -3.0000216418
22.4824313168 -0.6667086880 -3.0000217052
22.4204714569 -0.7776005579 -3.0000218320
23.1186202677 0.0386471651 -3.0000218320
21.9175074606 -1.1517516089 -3.0000220222
23.3546076680 0.4032075346 -3.0000220222
20.6297236371 -3.6939363975 -3.0000281716
19.5341585159 -3.5311661780 -3.0000282350
19.5763925281 -3.5431807928 -3.0000282350
19.9321062559 -3.6286258343 -3.0000282350
20.7745839527 -3.7242128873 -3.0000282350
20.9945278367 -3.7494805596 -3.0000282984
21.2016947964 -3.7658122162 -3.0000283618
21.2311980380 -3.7639937994 -3.0000283618
20.0784295405 -3.7293632459 -3.0000284252
21.2179348321 -3.7890520709 -3.0000284252
21.1598240155 -3.8164987818 -3.0000284886
20.8612468533 -3.8466808955 -3.0000285520
19.5083328834 -3.6746570039 -3.0000286154
19.7856076225 -3.7456139960 -3.0000286154
20.7104117017 -3.8672028107 -3.0000286154
20.3519767742 -3.9620939190 -3.0000289324
26.2738416210 1.6641188965 -3.0000293761
26.2566109515 1.8384230239 -3.0000293761
26.2383009063 1.9805581914 -3.0000293761
26.2806248548 1.8411920908 -3.0000294395
26.2289716121 2.1892137695 -3.0000294395
26.2216749152 2.3511658753 -3.0000295029
26.2131456683 2.5978515833 -3.0000296297
26.0537752699 3.1082602309 -3.0000296297
26.2602351788 2.5091517073 -3.0000296931
26.2344617194 2.7047414780 -3.0000297565
26.4981883524 2.6541686849 -3.0000303905
23.2906651279 0.2734392863 -3.0000158909
20.2177734871 -3.5089427175 -3.0000163232
20.2440266637 -3.5118427602 -3.0000163232
20.2965821919 -3.5171766292 -3.0000163232
20.3097306480 -3.5184128996 -3.0000163232
20.3886929470 -3.5250132475 -3.0000163232
20.5205171611 -3.5328963856 -3.0000163232
20.5337111394 -3.5334701470 -3.0000163232
20.2546476529 -3.5372766845 -3.0000163289
20.3075033835 -3.5424831006 -3.0000163289
20.8253055744 -3.5845455255 -3.0000163347
20.3832938125 -3.5973310660 -3.0000163405
20.8929369960 -3.6066660499 -3.0000163405
21.0001696110 -3.6013296593 -3.0000163405
21.0285854691 -3.6237171910 -3.0000163462
20.2804929802 -3.6856211783 -3.0000163635
21.1564319575 -3.6861165621 -3.0000163635
21.4013335869 -3.6564075660 -3.0000163635
20.7459939845 -3.7307209714 -3.0000163693
21.4457426598 -3.6740687984 -3.0000163693
20.4957513277 -3.7737366557 -3.0000163808
20.7603747319 -3.8031434467 -3.0000163866
20.2410071020 -3.8031812782 -3.0000163923
20.3670964091 -3.8142845218 -3.0000163923
21.6454838464 -3.7613876741 -3.0000163981
20.8746121302 -3.8733709131 -3.0000164039
20.9597853123 -3.8698897333 -3.0000164039
21.0307066574 -3.8658343611 -3.0000164039
21.4861710451 -3.8389770119 -3.0000164096
22.0982858300 -3.6993578627 -3.0000164096
22.1737992850 -3.7015459747 -3.0000164154
22.3100638986 -3.6565528283 -3.0000164154
22.3371537677 -3.6470715947 -3.0000164154
22.4046288846 -3.6226687833 -3.0000164154
20.1857779592 -3.9188691101 -3.0000164212
20.2144569580 -3.9219512746 -3.0000164212
22.4670012537 -3.6249994462 -3.0000164212
22.3164250585 -0.1880563251 -3.0000132181
22.8146774316 -0.3766712232 -3.0000126476
22.9271186663 -0.0654256187 -3.0000126476
22.5341018187 -0.9356958973 -3.0000125957
22.5566613291 -0.9067312351 -3.0000125957
22.5137639304 -1.0737124339 -3.0000125179
22.4298006049 -1.3359397498 -3.0000123882
23.3256861242 0.3750763892 -3.0000123104
20.8152533771 -3.4914484540 -3.0000108581
20.8636964795 -3.4884626628 -3.0000108581
20.8896763977 -3.5108628242 -3.0000108321
20.9140159246 -3.5090009293 -3.0000108321
20.9505034959 -3.5059381682 -3.0000108321
20.9748128222 -3.5037164859 -3.0000108321
20.9991085790 -3.5013510204 -3.0000108321
20.9770840808 -3.5277825755 -3.0000108062
20.9893048904 -3.5266109865 -3.0000108062
21.0381518676 -3.5215632753 -3.0000108062
21.0625521033 -3.5188227624 -3.0000108062
21.0747460343 -3.5173983827 -3.0000108062
21.1234780222 -3.5113403372 -3.0000108062
20.8439405933 -3.5624089402 -3.0000107803
21.0530520423 -3.5442330521 -3.0000107803
21.0898468038 -3.5399350361 -3.0000107803
21.1388443987 -3.5336967336 -3.0000107803
21.2158134235 -3.5471538358 -3.0000107543
21.2403619523 -3.5433617695 -3.0000107543
20.8219749372 -3.6121265493 -3.0000107284
21.3303506789 -3.5527429037 -3.0000107284
21.0486596950 -3.6176827326 -3.0000107024
21.5369381563 -3.5600597135 -3.0000106765
21.5492519979 -3.5572318337 -3.0000106765
20.8894105908 -3.6805314358 -3.0000106506
21.6965423417 -3.5704516709 -3.0000106246
20.9568623744 -3.7237627483 -3.0000105987
21.7402607367 -3.6337898895 -3.0000105468
21.4157696373 -3.7336072520 -3.0000105209
21.9717492404 -3.5893664365 -3.0000105209
21.7143182023 -3.7407310797 -3.0000104431
20.9712655468 -3.8923598344 -3.0000104172
22.1782706447 -3.6189268266 -3.0000104172
22.1907558198 -3.6142015117 -3.0000104172
21.0534917194 -3.9088791520 -3.0000103912
21.6352848424 -3.8101768476 -3.0000103912
21.7254653533 -3.8377115292 -3.0000103394
21.6121973219 -3.8900078508 -3.0000103134
23.1020529623 -3.3164707014 -3.0000102616
22.3297735119 0.0617682016 -3.0000141683
22.3606472303 0.1355724280 -3.0000141539
22.3772091718 0.0509393716 -3.0000141395
22.3883903609 0.3171238278 -3.0000141395
22.3678647879 -0.2506927303 -3.0000141107
22.4356789363 0.3469976920 -3.0000141107
22.3277819965 -0.5115172560 -3.0000140819
22.3382281896 -0.5481041327 -3.0000140675
22.4107095326 -0.5007849457 -3.0000140386
22.6481526220 0.0903914444 -3.0000139810
22.8677487376 -0.2410830072 -3.0000138225
22.9157971367 0.1045718808 -3.0000138225
22.9104117756 -0.1471585421 -3.0000138081
22.9214830946 -0.0760199691 -3.0000138081
22.7306955319 -0.7938612865 -3.0000137937
22.7399840273 -0.7741239541 -3.0000137937
22.9688349242 0.3121478727 -3.0000137937
22.9290739736 -0.2992419549 -3.0000137793
22.6958718040 -0.9660027164 -3.0000137649
22.9994388647 0.5644761581 -3.0000137649
22.7798369892 -0.8587063997 -3.0000137505
22.8212384136 -0.8285931473 -3.0000137361
22.8494691045 -0.7667151447 -3.0000137361
22.6886106584 -1.1193913962 -3.0000137217
22.7628095865 -0.9948975755 -3.0000137217
22.6045268576 -1.2847295310 -3.0000137072
22.8482493402 -0.8839335806 -3.0000137072
23.0508920755 0.8340035270 -3.0000137072
23.1509885893 0.5117614721 -3.0000136784
22.6775235132 -1.3486228024 -3.0000136496
22.5478149618 -1.7581464170 -3.0000135488
23.3260825676 0.8176344011 -3.0000135488
22.6713122601 -1.7694728693 -3.0000134911
22.5381057209 -1.9353476803 -3.0000134767
22.7929447629 3.2554769947 -3.0000130157
22.7840814384 3.2622133638 -3.0000130157
22.8342401309 3.2542039108 -3.0000130012
22.9084449113 3.2572628937 -3.0000129724
21.4141902600 -3.4903301820 -3.0000129580
21.4252882858 -3.4876429023 -3.0000129580
21.4363783136 -3.4849228044 -3.0000129580
21.4474602463 -3.4821699121 -3.0000129580
22.9590393309 3.2473808320 -3.0000129580
21.4198443697 -3.5138326568 -3.0000129436
21.4756005408 -3.4999821185 -3.0000129436
21.4867268501 -3.4971131339 -3.0000129436
21.5311457582 -3.4853084399 -3.0000129436
21.5422284171 -3.4822752066 -3.0000129436
23.0097333729 3.2367181228 -3.0000129436
21.4142534541 -3.5400228158 -3.0000129292
21.4591851631 -3.5290726567 -3.0000129292
21.5486441701 -3.5055812873 -3.0000129292
21.6042642116 -3.4898266527 -3.0000129292
23.0517404757 3.2327990748 -3.0000129292
23.0429431043 3.2403011076 -3.0000129292
23.0252819770 3.2552269367 -3.0000129292
21.6333429086 -3.5064629833 -3.0000129148
21.6667474346 -3.4963572213 -3.0000129148
23.0850891050 3.2359939204 -3.0000129148
21.5049378860 -3.5673084023 -3.0000129004
21.7296613842 -3.5018553516 -3.0000129004
21.7371046383 -3.5248539005 -3.0000128860
21.7818342601 -3.5100846781 -3.0000128860
21.8152650793 -3.4986609961 -3.0000128860
21.8263859943 -3.4947872281 -3.0000128860
23.1521625996 3.2415084003 -3.0000128860
21.8455482510 -3.5136728345 -3.0000128716
21.8678668581 -3.5057129896 -3.0000128716
21.8311008035 -3.5443399953 -3.0000128572
21.5639984540 -3.6517142889 -3.0000128428
21.9629164121 -3.5219562638 -3.0000128428
22.0165191275 -3.5269811307 -3.0000128283
21.4707313576 -3.7253549307 -3.0000128139
21.6466875209 -3.6788716453 -3.0000128139
22.1152248843 -3.5125503551 -3.0000128139
21.7002113366 -3.6883092350 -3.0000127995
22.0683350676 -3.5582455332 -3.0000127995
22.1583138295 -3.5203315148 -3.0000127995
22.1806663577 -3.5105211272 -3.0000127995
22.2452777687 -3.5344821676 -3.0000127707
23.3716250824 3.3029444732 -3.0000127707
21.8070222361 -3.7816885605 -3.0000127275
21.9023615626 -3.7498954916 -3.0000127275
22.4226211818 -3.5297689141 -3.0000127275
21.8143974238 -3.8047090273 -3.0000127131
21.8504415864 -3.7929847635 -3.0000127131
21.8624330105 -3.7890056492 -3.0000127131
21.9698112158 -3.7516024091 -3.0000127131
22.0172075404 -3.7340638207 -3.0000127131
22.0526167801 -3.7205425128 -3.0000127131
21.9181972868 -3.7955744908 -3.0000126987
21.9301960753 -3.7913949316 -3.0000126987
21.9502352971 -3.8099721512 -3.0000126843
21.8487534504 -3.8698321335 -3.0000126699
22.6025665709 -3.5442933885 -3.0000126699
22.8674223127 -3.5578077272 -3.0000125834
22.8787135908 -3.5508212291 -3.0000125834
23.1387318814 -3.5540081242 -3.0000124970
22.3231541176 -0.3987920227 -3.0000154798
22.3659986182 0.0842333726 -3.0000154826
22.4444401495 -0.0012612314 -3.0000154913
22.4060459308 0.3075881711 -3.0000154913
22.4695872496 -0.1461933726 -3.0000154942
22.9001157593 0.0757893039 -3.0000155460
22.8669783844 -0.7347254713 -3.0000155518
22.9320139377 -0.4142933894 -3.0000155518
22.9815162071 0.3881537490 -3.0000155605
22.8917254684 0.7280422128 -3.0000155605
22.9508179709 0.6204679317 -3.0000155633
21.9202479418 -3.4391499912 -3.0000156930
21.9301589322 -3.4349219318 -3.0000156930
21.9595925826 -3.4485415286 -3.0000156959
21.9893696104 -3.4354199562 -3.0000156959
21.9992692643 -3.4309874387 -3.0000156959
22.0091802468 -3.4530352891 -3.0000156988
22.0489066294 -3.4348941403 -3.0000156988
22.0588044674 -3.4302855039 -3.0000156988
22.0491014560 -3.4614325049 -3.0000157017
22.0690404619 -3.4521843554 -3.0000157017
22.0889244037 -3.4428184019 -3.0000157017
22.1087525853 -3.4333349723 -3.0000157017
22.1192469807 -3.4551111737 -3.0000157045
22.2095073653 -3.4372767368 -3.0000157074
22.2404345405 -3.4485362706 -3.0000157103
22.2615692095 -3.4647842460 -3.0000157132
22.3212463601 -3.4329152698 -3.0000157132
22.3328221332 -3.4541364093 -3.0000157161
22.4141670206 -3.4363570119 -3.0000157189
22.4659277665 -3.4342583349 -3.0000157218
22.2794757797 3.3910424502 -3.0000157247
22.2691802538 3.3963032855 -3.0000157247
22.3214898477 3.3964881206 -3.0000157276
22.4474142983 3.3831072592 -3.0000157334
22.5004321086 3.3807011106 -3.0000157362
22.4901662075 3.3866156200 -3.0000157362
22.7412435333 -3.4323483062 -3.0000157391
22.5331331317 3.3896368018 -3.0000157391
22.6402476884 3.3815777535 -3.0000157449
22.6299785823 3.3879058588 -3.0000157449
22.5471610253 3.4374315052 -3.0000157449
22.6735629636 3.3893156141 -3.0000157478
23.3468213128 -3.4274594130 -3.0000157823
23.3319071450 3.3924481985 -3.0000157939
22.2978208949 -0.3875827301 -3.0000156777
22.3366438762 -0.2424805511 -3.0000156892
22.3073021696 -0.0579634933 -3.0000156892
22.3136616586 0.0208281459 -3.0000156950
22.3651989474 -0.1017082811 -3.0000157007
22.3067252929 0.1321999145 -3.0000157007
22.3310292689 0.2108708434 -3.0000157123
22.5132351404 -0.3293863854 -3.0000157296
22.4482250982 0.0794331109 -3.0000157296
22.2994087642 0.4657145949 -3.0000157296
22.4775755270 0.0628361517 -3.0000157353
22.5601122699 -0.3029453147 -3.0000157411
22.5067968873 0.0456155743 -3.0000157411
22.5024688213 0.0630383303 -3.0000157411
22.3826978990 0.5151926071 -3.0000157526
22.9040828916 -0.1040977955 -3.0000158275
22.9451148681 -0.2637859461 -3.0000158333
22.8547823258 0.3229052678 -3.0000158391
22.9728010970 -0.0724967588 -3.0000158448
22.8590309937 0.3854881153 -3.0000158448
22.8516728791 0.4060233677 -3.0000158448
22.9183257980 0.2818827700 -3.0000158506
22.8344965053 0.5169303811 -3.0000158506
23.0318034137 -0.7159188919 -3.0000158564
22.7583472782 0.8361886704 -3.0000158679
23.0444500321 -1.0542217330 -3.0000158736
23.0724948837 -0.9276146252 -3.0000158736
23.0767814134 -0.9051332924 -3.0000158736
23.1086165198 -0.6785699062 -3.0000158736
22.8017171306 0.8082807813 -3.0000158736
23.1432906875 -0.5118240016 -3.0000158794
22.8447880626 0.7792296918 -3.0000158794
23.1039238187 -1.0129264248 -3.0000158852
23.1298176510 -0.8833818983 -3.0000158852
23.1685557294 -0.4115311728 -3.0000158852
23.0678759673 -1.2376891203 -3.0000158909
23.1342410473 -0.9876183013 -3.0000158909
23.2090534602 -0.8485234644 -3.0000159025
23.2358628522 -0.6024897918 -3.0000159025
22.7046767996 1.1818595171 -3.0000159025
22.8341524659 1.0373878886 -3.0000159082
23.4754806239 -1.3104157569 -3.0000159889
23.2235792475 1.4961203180 -3.0000160465
22.4340462278 -3.3456920958 -3.0000160869
22.4512434167 -3.3344437127 -3.0000160869
22.4731684608 -3.3489326751 -3.0000160926
22.4817847889 -3.3432054569 -3.0000160926
22.4903841373 -3.3374527751 -3.0000160926
22.5211205788 -3.3458630896 -3.0000160984
22.5383172554 -3.3340995424 -3.0000160984
22.5606552863 -3.3480501526 -3.0000161042
22.5692686210 -3.3420641364 -3.0000161042
22.5864419790 -3.3300157957 -3.0000161042
22.6575253172 -3.3385306352 -3.0000161157
22.6746762252 -3.3259602002 -3.0000161157
22.7147820400 -3.3262413801 -3.0000161215
22.7233301861 -3.3197995245 -3.0000161215
22.7550597114 -3.3260370175 -3.0000161272
22.7636070766 -3.3194760142 -3.0000161272
22.8040489050 -3.3186634535 -3.0000161330
22.8939210509 -3.3086129269 -3.0000161445
23.0339437234 -3.2851565488 -3.0000161618
23.0667876132 -3.2884664899 -3.0000161676
23.0742923697 -3.3140782487 -3.0000161733
21.7668991177 3.4557350696 -3.0000162310
21.7553890983 3.4593432421 -3.0000162310
21.7438684555 3.4629173500 -3.0000162310
21.8088336792 3.4676966020 -3.0000162367
21.7972880919 3.4714287721 -3.0000162367
21.7741640486 3.4787905692 -3.0000162367
21.9088018167 3.4594200282 -3.0000162425
21.8972802756 3.4634479584 -3.0000162425
21.8857468695 3.4674417882 -3.0000162425
21.8742016995 3.4714014825 -3.0000162425
21.8626448664 3.4753270069 -3.0000162425
21.8394966160 3.4830754084 -3.0000162425
21.7814289795 3.5018460688 -3.0000162425
21.9630477978 3.4656785591 -3.0000162483
21.9515075054 3.4698669313 -3.0000162483
21.9399548736 3.4740211470 -3.0000162483
21.9283900035 3.4781411696 -3.0000162483
22.0407070227 3.4623931165 -3.0000162540
22.0291761095 3.4668112331 -3.0000162540
22.0176321772 3.4711952199 -3.0000162540
22.0060753268 3.4755450384 -3.0000162540
21.9945056593 3.4798606507 -3.0000162540
21.9829232762 3.4841420189 -3.0000162540
22.0956470478 3.4668358232 -3.0000162598
22.0841027519 3.4714164429 -3.0000162598
22.0609737619 3.4804751321 -3.0000162598
22.1624422286 3.4657424705 -3.0000162655
22.1277760152 3.4799745922 -3.0000162655
22.2064582243 3.4734409195 -3.0000162713
22.1948939044 3.4783493098 -3.0000162713
22.1833151153 3.4832234693 -3.0000162713
22.2623087008 3.4755898686 -3.0000162771
22.2391519004 3.4857028110 -3.0000162771
22.2720486131 3.4977138238 -3.0000162828
22.3632696740 3.4829545069 -3.0000162886
22.6374988637 3.4260230216 -3.0000163059
22.0336401324 3.6972163536 -3.0000163059
22.6375469743 3.4534830300 -3.0000163117
22.5914092568 3.4780132755 -3.0000163117
22.1275294968 3.6879931746 -3.0000163117
22.3160226932 3.6631523511 -3.0000163232
22.7186076530 3.5194226237 -3.0000163347
22.0911329713 3.8563609492 -3.0000163462
23.0986011480 3.5173661759 -3.0000163808
22.2884463579 4.0663649415 -3.0000164096
23.4565379567 3.5345772996 -3.0000164327
22.9368096528 -0.0181264307 -3.0000152588
22.6549481221 0.9266775800 -3.0000152588
22.6062185211 1.0189284343 -3.0000152588
23.3702478712 -0.7442482779 -3.0000152588
23.0947380329 -3.1963089436 -3.0000152588
21.2818038566 3.4810268677 -3.0000152588
21.2692349912 3.4828878518 -3.0000152588
21.2566606756 3.4847116467 -3.0000152588
21.2440810200 3.4864982366 -3.0000152588
21.2314961343 3.4882476057 -3.0000152588
21.4114500262 3.4841662184 -3.0000152588
21.3988713067 3.4864107055 -3.0000152588
21.3106420743 3.5010788982 -3.0000152588
21.4410093962 3.5033307655 -3.0000152588
21.8043965889 3.5196664885 -3.0000152588
21.7535950800 3.5330680815 -3.0000152588
21.9516504304 3.5529606105 -3.0000152588
21.2644238094 3.7277247371 -3.0000152588
22.2722331868 3.5721121617 -3.0000152588
21.2504254938 3.8271694728 -3.0000152588
22.2649018265 3.7549978463 -3.0000152588
23.0439051442 3.6164865412 -3.0000152588
23.0944981660 3.6161418996 -3.0000152588
22.8743329690 0.1144784600 -3.0000152588
22.7859890452 0.3818173208 -3.0000152588
23.1601368360 -0.2849051250 -3.0000152588
22.5527777008 0.7887601060 -3.0000152588
23.4079658529 -0.9554126207 -3.0000152588
23.3344731348 -0.3573570364 -3.0000152588
22.6634810307 0.8837456998 -3.0000152588
23.4275125902 -0.0988620453 -3.0000152588
23.0538209236 1.7288035583 -3.0000152588
20.6889193586 3.4824193875 -3.0000152588
20.5810594650 3.4783305370 -3.0000152588
20.5675846669 3.4776399888 -3.0000152588
20.7967879705 3.5081277338 -3.0000152588
20.6476165993 3.5053434912 -3.0000152588
20.6069562824 3.5037418729 -3.0000152588
20.5934061996 3.5031278209 -3.0000152588
20.8379498008 3.5805620901 -3.0000152588
21.3218191524 3.5765263118 -3.0000152588
21.4901612739 3.5792676796 -3.0000152588
21.0886839246 3.6206137506 -3.0000152588
20.7404710445 3.6527004269 -3.0000152588
21.4901215514 3.6769772184 -3.0000152588
22.0575078073 3.6603181742 -3.0000152588
21.4751540297 3.7767219465 -3.0000152588
22.1199177868 3.6684977142 -3.0000152588
21.3917696294 3.8118048524 -3.0000152588
21.2759185897 3.8242555066 -3.0000152588
20.9422700466 3.8689075239 -3.0000152588
20.6635097037 3.8928163843 -3.0000152588
22.6572944870 3.5641341607 -3.0000152588
22.9521891512 3.4622155046 -3.0000152588
22.8441735994 3.5116886812 -3.0000152588
22.8033704751 3.5295800242 -3.0000152588
23.1230366398 3.4047248521 -3.0000152588
23.3834348776 3.2884040502 -3.0000152588
22.0594831971 4.0339400524 -3.0000152588
22.9620487346 0.1130518519 -3.0000152588
20.5119208322 3.5670354528 -3.0000152588
20.2073575443 3.5259681934 -3.0000152588
20.1352610860 3.5134076170 -3.0000152588
20.0975447592 3.5555990002 -3.0000152588
19.9671599440 3.5292892770 -3.0000152588
21.1124453921 3.6649201227 -3.0000152588
21.0381947791 3.6657309464 -3.0000152588
21.1874760182 3.6871709747 -3.0000152588
21.1576443204 3.6880706092 -3.0000152588
21.1128880993 3.6890890964 -3.0000152588
21.0681246022 3.6897103572 -3.0000152588
20.8443213707 3.6868576467 -3.0000152588
21.1732894894 3.7118048973 -3.0000152588
20.9484026686 3.7135953660 -3.0000152588
21.5672908107 3.7331564594 -3.0000152588
21.5698738504 3.7571910842 -3.0000152588
21.1754754537 3.7842910277 -3.0000152588
26.3155394726 -2.1786617568 -3.0000152588
26.3243027280 -2.4065903679 -3.0000152588
26.2423236272 -2.8484397033 -3.0000152588
26.3019726449 -2.8149244110 -3.0000152588
26.2004189195 -1.7102166876 -3.0000152588
26.2259333642 -1.6229941588 -3.0000152588
26.2255366683 -1.5205404279 -3.0000152588
26.2096827521 -2.2244572916 -3.0000152588
26.2488838139 -1.4760800126 -3.0000152588
26.2447743684 -1.3584895287 -3.0000152588
26.3215880661 -1.6982262793 -3.0000152588
26.3056700153 -1.1764094603 -3.0000152588
20.4406998350 3.7264778786 -3.0000152588
19.8495091050 3.5989711232 -3.0000152588
20.6111590416 3.7748988168 -3.0000152588
20.5603718100 3.7927288777 -3.0000152588
19.5293584672 3.6021530796 -3.0000152588
19.2705240564 3.5076771289 -3.0000152588
19.9276172890 3.7446102982 -3.0000152588
23.8639150526 -0.2610702542 -3.0000152588
26.0074396965 -2.2953391958 -3.0000152588
26.0089479592 -2.2822191574 -3.0000152588
26.0104174038 -2.2690947147 -3.0000152588
26.0132397879 -2.2428330758 -3.0000152588
26.0159067498 -2.2165551983 -3.0000152588
26.0196155736 -2.1771099471 -3.0000152588
26.0229741969 -2.1376333354 -3.0000152588
26.0240158692 -2.1244680332 -3.0000152588
26.0591224536 -1.9274903410 -3.0000152588
26.0711639345 -2.1415179619 -3.0000152588
26.0762881439 -2.3303803257 -3.0000152588
26.1146989949 -2.1991711180 -3.0000152588
26.1288702326 -1.9972972225 -3.0000152588
26.1317698219 -1.6331084736 -3.0000152588
26.1218239325 -1.4444892127 -3.0000152588
26.1526070541 -1.5510206913 -3.0000152588
26.1823811655 -1.7542574539 -3.0000152588
26.1753142034 -1.5225860999 -3.0000152588
26.1566105306 -1.2915628741 -3.0000152588
26.1505230313 -1.2373619658 -3.0000152588
26.1651780588 -0.9998591437 -3.0000152588
26.1665280988 -0.8732137269 -3.0000152588
26.2998801422 -1.0773660119 -3.0000152588
26.1959599658 -0.4768363370 -3.0000152588
26.3221192922 -0.9153029263 -3.0000152588
26.1698561043 -0.3062102090 -3.0000152588
26.1658801022 -0.2170743290 -3.0000152588
26.1565593236 -0.1899288343 -3.0000152588
26.1518387492 -0.1763768851 -3.0000152588
26.1145968764 -0.0060910122 -3.0000152588
19.9061487070 3.8204792180 -3.0000152588
19.5860419626 3.7407426003 -3.0000152588
25.9921204566 -1.6968613376 -3.0000152588
25.9914635727 -1.6847453076 -3.0000152588
25.9907708502 -1.6726312738 -3.0000152588
26.0125957344 -1.6346723739 -3.0000152588
26.0090159098 -1.5859827355 -3.0000152588
26.0070100127 -1.5616546530 -3.0000152588
26.0048602175 -1.5373388639 -3.0000152588
26.0215780823 -1.4618467750 -3.0000152588
26.0572100043 -1.5821525415 -3.0000152588
26.0456079430 -1.4592197845 -3.0000152588
26.0576948628 -1.0666777764 -3.0000152588
26.0420211676 -0.9929490937 -3.0000152588
26.1610968754 -1.6879507410 -3.0000152588
26.1430818418 -1.4612733930 -3.0000152588
26.0690560784 -0.8958528383 -3.0000152588
26.1802228698 -0.8418689966 -3.0000152588
26.0912818105 -0.4584615750 -3.0000152588
26.3493381070 -1.5986796127 -3.0000152588
26.3453088254 -1.5460080019 -3.0000152588
22.2383631837 -0.2075089697 -3.0000152588
22.1540890330 -0.2094562399 -3.0000152588
22.1330422702 -0.2105660971 -3.0000152588
22.2223553499 -0.1833980139 -3.0000152588
22.3735654927 -0.1642398507 -3.0000152588
22.2328046877 -0.0866490021 -3.0000152588
22.1217163452 -0.0175138205 -3.0000152588
22.9550746239 0.3369333863 -3.0000152588
22.9344078545 0.3432111215 -3.0000152588
22.7038111623 0.4000467155 -3.0000152588
22.8361721855 0.3952803552 -3.0000152588
22.0187583991 0.4838644736 -3.0000152588
23.4516652710 0.2314710073 -3.0000152588
21.9747580974 0.5524957611 -3.0000152588
23.7739896478 0.1423037519 -3.0000152588
23.9704292763 0.0497415883 -3.0000152588
23.5726487515 0.3855020262 -3.0000152588
19.2321024710 0.3164942214 -3.0000152588
19.2475649534 0.3756852941 -3.0000152588
25.9956075768 -1.1080157649 -3.0000152588
25.9903315007 -1.0857961232 -3.0000152588
25.9849240581 -1.0636080854 -3.0000152588
25.9793854383 -1.0414524282 -3.0000152588
19.2598697967 0.4678519127 -3.0000152588
25.9942123218 -1.0021417480 -3.0000152588
25.9883098840 -0.9799322141 -3.0000152588
25.9853094160 -0.9688406396 -3.0000152588
26.0055822122 -0.9513421684 -3.0000152588
25.9962280408 -0.9179421590 -3.0000152588
25.9930441605 -0.9068274324 -3.0000152588
25.9898274146 -0.8957221730 -3.0000152588
25.9865778315 -0.8846264779 -3.0000152588
26.0662140738 -1.0914706713 -3.0000152588
26.0064636600 -0.8666434273 -3.0000152588
25.9997593542 -0.8443637818 -3.0000152588
25.9929233518 -0.8221241911 -3.0000152588
25.9894560390 -0.8110196596 -3.0000152588
26.0228863641 -0.8373298146 -3.0000152588
26.0054433870 -0.7814663553 -3.0000152588
25.9982351628 -0.7591942368 -3.0000152588
25.9945816686 -0.7480742674 -3.0000152588
26.0025020259 -0.6958535939 -3.0000152588
25.9947873393 -0.6736003758 -3.0000152588
26.0215006163 -0.6768033504 -3.0000152588
26.0057129793 -0.6321194799 -3.0000152588
26.0078573435 -0.5680093465 -3.0000152588
26.0133015303 -0.5147043432 -3.0000152588
26.0180090205 -0.4610728233 -3.0000152588
26.0134735427 -0.4498956637 -3.0000152588
26.0089050206 -0.4387319697 -3.0000152588
26.0276424842 -0.2983198330 -3.0000152588
26.0124922373 -0.2647497662 -3.0000152588
26.2318410168 -0.6958917501 -3.0000152588
26.0068862310 -0.0326253646 -3.0000152588
26.2643874365 -0.5658559826 -3.0000152588
26.3277296187 -0.6782127833 -3.0000152588
26.2997184146 -0.5937992898 -3.0000152588
26.2384832285 -0.4268025173 -3.0000152588
26.2324911529 -0.3468474243 -3.0000152588
26.0474464548 0.0460015460 -3.0000152588
26.3153560656 -0.4933398065 -3.0000152588
26.0420563491 0.2051070660 -3.0000152588
22.5498184446 -0.1749294935 -3.0000152588
22.8825549110 -0.1741518042 -3.0000152588
22.7629210630 -0.1587831765 -3.0000152588
22.5164444510 -0.1517160109 -3.0000152588
22.4945313974 -0.1526766502 -3.0000152588
22.4781049057 -0.1535672503 -3.0000152588
22.3550064208 -0.1405568845 -3.0000152588
22.9622372116 -0.1394863436 -3.0000152588
22.9401482428 -0.1351730120 -3.0000152588
22.4808907674 -0.1049829554 -3.0000152588
22.3185614377 -0.1210303805 -3.0000152588
22.0589693885 -0.1515603308 -3.0000152588
22.9434622671 -0.0866053132 -3.0000152588
22.5760996796 -0.0295484074 -3.0000152588
22.0902654816 -0.0430270725 -3.0000152588
22.5212218919 0.0419524149 -3.0000152588
22.2621932790 0.0171190871 -3.0000152588
22.8252482289 0.4180460246 -3.0000152588
23.2136476784 0.3726330662 -3.0000152588
22.8203804907 0.4428046937 -3.0000152588
22.2329935712 0.4283623904 -3.0000152588
23.0839869872 0.4277838119 -3.0000152588
22.8007413410 0.4688653363 -3.0000152588
23.4730238544 0.3403285599 -3.0000152588
23.4452217346 0.3506521664 -3.0000152588
22.2187016271 0.4751276833 -3.0000152588
23.1813434568 0.4555938157 -3.0000152588
23.4190464972 0.4112268680 -3.0000152588
21.9232024836 0.4629756984 -3.0000152588
23.2739363235 0.4815421475 -3.0000152588
21.8581813006 0.4697735472 -3.0000152588
23.5664512129 0.4336190260 -3.0000152588
21.6581236499 0.5052052807 -3.0000152588
21.4652166698 0.4517273675 -3.0000152588
23.2938211667 0.7763662696 -3.0000152588
24.5997981977 0.3355599599 -3.0000152588
23.7740634283 1.0014252416 -3.0000152588
24.6631108098 0.7196341324 -3.0000152588
25.9391417390 -0.5797485110 -3.0000152588
25.9349136558 -0.5698375307 -3.0000152588
25.9528482754 -0.5503552457 -3.0000152588
25.9485331816 -0.5404038476 -3.0000152588
25.9441886686 -0.5304652578 -3.0000152588
25.9309789961 -0.5007272081 -3.0000152588
25.9530268227 -0.4908161725 -3.0000152588
25.9302769179 -0.4411920067 -3.0000152588
25.9568145893 -0.4409186117 -3.0000152588
25.9475074491 -0.4210070732 -3.0000152588
25.9428097434 -0.4110720402 -3.0000152588
25.9372677877 -0.2904890920 -3.0000152588
25.9433519527 -0.2496245463 -3.0000152588
25.9329132882 -0.2297960052 -3.0000152588
25.9436467208 -0.1985794994 -3.0000152588
25.9486785450 -0.1572207788 -3.0000152588
25.9476379287 -0.1056808180 -3.0000152588
25.9373578902 0.0080061042 -3.0000152588
19.1089484322 -0.2205371292 -3.0000152588
19.1143641989 -0.1579474260 -3.0000152588
19.1089182130 -0.1682272176 -3.0000152588
25.9233778425 0.1224736050 -3.0000152588
19.1208752739 -0.0951302278 -3.0000152588
19.1152434349 -0.1053910333 -3.0000152588
19.1040709398 -0.1259623996 -3.0000152588
19.1133747548 -0.0098466908 -3.0000152588
19.1163950712 0.0433948910 -3.0000152588
19.0983615808 0.0125175049 -3.0000152588
26.1160185638 -0.0105734063 -3.0000152588
19.1171313360 0.1838231601 -3.0000152588
25.9240543753 0.5032465387 -3.0000152588
19.1254630827 0.4147628998 -3.0000152588
19.1041335525 0.3839513634 -3.0000152588
19.1169391857 0.6087870486 -3.0000152588
22.7796964793 -0.1597855997 -3.0000152588
22.8965177751 -0.1294316300 -3.0000152588
22.4739346536 -0.1876866130 -3.0000152588
22.6557997097 -0.1257863951 -3.0000152588
22.8455778818 -0.0827676016 -3.0000152588
22.4887297677 -0.1341138669 -3.0000152588
22.2809449920 -0.1462234331 -3.0000152588
22.2223267250 -0.1684089399 -3.0000152588
22.1280578457 -0.2087892508 -3.0000152588
22.3766705298 0.3859047817 -3.0000152588
23.0930207055 0.4700231089 -3.0000152588
22.9059423508 0.4751106888 -3.0000152588
22.1634248618 0.3502706183 -3.0000152588
22.0939801548 0.3516760130 -3.0000152588
21.8822917264 0.2900892287 -3.0000152588
23.1125714348 0.5413695170 -3.0000152588
23.0311425695 0.5458763918 -3.0000152588
23.1590687340 0.5618718772 -3.0000152588
22.0411336546 0.4094441117 -3.0000152588
21.8213014564 0.3145078336 -3.0000152588
22.9119365047 0.6202143269 -3.0000152588
23.5375990054 0.5733768724 -3.0000152588
21.5999021722 0.2769898572 -3.0000152588
21.5424147252 0.3270171307 -3.0000152588
21.2674065217 0.1658528753 -3.0000152588
21.5727394622 0.4011741614 -3.0000152588
24.0257416614 0.5630741221 -3.0000152588
24.1502462486 0.5592132501 -3.0000152588
24.4525994312 0.8386954305 -3.0000152588
24.5139187609 0.8323253864 -3.0000152588
24.6043311378 0.8356356641 -3.0000152588
24.7252902065 0.8461012638 -3.0000152588
25.8456955417 -0.0659513252 -3.0000152588
25.8374562313 -0.0096134142 -3.0000152588
25.8458665515 0.0211230258 -3.0000152588
25.8341030074 0.0383197045 -3.0000152588
25.8281831338 0.0468918697 -3.0000152588
25.8420676071 0.0692710686 -3.0000152588
25.8390525839 0.1976312148 -3.0000152588
25.8262448774 0.2147844906 -3.0000152588
25.8325762107 0.2464954242 -3.0000152588
25.8119610788 0.3125766968 -3.0000152588
25.7851601046 0.5339461815 -3.0000152588
25.9136254702 0.4945945818 -3.0000152588
19.0442682542 -0.7330971900 -3.0000152588
19.0437079397 -0.6565928158 -3.0000152588
19.0398734539 -0.6681048268 -3.0000152588
19.0360730394 -0.6796281306 -3.0000152588
19.0323067295 -0.6911626263 -3.0000152588
19.0248765553 -0.7142647895 -3.0000152588
19.0405833216 -0.5911944903 -3.0000152588
19.0365553893 -0.6027160307 -3.0000152588
19.0325615574 -0.6142494360 -3.0000152588
19.0286018609 -0.6257946054 -3.0000152588
19.0301364263 -0.5484887997 -3.0000152588
19.0259822085 -0.5600414307 -3.0000152588
19.0218621838 -0.5716063001 -3.0000152588
19.0288081499 -0.4823641277 -3.0000152588
19.0244583292 -0.4939209773 -3.0000152588
19.0195282456 -0.4390225413 -3.0000152588
19.0153531901 -0.3838035906 -3.0000152588
19.0167799307 -0.3166811874 -3.0000152588
19.0295213514 -0.2261317423 -3.0000152588
18.9121865207 -0.5193115464 -3.0000152588
19.0125973774 -0.2047204030 -3.0000152588
19.0060393159 -0.1032628467 -3.0000152588
19.0864491181 0.1602992912 -3.0000152588
19.0136721133 0.0224343492 -3.0000152588
19.1635897725 0.3414462299 -3.0000152588
18.7910619634 -0.2936538603 -3.0000152588
22.7872452514 -0.1884520876 -3.0000152588
22.5413402530 -0.2004401507 -3.0000152588
23.0888094733 0.6706897665 -3.0000152588
21.3793067491 0.0084022182 -3.0000152588
25.6977064282 0.5247333405 -3.0000152588
19.0291210427 -1.3218964391 -3.0000152588
19.0189817577 -1.2181899001 -3.0000152588
19.0171207728 -1.2307587654 -3.0000152588
19.0152969770 -1.2433330809 -3.0000152588
19.0100488823 -1.2810876274 -3.0000152588
19.0083739993 -1.2936826425 -3.0000152588
19.0067363820 -1.3062825571 -3.0000152588
19.0070878603 -1.1388976743 -3.0000152588
19.0029341684 -1.1641126110 -3.0000152588
18.9989297291 -1.1893516811 -3.0000152588
19.0063787260 -1.0085128336 -3.0000152588
18.9832294573 -0.8847301370 -3.0000152588
18.9214505791 -1.2167381176 -3.0000152588
18.9735662331 -0.7209780970 -3.0000152588
18.9746972053 -0.6256754871 -3.0000152588
18.7819159944 -1.1691605464 -3.0000152588
18.9547160920 -0.3674713980 -3.0000152588
18.7430004770 -1.2724012711 -3.0000152588
18.9179699640 -0.3259627441 -3.0000152588
18.9503117818 -0.1037491328 -3.0000152588
18.6285976096 -1.2158133163 -3.0000152588
22.9380797088 0.6562161196 -3.0000152588
22.8549103876 0.6572890507 -3.0000152588
21.9714294407 0.2006655763 -3.0000152588
23.0704496987 0.7623794873 -3.0000152588
23.3196110768 0.8737542342 -3.0000152588
19.0175764452 -1.8110697788 -3.0000152588
19.0193016913 -1.8650118247 -3.0000152588
18.9951460121 -1.8659274925 -3.0000152588
18.9956798598 -1.8794809721 -3.0000152588
18.9975219304 -1.9201311053 -3.0000152588
18.9680365681 -1.6350828672 -3.0000152588
18.9679746524 -1.7441643232 -3.0000152588
18.9696222078 -1.8259596725 -3.0000152588
18.9509746098 -1.4293177823 -3.0000152588
18.9502170803 -1.4430038392 -3.0000152588
18.9460483964 -1.5388605973 -3.0000152588
18.9452220048 -1.5662621201 -3.0000152588
18.9391501534 -1.2630714772 -3.0000152588
18.9260790469 -1.4417035969 -3.0000152588
18.9219704136 -1.1919383173 -3.0000152588
18.9035127854 -1.4127479696 -3.0000152588
18.8985232956 -1.8695901639 -3.0000152588
18.9207297268 -1.0098276732 -3.0000152588
18.9009522177 -0.9786443159 -3.0000152588
18.8597429585 -0.9294570713 -3.0000152588
18.8002374517 -1.5623188332 -3.0000152588
18.8774618961 -0.7021344508 -3.0000152588
18.7947289752 -1.2497075918 -3.0000152588
18.8508851181 -0.7111278359 -3.0000152588
18.8143169273 -0.9076472900 -3.0000152588
18.7501549315 -1.6752208825 -3.0000152588
18.8618108166 -0.5522024969 -3.0000152588
18.8486689785 -0.5045128281 -3.0000152588
18.7104734399 -1.4012037434 -3.0000152588
18.8360040622 -0.4565005840 -3.0000152588
18.6071793984 -1.8364786277 -3.0000152588
18.6086551459 -1.8805781779 -3.0000152588
18.9883113846 0.3441845195 -3.0000152588
22.6155255808 0.6991534172 -3.0000152588
22.7425476656 0.7935892361 -3.0000152588
23.0906092757 1.0594434189 -3.0000152588
21.6844159522 0.0854168235 -3.0000152588
21.5214764283 -0.0274274896 -3.0000152588
18.8867437675 -1.6825352090 -3.0000152588
18.8929393480 -1.8000342482 -3.0000152588
18.9364691567 -2.2094364265 -3.0000152588
18.8584377017 -1.4914438152 -3.0000152588
18.8765547178 -1.9047584343 -3.0000152588
18.8848864026 -1.9930428081 -3.0000152588
18.8913108050 -2.0518108954 -3.0000152588
18.9288050031 -2.3151571530 -3.0000152588
18.8353864839 -1.3727005302 -3.0000152588
18.8348424746 -1.4023977913 -3.0000152588
18.8346363596 -1.4172474989 -3.0000152588
18.8384380385 -1.6845094632 -3.0000152588
18.8466963800 -1.8327856832 -3.0000152588
18.7389232556 -1.5976825222 -3.0000152588
18.7265446999 -1.1118874357 -3.0000152588
18.7256781480 -0.8668063489 -3.0000152588
18.6182309966 -1.3525817257 -3.0000152588
18.6668704641 -2.6144382005 -3.0000152588
24.7217101904 3.7841642675 -3.0000152588
25.0985245042 3.7329072916 -3.0000152588
24.9593267069 3.7641738154 -3.0000152588
24.7569068177 3.8027699665 -3.0000152588
24.9643100121 3.7878276090 -3.0000152588
24.9487234527 3.7910872655 -3.0000152588
25.4491324772 3.6871718129 -3.0000152588
25.5556549041 3.7039938754 -3.0000152588
25.6553282706 3.6958174172 -3.0000152588
25.3461653443 3.7932375853 -3.0000152588
25.3996852455 3.8029941682 -3.0000152588
25.7873456629 3.7254058791 -3.0000152588
22.6151972102 0.6831383840 -3.0000152588
22.5570140933 0.6988808982 -3.0000152588
22.4908458950 0.6758474477 -3.0000152588
22.6819498597 0.8510466038 -3.0000152588
22.2123180086 0.4736366682 -3.0000152588
22.8017368108 0.9837789806 -3.0000152588
21.8142769915 -0.0627164961 -3.0000152588
21.8007216121 -0.0897358401 -3.0000152588
22.8895804690 1.0601835521 -3.0000152588
22.6467565634 0.9439154558 -3.0000152588
22.9085122161 1.1243185978 -3.0000152588
21.8981379837 0.2252920777 -3.0000152588
23.2145265177 1.3061757296 -3.0000152588
21.3568582316 -0.7630993184 -3.0000152588
23.4149500281 1.5166204433 -3.0000152588
25.0959544054 3.5488038951 -3.0000152588
25.0111266525 3.5658901467 -3.0000152588
24.9827849928 3.5712506540 -3.0000152588
24.7835749444 3.6040668051 -3.0000152588
25.0867509674 3.5754245627 -3.0000152588
24.3833778866 3.6689589949 -3.0000152588
25.4870870738 3.4997684353 -3.0000152588
25.2621307732 3.5605383982 -3.0000152588
24.8624513832 3.6410429782 -3.0000152588
24.2393220930 3.6996317048 -3.0000152588
24.1956413458 3.7007549634 -3.0000152588
24.1082585476 3.7018383635 -3.0000152588
25.5359933767 3.5103112947 -3.0000152588
24.2400507220 3.7237937490 -3.0000152588
24.0790705225 3.7260277792 -3.0000152588
23.9912575391 3.7250382788 -3.0000152588
25.2736311139 3.6074967127 -3.0000152588
24.1672584196 3.7496287813 -3.0000152588
23.9025602169 3.7466460903 -3.0000152588
23.8584755046 3.7447789247 -3.0000152588
25.0774441275 3.6760207124 -3.0000152588
25.0629511857 3.6789176232 -3.0000152588
24.2710510110 3.7711394585 -3.0000152588
23.8868763080 3.7702200351 -3.0000152588
25.5571735377 3.5796684740 -3.0000152588
23.7672475800 3.7881167887 -3.0000152588
25.3053706602 3.6743630183 -3.0000152588
24.0937617555 3.8227332558 -3.0000152588
24.0340723517 3.8224138294 -3.0000152588
24.9443576187 3.7745407813 -3.0000152588
24.1087695351 3.8468756313 -3.0000152588
24.6978575228 3.8591299846 -3.0000152588
24.4602392618 3.9303787673 -3.0000152588
25.2109527504 3.8702179545 -3.0000152588
18.8357611622 -2.3877967438 -3.0000152588
18.9095608674 -2.6811684731 -3.0000152588
18.9040030424 -2.7492028710 -3.0000152588
18.9085440854 -2.7645400023 -3.0000152588
18.9385480634 -2.9399750718 -3.0000152588
18.7614914034 -2.3877448197 -3.0000152588
18.6511483548 -1.8816957629 -3.0000152588
18.6884624194 -2.1383298633 -3.0000152588
18.7040352778 -2.3503163274 -3.0000152588
18.7213157782 -2.4298668726 -3.0000152588
18.7906143848 -2.9545295841 -3.0000152588
18.8534412290 -3.3380333056 -3.0000152588
18.4893264127 -2.6045137088 -3.0000152588
18.4498220814 -2.5436513392 -3.0000152588
18.3319811230 -2.3396095720 -3.0000152588
21.8427541987 -0.3379750569 -3.0000152588
21.8124865035 -0.1737766130 -3.0000152588
21.7696655425 -0.0705060517 -3.0000152588
24.7925450487 3.4834235195 -3.0000152588
24.7794960493 3.4849236033 -3.0000152588
24.7664426695 3.4863850792 -3.0000152588
24.7403232255 3.4891921567 -3.0000152588
24.8215676689 3.5043013751 -3.0000152588
24.7559680439 3.5118425613 -3.0000152588
24.7296981682 3.5145872219 -3.0000152588
24.6771120013 3.5196100439 -3.0000152588
24.5190484830 3.5309406795 -3.0000152588
24.4530879431 3.5340045761 -3.0000152588
24.4266922504 3.5349569084 -3.0000152588
24.6924913139 3.5424828806 -3.0000152588
24.3744004542 3.5605605565 -3.0000152588
24.2549061217 3.5615118322 -3.0000152588
24.5083176641 3.5799150571 -3.0000152588
24.3081743254 3.5856543331 -3.0000152588
24.0013121385 3.5772019649 -3.0000152588
24.8303823271 3.5762827570 -3.0000152588
23.9998250669 3.6013292088 -3.0000152588
23.9310364877 3.6208085015 -3.0000152588
23.8235184964 3.6113028776 -3.0000152588
23.6022099506 3.6324958810 -3.0000152588
23.4232361491 3.7006866391 -3.0000152588
23.2714465214 3.7442418707 -3.0000152588
23.0316299933 3.7110361133 -3.0000152588
22.9495102306 3.6881683600 -3.0000152588
22.8949947949 3.6721150196 -3.0000152588
24.5813156870 3.8905173838 -3.0000152588
22.6574373753 3.6195016908 -3.0000152588
22.6439951740 3.6146851445 -3.0000152588
24.8400806632 3.8916063975 -3.0000152588
22.6899307608 3.6565519417 -3.0000152588
22.5282589853 3.5972697177 -3.0000152588
18.7418493362 -2.8649069565 -3.0000152588
18.6970078376 -2.9550530070 -3.0000152588
18.7594355851 -3.1192650621 -3.0000152588
18.8128579138 -3.2492603693 -3.0000152588
24.0879026812 3.4849039173 -3.0000152588
24.0516288825 3.4818590979 -3.0000152588
24.0274619791 3.4796504303 -3.0000152588
24.1103271430 3.5108628637 -3.0000152588
24.0616595311 3.5069951023 -3.0000152588
23.9402205181 3.4948088887 -3.0000152588
23.9618516725 3.5215633049 -3.0000152588
23.9374514369 3.5188227903 -3.0000152588
23.8400254350 3.5064186468 -3.0000152588
23.7634025348 3.5194831226 -3.0000152588
24.1669733091 3.5872819387 -3.0000152588
24.0638903903 3.6284724227 -3.0000152588
23.3647964138 3.5364184930 -3.0000152588
23.2229249262 3.5733525622 -3.0000152588
23.1982312204 3.5662394025 -3.0000152588
22.1995157391 0.6970180593 -3.0000152588
22.1416760418 0.6167786434 -3.0000152588
22.2159238842 -3.2622131208 -3.0000152588
23.6246023696 3.4746432071 -3.0000152588
23.5584084296 3.4587186040 -3.0000152588
23.5193497148 3.4737147805 -3.0000152588
23.5083011310 3.4708309558 -3.0000152588
23.4972611264 3.4679144601 -3.0000152588
23.4245843414 3.4729790692 -3.0000152588
23.3957420101 3.4898267386 -3.0000152588
23.3293146381 3.4698378893 -3.0000152588
23.2556733070 3.4716273342 -3.0000152588
23.2147997035 3.4834239200 -3.0000152588
23.0235143658 3.4907838245 -3.0000152588
22.8402237681 3.4933080596 -3.0000152588
22.7647696727 3.5124934937 -3.0000152588
21.4445630199 0.9515867998 -3.0000152588
22.3359415530 3.4047514829 -3.0000152588
22.3458960869 -3.4075878382 -3.0000152588
22.3660913509 -3.4172980426 -3.0000152588
22.3964910793 -3.4316388969 -3.0000152588
22.2639346260 3.4229368966 -3.0000152588
22.2435978991 -3.4105554338 -3.0000152588
22.2739426142 -3.4259836142 -3.0000152588
22.1718942573 -3.4001937676 -3.0000152588
22.2223989215 -3.4268191894 -3.0000152588
22.1504689521 3.4181149394 -3.0000152588
22.1403685947 3.4126369277 -3.0000152588
22.1301629354 -3.4050582118 -3.0000152588
22.1705957297 -3.4269118007 -3.0000152588
22.1807441113 -3.4323003239 -3.0000152588
21.9834286102 -3.4049352537 -3.0000152588
22.0137336945 -3.4226725119 -3.0000152588
21.9711256286 -3.4257432312 -3.0000152588
21.4766748780 0.7649861761 -3.0000152588
21.8199905403 3.3016601188 -3.0000152588
22.7955302100 -3.4724655526 -3.0000152588
22.8067876563 -3.4759225357 -3.0000152588
22.6981739755 -3.4665362841 -3.0000152588
22.7206656697 -3.4739930294 -3.0000152588
22.6453793709 -3.4740541336 -3.0000152588
22.6148081698 -3.4889344483 -3.0000152588
22.4936562571 -3.4697199937 -3.0000152588
22.5161703665 -3.4783866787 -3.0000152588
22.5274465509 -3.4826700328 -3.0000152588
22.4510318131 -3.4789255613 -3.0000152588
22.4194325559 -3.4922751053 -3.0000152588
22.4307502480 -3.4968445665 -3.0000152588
22.4420814079 -3.5013805280 -3.0000152588
22.0204543558 -3.4688732792 -3.0000152588
21.7358290161 -3.5059755334 -3.0000152588
21.4219979802 0.3031593309 -3.0000152588
21.3076683998 0.9045892903 -3.0000152588
21.2363008655 1.1895140533 -3.0000152588
21.3345259738 3.1689617256 -3.0000152588
21.2868277518 3.1555755329 -3.0000152588
21.2064827767 3.1424159492 -3.0000152588
21.1737706376 3.1431137092 -3.0000152588
21.0826509901 3.1517304882 -3.0000152588
23.3339320684 -3.4667537742 -3.0000152588
23.3458843194 -3.4683795518 -3.0000152588
23.3698029879 -3.4715250010 -3.0000152588
23.3937398473 -3.4745288843 -3.0000152588
23.2586063044 -3.4801426687 -3.0000152588
23.2705984917 -3.4819912149 -3.0000152588
23.2825960949 -3.4838042780 -3.0000152588
23.2945990090 -3.4855818421 -3.0000152588
23.3186203496 -3.4890304113 -3.0000152588
23.3306385659 -3.4907013863 -3.0000152588
23.1345825115 -3.4834743120 -3.0000152588
23.1706096665 -3.4900139959 -3.0000152588
23.1826314400 -3.4921228089 -3.0000152588
23.2790194637 -3.5077112433 -3.0000152588
23.0338244844 -3.4881284663 -3.0000152588
23.0458412787 -3.4906419228 -3.0000152588
23.1060338850 -3.5026753940 -3.0000152588
23.1905885215 -3.5180238330 -3.0000152588
23.3362163791 -3.5402513020 -3.0000152588
22.9805697312 -3.5013125203 -3.0000152588
23.0288405115 -3.5117821192 -3.0000152588
23.0409272994 -3.5143102158 -3.0000152588
23.1014705064 -3.5264137777 -3.0000152588
23.3452342763 -3.5658366790 -3.0000152588
22.9753062262 -3.5249055447 -3.0000152588
22.8364449339 -3.5164031218 -3.0000152588
23.0923437491 -3.5738905450 -3.0000152588
22.8061033933 -3.5334745769 -3.0000152588
22.8791534734 -3.5520559968 -3.0000152588
23.2735636422 -3.6290864884 -3.0000152588
22.7025200954 -3.5299089326 -3.0000152588
23.2450671347 -3.6492651777 -3.0000152588
22.6714123697 -3.5459951854 -3.0000152588
22.5790560485 -3.5429244625 -3.0000152588
23.3389944757 -3.7112839712 -3.0000152588
22.5228424131 -3.5500759139 -3.0000152588
22.4540681366 -3.5522419164 -3.0000152588
23.1921867461 -3.7388318764 -3.0000152588
23.2816127252 -3.7523458208 -3.0000152588
22.3849325472 -3.5532704860 -3.0000152588
22.4799573101 -3.6377058293 -3.0000152588
22.4949690607 -3.7190185303 -3.0000152588
22.4238343172 -3.7208003977 -3.0000152588
22.7854712638 -3.8775153055 -3.0000152588
22.8160037157 -4.1084619546 -3.0000152588
23.8683872106 -3.4851108480 -3.0000152588
23.9064904701 -3.4840668673 -3.0000152588
23.9318868476 -3.4831830385 -3.0000152588
23.9445829644 -3.4826847827 -3.0000152588
23.9826616934 -3.4809647030 -3.0000152588
23.9953510258 -3.4803162557 -3.0000152588
23.7795089225 -3.5104045093 -3.0000152588
23.8050633447 -3.5102714850 -3.0000152588
23.9072597471 -3.5082276516 -3.0000152588
23.9583326564 -3.5062989620 -3.0000152588
23.8951860349 -3.5327783410 -3.0000152588
23.4439896004 -3.5465923391 -3.0000152588
23.5342439518 -3.5524047808 -3.0000152588
23.7150169180 -3.5584178654 -3.0000152588
23.7537767756 -3.5587320732 -3.0000152588
23.8700517105 -3.5576108272 -3.0000152588
23.2740456311 -3.5548640976 -3.0000152588
23.3127913159 -3.5590918182 -3.0000152588
23.3257146933 -3.5604246269 -3.0000152588
23.8186466789 -3.5826628764 -3.0000152588
23.8835945889 -3.5814600779 -3.0000152588
23.2453659526 -3.5758566252 -3.0000152588
23.4664428617 -3.5966755749 -3.0000152588
23.0993377738 -3.5803691090 -3.0000152588
23.1773453223 -3.5915772666 -3.0000152588
23.6615767703 -3.6299614207 -3.0000152588
23.8722710437 -3.6542774661 -3.0000152588
24.0042366916 -3.6492939873 -3.0000152588
22.9741602961 -3.6085459306 -3.0000152588
23.1314409087 -3.6340008819 -3.0000152588
22.8388638447 -3.6067331920 -3.0000152588
22.8519302276 -3.6094677553 -3.0000152588
22.8911771115 -3.6174393632 -3.0000152588
22.7366828852 -3.6336001969 -3.0000152588
22.6403217102 -3.6848960643 -3.0000152588
22.4615938658 -3.6613484662 -3.0000152588
22.8089436416 -3.7486516602 -3.0000152588
23.3515313317 -3.8542898427 -3.0000152588
23.6279951808 -3.8708628120 -3.0000152588
23.6556848472 -3.8716198852 -3.0000152588
23.9762694375 -3.9168487988 -3.0000152588
22.9340039625 -3.9942184379 -3.0000152588
18.6457076920 2.6096593493 -3.0000152588
18.7291920146 2.9580497667 -3.0000152588
18.7107292985 3.0370284627 -3.0000152588
21.3921903164 -0.0455741822 -3.0000152588
21.3086827212 0.0213114816 -3.0000152588
21.0383233213 0.4763535150 -3.0000152588
21.0517795740 0.4156540329 -3.0000152588
21.0247121929 0.4254274325 -3.0000152588
20.8967506854 0.3368775771 -3.0000152588
24.4427181675 -3.4943817591 -3.0000152588
24.5757177471 -3.4677741700 -3.0000152588
23.7836024286 -3.5915581460 -3.0000152588
24.2722204111 -3.5469922629 -3.0000152588
23.6474846394 -3.6188549874 -3.0000152588
23.7160108115 -3.6177911945 -3.0000152588
24.0716344140 -3.5959375217 -3.0000152588
23.5787891474 -3.6430776266 -3.0000152588
24.0877514882 -3.6185966780 -3.0000152588
24.5370492359 -3.5499568744 -3.0000152588
23.6341527859 -3.6914642273 -3.0000152588
23.9262662055 -3.6808763422 -3.0000152588
23.4943588764 -3.7142906015 -3.0000152588
24.5514856372 -3.6210245032 -3.0000152588
23.1989149628 -3.7220829648 -3.0000152588
23.3251530174 -3.7313430380 -3.0000152588
23.7328409309 -3.7382814927 -3.0000152588
23.9575766841 -3.7271385668 -3.0000152588
24.5700766625 -3.6418934948 -3.0000152588
