2.3101653548 -26.0490705430 -2.6986358166
2.3825786015 -26.0362468170 -2.6986358166
2.4160211712 -26.0545621184 -2.6986358166
1.3264606848 -26.1891699946 -2.6986358166
2.5721431537 -26.1459662530 -2.6986358166
0.7597539939 -26.2619789416 -2.6986358166
1.0330064041 -26.2930299017 -2.6986358166
2.1643784677 -26.2911208978 -2.6986358166
0.6006305990 -26.2861104582 -2.6986358166
1.9990636053 -26.3347360035 -2.6986358166
0.4807083729 -26.3380264855 -2.6986358166
0.9602780093 -26.4076688118 -2.6986358166
1.0537277897 -26.4160534517 -2.6986358166
0.2458096596 -26.3121289994 -2.6986358166
-3.7488272732 -19.8655807159 -2.6986358166
-3.7742383942 -19.9741098990 -2.6986358166
-3.8292140026 -20.2553816187 -2.6986358166
-3.8873427822 -20.7293869445 -2.6986358166
-3.5326208360 -18.5941545905 -2.6986358166
-0.8109322741 -22.7933757309 -2.7008025646
-0.3530636047 -23.1898256286 -2.7008025646
-0.8785486962 -22.7545539635 -2.7008025646
-0.2959438941 -23.3144092853 -2.7008025646
-0.3016560117 -23.3393718096 -2.7008025646
-0.0090459018 -23.5532602363 -2.7008025646
-1.5639669400 -22.1207164853 -2.7008025646
-1.5780707170 -22.3712482643 -2.7008025646
-0.4364944511 -23.6254660526 -2.7008025646
-1.3057044543 -23.1835982829 -2.7008025646
-3.5503366900 -19.7985791592 -2.7008025646
-3.6000887183 -20.0398685744 -2.7008025646
-3.7245501905 -20.7877561299 -2.7008025646
-3.7248852414 -20.8023889077 -2.7008025646
-3.7259525180 -20.9341102599 -2.7008025646
-3.6931865330 -20.1575880163 -2.7008025646
-3.7429575338 -20.6402039045 -2.7008025646
-3.7726878906 -21.0378051848 -2.7008025646
-3.6167872844 -19.5697233167 -2.7008025646
-3.7945112858 -21.4409894553 -2.7008025646
-3.9042115347 -21.5448296110 -2.7008025646
2.3715217999 -26.1670749345 -2.7008025646
1.7793318658 -26.3109426707 -2.7008025646
3.0304448725 -26.0296491939 -2.7008025646
1.2663754406 -26.3636235018 -2.7008025646
1.2179097952 -26.4363231728 -2.7008025646
1.3977610688 -26.4335238989 -2.7008025646
2.1335074309 -26.3851343239 -2.7008025646
2.6946612183 -26.2615808196 -2.7008025646
3.2094037806 -26.0925427779 -2.7008025646
1.8925766705 -26.4441819074 -2.7008025646
2.8807487909 -26.3081041095 -2.7008025646
-1.2287256623 -22.6509643261 -2.6996075852
-1.0497949460 -22.9644974384 -2.6996076083
-3.5184111998 -20.3100356592 -2.6996079598
-3.5229675998 -20.3626642913 -2.6996079598
-3.5259760579 -20.4021691315 -2.6996079598
-3.5269009545 -20.4153431526 -2.6996079598
-3.5316315955 -20.4944394881 -2.6996079598
-3.5340051183 -20.5472116406 -2.6996079598
-3.5329591657 -20.2153531989 -2.6996079656
-3.5386348741 -20.2681605977 -2.6996079656
-3.5612326874 -20.6657270047 -2.6996079656
-3.5741983455 -20.3987119488 -2.6996079714
-3.5854038550 -20.6654271103 -2.6996079714
-3.5856867463 -20.7455223747 -2.6996079714
-3.6079789416 -20.2339988274 -2.6996079829
-3.6340964565 -20.7187958133 -2.6996079829
-3.6175474362 -21.1096076990 -2.6996079829
-3.6366952748 -21.1656956065 -2.6996079887
-3.6339868759 -21.1926880160 -2.6996079887
-3.6764821946 -20.4870656090 -2.6996079944
-3.6620556861 -21.1544645531 -2.6996079944
-3.6401912299 -21.3440915939 -2.6996079944
-3.7045096524 -20.5817052758 -2.6996080002
-3.6543825233 -21.4151929773 -2.6996080002
-3.7771554881 -20.8579088105 -2.6996080175
-3.7465457906 -21.2742942497 -2.6996080175
-3.7901773670 -20.3691989062 -2.6996080232
-3.6999228312 -21.7049759805 -2.6996080232
-3.8153097833 -20.3814260354 -2.6996080290
-3.8181402294 -20.4235245097 -2.6996080290
-3.8417158129 -21.0294505911 -2.6996080348
-3.8540636563 -20.2647060309 -2.6996080405
-3.8642053110 -20.1346558101 -2.6996080463
-3.9489180486 -20.2410855427 -2.6996080636
-3.9351002347 -21.3257895902 -2.6996080636
-3.9200660757 -21.9330534535 -2.6996080866
-4.1127056430 -20.1797510955 -2.6996081039
-0.5400701693 -23.1651811472 -2.7001818755
0.1745926708 -23.6435057979 -2.7001820023
-3.5148832380 -20.8287626208 -2.7001824980
-3.5099437234 -20.9018269010 -2.7001824980
-3.5089944249 -20.9139952602 -2.7001824980
-3.4975234037 -21.0355039156 -2.7001824980
-3.5366935609 -20.8669362171 -2.7001825095
-3.5340462798 -20.9036713674 -2.7001825095
-3.5173872447 -21.0747256118 -2.7001825095
-3.5128967095 -21.1112812470 -2.7001825095
-3.5352980235 -21.1265820678 -2.7001825210
-3.5320332637 -21.1510619955 -2.7001825210
-3.5624061909 -21.1050660251 -2.7001825325
-3.5542881420 -21.1666318510 -2.7001825325
-3.5570494118 -21.3057257943 -2.7001825441
-3.5364420826 -21.4162399162 -2.7001825441
-3.5525793263 -21.4579084098 -2.7001825556
-3.7079025663 -21.1102096120 -2.7001826017
-3.6739452589 -21.3389559519 -2.7001826017
-3.7817754548 -20.8183994490 -2.7001826247
-3.6997882820 -21.4622044115 -2.7001826247
-3.5823786323 -21.9147089898 -2.7001826247
-3.8019912958 -20.8848716848 -2.7001826363
-3.8774700959 -21.1173375674 -2.7001826824
-3.6235725966 -22.1657541850 -2.7001826824
-0.4146912460 -23.1746801898 -2.6999271498
-0.2444731027 -23.2368572151 -2.6999271671
0.3862013301 -23.3292729224 -2.6999272017
-1.0504615393 -23.0349673275 -2.6999272190
-0.7598476411 -23.1919332825 -2.6999272363
-0.5100779734 -23.2743050323 -2.6999272363
-0.2538145837 -23.3334579460 -2.6999272363
0.7673638606 -23.4337543906 -2.6999273054
3.2802286436 -22.8401642810 -2.6999279106
3.2854470658 -22.8728582456 -2.6999279279
3.2924195499 -22.8639059186 -2.6999279279
-3.4955942400 -21.3920676413 -2.6999279452
-3.4849103133 -21.4364752226 -2.6999279452
-3.4821572867 -21.4475571220 -2.6999279452
-3.5028053455 -21.4645629191 -2.6999279625
-3.4941980123 -21.4979416453 -2.6999279625
-3.4912631162 -21.5090507505 -2.6999279625
-3.4882953703 -21.5201511250 -2.6999279625
-3.4852948005 -21.5312426719 -2.6999279625
-3.4822614329 -21.5423252940 -2.6999279625
3.2661034555 -22.9743829461 -2.6999279625
-3.4993640469 -21.5710171854 -2.6999279798
-3.4865624422 -21.6154568454 -2.6999279798
-3.4832799484 -21.6265428489 -2.6999279798
-3.4997435949 -21.6557196626 -2.6999279970
-3.4963419387 -21.6668444822 -2.6999279970
-3.4929073882 -21.6779591904 -2.6999279970
-3.5089818192 -21.7074652197 -2.6999280143
-3.5018393067 -21.7297584984 -2.6999280143
-3.4982186210 -21.7408891936 -2.6999280143
-3.4945650246 -21.7520091294 -2.6999280143
3.2571134548 -23.1345076315 -2.6999280316
-3.4976032502 -21.8902350444 -2.6999280489
3.2517576809 -23.1770675894 -2.6999280489
-3.5078390451 -21.9320741722 -2.6999280662
-3.5036198469 -21.9432217305 -2.6999280662
-3.4993676906 -21.9543567588 -2.6999280662
-3.6726586471 -21.4828219724 -2.6999280835
-3.5269616099 -22.0166165462 -2.6999281008
-3.5088855345 -22.0613515586 -2.6999281008
-3.6983873602 -21.5766534581 -2.6999281181
-3.6702764814 -21.7586165713 -2.6999281354
-3.6436080440 -21.8397835312 -2.6999281354
-3.5299885182 -22.1360011063 -2.6999281354
-3.5154214772 -22.1695946277 -2.6999281354
-3.5104996173 -22.1807635769 -2.6999281354
-3.5175544324 -22.2241587750 -2.6999281527
-3.5248933867 -22.3229240157 -2.6999281872
-3.5358542854 -22.3558596574 -2.6999282045
-3.6842214263 -22.0790807677 -2.6999282218
-3.5380039843 -22.5122473138 -2.6999282564
-3.7611691114 -22.5543047777 -2.6999284120
-3.7329889897 -22.6603995851 -2.6999284293
-4.2078171302 -22.3951357036 -2.6999286541
-0.5217633322 -23.5271863537 -2.7000155598
-3.4306670301 -21.9400343327 -2.7000156981
-3.4356702363 -22.1589671756 -2.7000157211
-3.4381591936 -22.2602708512 -2.7000157327
-3.4319551461 -22.6981493085 -2.7000157845
3.4157281779 -22.4385618152 -2.7000157845
-3.4412487778 -22.9393522403 -2.7000158191
3.4029013091 -22.8736369391 -2.7000158364
3.3971895405 -23.0081042960 -2.7000158537
3.4046058203 -22.9977873956 -2.7000158537
0.0729919595 -23.0701087937 -2.7000120628
-0.0801835619 -23.3154729727 -2.7000118294
-0.0146394662 -23.3063388118 -2.7000118294
0.0913532926 -23.2881959116 -2.7000118294
0.2830199330 -23.2695477943 -2.7000118034
0.2541776764 -23.3267822064 -2.7000117516
0.6256746824 -23.2077643069 -2.7000117516
0.3592211978 -23.3238743240 -2.7000117256
-0.8050920876 -23.4349502614 -2.7000116997
0.9675729699 -23.1278648607 -2.7000116738
1.0283842569 -23.0939898846 -2.7000116738
-0.5598598656 -23.5527668392 -2.7000115960
-0.4796516161 -23.5550670589 -2.7000115960
-1.4147730211 -23.4167187910 -2.7000115700
-0.5159643689 -23.5784724731 -2.7000115700
1.3402104117 -23.0378988273 -2.7000115441
-1.2598691573 -23.5653713267 -2.7000114663
-3.3400861526 -22.4426517230 -2.7000111032
-3.3313824447 -22.6261825841 -2.7000109995
-3.4673115595 -22.5130771581 -2.7000109476
-3.3390554136 -22.6976273518 -2.7000109476
-3.4638814078 -22.5622491871 -2.7000109217
3.4714252505 -21.7973078752 -2.7000104289
3.4751232864 -21.7857513095 -2.7000104289
3.4868946009 -21.8279252328 -2.7000104030
3.4822230697 -21.9168328130 -2.7000103770
3.4862746347 -21.9052437824 -2.7000103770
3.4942748289 -21.8820300191 -2.7000103770
3.4883850423 -21.9713481147 -2.7000103511
3.4849488160 -22.0494090956 -2.7000103252
3.4846456835 -22.1162125363 -2.7000102992
3.4880586683 -22.1717417933 -2.7000102733
3.6171199815 -21.8177738709 -2.7000102733
3.5006101136 -22.2043254037 -2.7000102474
3.4925720757 -22.2836897282 -2.7000102214
3.4977088245 -22.2720684782 -2.7000102214
3.5028111730 -22.2604320837 -2.7000102214
3.5078790767 -22.2487806463 -2.7000102214
3.4936594284 -22.3400873876 -2.7000101955
3.5156368751 -22.3501535248 -2.7000101696
3.4934638190 -22.4536766990 -2.7000101436
3.4991034161 -22.4420520673 -2.7000101436
3.5137749899 -22.5216864566 -2.7000100917
3.7297447892 -22.4631385315 -2.7000099102
0.6492635004 -23.0857641329 -2.7000075729
-1.1243813627 -23.6391430968 -2.7000070427
1.4924344251 -22.7846158992 -2.7000067775
3.4964354327 -21.1685010061 -2.7000035299
3.5030248591 -21.2980176625 -2.7000034637
3.5068051681 -21.2727440506 -2.7000034637
3.5086392332 -21.2600989682 -2.7000034637
3.5079567687 -21.4157353712 -2.7000033974
3.5124334489 -21.3904305203 -2.7000033974
3.5146156272 -21.3777682734 -2.7000033974
3.5188675648 -21.3524246909 -2.7000033974
3.5209372869 -21.3397435770 -2.7000033974
3.5288407780 -21.2889595609 -2.7000033974
3.5148081942 -21.5088576315 -2.7000033311
3.5173406909 -21.4961878415 -2.7000033311
3.5198356971 -21.4835106154 -2.7000033311
3.5362492103 -21.3945711471 -2.7000033311
3.5252080454 -21.5772142755 -2.7000032648
3.5332992593 -21.5390877234 -2.7000032648
3.5385052899 -21.5136307789 -2.7000032648
3.5315414419 -21.6587860524 -2.7000031985
3.5330676251 -21.7535989913 -2.7000031323
3.5395427805 -21.7281396630 -2.7000031323
3.5427238449 -21.7153957442 -2.7000031323
3.5610173129 -21.6387396978 -2.7000031323
3.5360388226 -21.8361830095 -2.7000030660
3.5798865700 -21.7656541782 -2.7000029997
3.6858285500 -21.3799284771 -2.7000029334
3.5625743164 -22.0813985799 -2.7000028009
3.7834312546 -21.3821874935 -2.7000026683
3.8844803412 -21.7419098869 -2.7000022044
3.8326234050 -22.1107343396 -2.7000020718
0.4677429357 -23.1096923830 -2.7000118553
-0.5851108082 -23.7077953778 -2.7000116738
3.5074641656 -20.7289768274 -2.7000099102
3.5065845071 -20.6882944877 -2.7000099102
3.5062110615 -20.6747356404 -2.7000099102
3.5321085513 -20.8512764858 -2.7000098843
3.5322853617 -20.8240060939 -2.7000098843
3.5316336255 -20.7285615076 -2.7000098843
3.5511727937 -21.0296116519 -2.7000098583
3.5524043613 -21.0022253485 -2.7000098583
3.5789383317 -20.9343891097 -2.7000098324
3.5773171284 -20.6313195201 -2.7000098324
3.8136527999 -21.1002331908 -2.7000095731
3.8462509315 -20.7522895822 -2.7000095471
3.9073292923 -21.1502527665 -2.7000094693
-2.8402003287 -26.4029572381 -2.7000085357
-0.0678460792 -22.8546067339 -2.7000193701
-0.1431332298 -22.9338564090 -2.7000194190
-0.1302019108 -22.9542798336 -2.7000194680
0.3301793749 -23.2220923088 -2.7000204478
0.0494124271 -23.4389395581 -2.7000204968
0.0779301913 -23.4221574010 -2.7000204968
0.2514660627 -23.3097475038 -2.7000204968
0.0180320467 -23.4845947808 -2.7000205458
0.1613301183 -23.3991212060 -2.7000205458
-0.2499588781 -23.6420639227 -2.7000205948
0.8662899486 -22.7982752134 -2.7000205948
-0.3509897766 -23.7081967052 -2.7000206437
0.7739167627 -23.1201416761 -2.7000208887
1.2104640652 -22.6486758013 -2.7000209867
3.5160062510 -20.1496715118 -2.7000248567
3.5545622086 -20.2324214400 -2.7000249057
3.5448935790 -20.1743891980 -2.7000249057
3.5423691811 -20.1598993308 -2.7000249057
3.5345389619 -20.1164754223 -2.7000249057
3.4961670273 -19.9291716873 -2.7000249057
3.6338583281 -20.7426665554 -2.7000249547
3.6246942986 -20.6099698255 -2.7000249547
3.5784296501 -20.2285899230 -2.7000249547
3.6654440119 -20.9639465479 -2.7000250037
3.6135242731 -20.2981597776 -2.7000250037
3.5820791458 -20.1076849704 -2.7000250037
3.6898296107 -21.0532087023 -2.7000250527
3.6812776876 -20.7250797234 -2.7000250527
3.6261645329 -20.2209268889 -2.7000250527
3.7140361299 -20.9933891407 -2.7000251017
3.7070768736 -20.7536059426 -2.7000251017
3.7004653680 -20.6488571423 -2.7000251017
3.7263011552 -21.3696273860 -2.7000251506
3.7433875064 -21.4618338762 -2.7000251996
3.7493573096 -21.3863844901 -2.7000251996
3.7906932113 -21.6969900535 -2.7000253466
3.8257190278 -21.3302955894 -2.7000253466
3.7669134622 -20.1827837770 -2.7000253466
3.8479164922 -21.3625243830 -2.7000253956
3.7891676553 -22.0091684907 -2.7000254446
3.7949269020 -21.9787189682 -2.7000254446
3.8819225809 -20.8995262677 -2.7000254446
3.8571975890 -20.1363251773 -2.7000255425
3.8792461300 -19.9885455664 -2.7000256405
-2.3660716147 -26.2829578606 -2.7000256895
-1.7871200606 -26.3860505123 -2.7000257385
-1.6123268182 -26.3972820400 -2.7000257385
-1.5486882396 -26.3999552517 -2.7000257385
-1.7092999882 -26.4159818014 -2.7000257875
-2.2215543787 -26.3821617528 -2.7000258365
4.0319110368 -20.1557910992 -2.7000258855
4.0240250818 -20.1080229431 -2.7000258855
3.9914908196 -19.9335164263 -2.7000258855
-2.2932166384 -26.4191596321 -2.7000259344
-2.5900723615 -26.4830393359 -2.7000261794
-2.1608056501 -26.7580313211 -2.7000265713
-0.0886007115 -22.8412049073 -2.7000205153
-0.0163322631 -22.7683746341 -2.7000205153
-0.0718494539 -22.8586327773 -2.7000205787
0.0097407180 -22.8111031232 -2.7000206421
0.4462021145 -23.2290875736 -2.7000222270
0.1379242156 -23.5373765808 -2.7000222904
0.7751823217 -22.9006839095 -2.7000223538
0.3860038828 -23.6798932613 -2.7000229877
-2.3443593447 -26.1194136544 -2.7000276791
-3.0079850916 -26.0187729416 -2.7000278059
-2.6109179220 -26.1197603230 -2.7000278059
-1.8570515838 -26.2188750616 -2.7000278059
-1.7839479819 -26.2222707615 -2.7000278059
-1.6376300980 -26.2258168492 -2.7000278059
-3.0008100343 -26.0461249236 -2.7000278692
-2.4758331456 -26.1953926896 -2.7000279326
-2.2568442230 -26.2298056385 -2.7000279326
-3.0429772834 -26.0839798002 -2.7000279960
-1.7274054033 -26.2967008769 -2.7000279960
-3.0213738784 -26.1156673269 -2.7000280594
-1.5042439503 -26.3219846454 -2.7000280594
-1.3849157752 -26.3185211787 -2.7000280594
-2.3259028108 -26.2933321607 -2.7000281228
-1.5638010683 -26.3468298707 -2.7000281228
-1.3989111337 -26.3432642118 -2.7000281228
-1.3528390365 -26.3655073492 -2.7000281862
-1.3227449856 -26.3640097221 -2.7000281862
-2.7197428191 -26.2691872167 -2.7000282496
-2.5418977081 -26.3061055612 -2.7000282496
-0.8247130842 -26.3375582680 -2.7000282496
-0.6710800272 -26.3364650929 -2.7000283130
-2.4907607385 -26.3646127573 -2.7000283764
-2.1580653330 -26.4123651318 -2.7000283764
-1.4710546314 -26.4663830144 -2.7000284398
-0.5569088312 -26.3637112045 -2.7000284398
-2.0713084383 -26.4697625712 -2.7000285032
-1.6709841479 -26.4913258856 -2.7000285032
3.7360151502 -20.5036760786 -2.7000289470
3.7708583010 -20.5794243497 -2.7000290104
3.6547765442 -19.9668562328 -2.7000290104
3.6222769840 -19.8430929863 -2.7000290104
3.8269081440 -20.8959837106 -2.7000290738
3.8643036453 -21.3296981292 -2.7000291372
3.8880736683 -21.3623433782 -2.7000292006
3.8596948823 -20.7149512414 -2.7000292006
3.8646116355 -20.5507869503 -2.7000292640
3.8697496953 -20.4181338756 -2.7000293274
3.9437880955 -20.8383432880 -2.7000293908
3.9273871083 -20.4758510588 -2.7000294542
3.6668877487 -19.4205303243 -2.7000294542
4.0344868583 -20.7640846198 -2.7000296443
3.7352644932 -19.3963717161 -2.7000296443
3.7126249594 -19.3334815185 -2.7000296443
3.8597504760 -19.6204164104 -2.7000297711
4.1162782789 -20.4311393962 -2.7000299613
0.0090387774 -22.7990693640 -2.7000151081
0.0684087533 -22.7076423959 -2.7000151081
0.5703933161 -23.0448283816 -2.7000152522
0.5132531088 -23.1749097888 -2.7000152579
0.5979801534 -23.0916487615 -2.7000152637
0.8078449987 -22.8138246746 -2.7000152752
0.6590912242 -23.1306930257 -2.7000152810
0.7641054365 -23.1453117141 -2.7000153040
0.7010534796 -23.3280826942 -2.7000153156
0.0677000183 -24.0462018741 -2.7000153271
-2.3215630644 -26.0043070953 -2.7000156556
-2.2953366578 -26.0074400060 -2.7000156556
-2.2822166185 -26.0089482608 -2.7000156556
-2.2690921749 -26.0104176975 -2.7000156556
-2.1639518616 -26.0207742702 -2.7000156556
-2.1376307882 -26.0229744119 -2.7000156556
-2.1244654853 -26.0240160762 -2.7000156556
-2.0981259233 -26.0259825465 -2.7000156556
-1.9134878125 -26.0353803640 -2.7000156556
-2.3113194146 -26.0298953261 -2.7000156614
-2.1528065193 -26.0459828256 -2.7000156614
-2.0998543172 -26.0500937044 -2.7000156614
-2.0336017444 -26.0543507461 -2.7000156614
-1.9938225287 -26.0564344457 -2.7000156614
-1.9540263879 -26.0581650450 -2.7000156614
-1.9407577881 -26.0586634204 -2.7000156614
-1.8743958684 -26.0605664255 -2.7000156614
-1.7549015362 -26.0615177411 -2.7000156614
-2.1947139867 -26.0665588448 -2.7000156671
-1.8749100587 -26.0847339842 -2.7000156671
-1.8081697480 -26.0856602242 -2.7000156671
-1.7147258334 -26.0852984326 -2.7000156671
-1.6213094432 -26.0830018861 -2.7000156671
-2.3303777465 -26.0762884743 -2.7000156729
-2.3037253197 -26.0794722758 -2.7000156729
-1.7009626568 -26.1092582542 -2.7000156729
-1.5802335855 -26.1055754314 -2.7000156729
-2.1991685158 -26.1146992467 -2.7000156787
-1.8894274280 -26.1327621479 -2.7000156787
-2.2604139633 -26.1815351990 -2.7000156960
-1.0986565188 -26.1564131092 -2.7000156960
-2.2492198581 -26.2069888718 -2.7000157017
-1.8917701479 -26.2294258752 -2.7000157017
-1.0270388194 -26.1697064163 -2.7000157017
-2.0998654452 -26.2439528231 -2.7000157075
-2.2817937269 -26.2521945632 -2.7000157132
-2.1015225063 -26.2680689885 -2.7000157132
-0.9095458974 -26.1981412992 -2.7000157132
-2.0752537997 -26.2940209960 -2.7000157190
-1.8378644224 -26.3271198887 -2.7000157248
-1.9244174650 -26.3978110211 -2.7000157421
-0.4977914953 -26.2268879266 -2.7000157421
-2.3285446822 -26.4172699564 -2.7000157536
-2.0411471598 -26.4412931123 -2.7000157536
-1.9258747520 -26.4461351087 -2.7000157536
-0.4155797650 -26.2538477731 -2.7000157536
-2.0713878143 -26.4637864001 -2.7000157593
-2.1019037528 -26.4860914209 -2.7000157651
-2.2202284178 -26.5011494983 -2.7000157709
-2.2223844686 -26.5252261826 -2.7000157766
-2.1066608946 -26.5584543061 -2.7000157824
-2.2437138068 -26.5961032661 -2.7000157939
3.9021909786 -20.4354082873 -2.7000159726
3.8930732441 -20.1729380080 -2.7000159841
3.8266053058 -19.6111445741 -2.7000160072
-0.0400748862 -22.7807578104 -2.7000126074
-0.0262357401 -22.8078618695 -2.7000125815
-0.0208740694 -22.7966840080 -2.7000125815
0.0147930855 -22.7175783031 -2.7000125815
0.3001366441 -23.7218358517 -2.7000117516
0.1717238875 -24.0392879780 -2.7000116219
0.1727563391 -24.1712846221 -2.7000115182
-1.6968675415 -25.9921226660 -2.7000104289
-1.6605255430 -25.9900445554 -2.7000104289
-1.6346786063 -26.0125980307 -2.7000104030
-1.6225022776 -26.0117571080 -2.7000104030
-1.5616608777 -26.0070124111 -2.7000104030
-1.5373450855 -26.0048626499 -2.7000104030
-1.4766149720 -25.9988591993 -2.7000104030
-1.6208011375 -26.0358702041 -2.7000103770
-1.4984827068 -26.0254205962 -2.7000103770
-1.4618530200 -26.0215806203 -2.7000103770
-1.4252588533 -26.0174157276 -2.7000103770
-1.6807185744 -26.0638726562 -2.7000103511
-1.3734029137 -26.0353280014 -2.7000103511
-1.2878110710 -26.0232706844 -2.7000103511
-1.4442548153 -26.0682723853 -2.7000103252
-1.3579656424 -26.0576750517 -2.7000103252
-1.3210552488 -26.0525867956 -2.7000103252
-1.1983735245 -26.0332641287 -2.7000103252
-1.5409860488 -26.1022719367 -2.7000102992
-1.4291455453 -26.0908818127 -2.7000102992
-1.3176478879 -26.0765184728 -2.7000102992
-1.1450746177 -26.0482904437 -2.7000102992
-1.1327948466 -26.0460010277 -2.7000102992
-1.5996937084 -26.1555279191 -2.7000102474
-1.0000576939 -26.0683419669 -2.7000102474
-0.9630667313 -26.0600770585 -2.7000102474
-0.9205659785 -26.0750032915 -2.7000102214
-1.6841384553 -26.2335175677 -2.7000101696
-0.7600446629 -26.0837654237 -2.7000101696
-1.6699640782 -26.2569576086 -2.7000101436
-1.2588542156 -26.2144746555 -2.7000101436
-1.4719330864 -26.2899951354 -2.7000100917
-1.6003874561 -26.3252273575 -2.7000100658
-1.3650989329 -26.3023193700 -2.7000100658
-1.2833054016 -26.4134440558 -2.7000099361
-0.1104490508 -26.1384395574 -2.7000098843
-1.0973265551 -26.4572866471 -2.7000098583
0.0093877990 -26.1386375547 -2.7000098324
-0.5088445328 -26.4637458179 -2.7000097027
0.7988332116 -26.2069601612 -2.7000093656
0.0066187232 -22.6948498329 -2.7000136095
0.0417873215 -22.6463449965 -2.7000135951
0.7084691485 -22.7640456380 -2.7000131916
0.7424680909 -22.8381075064 -2.7000131628
0.6345019089 -23.4576551578 -2.7000131052
0.8241952959 -23.3199041744 -2.7000130332
0.9755314316 -21.4683430978 -2.7000130043
0.3756939334 -19.2475718798 -2.7000125577
-1.1245936465 -25.9746471153 -2.7000125433
-1.1135418561 -25.9720746415 -2.7000125433
-1.0636191830 -25.9849267681 -2.7000125289
0.4920965284 -19.2485564290 -2.7000125145
-0.9179532897 -25.9962311775 -2.7000125000
0.5429456077 -19.2597028561 -2.7000125000
-0.8110307705 -25.9894594889 -2.7000124856
-0.7592053734 -25.9982387645 -2.7000124712
-0.7405062023 -26.0175394124 -2.7000124568
-0.7181632365 -26.0100886418 -2.7000124568
-0.6847324173 -25.9986649598 -2.7000124568
-0.6321306385 -26.0057169533 -2.7000124424
0.6946925615 -19.2641035579 -2.7000124424
-0.5568729019 -26.0036424421 -2.7000124280
-0.9128588083 -26.1454217349 -2.7000124136
-0.5258919039 -26.0176495783 -2.7000124136
-0.5035520424 -26.0089290755 -2.7000124136
-0.4722745585 -26.0225158567 -2.7000123992
-0.4610840179 -26.0180134956 -2.7000123992
-0.4183385038 -26.0266394290 -2.7000123848
-0.6834468477 -26.1514200819 -2.7000123704
-0.6177137664 -26.1545030321 -2.7000123560
-0.1771708745 -26.0249205829 -2.7000123272
-0.1330067212 -26.0304090618 -2.7000123127
-0.0215026702 -26.0283482545 -2.7000122839
-0.2887756473 -26.3392784885 -2.7000121831
0.3976896670 -25.9817759600 -2.7000121831
-0.0073648167 -22.6764591057 -2.7000150679
0.0321557822 -22.3762530211 -2.7000150737
0.7523175859 -22.8829016953 -2.7000151601
0.7673760677 -22.6538373427 -2.7000151601
0.7639954593 -22.9839759376 -2.7000151630
0.7891559727 -22.7205574699 -2.7000151630
0.7906566892 -22.4890018886 -2.7000151630
0.7414188185 -23.2332856035 -2.7000151659
0.7762659525 -23.0615927501 -2.7000151659
0.8080744078 -22.8049867712 -2.7000151659
0.7808777098 -22.1395878332 -2.7000151659
0.7616296303 -22.0328455155 -2.7000151659
0.8403735226 -22.6303531480 -2.7000151688
0.8073558697 -22.0150335560 -2.7000151716
0.8394429052 -23.2386400901 -2.7000151774
0.8763474399 -22.1242615438 -2.7000151774
0.8018190377 -23.6191419724 -2.7000151861
0.9148888023 -23.7299123802 -2.7000152033
-0.5698455977 -25.9349171113 -2.7000152639
-0.5304733472 -25.9441922190 -2.7000152667
-0.5205476423 -25.9398183487 -2.7000152667
-0.5106349195 -25.9354151356 -2.7000152667
-0.4808726066 -25.9485392706 -2.7000152696
-0.4709342593 -25.9440186534 -2.7000152696
-0.4510979005 -25.9348893198 -2.7000152696
-0.4011590220 -25.9380865305 -2.7000152725
-0.3410143091 -25.9356626984 -2.7000152754
-0.3004163434 -25.9423263286 -2.7000152783
-0.2805929813 -25.9321881834 -2.7000152783
-0.2595699894 -25.9485314501 -2.7000152811
-0.2298040674 -25.9329175630 -2.7000152811
-0.1373704147 -25.9376975931 -2.7000152869
-0.1274656421 -25.9321608817 -2.7000152869
-0.0539166592 -25.9458500961 -2.7000152927
0.0502821827 -25.9399871952 -2.7000152984
-0.1579390601 -19.1143686468 -2.7000152984
-0.1682188385 -19.1089226362 -2.7000152984
0.1026872441 -25.9359058950 -2.7000153013
-0.1156600765 -19.1096465237 -2.7000153013
-0.1259540089 -19.1040754648 -2.7000153013
0.1354572915 -25.9437680180 -2.7000153042
0.1453788279 -25.9374242063 -2.7000153042
-0.0525902316 -19.1168879202 -2.7000153042
-0.0731527927 -19.1054030091 -2.7000153042
-0.1144799589 -19.0827991526 -2.7000153042
0.0660050944 -19.1016889872 -2.7000153128
0.3180089054 -25.9385094407 -2.7000153157
0.1529551839 -19.0978567915 -2.7000153186
0.2276104784 -19.1163578935 -2.7000153215
0.2612979606 -19.1093679603 -2.7000153244
0.3157181752 -19.1163198138 -2.7000153273
0.0062968539 -22.2781309555 -2.7000153235
0.0764531725 -22.3406391785 -2.7000153350
0.8131252070 -22.8775290136 -2.7000154906
0.8079201287 -22.7546362035 -2.7000154906
0.8006407266 -22.6647247859 -2.7000154906
0.7904399734 -22.5750977959 -2.7000154906
0.7718419146 -22.4535089485 -2.7000154906
0.7348545824 -22.2769543312 -2.7000154906
0.8369111633 -22.8605018086 -2.7000154964
0.6835908110 -22.0173904413 -2.7000154964
0.8610759840 -22.8598719476 -2.7000155021
0.7495033797 -22.1446050212 -2.7000155021
0.8578033483 -22.5323731203 -2.7000155079
0.7077563614 -21.8743205053 -2.7000155136
0.6476126098 -21.7339134339 -2.7000155136
0.6368655061 -21.7108321956 -2.7000155136
0.8542969082 -22.2566541030 -2.7000155194
0.8439803835 -22.2151246314 -2.7000155194
0.8261996674 -22.1490080698 -2.7000155194
0.6249877151 -21.6312941798 -2.7000155194
0.9429326476 -23.2365122391 -2.7000155252
0.8679674456 -22.1191638959 -2.7000155309
0.7970503279 -21.9043877344 -2.7000155309
0.6237002877 -21.5247774599 -2.7000155309
0.7243394012 -21.6696292563 -2.7000155367
0.5748130777 -21.3916120419 -2.7000155367
0.9119637746 -22.0972864315 -2.7000155425
1.0531235798 -23.0509453388 -2.7000155482
1.0355772198 -22.5881051206 -2.7000155482
1.0240552547 -22.4996964667 -2.7000155482
0.9523231753 -23.8034957198 -2.7000155540
0.6460612933 -21.3692940169 -2.7000155540
1.0780837909 -22.5376102661 -2.7000155598
0.7427141914 -21.4908142123 -2.7000155598
0.6042316407 -21.2570780534 -2.7000155598
1.1165115879 -23.4026254509 -2.7000155713
1.0254205858 -22.0546563895 -2.7000155713
0.9290046994 -21.7765411747 -2.7000155713
1.1709120106 -23.5156892126 -2.7000155886
1.1662290525 -23.8473325420 -2.7000156059
1.2808785605 -22.6082914749 -2.7000156059
-0.0010305893 -25.8316777794 -2.7000156635
0.0211235591 -25.8458661890 -2.7000156693
0.0297305971 -25.8399971332 -2.7000156693
0.0383202356 -25.8341026418 -2.7000156693
0.1261869552 -25.8313794426 -2.7000156808
0.2147850203 -25.8262444795 -2.7000156923
0.2550626916 -25.8260401170 -2.7000156981
0.2955067467 -25.8253471941 -2.7000157038
0.3854082307 -25.8155625695 -2.7000157154
0.2429215746 -25.9557687907 -2.7000157211
0.4263115883 -25.8132654410 -2.7000157211
0.5000284738 -25.8144527043 -2.7000157327
0.5085404896 -25.8071670986 -2.7000157327
0.5413537122 -25.8107683805 -2.7000157384
0.5498546483 -25.8033605433 -2.7000157384
0.9439374985 -25.7628094060 -2.7000157960
-0.7330979020 -19.0442680298 -2.7000158018
-0.7446079215 -19.0406598574 -2.7000158018
-0.7676597294 -19.0335457372 -2.7000158018
-0.6565935280 -19.0437077014 -2.7000158076
-0.6681055397 -19.0398732176 -2.7000158076
-0.6911633406 -19.0323064975 -2.7000158076
-0.6142501502 -19.0325613113 -2.7000158133
-0.6373521533 -19.0246760925 -2.7000158133
-0.5254213701 -19.0385470325 -2.7000158191
-0.5484895143 -19.0301361681 -2.7000158191
-0.4823648426 -19.0288078796 -2.7000158249
-0.5054913604 -19.0201424488 -2.7000158249
-0.4274520635 -19.0240402070 -2.7000158306
-0.4390232579 -19.0195279674 -2.7000158306
-0.4506077496 -19.0150499772 -2.7000158306
-0.3375547912 -19.0342606290 -2.7000158364
-0.2819890462 -19.0315047581 -2.7000158422
-0.2935387955 -19.0265621799 -2.7000158422
-0.3398824852 -19.0071341739 -2.7000158422
-0.2376883190 -19.0244132308 -2.7000158479
-0.2608451193 -19.0143002884 -2.7000158479
-0.1815552259 -19.0230420769 -2.7000158537
-0.1931304488 -19.0178024343 -2.7000158537
-0.2047211209 -19.0125970563 -2.7000158537
-0.1135889775 -19.0278958093 -2.7000158594
-0.1367273457 -19.0170485926 -2.7000158594
-0.1483204946 -19.0116763672 -2.7000158594
-0.1831945824 -18.9957657867 -2.7000158594
-0.1948504863 -18.9905311129 -2.7000158594
-0.0800606466 -19.0170843685 -2.7000158652
-0.0916539376 -19.0115445127 -2.7000158652
-0.1148894294 -19.0005678071 -2.7000158652
-0.1265314270 -18.9951310534 -2.7000158652
-0.4225244824 -18.8705310331 -2.7000158652
-0.0463401727 -19.0065337159 -2.7000158710
-0.0696061032 -18.9952890066 -2.7000158710
-0.0812639145 -18.9897183197 -2.7000158710
-0.1597690205 -18.8474215898 -2.7000158940
0.2419585400 -18.9935306295 -2.7000159056
0.2771415501 -18.9855845171 -2.7000159113
0.1448685742 -18.8318766835 -2.7000159286
0.0717432768 -18.7951903852 -2.7000159286
0.0349393316 -18.7773353870 -2.7000159286
-0.0267480375 -18.7483051116 -2.7000159286
-0.0290705906 -18.7206312454 -2.7000159344
0.8652956163 -19.2292502761 -2.7000159401
0.5504885043 -18.9805077326 -2.7000159459
0.3358191076 -18.7967867572 -2.7000159574
0.9937011454 -15.9490020673 -2.7000166375
0.1131178394 -22.3546988463 -2.7000148296
0.1068955863 -22.2861128177 -2.7000148296
0.0981145255 -22.2687534009 -2.7000148296
0.7169651508 -22.1657970140 -2.7000148296
0.7974808692 -22.3036831807 -2.7000148296
0.7616257166 -22.2102021438 -2.7000148296
0.5472044675 -21.7863094168 -2.7000148296
0.5384028292 -21.7721315373 -2.7000148296
0.6024371085 -21.8313358271 -2.7000148296
0.5896006432 -21.8095966657 -2.7000148296
1.0063686758 -23.0396040806 -2.7000148296
0.7045774163 -21.9681262928 -2.7000148296
0.5794019244 -21.7465109338 -2.7000148296
0.5286494480 -21.6681607450 -2.7000148296
0.4491900146 -21.5154654991 -2.7000148296
1.0633881549 -23.3116872549 -2.7000148296
1.0142492874 -22.6127595646 -2.7000148296
1.1090842537 -23.4001159434 -2.7000148296
1.1361883873 -23.2862691284 -2.7000148296
0.8298548943 -21.8945240342 -2.7000148296
0.7370856140 -21.6797669446 -2.7000148296
1.2029259837 -23.8449933555 -2.7000148296
0.3061963691 -20.8306745912 -2.7000148296
1.4705598762 -23.1014651591 -2.7000148296
0.5632699045 -25.6936322459 -2.7000148296
0.6723931698 -25.6859204788 -2.7000148296
0.8539716334 -25.6671953261 -2.7000148296
-1.2968339532 -19.0323407372 -2.7000148296
-1.2056268777 -19.0208798723 -2.7000148296
-1.2181901830 -19.0189817154 -2.7000148296
-1.2433333639 -19.0152969363 -2.7000148296
-1.3188875448 -19.0051360091 -2.7000148296
-1.0885440134 -19.0158423647 -2.7000148296
-1.1011227328 -19.0135978776 -2.7000148296
-1.1137080368 -19.0113906104 -2.7000148296
-1.1515023546 -19.0049923200 -2.7000148296
-1.1893519653 -18.9989296849 -2.7000148296
-1.2019802744 -18.9969834799 -2.7000148296
-1.2146142855 -18.9950746403 -2.7000148296
-0.9833212826 -19.0114528803 -2.7000148296
-1.0211201822 -19.0038974781 -2.7000148296
-1.0337345318 -19.0014535914 -2.7000148296
-1.1348983166 -18.9832479689 -2.7000148296
-0.9152839269 -19.0011810305 -2.7000148296
-0.9279067753 -18.9984240728 -2.7000148296
-0.9531766627 -18.9930222395 -2.7000148296
-0.9658234804 -18.9903774111 -2.7000148296
-1.1308986754 -18.9594081252 -2.7000148296
-1.1436441522 -18.9572891777 -2.7000148296
-0.8341119670 -18.9949930434 -2.7000148296
-0.8467534757 -18.9919959914 -2.7000148296
-0.8720628141 -18.9861141404 -2.7000148296
-0.8847304222 -18.9832293928 -2.7000148296
-0.7524265421 -18.9903499768 -2.7000148296
-0.7904218104 -18.9807463443 -2.7000148296
-1.0072216235 -18.9327227101 -2.7000148296
-0.6955974507 -18.9803420945 -2.7000148296
-0.7082829056 -18.9769353557 -2.7000148296
-0.7463989595 -18.9669405015 -2.7000148296
-0.6510913263 -18.9675076054 -2.7000148296
-0.6638149427 -18.9639692656 -2.7000148296
-0.6892932983 -18.9570055793 -2.7000148296
-0.8172784943 -18.9244547436 -2.7000148296
-0.8687327699 -18.9124968497 -2.7000148296
-1.0238940196 -18.8802874460 -2.7000148296
-1.0888643421 -18.8684960304 -2.7000148296
-0.5100588193 -18.9588012402 -2.7000148296
-0.5739240977 -18.9394014152 -2.7000148296
-0.4389502201 -18.9561756157 -2.7000148296
-0.8265720954 -18.8477630330 -2.7000148296
-0.9708889953 -18.8166897573 -2.7000148296
-0.7555042151 -18.8399740754 -2.7000148296
-0.8605670422 -18.8152298298 -2.7000148296
-0.1893187277 -18.9424954353 -2.7000148296
-0.2406034984 -18.9231059668 -2.7000148296
-0.1421255501 -18.9349529639 -2.7000148296
-1.0829029802 -18.6733299997 -2.7000148296
-0.8748461584 -18.6883979745 -2.7000148296
-1.1472812255 -18.6385375948 -2.7000148296
-0.0469516191 -18.9213685683 -2.7000148296
-0.9607321314 -18.6216372123 -2.7000148296
0.1105954653 -18.9105951987 -2.7000148296
-0.7718525960 -18.6123075073 -2.7000148296
0.2469042324 -18.9208974796 -2.7000148296
0.5494844345 -19.0527564314 -2.7000148296
0.5119917210 -19.0315966119 -2.7000148296
-0.4779596217 -18.6148701614 -2.7000148296
-0.6856690245 -18.5584295376 -2.7000148296
-0.4158826338 -18.6083746263 -2.7000148296
0.4414777528 -18.8562636543 -2.7000148296
0.6702674857 -18.8712136342 -2.7000148296
-0.0038862338 -22.1789490175 -2.7000148296
0.8303113857 -22.3151219157 -2.7000148296
0.5974610017 -21.9299431487 -2.7000148296
1.0993891185 -22.8174860292 -2.7000148296
1.1526278767 -22.7393607448 -2.7000148296
-1.9054617265 -19.0210148448 -2.7000148296
-1.6082667494 -18.9926242019 -2.7000148296
-1.6625182392 -18.9919515365 -2.7000148296
-1.6760820586 -18.9918836771 -2.7000148296
-1.7710261065 -18.9925321377 -2.7000148296
-1.7981485527 -18.9930785024 -2.7000148296
-1.8388249742 -18.9941988969 -2.7000148296
-1.4715487109 -18.9729683650 -2.7000148296
-1.5260423488 -18.9706793643 -2.7000148296
-1.5805592563 -18.9690353178 -2.7000148296
-1.6078240510 -18.9684552279 -2.7000148296
-1.6623615504 -18.9677790163 -2.7000148296
-1.4293267492 -18.9509740934 -2.7000148296
-1.6073813526 -18.9442862540 -2.7000148296
-1.7307392616 -18.9436690987 -2.7000148296
-1.9099819157 -18.9244284462 -2.7000148296
-1.6618914838 -18.8952614558 -2.7000148296
-0.9924893892 -18.8988603590 -2.7000148296
-0.7902721808 -18.8843663152 -2.7000148296
-0.8041580732 -18.8817186650 -2.7000148296
-1.7743489541 -18.7991764635 -2.7000148296
-1.3630072750 -18.7855957013 -2.7000148296
-0.5382679513 -18.8652016179 -2.7000148296
-1.5890492983 -18.7270495234 -2.7000148296
-0.8244545748 -18.7550681069 -2.7000148296
-1.7768410898 -18.6541597079 -2.7000148296
-1.7629654939 -18.6055898170 -2.7000148296
0.7392862810 -18.9377630028 -2.7000148296
3.9246746255 -25.1839674421 -2.7000148296
3.9132969274 -25.3070541725 -2.7000148296
3.9437915858 -25.3713983036 -2.7000148296
0.7070498618 -22.1503602092 -2.7000148296
0.6476881628 -22.0393548725 -2.7000148296
0.9462597357 -22.3685078413 -2.7000148296
0.2666163364 -21.5782071681 -2.7000148296
0.1847754474 -21.4880921259 -2.7000148296
0.0875246795 -21.3367682008 -2.7000148296
1.0076304237 -22.1097134125 -2.7000148296
1.4801101125 -23.0680655244 -2.7000148296
0.7997794975 -21.5980226905 -2.7000148296
-2.3215042236 -18.9789405778 -2.7000148296
-1.6237456710 -18.8846893183 -2.7000148296
-1.7706804769 -18.8911301775 -2.7000148296
-1.9027076166 -18.9006405847 -2.7000148296
-2.0198161603 -18.9120422707 -2.7000148296
-2.3401077687 -18.9576445576 -2.7000148296
-2.4845713219 -18.9852417248 -2.7000148296
-1.5357883129 -18.8587405246 -2.7000148296
-2.1105055708 -18.8984309693 -2.7000148296
-2.1544640014 -18.9042259672 -2.7000148296
-1.4172543026 -18.8346362767 -2.7000148296
-2.3777146008 -18.9152559417 -2.7000148296
-2.2271873889 -18.8169146099 -2.7000148296
-2.6267415903 -18.8926298922 -2.7000148296
-0.8725477931 -18.7736820891 -2.7000148296
-0.9176620490 -18.7684958186 -2.7000148296
-2.6174337709 -18.8656901206 -2.7000148296
-0.6511282973 -18.7315789771 -2.7000148296
-1.3230681905 -18.6673974023 -2.7000148296
-1.6147115158 -18.6668009604 -2.7000148296
-2.6238942096 -18.7680116126 -2.7000148296
-0.4756269695 -18.7137916242 -2.7000148296
-0.5365257580 -18.7022732338 -2.7000148296
-0.3897355882 -18.6818939987 -2.7000148296
-0.4663612100 -18.6663417893 -2.7000148296
-0.6202605666 -18.6386455957 -2.7000148296
-0.2315355554 -18.6928935734 -2.7000148296
-0.3080157938 -18.6750003212 -2.7000148296
-1.3194249167 -18.5465871850 -2.7000148296
-1.6492658364 -18.5468883564 -2.7000148296
3.8262263929 -24.4089498366 -2.7000148296
3.8534698158 -24.3799193264 -2.7000148296
-1.8882271381 -18.5114381340 -2.7000148296
3.7087764829 -25.2891683878 -2.7000148296
-2.2224895130 -18.5231777953 -2.7000148296
3.7979229595 -25.0318135903 -2.7000148296
3.8147570413 -24.9536297141 -2.7000148296
3.9273848674 -23.9056521959 -2.7000148296
3.6606285147 -25.6090539353 -2.7000148296
3.9153387348 -24.4828757625 -2.7000148296
3.9488227389 -24.0343825925 -2.7000148296
3.9251210283 -24.5977383803 -2.7000148296
3.9374589748 -24.5016991666 -2.7000148296
3.6402947286 -25.8076067252 -2.7000148296
3.7319954365 -25.5477761311 -2.7000148296
4.0115778762 -24.6759400280 -2.7000148296
-0.0886835251 -22.0192167843 -2.7000148296
0.9787229983 -22.3652827408 -2.7000148296
0.6701393312 -22.0316249582 -2.7000148296
0.1754188381 -21.6406759712 -2.7000148296
0.4420855719 -21.7834647119 -2.7000148296
0.0838690667 -21.5634518406 -2.7000148296
1.0668536492 -22.3608795287 -2.7000148296
-0.1328917358 -21.3584057131 -2.7000148296
0.5600923716 -21.5411531590 -2.7000148296
3.5976456124 -24.9729523104 -2.7000148296
3.6847575470 -24.5010389391 -2.7000148296
3.6425454795 -24.9960495013 -2.7000148296
3.7481780459 -24.9549915033 -2.7000148296
3.8450335851 -24.2287040829 -2.7000148296
3.8004391496 -23.4061425193 -2.7000148296
3.8705646910 -24.0184613906 -2.7000148296
3.8561667945 -23.4596517362 -2.7000148296
3.8763135185 -23.4264959177 -2.7000148296
3.8629642890 -23.1817771237 -2.7000148296
3.9677618483 -24.9615692203 -2.7000148296
-1.8067739302 -18.7398363322 -2.7000148296
-1.8542386543 -18.7452384070 -2.7000148296
-2.1535379186 -18.7892079233 -2.7000148296
-2.4653929396 -18.8535772924 -2.7000148296
-2.5272764109 -18.8686587620 -2.7000148296
-2.6043726982 -18.8885385612 -2.7000148296
-1.6023102731 -18.6971889536 -2.7000148296
-1.7775896825 -18.7124240677 -2.7000148296
4.0611514916 -25.3516490207 -2.7000148296
-1.6680909488 -18.6779776957 -2.7000148296
-3.2596013120 -19.0042743363 -2.7000148296
-1.7551287418 -18.6129928666 -2.7000148296
-2.1102512172 -18.6592742797 -2.7000148296
-2.1141533582 -18.6354182830 -2.7000148296
0.4248683012 -21.8586013849 -2.7000148296
0.3672169452 -21.8272901139 -2.7000148296
1.2921533199 -22.3852181930 -2.7000148296
0.4028944515 -21.6281675656 -2.7000148296
-0.1366247087 -21.4205318159 -2.7000148296
0.2465126440 -21.5027611551 -2.7000148296
3.5104116818 -24.7691028209 -2.7000148296
3.5118422955 -24.7559740887 -2.7000148296
3.5145869805 -24.7297042156 -2.7000148296
3.5184124743 -24.6902701083 -2.7000148296
3.5277872510 -24.5717858444 -2.7000148296
3.5309406345 -24.5190545456 -2.7000148296
3.5344385599 -24.7717569513 -2.7000148296
3.5535718578 -24.5468678521 -2.7000148296
3.5557732462 -24.5070949758 -2.7000148296
3.5586576014 -24.4407684629 -2.7000148296
3.5595366047 -24.4142271314 -2.7000148296
3.5615120334 -24.2549122127 -2.7000148296
3.5711582124 -24.6415260682 -2.7000148296
3.5760291726 -24.5749573012 -2.7000148296
3.5849924313 -24.3615739000 -2.7000148296
3.5850831194 -24.2013887059 -2.7000148296
3.6091614050 -24.3620166104 -2.7000148296
3.6094633315 -24.2143926798 -2.7000148296
3.6251362738 -24.5646640446 -2.7000148296
3.6262669886 -24.0118122855 -2.7000148296
3.6274877491 -24.8093284770 -2.7000148296
3.6438570542 -23.9156759639 -2.7000148296
3.6686132015 -24.6357023061 -2.7000148296
3.6777878264 -24.4859992694 -2.7000148296
3.6966339763 -24.5828859431 -2.7000148296
3.6677592295 -23.6801210703 -2.7000148296
3.6564077948 -23.5986672522 -2.7000148296
3.7247656772 -24.5156965520 -2.7000148296
3.7680630731 -24.6015333067 -2.7000148296
3.8553952692 -24.7214520140 -2.7000148296
3.9589197616 -24.6437028802 -2.7000148296
4.0450360384 -24.2817417287 -2.7000148296
3.6885664571 -22.3661699428 -2.7000148296
3.7022434391 -22.2144426787 -2.7000148296
-2.0309627625 -18.5911852096 -2.7000148296
-2.7587441380 -18.7312810011 -2.7000148296
0.4809223898 -21.8879822800 -2.7000148296
-0.0143610696 -21.6545607398 -2.7000148296
0.8704844843 -21.9800104012 -2.7000148296
0.6524516948 -21.7532223928 -2.7000148296
0.0758745112 -21.5261851088 -2.7000148296
0.3785194010 -21.5890776040 -2.7000148296
0.9630238576 -21.8099822992 -2.7000148296
3.4900266788 -24.1605149314 -2.7000148296
3.4876260845 -24.1241928095 -2.7000148296
3.5133850342 -24.1468467250 -2.7000148296
3.5099492581 -24.0981467099 -2.7000148296
3.5069943963 -24.0616502423 -2.7000148296
3.5048446011 -24.0373344531 -2.7000148296
3.4988410656 -23.9766043480 -2.7000148296
3.5266102454 -24.0106893344 -2.7000148296
3.5571943879 -24.0821481307 -2.7000148296
3.5384289226 -23.8978911391 -2.7000148296
3.5250832532 -23.8000122627 -2.7000148296
3.5722485696 -23.9812888316 -2.7000148296
3.5311139064 -23.6861273017 -2.7000148296
3.5710532693 -23.7805611322 -2.7000148296
3.5505249438 -23.6573504113 -2.7000148296
3.5576792463 -23.5666733657 -2.7000148296
3.5887548889 -23.5990330416 -2.7000148296
3.5736506243 -23.5247477258 -2.7000148296
3.5628496649 -23.4753781710 -2.7000148296
3.6685498190 -23.7787187275 -2.7000148296
3.7063475684 -23.8770163408 -2.7000148296
3.6524325409 -23.5474073934 -2.7000148296
3.5837462881 -23.2600339202 -2.7000148296
3.6627811458 -23.4793816700 -2.7000148296
3.7646084276 -23.9614106255 -2.7000148296
3.7286275412 -23.5585761548 -2.7000148296
3.6955789968 -23.4053465972 -2.7000148296
3.8201032331 -24.0349010558 -2.7000148296
3.7736659484 -23.6701720515 -2.7000148296
3.6123184102 -23.0206656415 -2.7000148296
3.8486203091 -23.8459495637 -2.7000148296
3.8359274792 -23.7538762697 -2.7000148296
3.8190906428 -23.6489979302 -2.7000148296
3.9115584405 -23.9732097490 -2.7000148296
3.8689958872 -23.6539990098 -2.7000148296
3.9232890257 -23.6860608879 -2.7000148296
3.6523912286 -22.7076567714 -2.7000148296
3.6319165571 -22.6574127224 -2.7000148296
3.6267051071 -22.6448898398 -2.7000148296
3.9480700380 -23.3177306343 -2.7000148296
0.3648976223 -21.7883814549 -2.7000148296
-0.2527967843 -21.6922652871 -2.7000148296
-0.0913920549 -21.6248445655 -2.7000148296
1.0728019908 -21.9222126393 -2.7000148296
0.3002278019 -21.6508387046 -2.7000148296
1.3864647349 -22.0529680641 -2.7000148296
0.1446142772 -21.5267309371 -2.7000148296
0.8201914236 -21.5725510272 -2.7000148296
3.4746404415 -23.6245890163 -2.7000148296
3.4821669908 -23.5525325980 -2.7000148296
3.4793812958 -23.5414588655 -2.7000148296
3.4942081793 -23.5021481853 -2.7000148296
3.4993748854 -23.4290726927 -2.7000148296
3.4898232721 -23.3957286103 -2.7000148296
3.4963536577 -23.3332453682 -2.7000148296
3.4929192092 -23.3221306284 -2.7000148296
3.4945775261 -23.2480807047 -2.7000148296
3.5024978833 -23.1958600312 -2.7000148296
3.5120393017 -23.0791758129 -2.7000148296
3.5304738039 -23.0594926620 -2.7000148296
3.5134694001 -22.9499021010 -2.7000148296
3.5219687216 -22.9071312319 -2.7000148296
3.5251821028 -22.8528768208 -2.7000148296
3.5105160581 -22.8193264036 -2.7000148296
3.5498758977 -22.2602294993 -2.7000148296
0.4399091490 -21.7544035602 -2.7000148296
0.1866232921 -21.7336098208 -2.7000148296
0.2701086506 -21.7136571546 -2.7000148296
-0.3559353074 -21.6939317014 -2.7000148296
0.9892795939 -21.7807984874 -2.7000148296
0.9489025930 -21.7677465141 -2.7000148296
0.5026755025 -21.6654356754 -2.7000148296
0.2833333382 -21.6418634778 -2.7000148296
-0.2082310086 -21.6503128068 -2.7000148296
-0.5098963331 -21.6978266242 -2.7000148296
0.9887568834 -21.7551723981 -2.7000148296
0.7081842587 -21.6784877485 -2.7000148296
0.4383257333 -21.6323928235 -2.7000148296
0.9798788380 -21.7268713647 -2.7000148296
0.2188065901 -21.5655654999 -2.7000148296
-0.3574001710 -21.5718598111 -2.7000148296
-0.9343099330 -21.7197121676 -2.7000148296
1.1522678343 -21.7105888683 -2.7000148296
0.3755457731 -21.4796683283 -2.7000148296
-0.0284255032 -21.4680853555 -2.7000148296
-0.6675794603 -21.5610188372 -2.7000148296
0.8414913406 -21.5362133498 -2.7000148296
-1.2509596874 -21.7493194233 -2.7000148296
-1.3654453546 -21.7258189733 -2.7000148296
-0.0703484359 -21.3489440935 -2.7000148296
-0.5884848311 -21.4180313984 -2.7000148296
1.3433571699 -21.5794262775 -2.7000148296
-1.5888510664 -21.7691334771 -2.7000148296
-1.2845902752 -21.5245821389 -2.7000148296
3.4391459710 -23.0797458884 -2.7000148296
3.4349178877 -23.0698349081 -2.7000148296
3.4306605044 -23.0599364786 -2.7000148296
3.4441929005 -23.0304626352 -2.7000148296
3.4309832280 -23.0007245855 -2.7000148296
3.4485398326 -22.9808618842 -2.7000148296
3.4348898101 -22.9510872110 -2.7000148296
3.4428139753 -22.9110694176 -2.7000148296
3.4380869005 -22.9011483247 -2.7000148296
3.4356629235 -22.8410036177 -2.7000148296
3.4473515272 -22.8103397109 -2.7000148296
3.4433561846 -22.7496219236 -2.7000148296
3.4329175202 -22.7297933826 -2.7000148296
3.4436509527 -22.6985768768 -2.7000148296
3.4420116622 -22.5957441561 -2.7000148296
3.4492076259 -22.5118502720 -2.7000148296
-3.3857560923 -22.7102545756 -2.7000148296
-3.3801551977 -22.6476811670 -2.7000148296
-3.4018781795 -22.6888322837 -2.7000148296
3.4544695661 -22.4271075540 -2.7000148296
3.4483107935 -22.4171540994 -2.7000148296
3.4421226038 -22.4072189070 -2.7000148296
-3.3847523332 -22.6053884107 -2.7000148296
-3.3959248282 -22.6259597770 -2.7000148296
-3.3888701874 -22.5628687697 -2.7000148296
3.4577697589 -22.3415584559 -2.7000148296
-3.3925051036 -22.5201274347 -2.7000148296
-3.3983587481 -22.5304281624 -2.7000148296
3.4455678314 -22.2785836952 -2.7000148296
-3.3836006969 -22.4566024864 -2.7000148296
-3.3921728741 -22.4237005126 -2.7000148296
3.4514538907 -22.1582506002 -2.7000148296
-3.3763770535 -22.3059202620 -2.7000148296
-3.3828644321 -22.3161742173 -2.7000148296
-3.3905287016 -22.1945636589 -2.7000148296
-3.3759260218 -22.1297165465 -2.7000148296
-3.3899129058 -22.1502440184 -2.7000148296
-3.3816729005 -22.0954839425 -2.7000148296
-3.3958622156 -22.1160460140 -2.7000148296
-3.3747685177 -21.9610725447 -2.7000148296
-3.3790585606 -21.9262110723 -2.7000148296
-3.3830565824 -21.8912103288 -2.7000148296
-3.3772103468 -21.6116412679 -2.7000148296
0.0782194244 -21.7335370746 -2.7000148296
0.0750954680 -21.7095667559 -2.7000148296
0.2943694931 -21.6656026068 -2.7000148296
-0.1368155473 -21.6962044235 -2.7000148296
-0.7058038266 -21.7991672301 -2.7000148296
-1.1971750813 -21.8664274546 -2.7000148296
1.2800844019 -21.4653517624 -2.7000148296
3.3458637202 -22.4788837691 -2.7000148296
3.3262420462 -22.2852223043 -2.7000148296
3.3173595897 -22.1553541930 -2.7000148296
3.3132630464 -22.0736957339 -2.7000148296
3.3107660070 -21.9586536096 -2.7000148296
-3.4520923695 -23.2216046901 -2.7000148296
-3.4593427516 -23.2446140037 -2.7000148296
-3.4629168617 -23.2561346458 -2.7000148296
-3.4562948915 -23.1565996107 -2.7000148296
-3.4601293774 -23.1681116218 -2.7000148296
-3.4714282740 -23.2027150079 -2.7000148296
-3.4634474419 -23.1027228256 -2.7000148296
-3.4714009703 -23.1258014003 -2.7000148296
-3.4753264968 -23.1373582326 -2.7000148296
-3.4830749025 -23.1605064816 -2.7000148296
-3.4944403869 -23.1953137958 -2.7000148296
-3.4740206227 -23.0600482257 -2.7000148296
-3.4668106925 -22.9708269911 -2.7000148296
-3.4711946814 -22.9823709226 -2.7000148296
-3.4714158922 -22.9159003478 -2.7000148296
-3.4752641808 -22.8606576625 -2.7000148296
-3.4799740335 -22.8722270830 -2.7000148296
-3.4880627886 -22.8282811385 -2.7000148296
-3.4704814798 -22.7261385372 -2.7000148296
-3.4907072845 -22.7724519316 -2.7000148296
-3.4769604290 -22.6815613049 -2.7000148296
-3.4936640418 -22.6599355606 -2.7000148296
-3.4884579767 -22.5916600145 -2.7000148296
-3.4763440961 -22.5115731124 -2.7000148296
-3.4877948390 -22.5347383341 -2.7000148296
-3.4934687652 -22.5463462486 -2.7000148296
-3.6392762409 -22.7512679260 -2.7000148296
-3.4531815747 -22.0715120617 -2.7000148296
-3.5412703808 -21.1595565039 -2.7000148296
-0.6780287202 -21.9311598995 -2.7000148296
