19.6360988929 -11.2378823151 -3.0000262656
19.2010005584 -11.1177103301 -3.0000263146
19.2311913729 -11.1291247788 -3.0000263146
19.3984100856 -11.1886974635 -3.0000263146
19.7729935391 -11.3504691451 -3.0000264126
19.4924086159 -11.3208970323 -3.0000265106
19.3753409936 -11.3084572792 -3.0000265596
19.8775501050 -11.5500455428 -3.0000267555
19.8065300221 -11.5581528295 -3.0000268045
20.0204255087 -11.6055335705 -3.0000268045
22.3168556650 -7.4466810822 -3.0000200569
22.4126452168 -7.3624081832 -3.0000201203
22.4387237842 -7.3675159538 -3.0000201837
22.8189330280 -7.7075769994 -3.0000215150
22.6738844909 -7.9189423289 -3.0000215784
22.3652268128 -8.2284015091 -3.0000216418
22.4638047990 -8.2131814215 -3.0000217686
22.4979021899 -8.1852833189 -3.0000217686
22.4322721968 -8.2686261319 -3.0000218320
22.3327058758 -8.3994925631 -3.0000219588
22.0845454140 -8.6278085024 -3.0000221490
23.6974234540 -6.7037089621 -3.0000226561
20.1699811110 -11.1216279457 -3.0000281082
19.5829016327 -11.0199035291 -3.0000281716
20.0370271930 -11.1240268227 -3.0000281716
20.4554346334 -11.1809268282 -3.0000281716
20.6297217298 -11.1939387817 -3.0000281716
20.4677837065 -11.2063240620 -3.0000282350
20.8916584554 -11.2260132622 -3.0000282350
20.6857346649 -11.2451975374 -3.0000282984
19.4498887400 -11.0565509550 -3.0000283618
20.7437219333 -11.2716524680 -3.0000283618
21.0983576680 -11.2708038565 -3.0000283618
20.3283624080 -11.2648620085 -3.0000284252
21.1734523012 -11.2915979252 -3.0000284252
21.1882816621 -11.2907939638 -3.0000284252
20.0744279823 -11.2532054723 -3.0000284886
20.7868711272 -11.3212552631 -3.0000284886
21.2343130033 -11.3122416624 -3.0000284886
20.5167713387 -11.3317033815 -3.0000285520
20.2153558118 -11.3236115837 -3.0000286154
20.6953564861 -11.3665951906 -3.0000286154
20.2878084497 -11.4791437120 -3.0000289958
19.4199616703 -11.4259247054 -3.0000293127
19.5052546825 -11.4748797452 -3.0000293761
26.2188519371 -5.3935501789 -3.0000293761
26.2979309941 -5.8338971621 -3.0000294395
26.2708742751 -5.5794310254 -3.0000294395
26.2426962859 -5.3895774830 -3.0000294395
26.2948445961 -5.5763070866 -3.0000295029
26.2527526877 -5.3064636862 -3.0000295029
26.3006169492 -5.4453688161 -3.0000295663
26.1514042060 -4.7681329272 -3.0000295663
26.5963838281 -5.0515834505 -3.0000305173
26.5576150761 -4.8839040232 -3.0000305173
22.4358590380 -8.3676727798 -3.0000158506
22.3982029116 -8.4355704403 -3.0000158564
20.2074496684 -10.9834216200 -3.0000163174
20.3228827038 -11.0196081828 -3.0000163232
20.5857736496 -11.0595347784 -3.0000163289
20.7185327623 -11.0615736503 -3.0000163289
20.2786981844 -11.0640125876 -3.0000163347
20.6651226478 -11.0854005583 -3.0000163347
20.7986120905 -11.0850811656 -3.0000163347
20.9733737661 -11.1028995600 -3.0000163405
20.1772017449 -11.1258972160 -3.0000163520
20.1906723447 -11.1274861596 -3.0000163520
20.3391293171 -11.1423312715 -3.0000163520
20.7457352945 -11.1823735214 -3.0000163578
21.3437875800 -11.1401823754 -3.0000163578
20.8692026102 -11.2042441217 -3.0000163635
26.3302320702 -4.9392948085 -3.0000166517
20.8152533771 -10.9914500633 -3.0000108581
20.8636964795 -10.9884642721 -3.0000108581
20.8044102547 -11.0162464205 -3.0000108321
21.0747460343 -11.0173999920 -3.0000108062
21.0991209887 -11.0144430486 -3.0000108062
21.2366010053 -11.0194847156 -3.0000107803
20.8082289806 -11.0886648910 -3.0000107543
22.3237797467 -7.4865675572 -3.0000141683
22.3676883144 -7.5206405994 -3.0000141395
22.8853713432 -7.6501117743 -3.0000138225
22.9448715460 -7.2747299744 -3.0000138081
22.7889727835 -8.2240358959 -3.0000137793
22.9290720662 -7.7992406734 -3.0000137793
22.9800665572 -7.4952905955 -3.0000137793
22.7482201953 -8.3678891613 -3.0000137649
22.6119679376 -8.7333115895 -3.0000137217
22.6295217354 -8.7083509774 -3.0000137217
22.9519435474 -8.0703990465 -3.0000137217
22.9207914184 -8.2224013721 -3.0000137072
23.0794903475 -6.6834586032 -3.0000136928
22.7285745324 -8.6912066013 -3.0000136784
22.8028091598 -8.5711387454 -3.0000136784
23.1478619256 -6.7820356740 -3.0000136640
22.7840795311 -4.2377853547 -3.0000130157
22.8342382236 -4.2457948077 -3.0000130012
22.8164984952 -4.2321039788 -3.0000130012
22.8668348436 -4.2405854726 -3.0000129868
21.4030824259 -10.9929833384 -3.0000129580
21.4141883526 -10.9903289005 -3.0000129580
21.4363764063 -10.9849215229 -3.0000129580
22.9678561052 -4.2598717478 -3.0000129580
21.4978427164 -10.9942099667 -3.0000129436
21.5089518571 -10.9912752052 -3.0000129436
21.5311438509 -10.9853071584 -3.0000129436
21.5422265097 -10.9822739251 -3.0000129436
21.5486422628 -11.0055800058 -3.0000129292
21.5820422995 -10.9962259323 -3.0000129292
21.5931570354 -10.9930420845 -3.0000129292
21.6153580089 -10.9865758206 -3.0000129292
21.6444857919 -11.0031260583 -3.0000129148
21.6556206664 -10.9997574612 -3.0000129148
21.6667455273 -10.9963559398 -3.0000129148
21.6778602771 -10.9929215239 -3.0000129148
21.6850308807 -11.0160065348 -3.0000129004
21.6962036805 -11.0125179416 -3.0000129004
23.1185619999 -4.2611012304 -3.0000129004
21.7818323528 -11.0100833966 -3.0000128860
21.8041308463 -11.0025005679 -3.0000128860
21.8455463437 -11.0136715530 -3.0000128716
21.8901360742 -10.9976199582 -3.0000128716
21.9964435468 -11.0089238303 -3.0000128428
23.3053679716 -4.2674787618 -3.0000128283
21.6816196442 -11.1686393866 -3.0000128139
23.3826327427 -4.2744102857 -3.0000127995
22.2452758613 -11.0344808861 -3.0000127707
22.3116124994 -11.0302575350 -3.0000127563
22.3445154387 -11.0413162141 -3.0000127419
22.3893973428 -11.0193586498 -3.0000127419
23.3497102765 -4.1109732217 -3.0000127419
22.7253136195 -10.9742394989 -3.0000126699
22.4461615193 -7.6108559227 -3.0000154913
22.8779728703 -7.7149831955 -3.0000155432
22.8796100106 -7.6797378218 -3.0000155432
22.8801188709 -7.6656335400 -3.0000155432
22.9355429124 -8.1612504327 -3.0000155576
23.1078317949 -8.7736397250 -3.0000156008
21.9301589322 -10.9349223565 -3.0000156930
21.9400573720 -10.9306649971 -3.0000156930
21.9794568877 -10.9398235940 -3.0000156959
22.0489066294 -10.9348945650 -3.0000156988
22.1391473598 -10.9454485551 -3.0000157045
22.1490760235 -10.9405729241 -3.0000157045
22.1688898649 -10.9307336566 -3.0000157045
22.1797051908 -10.9523522599 -3.0000157074
22.1896540995 -10.9473566212 -3.0000157074
22.1995881866 -10.9423315738 -3.0000157074
22.2404345405 -10.9485366953 -3.0000157103
22.2702004626 -10.9329228083 -3.0000157103
22.3014169425 -10.9436563160 -3.0000157132
22.3626341152 -10.9377028383 -3.0000157161
22.3725388878 -10.9321661269 -3.0000157161
22.3644141292 -10.9643625073 -3.0000157189
22.4980818078 -10.9433053978 -3.0000157247
22.2897556980 -4.1142492429 -3.0000157247
22.2794757797 -4.1089579745 -3.0000157247
22.3317856914 -4.1089278814 -3.0000157276
22.3946218605 -4.1152532547 -3.0000157305
22.3637401536 -4.0985401269 -3.0000157305
22.4371415114 -4.1111355029 -3.0000157334
22.5434077819 -4.1164052494 -3.0000157391
22.5865917233 -4.1140025134 -3.0000157420
22.6838360493 -4.1171418526 -3.0000157478
22.6632708218 -4.1042581866 -3.0000157478
22.9251430831 -10.9217063809 -3.0000157506
22.7173394275 -4.1097765941 -3.0000157506
23.2729903748 -10.6707474537 -3.0000157535
22.9045263213 -4.1183339158 -3.0000157622
23.3724372704 -10.9373531229 -3.0000157852
23.4179673088 -10.9298946852 -3.0000157881
22.3275040940 -7.5370721193 -3.0000156950
22.3226899377 -7.5159661303 -3.0000156950
22.4101270549 -7.4662161716 -3.0000157180
22.9456280139 -7.5546959740 -3.0000158391
22.8547861405 -7.1770959242 -3.0000158391
23.0234028970 -8.2821152551 -3.0000158564
23.0477779396 -7.9273650935 -3.0000158564
22.8515379471 -6.6820889174 -3.0000158852
22.6698739093 -6.2335317806 -3.0000159082
23.1677804650 -8.9620024639 -3.0000159313
23.1603028607 -9.1048533428 -3.0000159428
22.4340500425 -10.8456932879 -3.0000160869
22.5692724357 -10.8420653285 -3.0000161042
22.5864457937 -10.8300169878 -3.0000161042
22.6661138823 -10.8322592937 -3.0000161157
22.6746800398 -10.8259613922 -3.0000161157
22.8040527197 -10.8186646456 -3.0000161330
22.8125780583 -10.8119587556 -3.0000161330
21.7784022279 -4.0479083278 -3.0000162310
21.7553929130 -4.0406579500 -3.0000162310
21.7438722702 -4.0370838421 -3.0000162310
21.8318952948 -4.0398713102 -3.0000162367
21.8088374939 -4.0323045901 -3.0000162367
21.7972919066 -4.0285724200 -3.0000162367
21.8972840903 -4.0365532337 -3.0000162425
21.9745794643 -4.0385451251 -3.0000162483
21.9630516125 -4.0343226330 -3.0000162483
21.9399586883 -4.0259800451 -3.0000162483
22.0407108374 -4.0376080756 -3.0000162540
22.0291799242 -4.0331899590 -3.0000162540
22.0176359919 -4.0288059722 -3.0000162540
21.9829270909 -4.0158591732 -3.0000162540
22.0841065666 -4.0285847492 -3.0000162598
22.0725487709 -4.0240382996 -3.0000162598
22.1393492513 -4.0247364505 -3.0000162655
22.3184456085 -4.0230401695 -3.0000162828
22.4199401878 -4.0170824612 -3.0000162944
22.6373105482 -4.1014036952 -3.0000163001
22.5108306314 -4.0078268058 -3.0000163059
22.7854383237 -4.1299815734 -3.0000163117
22.0295643880 -3.7756295154 -3.0000163117
22.8203076737 -4.1225780787 -3.0000163174
22.3378114016 -3.8199636900 -3.0000163289
22.3503681689 -7.5369964342 -3.0000152588
22.4295944748 -7.6780990782 -3.0000152588
22.3833357447 -7.5530898575 -3.0000152588
22.6179865784 -7.5571505344 -3.0000152588
22.9266318420 -7.5659987740 -3.0000152588
22.8501749538 -7.3536100018 -3.0000152588
22.9160656778 -7.4574224110 -3.0000152588
23.0549400143 -7.9166913227 -3.0000152588
23.0961260908 -8.0649058795 -3.0000152588
23.0597556829 -7.6862939540 -3.0000152588
23.1527691086 -8.2757148602 -3.0000152588
23.1400458338 -7.8362446294 -3.0000152588
22.6143878397 -6.6760611713 -3.0000152588
22.7844048776 -6.8684697233 -3.0000152588
23.2156947371 -8.4893002746 -3.0000152588
23.2252147107 -8.2454553914 -3.0000152588
23.2116436947 -8.0018023914 -3.0000152588
22.5881723355 -6.5697592951 -3.0000152588
22.8780362690 -6.9268135666 -3.0000152588
22.5600768108 -6.5022835516 -3.0000152588
23.2458832317 -8.6478403903 -3.0000152588
22.5028041677 -6.3738001561 -3.0000152588
23.3426786898 -8.4041185711 -3.0000152588
23.3672973671 -8.7981998821 -3.0000152588
22.5220027369 -6.2254017375 -3.0000152588
23.3900377620 -7.7259194783 -3.0000152588
23.4863242117 -8.1002792128 -3.0000152588
22.9480185108 -10.7043756122 -3.0000152588
22.9552189790 -10.6975564123 -3.0000152588
23.2184885232 -10.6723677024 -3.0000152588
23.1707510698 -10.7569607020 -3.0000152588
23.2504276035 -10.6735152827 -3.0000152588
21.1655589004 -4.0275600859 -3.0000152588
21.3194766524 -4.0247809621 -3.0000152588
21.3069247971 -4.0228085097 -3.0000152588
21.2818038566 -4.0189750396 -3.0000152588
21.2692349912 -4.0171140556 -3.0000152588
21.2440810200 -4.0135036708 -3.0000152588
21.2314961343 -4.0117543016 -3.0000152588
21.2063111135 -4.0083672864 -3.0000152588
21.4114500262 -4.0158356890 -3.0000152588
21.3358811446 -4.0029274467 -3.0000152588
21.3232645709 -4.0009065625 -3.0000152588
21.4788738573 -4.0038908024 -3.0000152588
21.4030823557 -3.9897877914 -3.0000152588
21.3524207862 -3.9811340731 -3.0000152588
21.1998714294 -3.9587776867 -3.0000152588
21.6152636174 -3.9832227171 -3.0000152588
21.5899030776 -3.9775657039 -3.0000152588
21.7349118963 -3.9871046292 -3.0000152588
21.7222467699 -3.9839034090 -3.0000152588
21.6714932301 -3.9714736011 -3.0000152588
21.8170719106 -3.9837796686 -3.0000152588
21.7535950800 -3.9669338258 -3.0000152588
21.2283683036 -3.8405998605 -3.0000152588
21.3759953933 -3.8380246462 -3.0000152588
21.2183521213 -3.8149217373 -3.0000152588
21.9899352202 -3.9587945645 -3.0000152588
21.9516504304 -3.9470412968 -3.0000152588
21.9004446614 -3.9318996587 -3.0000152588
21.3403802915 -3.8078390054 -3.0000152588
21.2875702089 -3.7999399446 -3.0000152588
22.0865227039 -3.9646137545 -3.0000152588
21.2409724123 -3.7447327599 -3.0000152588
22.1147248350 -3.9230924003 -3.0000152588
21.2978733867 -3.7281565059 -3.0000152588
22.2509758303 -3.9457604456 -3.0000152588
21.6765516914 -3.7740527356 -3.0000152588
21.2743021119 -3.7004340309 -3.0000152588
21.5613582294 -3.7245252935 -3.0000152588
21.3454196076 -3.6863237038 -3.0000152588
22.2548814187 -3.8956609007 -3.0000152588
22.5708459935 -3.9987350931 -3.0000152588
22.6440237986 -4.0057776376 -3.0000152588
21.9408044554 -3.7422832300 -3.0000152588
21.4053346260 -3.5733918308 -3.0000152588
23.3742585761 -4.3139374240 -3.0000152588
22.1574461332 -3.7079717555 -3.0000152588
23.5728860816 -4.4282034405 -3.0000152588
23.7996185823 -4.5802918043 -3.0000152588
22.7703286381 -3.9053902818 -3.0000152588
22.9546522476 -7.4306147382 -3.0000152588
22.7278104414 -6.9287689580 -3.0000152588
20.6080148947 -4.0204097522 -3.0000152588
20.7832240830 -3.9919265690 -3.0000152588
20.5663117800 -3.9982223080 -3.0000152588
21.0159143841 -3.9481927646 -3.0000152588
20.7555523627 -3.9438089828 -3.0000152588
21.2643496509 -3.9417752542 -3.0000152588
21.2829413674 -3.8950472411 -3.0000152588
21.0072927779 -3.8268386019 -3.0000152588
22.0636738005 -3.8163102143 -3.0000152588
22.3621028235 -7.6465444848 -3.0000152588
23.5322316478 -8.1711409882 -3.0000152588
22.5304809312 -6.7342472525 -3.0000152588
22.5407000926 -6.6235305090 -3.0000152588
20.4101235080 -3.9445456284 -3.0000152588
20.3085879000 -3.9582366717 -3.0000152588
20.0346549214 -4.0059610146 -3.0000152588
20.8321557348 -3.8861479701 -3.0000152588
20.0154296318 -3.9852245587 -3.0000152588
20.9051031727 -3.8597391423 -3.0000152588
20.6984015607 -3.8687998681 -3.0000152588
21.2471208357 -3.8151530434 -3.0000152588
21.1133308066 -3.7867372806 -3.0000152588
20.6621051540 -3.7743403895 -3.0000152588
21.5876471590 -3.7204248954 -3.0000152588
21.4355430819 -3.7058963947 -3.0000152588
21.4203105006 -3.7046911561 -3.0000152588
21.8185486065 -3.7267505540 -3.0000152588
20.9620338792 -3.6653514085 -3.0000152588
26.3053834349 -9.5812572411 -3.0000152588
26.2100116151 -10.1908152126 -3.0000152588
26.2973412846 -9.7881185089 -3.0000152588
26.2564225427 -10.1041115815 -3.0000152588
26.3066953472 -9.8706255644 -3.0000152588
26.4830384979 -10.0900634612 -3.0000152588
22.4341353748 -7.6728484140 -3.0000152588
22.3976770044 -7.6134497463 -3.0000152588
22.3757021044 -7.5970538627 -3.0000152588
23.2539314926 -7.6696332008 -3.0000152588
23.2346360673 -7.6029081753 -3.0000152588
23.2367191067 -7.4884881539 -3.0000152588
23.2031194356 -7.4482789641 -3.0000152588
22.4329783256 -6.8392398098 -3.0000152588
22.2358022471 -6.7485764260 -3.0000152588
23.3824926197 -7.6423120074 -3.0000152588
22.3830825849 -6.7875016335 -3.0000152588
23.2349345015 -7.4111003371 -3.0000152588
23.3360118294 -7.4967811718 -3.0000152588
22.1915475093 -6.6533692405 -3.0000152588
22.5593148820 -6.7972252459 -3.0000152588
21.9847989460 -6.5354149882 -3.0000152588
23.7982944632 -8.1921420165 -3.0000152588
23.8129143880 -8.1614909934 -3.0000152588
26.0869090762 -10.1486533781 -3.0000152588
26.1498268297 -9.8048742615 -3.0000152588
26.1598535212 -9.7327429253 -3.0000152588
26.1704756841 -9.6460013734 -3.0000152588
26.1892623878 -9.4429717343 -3.0000152588
26.1553962616 -9.9240231325 -3.0000152588
26.2250336694 -8.9912738204 -3.0000152588
26.0565441822 -10.5501296979 -3.0000152588
26.1760156692 -10.0774603891 -3.0000152588
26.2722802160 -8.9459747353 -3.0000152588
26.2871328968 -8.7524450765 -3.0000152588
26.2861096923 -8.7376292285 -3.0000152588
26.1978933379 -10.4983360995 -3.0000152588
20.3621450160 -3.7864929772 -3.0000152588
20.1122007063 -3.8357750015 -3.0000152588
20.3107822932 -3.7710483506 -3.0000152588
19.9823800510 -3.8413692749 -3.0000152588
19.8430933334 -3.8777250662 -3.0000152588
20.2590736402 -3.7560994654 -3.0000152588
19.7285604513 -3.8853895391 -3.0000152588
20.4294170371 -3.7018883898 -3.0000152588
19.3765251757 -3.9518476445 -3.0000152588
19.9258192422 -3.6810659407 -3.0000152588
19.7279800556 -3.7092426359 -3.0000152588
19.1218261280 -3.8437080833 -3.0000152588
20.0179506922 -3.4109908607 -3.0000152588
22.4140590967 -7.6270013130 -3.0000152588
22.8335084714 -7.2536329847 -3.0000152588
23.2036208633 -7.4396222802 -3.0000152588
22.5434282521 -7.0205653308 -3.0000152588
23.7545351646 -7.8148977376 -3.0000152588
26.0043067702 -9.8215679846 -3.0000152588
26.0118480176 -9.7559683667 -3.0000152588
26.0522943526 -9.8274444681 -3.0000152588
26.0599172664 -9.7611344525 -3.0000152588
26.0857543023 -9.2814759833 -3.0000152588
26.0854686146 -9.2280791822 -3.0000152588
26.1449173388 -8.9291931742 -3.0000152588
26.1339871731 -8.8076111523 -3.0000152588
26.1657189658 -8.8865764693 -3.0000152588
26.1800903886 -9.7740496670 -3.0000152588
26.2016909333 -8.7590598072 -3.0000152588
26.1761983453 -8.5678663541 -3.0000152588
26.3467936981 -9.8062549240 -3.0000152588
26.1470781063 -7.6628413438 -3.0000152588
26.1352558607 -7.5599554060 -3.0000152588
26.0878792956 -7.4391158204 -3.0000152588
22.4868295092 -7.6303532479 -3.0000152588
23.6025459364 -7.5443260024 -3.0000152588
22.1887469577 -6.8993112211 -3.0000152588
23.5664707414 -7.4481046070 -3.0000152588
21.6569172438 -6.7965365703 -3.0000152588
22.2558648706 -6.7372008077 -3.0000152588
22.2321057357 -6.7341128595 -3.0000152588
21.3831690785 -6.6392663596 -3.0000152588
25.9892798216 -9.1484090226 -3.0000152588
25.9849207700 -9.0878972365 -3.0000152588
26.0162618524 -9.1955877992 -3.0000152588
26.0134025580 -9.1468505397 -3.0000152588
26.0117567020 -9.1224954503 -3.0000152588
26.0070119200 -9.0616540570 -3.0000152588
26.0059550051 -9.0494945725 -3.0000152588
26.0390358271 -9.1697992029 -3.0000152588
26.0241761288 -8.9862621978 -3.0000152588
26.0202277613 -8.9496440362 -3.0000152588
26.0188394426 -8.9374459470 -3.0000152588
26.0144580684 -8.9008770678 -3.0000152588
26.0097523384 -8.8643485108 -3.0000152588
26.0399516782 -8.9101512171 -3.0000152588
26.0384464464 -8.8978949538 -3.0000152588
26.0576742759 -8.8579587508 -3.0000152588
26.0505424676 -8.6573542260 -3.0000152588
26.0737310155 -8.3158092246 -3.0000152588
26.0938295465 -8.2972468991 -3.0000152588
26.1070698745 -8.2536219167 -3.0000152588
26.2991980660 -9.0760248620 -3.0000152588
26.2014820300 -8.4308057106 -3.0000152588
26.1040254809 -7.9957487538 -3.0000152588
26.1056110746 -7.8551284031 -3.0000152588
26.3734247741 -8.6804797640 -3.0000152588
26.0725431593 -7.5798000365 -3.0000152588
26.4631885909 -8.7901325918 -3.0000152588
26.3793500988 -8.1500851842 -3.0000152588
23.0530475428 -7.1443455191 -3.0000152588
23.2607863287 -7.2007907046 -3.0000152588
22.8551382843 -7.0596496661 -3.0000152588
23.3317830100 -7.2070502763 -3.0000152588
23.6514408669 -7.3320641967 -3.0000152588
21.3481983572 -6.6848145331 -3.0000152588
19.2445202850 -7.2070640046 -3.0000152588
25.9720720778 -8.6135334187 -3.0000152588
19.2498382589 -7.0827157047 -3.0000152588
25.9929859712 -8.5969046647 -3.0000152588
25.9903315007 -8.5857987458 -3.0000152588
25.9849240581 -8.5636107080 -3.0000152588
25.9853094160 -8.4688432623 -3.0000152588
19.2559007966 -6.9990841421 -3.0000152588
25.9930441605 -8.4068300550 -3.0000152588
25.9898274146 -8.3957247956 -3.0000152588
26.0064636600 -8.3666460499 -3.0000152588
19.2640025036 -6.9149196054 -3.0000152588
26.0160083416 -8.3149561425 -3.0000152588
26.0089980539 -8.2926209321 -3.0000152588
26.0063099636 -8.2069998442 -3.0000152588
25.9986611399 -8.1847239021 -3.0000152588
26.0016835423 -8.1209805684 -3.0000152588
26.1492042228 -8.5230588114 -3.0000152588
26.1687246452 -8.4064340418 -3.0000152588
26.2855039947 -8.2049354413 -3.0000152588
26.2291726154 -7.9031604866 -3.0000152588
22.6589836786 -7.6517944694 -3.0000152588
22.5592670710 -7.5780594765 -3.0000152588
22.6303527399 -7.1189768798 -3.0000152588
22.5025064842 -7.0958743179 -3.0000152588
21.9429228062 -7.0817949134 -3.0000152588
23.3110906118 -7.0542262123 -3.0000152588
23.3321807029 -7.0100589993 -3.0000152588
21.8218601088 -7.0159117132 -3.0000152588
23.1332501595 -6.9096226279 -3.0000152588
23.0862432320 -6.7280553176 -3.0000152588
23.2306282812 -6.7331316190 -3.0000152588
25.9391436464 -8.0797468421 -3.0000152588
25.9349155631 -8.0698358618 -3.0000152588
25.9380845759 -7.9011492784 -3.0000152588
25.9356605989 -7.8410045714 -3.0000152588
25.9381491920 -7.7397008869 -3.0000152588
25.9321582677 -7.6274559128 -3.0000152588
25.9363494771 -7.5858277699 -3.0000152588
25.9458473049 -7.5539068969 -3.0000152588
25.9460466642 -7.4596367566 -3.0000152588
19.1143661062 -7.6579457571 -3.0000152588
19.1089201204 -7.6682255486 -3.0000152588
19.0981194960 -7.6888332373 -3.0000152588
19.1096438812 -7.6156667849 -3.0000152588
19.1040728472 -7.6259607307 -3.0000152588
19.1192911467 -7.4995791065 -3.0000152588
19.1133766621 -7.5098450218 -3.0000152588
19.1106762261 -7.3264482722 -3.0000152588
19.2400476222 -7.0908612379 -3.0000152588
19.1177216501 -6.9713242042 -3.0000152588
21.8822917264 -7.2099127979 -3.0000152588
21.9944043460 -7.1347467463 -3.0000152588
23.0772748875 -6.7868794620 -3.0000152588
22.9836915729 -6.7109482888 -3.0000152588
25.8432089116 -7.5182147902 -3.0000152588
25.8325762107 -7.2535066023 -3.0000152588
25.7925209613 -6.9745028713 -3.0000152588
19.0442682542 -8.2330992165 -3.0000152588
19.0437079397 -8.1565948424 -3.0000152588
19.0398734539 -8.1681068534 -3.0000152588
19.0405833216 -8.0911965169 -3.0000152588
19.0325615574 -8.1142514626 -3.0000152588
19.0218621838 -8.0716083267 -3.0000152588
19.0201427148 -8.0054926705 -3.0000152588
19.0377823127 -7.8928205901 -3.0000152588
19.0342609258 -7.8375561039 -3.0000152588
19.0247386504 -7.8606528941 -3.0000152588
19.0236587351 -7.5115683441 -3.0000152588
22.8470375052 -6.8335922702 -3.0000152588
23.5339081674 -6.6427638928 -3.0000152588
19.0307104661 -8.8093552831 -3.0000152588
19.0291191354 -8.8218890482 -3.0000152588
19.0275648888 -8.8344274659 -3.0000152588
19.0171188654 -8.7307513745 -3.0000152588
19.0152950696 -8.7433256899 -3.0000152588
19.0117591089 -8.7684902309 -3.0000152588
19.0092187235 -8.6262921408 -3.0000152588
19.0070859530 -8.6388902833 -3.0000152588
18.9853908159 -8.6222219929 -3.0000152588
18.9790691715 -8.6602466917 -3.0000152588
18.9903755628 -8.4658158047 -3.0000152588
18.9826657049 -8.5038024258 -3.0000152588
18.9775705351 -8.4100832854 -3.0000152588
18.9075959151 -8.8197364009 -3.0000152588
18.9675057781 -8.1510836491 -3.0000152588
18.9551254624 -8.1062590401 -3.0000152588
18.9544309123 -7.7956345453 -3.0000152588
18.7546635417 -7.7083598827 -3.0000152588
22.5756464942 -7.6611555006 -3.0000152588
22.6453192387 -6.9438257655 -3.0000152588
22.9177120046 -6.8243214747 -3.0000152588
23.2892670693 -6.6294749543 -3.0000152588
21.5210926759 -7.5957672371 -3.0000152588
19.0210144260 -9.4054557582 -3.0000152588
19.0223556056 -9.4324073408 -3.0000152588
18.9923190044 -9.2574577653 -3.0000152588
18.9678876543 -9.1487204124 -3.0000152588
18.9709903330 -9.3668460214 -3.0000152588
18.9436690231 -9.2307331414 -3.0000152588
18.9333099046 -8.8317183081 -3.0000152588
18.9223650743 -9.0242930189 -3.0000152588
18.9093515854 -8.5925800613 -3.0000152588
18.8709908270 -9.1895713896 -3.0000152588
18.9009522177 -8.4786471769 -3.0000152588
18.8032957211 -8.9775616003 -3.0000152588
18.8774618961 -8.2021373119 -3.0000152588
18.8597780477 -8.1692268531 -3.0000152588
18.7624801152 -8.8470997159 -3.0000152588
18.8323692665 -7.9705338621 -3.0000152588
18.6302631936 -9.2918837743 -3.0000152588
18.9263814741 -7.4339107779 -3.0000152588
25.6851850475 -3.6659120210 -3.0000152588
22.2475211537 -7.1516945383 -3.0000152588
22.4050869026 -6.9645156630 -3.0000152588
21.8673583019 -7.4921845887 -3.0000152588
21.6504954878 -7.6878244244 -3.0000152588
23.0606227243 -6.4497715523 -3.0000152588
21.4989675221 -7.7625840596 -3.0000152588
18.9814534820 -9.8359142914 -3.0000152588
19.0149184910 -10.0083267630 -3.0000152588
18.9136634213 -9.5344253551 -3.0000152588
18.9478050888 -9.7820949958 -3.0000152588
18.9709096091 -9.9124322300 -3.0000152588
18.8620111139 -9.1687514162 -3.0000152588
18.9868372037 -10.1049509716 -3.0000152588
18.8353883913 -8.8726977884 -3.0000152588
18.8115603502 -8.8572647713 -3.0000152588
18.8103041305 -8.9318667736 -3.0000152588
18.8399538452 -9.5276874012 -3.0000152588
18.7533797049 -8.3394791025 -3.0000152588
18.7496824300 -8.3696708867 -3.0000152588
18.7713483301 -9.7493160452 -3.0000152588
18.7353030341 -8.2910117908 -3.0000152588
18.7047107620 -8.5796807345 -3.0000152588
18.7020196842 -9.3429894065 -3.0000152588
24.5656465403 -3.6924891134 -3.0000152588
25.1754838473 -3.7860581453 -3.0000152588
24.8037503653 -3.7054427081 -3.0000152588
24.6786832319 -3.6844597174 -3.0000152588
24.7452785709 -3.6707414027 -3.0000152588
25.1408434387 -3.7275823414 -3.0000152588
25.5786212754 -3.8290809813 -3.0000152588
22.7005820189 -7.5326258231 -3.0000152588
22.6660176608 -7.5742685737 -3.0000152588
22.7038182046 -7.4921015548 -3.0000152588
22.5170979440 -7.5293242916 -3.0000152588
21.8497051797 -7.6549005490 -3.0000152588
21.8257169065 -7.5937397441 -3.0000152588
22.7499047883 -6.5473426860 -3.0000152588
21.8142750842 -7.5627144695 -3.0000152588
21.7288627783 -7.5715531956 -3.0000152588
21.5586973024 -8.0216375094 -3.0000152588
21.5854441755 -7.7830016548 -3.0000152588
23.1915307466 -6.1762592321 -3.0000152588
21.5088760200 -7.9332966545 -3.0000152588
24.8833479508 -3.9113079317 -3.0000152588
24.8406263877 -3.9044649193 -3.0000152588
24.7407189428 -3.8899742078 -3.0000152588
25.2845132789 -3.9699173248 -3.0000152588
25.0583496681 -3.9187656515 -3.0000152588
24.4267671622 -3.8338270415 -3.0000152588
24.4123062049 -3.8328549021 -3.0000152588
24.8912061563 -3.8636047899 -3.0000152588
24.2393201856 -3.8003662687 -3.0000152588
24.8662373959 -3.8350805959 -3.0000152588
24.0205245040 -3.7744566841 -3.0000152588
25.4442793734 -3.9375193075 -3.0000152588
25.0293753515 -3.8391537332 -3.0000152588
24.3596362284 -3.7328421006 -3.0000152588
25.0530806849 -3.7945014024 -3.0000152588
24.1976961414 -3.7025727743 -3.0000152588
24.0937735046 -3.6530916935 -3.0000152588
24.1543478987 -3.6051380756 -3.0000152588
18.8214577715 -9.6961555393 -3.0000152588
18.8006061903 -9.7162048375 -3.0000152588
18.8289527721 -9.8566830739 -3.0000152588
18.7193791661 -9.3411914947 -3.0000152588
18.7798273236 -9.7363859886 -3.0000152588
18.8178849751 -10.0234084578 -3.0000152588
18.8336554356 -10.0857102181 -3.0000152588
18.8808126015 -10.2560292552 -3.0000152588
18.6677488787 -9.3146547783 -3.0000152588
19.0030649510 -10.6905476434 -3.0000152588
22.1827388347 -7.1902127453 -3.0000152588
22.1189234710 -7.2538502691 -3.0000152588
22.4166752442 -6.7858553394 -3.0000152588
21.8929345967 -7.6595857868 -3.0000152588
21.8651948906 -7.7518872369 -3.0000152588
22.5638352409 -6.5335690719 -3.0000152588
22.5249983962 -6.5694873683 -3.0000152588
22.3523085526 -6.7492778605 -3.0000152588
21.8400646271 -7.6663969156 -3.0000152588
22.5370930108 -6.4925765387 -3.0000152588
21.7802645502 -7.6151846031 -3.0000152588
21.7509010583 -7.7118506988 -3.0000152588
21.7271133509 -7.8020227996 -3.0000152588
21.5560150205 -8.3529250340 -3.0000152588
21.9209746884 -6.3980761667 -3.0000152588
24.7664445768 -4.0136176030 -3.0000152588
24.7403251328 -4.0108105255 -3.0000152588
24.7141895383 -4.0081580286 -3.0000152588
24.7011159705 -4.0068897770 -3.0000152588
24.6618735578 -4.0033171423 -3.0000152588
24.5849583991 -3.9731011461 -3.0000152588
24.5586024224 -3.9713685109 -3.0000152588
24.5454207053 -3.9705606752 -3.0000152588
24.4794794469 -3.9671065874 -3.0000152588
24.5203505748 -3.9449239663 -3.0000152588
24.4009504493 -3.9400855303 -3.0000152588
24.1487025028 -3.9403160546 -3.0000152588
24.2280806982 -3.9145400158 -3.0000152588
24.0146394263 -3.9219991962 -3.0000152588
24.2278083337 -3.8903685223 -3.0000152588
24.1741326626 -3.8912909704 -3.0000152588
24.8065280191 -3.8965253751 -3.0000152588
24.2815184877 -3.8417352061 -3.0000152588
23.9528473028 -3.8048762588 -3.0000152588
23.6052681668 -3.7937604219 -3.0000152588
23.3460567446 -3.8389202027 -3.0000152588
24.5320522350 -3.7276816384 -3.0000152588
23.6155696548 -3.7678562112 -3.0000152588
24.4088363282 -3.6501164051 -3.0000152588
23.7174851488 -3.6814468102 -3.0000152588
23.1337261633 -3.7876032507 -3.0000152588
23.0652333103 -3.8050486836 -3.0000152588
23.0379096766 -3.8123101936 -3.0000152588
24.1679907711 -3.6254586053 -3.0000152588
23.1831865662 -3.7508419784 -3.0000152588
23.0590937530 -3.7816683260 -3.0000152588
23.0453574294 -3.7852971382 -3.0000152588
23.0042137078 -3.7964271576 -3.0000152588
22.8334361502 -3.8215212399 -3.0000152588
22.8198187061 -3.8258174136 -3.0000152588
22.6171557175 -3.8950698178 -3.0000152588
18.6795304420 -10.0938650953 -3.0000152588
18.6765608332 -10.1671736877 -3.0000152588
18.7193083437 -10.2992567207 -3.0000152588
18.7534136167 -10.3976349204 -3.0000152588
18.7020237330 -10.3973865723 -3.0000152588
18.7659468375 -10.6355857999 -3.0000152588
18.7741436401 -10.9604510282 -3.0000152588
18.5424779996 -10.4537566689 -3.0000152588
18.7597331604 -10.9868952422 -3.0000152588
22.6448625406 -7.5468778287 -3.0000152588
22.6286103272 -7.5184598867 -3.0000152588
22.6004504859 -7.5269840069 -3.0000152588
22.5576769592 -7.6843967019 -3.0000152588
22.6324821835 -7.3075789561 -3.0000152588
22.2250258261 -7.0940786537 -3.0000152588
22.2103282504 -7.1265479624 -3.0000152588
22.1691389048 -7.2252102303 -3.0000152588
22.1614286360 -7.2451565582 -3.0000152588
22.1370116628 -7.3121239567 -3.0000152588
22.0980927184 -7.4343716031 -3.0000152588
22.3854605938 -6.7574106855 -3.0000152588
22.3735903481 -6.7754557011 -3.0000152588
22.1824312915 -7.1299215279 -3.0000152588
22.0558904939 -7.4971019605 -3.0000152588
22.2995512035 -6.8486809314 -3.0000152588
22.2812159488 -6.8800748234 -3.0000152588
22.0866123262 -7.3099855250 -3.0000152588
22.4568228852 -6.5758488987 -3.0000152588
22.1561154919 -7.0703568401 -3.0000152588
21.9902073755 -7.5635798621 -3.0000152588
22.4608117358 -6.5319235756 -3.0000152588
22.1280030594 -7.0737906866 -3.0000152588
21.9185651019 -7.8582925150 -3.0000152588
21.9184493447 -7.6779043216 -3.0000152588
21.8504150300 -7.8132523974 -3.0000152588
21.8487398119 -7.8284177419 -3.0000152588
21.8352929827 -8.1864304485 -3.0000152588
22.2573736810 -6.6446049598 -3.0000152588
21.8340644947 -7.7494053250 -3.0000152588
22.6839133741 -6.1258334223 -3.0000152588
21.7870681718 -8.0170261748 -3.0000152588
22.4124338503 -6.2551877751 -3.0000152588
22.8203624426 -5.8052819490 -3.0000152588
21.6268016857 -8.6790495177 -3.0000152588
21.4976464056 -8.2144990694 -3.0000152588
21.9146993316 -5.9415536907 -3.0000152588
21.6386606474 -10.6469573685 -3.0000152588
21.5832935289 -10.6217166346 -3.0000152588
21.2793495853 -10.6369852309 -3.0000152588
24.1726323155 -4.0092431350 -3.0000152588
24.1484106584 -4.0107360388 -3.0000152588
24.1241982578 -4.0123722198 -3.0000152588
24.1120957935 -4.0132440217 -3.0000152588
24.0999959611 -4.0141516210 -3.0000152588
24.0878988665 -4.0150950098 -3.0000152588
24.0153797187 -4.0215064384 -3.0000152588
24.0373399244 -3.9951535876 -3.0000152588
24.0251869043 -3.9962824074 -3.0000152588
24.0130372766 -3.9974471731 -3.0000152588
23.9644748162 -4.0024654864 -3.0000152588
23.9402167034 -4.0051900384 -3.0000152588
24.0473673932 -3.9699816178 -3.0000152588
23.9862638801 -3.9758395156 -3.0000152588
23.8886979270 -3.9870900010 -3.0000152588
23.8035666515 -3.9988257185 -3.0000152588
23.8733977505 -3.9646882469 -3.0000152588
23.8244574469 -3.9713611333 -3.0000152588
23.7633987201 -3.9805158045 -3.0000152588
23.6861328079 -3.9688838146 -3.0000152588
23.6128567783 -3.9824331380 -3.0000152588
23.8300119602 -3.9217553247 -3.0000152588
23.7805666916 -3.9289445774 -3.0000152588
23.5348062737 -3.9736361895 -3.0000152588
24.1515978757 -3.8652082150 -3.0000152588
24.1014610024 -3.8685962724 -3.0000152588
23.4806896346 -3.9607312983 -3.0000152588
24.0115593434 -3.8518858709 -3.0000152588
23.5000525285 -3.9316743063 -3.0000152588
23.3219505426 -3.9496640904 -3.0000152588
24.1726475275 -3.7913298579 -3.0000152588
24.1216350176 -3.7944740180 -3.0000152588
24.0431373374 -3.7762361438 -3.0000152588
23.9919552982 -3.7809137853 -3.0000152588
23.1982274057 -3.9337595246 -3.0000152588
24.1699589003 -3.7430586200 -3.0000152588
24.1312676999 -3.7453859151 -3.0000152588
23.9253634283 -3.7635899424 -3.0000152588
23.5933017400 -3.8138789954 -3.0000152588
23.5425965996 -3.8238766654 -3.0000152588
23.1295787196 -3.9290743818 -3.0000152588
23.8581676168 -3.7472954465 -3.0000152588
23.0976621169 -3.9136760567 -3.0000152588
24.1020834153 -3.6989019718 -3.0000152588
23.3926378382 -3.8074175383 -3.0000152588
22.9910913633 -3.9230852412 -3.0000152588
22.9787297298 -3.9273093689 -3.0000152588
23.9695143028 -3.6859688758 -3.0000152588
23.3998373256 -3.7808828433 -3.0000152588
23.5233307535 -3.7291233452 -3.0000152588
22.9380733718 -3.8902353042 -3.0000152588
22.8759117187 -3.9125088124 -3.0000152588
24.0969799902 -3.6265626837 -3.0000152588
23.8459554927 -3.6513776247 -3.0000152588
23.7801617346 -3.6602493325 -3.0000152588
22.8302521628 -3.9036927622 -3.0000152588
23.9755582039 -3.6124989281 -3.0000152588
23.7635409906 -3.6382189046 -3.0000152588
24.1605487048 -3.5741092872 -3.0000152588
24.1203585444 -3.5765267455 -3.0000152588
22.6511610153 -3.9230920913 -3.0000152588
23.0856630059 -3.7402803232 -3.0000152588
22.6542160154 -3.8955951010 -3.0000152588
22.2648973693 -4.0529693019 -3.0000152588
21.6986344899 -4.2594490449 -3.0000152588
22.2198487044 -6.8817601808 -3.0000152588
22.2509692966 -6.5301084432 -3.0000152588
22.1154799060 -10.7454257242 -3.0000152588
23.5474040363 -4.0440508342 -3.0000152588
23.5083011310 -4.0291702661 -3.0000152588
23.4862297976 -4.0350359032 -3.0000152588
23.4752072412 -4.0380176643 -3.0000152588
23.4467041657 -4.0207919406 -3.0000152588
23.4245843414 -4.0270221527 -3.0000152588
23.6082664316 -3.9547028334 -3.0000152588
23.3624839758 -4.0200215286 -3.0000152588
23.3403610674 -4.0267500291 -3.0000152588
23.3332587880 -4.0036439064 -3.0000152588
23.2888614248 -4.0175786287 -3.0000152588
23.2667253520 -4.0247427477 -3.0000152588
23.2147997035 -4.0165773019 -3.0000152588
23.2037237309 -4.0203620831 -3.0000152588
23.1926590027 -4.0241796124 -3.0000152588
23.1816056159 -4.0280298566 -3.0000152588
23.0876453800 -4.0106032270 -3.0000152588
23.1765903234 -3.7490255787 -3.0000152588
22.5607459300 -7.3647252676 -3.0000152588
21.6085930543 -6.9191329069 -3.0000152588
21.5651306896 -8.1045766359 -3.0000152588
21.6257894335 -6.6158977214 -3.0000152588
21.3579834422 -6.8251284747 -3.0000152588
21.5744915316 -8.9900091577 -3.0000152588
22.4067074332 -10.9097287679 -3.0000152588
22.3966135787 -4.0662976503 -3.0000152588
22.3864660402 -4.0710475899 -3.0000152588
22.3460177281 -4.0903469033 -3.0000152588
22.3964910793 -10.9316367892 -3.0000152588
22.2950054415 -4.0884947911 -3.0000152588
22.2848024837 -10.9043852448 -3.0000152588
22.2948837343 -10.9094360223 -3.0000152588
22.2639346260 -4.0770609957 -3.0000152588
22.2538195080 -4.0822033765 -3.0000152588
22.2336351293 -4.0925777924 -3.0000152588
22.2335135678 -10.9053508309 -3.0000152588
22.1819635965 -10.9055764587 -3.0000152588
22.2021498420 -10.9162565779 -3.0000152588
22.1302844865 -4.0928688310 -3.0000152588
22.1503470089 -10.9160427026 -3.0000152588
22.0984214219 -4.0828454007 -3.0000152588
21.9733620427 -10.8989610476 -3.0000152588
21.8879967518 -4.0943132421 -3.0000152588
21.8219131983 -4.0787147345 -3.0000152588
21.7246534471 -10.9136690457 -3.0000152588
22.5895485044 -7.4962883622 -3.0000152588
22.5351008978 -7.3211010338 -3.0000152588
22.5753963519 -7.5391214026 -3.0000152588
21.6740641411 -8.2332472258 -3.0000152588
21.4758223536 -6.4229573724 -3.0000152588
21.6097408295 -8.3230386909 -3.0000152588
21.2739483918 -7.0232456675 -3.0000152588
21.3623428298 -6.3806155763 -3.0000152588
21.8361673969 -8.8620284652 -3.0000152588
21.2841558095 -6.5860396832 -3.0000152588
21.4068700707 -6.1118029521 -3.0000152588
21.2895294541 -6.0167422360 -3.0000152588
22.0070259264 -4.1866703225 -3.0000152588
22.0026254349 -4.1606462319 -3.0000152588
21.9671707822 -4.1841330306 -3.0000152588
21.8868701221 -4.1804840941 -3.0000152588
21.6652815099 -4.1934108043 -3.0000152588
21.6328040337 -4.1880740627 -3.0000152588
21.6152107129 -4.2019525287 -3.0000152588
21.6090257405 -4.1760215230 -3.0000152588
21.5737805698 -4.2041644998 -3.0000152588
21.5650215023 -4.2112652534 -3.0000152588
21.4486430080 -4.2138303104 -3.0000152588
21.4066671690 -4.2180711310 -3.0000152588
22.8138495755 -10.9528043437 -3.0000152588
22.7842830393 -10.9689755812 -3.0000152588
22.6869447707 -10.9627583413 -3.0000152588
22.6981739755 -10.9665365822 -3.0000152588
22.7094143080 -10.9702815885 -3.0000152588
22.7206656697 -10.9739933275 -3.0000152588
22.7319279621 -10.9776717666 -3.0000152588
22.7432010867 -10.9813168738 -3.0000152588
22.7544849449 -10.9849286171 -3.0000152588
22.7657794380 -10.9885069649 -3.0000152588
22.6228886329 -10.9661522662 -3.0000152588
22.6679164672 -10.9818233959 -3.0000152588
22.5809588427 -10.9767597458 -3.0000152588
22.6035130719 -10.9849097963 -3.0000152588
22.6148081698 -10.9889347463 -3.0000152588
22.5274465509 -10.9826703308 -3.0000152588
22.5387353569 -10.9869203091 -3.0000152588
22.5500366857 -10.9911368745 -3.0000152588
22.5613504384 -10.9953199901 -3.0000152588
22.4849054796 -10.9922538040 -3.0000152588
22.3968379709 -10.9830361418 -3.0000152588
22.4194325559 -10.9922754034 -3.0000152588
22.4420814079 -11.0013808260 -3.0000152588
22.3649509139 -10.9959559413 -3.0000152588
22.2777929599 -11.0111167356 -3.0000152588
22.1327648206 -10.9976242280 -3.0000152588
20.7889128007 -4.2109348816 -3.0000152588
22.3376846592 -11.1938899843 -3.0000152588
21.4887797319 -10.7632982616 -3.0000152588
21.5722105873 -11.0203099876 -3.0000152588
22.5894201128 -7.6066314992 -3.0000152588
23.3698029879 -10.9715269680 -3.0000152588
23.2945990090 -10.9855838091 -3.0000152588
23.1706096665 -10.9900159628 -3.0000152588
23.2307793378 -11.0002041300 -3.0000152588
23.0338244844 -10.9881304332 -3.0000152588
22.9926257593 -11.0039854234 -3.0000152588
22.8182553260 -11.0366634422 -3.0000152588
23.1866915739 -11.1154342734 -3.0000152588
23.3606998072 -11.1409409528 -3.0000152588
22.6034291705 -11.0506073875 -3.0000152588
22.8936301101 -11.1549781061 -3.0000152588
23.1706900820 -11.2107931575 -3.0000152588
23.2468297826 -11.2228758983 -3.0000152588
23.2432531513 -11.2467828636 -3.0000152588
23.2560341699 -11.2486756606 -3.0000152588
22.4505234888 -11.1021794574 -3.0000152588
23.3366205057 -11.3328201995 -3.0000152588
23.0421465842 -11.3350147319 -3.0000152588
23.1074329725 -11.3470651805 -3.0000152588
22.7710788986 -11.3240535738 -3.0000152588
21.5341325037 -10.9735005367 -3.0000152588
21.3798882984 -7.2656640490 -3.0000152588
21.1543901001 -7.1264374691 -3.0000152588
23.8302761868 -10.9858159273 -3.0000152588
23.9191893125 -10.9836430195 -3.0000152588
23.9572775516 -10.9821482564 -3.0000152588
23.9953510258 -10.9803155404 -3.0000152588
23.6772967806 -11.0094240153 -3.0000152588
23.7156233371 -11.0100748975 -3.0000152588
23.7667315280 -11.0104136097 -3.0000152588
23.7795089225 -11.0104037940 -3.0000152588
23.8817156282 -11.0089646246 -3.0000152588
23.9327990545 -11.0073381333 -3.0000152588
23.5612120247 -11.0295762387 -3.0000152588
23.4568754281 -11.0475363789 -3.0000152588
23.8700517105 -11.0576101119 -3.0000152588
23.8829682687 -11.0572944500 -3.0000152588
23.4681034279 -11.0725589354 -3.0000152588
23.6757436723 -11.0819264662 -3.0000152588
23.3362688276 -11.0857747425 -3.0000152588
23.9233930405 -11.1044350338 -3.0000152588
24.0016979299 -11.1010139201 -3.0000152588
23.1903653902 -11.0933098915 -3.0000152588
23.9242337861 -11.1285934367 -3.0000152588
23.0174678115 -11.0916048229 -3.0000152588
23.1479537640 -11.1119317384 -3.0000152588
23.9778562797 -11.1506022396 -3.0000152588
22.9219464512 -11.0988215624 -3.0000152588
23.8329989541 -11.1791809826 -3.0000152588
22.8864706343 -11.1411490750 -3.0000152588
23.7799978379 -11.2279604965 -3.0000152588
23.9410089161 -11.2247404241 -3.0000152588
22.8025025271 -11.1483937742 -3.0000152588
22.5607425103 -11.1641413014 -3.0000152588
23.1756379850 -11.3107845828 -3.0000152588
21.9274572824 -11.0478312078 -3.0000152588
22.0310682444 -11.0902071607 -3.0000152588
21.4520491303 -10.8976068283 -3.0000152588
21.3657165074 -10.8767699227 -3.0000152588
21.4206080203 -11.0456577363 -3.0000152588
22.5753493606 -7.4560972668 -3.0000152588
22.1815788076 -8.5155363623 -3.0000152588
24.6154580884 -10.9590273535 -3.0000152588
23.7699758792 -11.0920534817 -3.0000152588
23.8244724756 -11.0898360342 -3.0000152588
23.8517099807 -11.0884855348 -3.0000152588
24.1505542400 -11.0630103799 -3.0000152588
24.4068506744 -11.0254059904 -3.0000152588
24.6207596949 -10.9826118453 -3.0000152588
24.6527899369 -11.0001048327 -3.0000152588
23.5099039890 -11.1421105227 -3.0000152588
23.9384580929 -11.1558077375 -3.0000152588
23.3002597260 -11.1813358339 -3.0000152588
23.3558456357 -11.1846700357 -3.0000152588
23.4943588764 -11.2142920320 -3.0000152588
23.7322154923 -11.2141179877 -3.0000152588
24.2618819226 -11.1705441050 -3.0000152588
23.0000719284 -11.2249854257 -3.0000152588
22.8844381158 -11.2331252045 -3.0000152588
23.0620499636 -11.3055407903 -3.0000152588
23.9951775087 -11.3454866020 -3.0000152588
18.7429921740 -5.5937878566 -3.0000152588
18.6551716057 -6.0703617557 -3.0000152588
18.8025410578 -5.1245954018 -3.0000152588
18.7482771899 -5.2327007162 -3.0000152588
18.6716603181 -5.5807194260 -3.0000152588
18.8708109085 -4.7565487398 -3.0000152588
18.9369705771 -4.4601336614 -3.0000152588
22.4946867760 -7.3846287301 -3.0000152588
22.5667414605 -7.4423199433 -3.0000152588
21.3638610523 -7.7018399610 -3.0000152588
22.3357026839 -8.5946398077 -3.0000152588
21.2149711607 -7.6021442551 -3.0000152588
21.2633680815 -7.8945032951 -3.0000152588
18.9256271273 -5.5116367350 -3.0000152588
18.9167209866 -5.4274151529 -3.0000152588
18.9042083337 -5.4940702207 -3.0000152588
18.9018241861 -5.5074230347 -3.0000152588
18.9891400500 -5.0253115818 -3.0000152588
18.9853688579 -5.0384152034 -3.0000152588
18.9010189807 -5.3826676587 -3.0000152588
18.8091691045 -6.1808743754 -3.0000152588
18.8085053471 -6.2081372615 -3.0000152588
18.9583768904 -5.0449474932 -3.0000152588
18.9332072170 -5.1375346605 -3.0000152588
18.8542183036 -5.4989956340 -3.0000152588
18.7833421322 -6.3309758296 -3.0000152588
18.7591176151 -6.3173240817 -3.0000152588
18.7629699897 -6.4963923569 -3.0000152588
18.7678955601 -6.5927144107 -3.0000152588
18.7825008749 -5.6409916332 -3.0000152588
18.7437681512 -6.5941988029 -3.0000152588
18.7121535963 -6.1921519049 -3.0000152588
18.7233890136 -6.6512427193 -3.0000152588
18.6920613728 -6.8368284669 -3.0000152588
18.6969520621 -6.8787375843 -3.0000152588
18.6382719093 -6.2893278126 -3.0000152588
18.6941715829 -7.0356814661 -3.0000152588
18.6613396368 -5.3482726353 -3.0000152588
24.1137530001 -11.2052096641 -3.0000152588
24.3878311281 -11.1583260914 -3.0000152588
23.6781297970 -11.2718366071 -3.0000152588
24.7075724591 -11.1082538363 -3.0000152588
23.5612637900 -11.3007915751 -3.0000152588
23.5908080126 -11.2998498661 -3.0000152588
24.7708473362 -11.1159138998 -3.0000152588
24.9265950952 -11.0693171764 -3.0000152588
23.4877245659 -11.3265516170 -3.0000152588
23.5916495946 -11.3240082398 -3.0000152588
25.1586262427 -11.0152248525 -3.0000152588
23.9051367170 -11.3275387648 -3.0000152588
23.9199871431 -11.3260724043 -3.0000152588
24.1864162251 -11.2921812343 -3.0000152588
24.5288811190 -11.2519119331 -3.0000152588
25.2315263203 -11.0394274340 -3.0000152588
24.8908034669 -11.2068682145 -3.0000152588
24.3361488914 -11.3650624644 -3.0000152588
24.7640491102 -11.3183527314 -3.0000152588
19.0043517627 -5.6530314568 -3.0000152588
19.0028518188 -5.6654324395 -3.0000152588
18.9805731379 -5.9142279048 -3.0000152588
18.9767635961 -5.9890782578 -3.0000152588
18.9681106612 -5.7624905765 -3.0000152588
18.9417190044 -5.7853534481 -3.0000152588
18.9266381178 -6.0375538263 -3.0000152588
18.9323703561 -5.6442170000 -3.0000152588
18.9023331724 -6.2909060490 -3.0000152588
18.9078976873 -6.4178384509 -3.0000152588
18.9130377628 -6.4938993364 -3.0000152588
18.8837661538 -6.4192542108 -3.0000152588
18.8853382985 -6.4447605738 -3.0000152588
18.8899286123 -6.5084818828 -3.0000152588
18.8694889312 -5.7788855217 -3.0000152588
18.8652079569 -5.8301022644 -3.0000152588
18.8638714364 -6.4847740821 -3.0000152588
18.8603889496 -5.6354025431 -3.0000152588
18.8296196182 -6.0475546615 -3.0000152588
18.8388351355 -6.4736595817 -3.0000152588
18.8201959495 -5.7875154168 -3.0000152588
18.8190946392 -5.8004605772 -3.0000152588
18.8069855252 -6.3326654493 -3.0000152588
18.8312753400 -6.6564799010 -3.0000152588
18.8357974513 -6.6951923308 -3.0000152588
18.8375783232 -6.8791525875 -3.0000152588
18.6831234036 -6.2037902146 -3.0000152588
18.6516152052 -5.7729222170 -3.0000152588
18.6427541784 -5.8940272634 -3.0000152588
18.6782798997 -6.7958454306 -3.0000152588
18.6801620329 -6.8092059926 -3.0000152588
18.5863414606 -6.1909587445 -3.0000152588
18.8132453370 -7.7439092562 -3.0000152588
18.9368055559 -8.1111212591 -3.0000152588
24.8374897306 -11.3434888773 -3.0000152588
25.0956617967 -11.2544137756 -3.0000152588
25.3667541023 -11.2763677100 -3.0000152588
24.5271685450 -12.0036303026 -3.0000152588
19.0101891293 -6.3906822159 -3.0000152588
18.9787931036 -6.2869377681 -3.0000152588
18.9721849403 -6.5007962496 -3.0000152588
18.9748302911 -6.5243436799 -3.0000152588
18.9836015580 -6.5948862992 -3.0000152588
18.9884563626 -6.6300964514 -3.0000152588
18.9628618121 -6.6217017133 -3.0000152588
18.9733628920 -6.6924414163 -3.0000152588
18.9592514255 -6.7553555618 -3.0000152588
18.9634030611 -6.7789750558 -3.0000152588
18.8887592792 -6.3885940929 -3.0000152588
18.9237463685 -6.6880464112 -3.0000152588
18.8666570201 -6.4146952842 -3.0000152588
18.9255695278 -6.9592762270 -3.0000152588
18.9309282159 -6.9830914255 -3.0000152588
18.7346919939 -6.5520407277 -3.0000152588
18.6718862788 -6.4058353086 -3.0000152588
18.8995427368 -7.4844364030 -3.0000152588
18.5489099288 -6.6263552942 -3.0000152588
22.4042956591 -7.4212385948 -3.0000152588
21.8587317281 -8.2675695461 -3.0000152588
21.7565780053 -8.2531974591 -3.0000152588
22.9234578689 -8.4804889188 -3.0000152588
21.6741156110 -8.2965009982 -3.0000152588
23.3213717340 -8.5357975976 -3.0000152588
21.0009226441 -8.0774722727 -3.0000152588
19.0150697866 -6.8945456463 -3.0000152588
19.0203757638 -6.9163168053 -3.0000152588
19.0230770314 -6.9271905175 -3.0000152588
18.9996257098 -6.9330531789 -3.0000152588
19.0051597808 -6.9549150362 -3.0000152588
19.0137031603 -6.9876454759 -3.0000152588
19.0166154602 -6.9985386148 -3.0000152588
19.0225366677 -7.0202988090 -3.0000152588
18.9680649347 -6.9058542727 -3.0000152588
18.9932718840 -7.0048165710 -3.0000152588
18.9962350686 -7.0157700741 -3.0000152588
19.0053188538 -7.0485773192 -3.0000152588
19.0084114379 -7.0594949938 -3.0000152588
18.9979361473 -7.1099699255 -3.0000152588
19.0012103740 -7.1209091709 -3.0000152588
19.0045169467 -7.1318386826 -3.0000152588
19.0078558364 -7.1427583651 -3.0000152588
25.7810689054 -8.3306233299 -3.0000152588
18.9915668144 -7.1718069215 -3.0000152588
18.9950239940 -7.1827647379 -3.0000152588
19.0020355230 -7.2046494502 -3.0000152588
18.9685031791 -7.1790459829 -3.0000152588
18.9862223626 -7.2340716866 -3.0000152588
18.9898637560 -7.2450450405 -3.0000152588
18.9935375947 -7.2560075744 -3.0000152588
18.9972438465 -7.2669591925 -3.0000152588
18.9896001461 -7.3187076380 -3.0000152588
18.9974160538 -7.3406220604 -3.0000152588
19.0013725936 -7.3515618351 -3.0000152588
25.7821411009 -8.4479223560 -3.0000152588
25.7965189413 -8.4296300618 -3.0000152588
18.9907904716 -7.3927665628 -3.0000152588
18.9990445159 -7.4146726467 -3.0000152588
18.8657129041 -7.0878996916 -3.0000152588
18.9764492741 -7.4232627764 -3.0000152588
18.8034447521 -7.0435253437 -3.0000152588
18.9810581468 -7.6266837204 -3.0000152588
25.7262782106 -8.7746998570 -3.0000152588
18.9696368098 -7.8324398465 -3.0000152588
18.9914782573 -7.8764223173 -3.0000152588
18.8037500661 -7.7038802395 -3.0000152588
18.9664014144 -8.0870803989 -3.0000152588
18.7344945789 -7.6647457156 -3.0000152588
22.3111097560 -7.4342885087 -3.0000152588
