7.4361394201 -25.9516043188 -2.8500153880
7.4560135338 -25.9400664778 -2.8500153880
7.4659249055 -25.9342535144 -2.8500153880
7.5179028462 -25.9313960018 -2.8500153909
7.2897528370 -19.1142439976 -2.8500153909
7.5304085571 -25.9520827724 -2.8500153938
7.3420626089 -19.1143686468 -2.8500153938
7.3214869867 -19.1035070588 -2.8500153938
7.3008474638 -19.0927673932 -2.8500153938
7.3740476601 -19.1040754648 -2.8500153967
7.4474114373 -19.1168879202 -2.8500153996
7.4268488762 -19.1054030091 -2.8500153996
7.4901633465 -19.1133795595 -2.8500154024
7.4695792805 -19.1016417751 -2.8500154024
7.7313337462 -25.9389708913 -2.8500154053
7.5968525142 -19.1201970189 -2.8500154082
7.5763069154 -19.1078279063 -2.8500154082
7.6838331883 -19.1171366073 -2.8500154140
8.2178134617 -25.7195442025 -2.8500154197
7.7715762113 -19.1160845573 -2.8500154197
7.9045234603 -19.1183286706 -2.8500154284
7.9375821068 -22.6785888106 -2.8500154995
7.9960249342 -22.8039330350 -2.8500155110
7.9905144172 -22.7241427148 -2.8500155110
8.0145997144 -22.7220851096 -2.8500155168
8.0715864378 -22.4344880712 -2.8500155399
8.1432906875 -23.0118290084 -2.8500155456
8.1441665437 -22.9733377526 -2.8500155456
8.1444659598 -22.9271374448 -2.8500155456
8.1127748322 -22.5283730961 -2.8500155456
8.1078027258 -22.4979759831 -2.8500155456
8.1065035264 -22.4903860638 -2.8500155456
8.0758222935 -22.3394898111 -2.8500155456
8.0610595067 -22.2796838534 -2.8500155456
8.0083417376 -22.1025954030 -2.8500155456
8.1413084092 -22.5553487640 -2.8500155514
8.1877975479 -22.7702581527 -2.8500155571
8.1174234223 -22.3055744956 -2.8500155571
8.1312547427 -22.2614726924 -2.8500155629
8.1251900586 -22.2385158201 -2.8500155629
8.1990204747 -22.4581996132 -2.8500155687
8.1976032106 -22.4503400294 -2.8500155687
8.1901684868 -22.4111068881 -2.8500155687
8.2585851091 -22.7416760113 -2.8500155744
8.2474921534 -23.4120970681 -2.8500155802
8.2781061294 -22.6832559198 -2.8500155802
7.9265000251 -21.5202712422 -2.8500155860
8.2600235478 -23.6850596463 -2.8500155975
8.3440494580 -23.2513508725 -2.8500155975
8.3004944974 -23.6264070718 -2.8500156033
8.3694166601 -23.4164293281 -2.8500156090
8.3930316099 -23.2483669715 -2.8500156090
8.2350008262 -21.9456769123 -2.8500156090
8.4345414645 -22.9264430547 -2.8500156148
7.8994900138 -21.2157653089 -2.8500156205
8.1279321308 -21.4824972069 -2.8500156321
8.3203825746 -24.2764753631 -2.8500156609
8.3748447212 -21.6495937778 -2.8500156666
7.5383172554 -25.8341045492 -2.8500157646
7.5606552863 -25.8480551594 -2.8500157704
7.5950018520 -25.8239585835 -2.8500157704
7.6176020076 -25.8375357789 -2.8500157762
7.8040489050 -25.8186684603 -2.8500157992
7.8446501497 -25.8173639066 -2.8500158050
7.8854052504 -25.8155644769 -2.8500158107
7.8939210509 -25.8086179337 -2.8500158107
7.8757623437 -25.9466624768 -2.8500158338
8.1082010064 -25.7839114652 -2.8500158395
8.2917656706 -25.7779097331 -2.8500158684
6.7438684555 -19.0370876568 -2.8500158972
6.8318914801 -19.0398751249 -2.8500159029
6.8203681756 -19.0360747126 -2.8500159029
6.7857315147 -19.0248782348 -2.8500159029
6.8626448664 -19.0246779999 -2.8500159087
8.5808910335 -25.7591732990 -2.8500159145
6.9630477978 -19.0343264477 -2.8500159145
7.0407070227 -19.0376118903 -2.8500159202
7.0291761095 -19.0331937737 -2.8500159202
7.0176321772 -19.0288097869 -2.8500159202
7.0956470478 -19.0331691836 -2.8500159260
7.0841027519 -19.0285885639 -2.8500159260
7.1393454366 -19.0247402652 -2.8500159318
7.1277760152 -19.0200304146 -2.8500159318
7.2064582243 -19.0265640873 -2.8500159375
7.1717219582 -19.0119416515 -2.8500159375
7.2275511647 -19.0092971453 -2.8500159433
7.4199363731 -19.0170862759 -2.8500159606
7.4652647626 -19.0122095473 -2.8500159663
7.1551596552 -18.8487320251 -2.8500159721
7.5798297268 -19.0159446062 -2.8500159779
7.3078334054 -18.7544685907 -2.8500160067
8.4440818791 -19.4151444684 -2.8500160124
8.1102769327 -18.9902207214 -2.8500160470
8.5822091883 -18.9690972949 -2.8500161162
8.1464659457 -22.6340563547 -2.8500149250
8.0830496055 -22.4221756204 -2.8500149250
8.0805401277 -22.4149713747 -2.8500149250
8.0754572927 -22.4005853113 -2.8500149250
8.0139757961 -22.2444499694 -2.8500149250
8.2224038193 -22.8923491318 -2.8500149250
8.1972959150 -22.7482332245 -2.8500149250
8.1808393083 -22.6730120081 -2.8500149250
7.9980350027 -22.1507029534 -2.8500149250
7.9778543192 -22.1091421774 -2.8500149250
8.0362754387 -22.1755648497 -2.8500149250
7.9925854606 -22.0317761305 -2.8500149250
8.0532720655 -22.0982015102 -2.8500149250
8.3921072018 -23.3822191275 -2.8500149250
7.7283869074 -21.4363337871 -2.8500149250
7.9404180015 -21.6676043165 -2.8500149250
7.7078567824 -21.3772835844 -2.8500149250
8.4658600062 -23.1850554770 -2.8500149250
8.2933997329 -22.2245935291 -2.8500149250
7.7085226560 -21.0356867801 -2.8500149250
6.2031734378 -19.0323388299 -2.8500149250
6.1906444349 -19.0307104298 -2.8500149250
6.1781106697 -19.0291191000 -2.8500149250
6.1655722519 -19.0275648543 -2.8500149250
6.3069381485 -19.0228132780 -2.8500149250
6.2818172080 -19.0189798080 -2.8500149250
6.2692483426 -19.0171188239 -2.8500149250
6.2566740271 -19.0152950290 -2.8500149250
6.2440943714 -19.0135084391 -2.8500149250
6.2315094857 -19.0117590700 -2.8500149250
6.1937245502 -19.0067344383 -2.8500149250
6.4114633776 -19.0158404574 -2.8500149250
6.3737075757 -19.0092186751 -2.8500149250
6.3358944960 -19.0029322151 -2.8500149250
6.3232779223 -19.0009113309 -2.8500149250
6.2094754921 -18.9844052796 -2.8500149250
6.4283872067 -18.9943440649 -2.8500149250
6.4157448230 -18.9920496081 -2.8500149250
6.3651090743 -18.9832460616 -2.8500149250
6.5973381016 -19.0039734094 -2.8500149250
6.5594696669 -18.9957025605 -2.8500149250
6.5468307283 -18.9930203321 -2.8500149250
6.5341839105 -18.9903755037 -2.8500149250
6.6406035960 -18.9890344411 -2.8500149250
6.6026008825 -18.9803802236 -2.8500149250
6.5899164290 -18.9775704722 -2.8500149250
6.7536084314 -18.9669385942 -2.8500149250
6.6643370712 -18.9449355590 -2.8500149250
6.7979595765 -18.9535783864 -2.8500149250
6.9319560441 -18.9663642938 -2.8500149250
6.9064901936 -18.9588339960 -2.8500149250
7.0026868033 -18.9627925337 -2.8500149250
6.5159500320 -18.8140961894 -2.8500149250
6.8489510540 -18.8671956152 -2.8500149250
6.2677299283 -18.7483342255 -2.8500149250
6.3917251496 -18.7426231300 -2.8500149250
7.1869025701 -18.9225059231 -2.8500149250
6.3417863557 -18.7102248645 -2.8500149250
6.4401273594 -18.7017837797 -2.8500149250
6.4171044108 -18.6733280923 -2.8500149250
7.3014774467 -18.8097982868 -2.8500149250
7.6106028563 -18.9105932913 -2.8500149250
7.0835057846 -18.6587998152 -2.8500149250
8.2851122469 -18.8544584362 -2.8500149250
7.8637065119 -22.5712643515 -2.8500149250
8.1493589037 -22.4400869513 -2.8500149250
8.2716998866 -22.6653357035 -2.8500149250
7.7704887121 -21.8306701674 -2.8500149250
8.3374809564 -22.7831068327 -2.8500149250
8.0136929050 -22.1061211356 -2.8500149250
8.3086902673 -22.3259372181 -2.8500149250
8.6158032757 -22.7861882635 -2.8500149250
5.7293867460 -19.0167015970 -2.8500149250
5.7158966147 -19.0169533866 -2.8500149250
5.6484603769 -19.0188108554 -2.8500149250
5.8239154380 -18.9918836771 -2.8500149250
5.7696599334 -18.9920134858 -2.8500149250
5.7425337066 -18.9923191325 -2.8500149250
5.7289713901 -18.9925321377 -2.8500149250
5.7154097629 -18.9927852617 -2.8500149250
5.6476161225 -18.9946525749 -2.8500149250
5.9058062719 -18.9687251093 -2.8500149250
5.7830942636 -18.9677481650 -2.8500149250
5.7285560341 -18.9683626784 -2.8500149250
5.5922756755 -18.9727216455 -2.8500149250
5.7281406782 -18.9441932191 -2.8500149250
5.6870293918 -18.9450822142 -2.8500149250
5.5624926424 -18.9257981120 -2.8500149250
6.2391442963 -18.9150791098 -2.8500149250
6.3797847967 -18.9058843501 -2.8500149250
5.6698210271 -18.8246453550 -2.8500149250
6.7374733002 -18.8897847882 -2.8500149250
5.7539177617 -18.7987742988 -2.8500149250
5.7962669799 -18.7743117031 -2.8500149250
6.0958983522 -18.7587327104 -2.8500149250
7.2317438236 -18.8133642460 -2.8500149250
5.6782117721 -18.6067747137 -2.8500149250
5.5570295407 -18.5388025066 -2.8500149250
8.0344641170 -18.9699326273 -2.8500149250
7.8811292481 -22.0341802649 -2.8500149250
8.6371357306 -22.9388099422 -2.8500149250
8.2140587186 -22.0814305293 -2.8500149250
7.8760432129 -21.4795005856 -2.8500149250
9.2518505807 -23.8182002846 -2.8500149250
5.4682655884 -18.9376861518 -2.8500149250
5.4537228590 -18.9393412851 -2.8500149250
5.7880724510 -18.8880341621 -2.8500149250
5.6412751026 -18.8970818321 -2.8500149250
5.5387067671 -18.9059969023 -2.8500149250
5.9189070929 -18.8111024495 -2.8500149250
5.0007716124 -18.9142216774 -2.8500149250
5.8135118037 -18.7901344925 -2.8500149250
6.4769078073 -18.7579548391 -2.8500149250
5.3862685373 -18.7526576146 -2.8500149250
6.6938340690 -18.7332878759 -2.8500149250
6.0081470149 -18.6892289132 -2.8500149250
5.7485095724 -18.6963802914 -2.8500149250
4.9763391959 -18.7958517526 -2.8500149250
6.8337156201 -18.7291528299 -2.8500149250
5.3955416556 -18.7028095512 -2.8500149250
5.2434375558 -18.7235483532 -2.8500149250
5.9617629646 -18.6411989882 -2.8500149250
7.0395784828 -18.7167856594 -2.8500149250
6.9939430572 -18.7079442611 -2.8500149250
6.8412915112 -18.6814040393 -2.8500149250
6.1009386713 -18.6173126807 -2.8500149250
6.7749912951 -18.5980467052 -2.8500149250
5.7251861014 -18.5523937436 -2.8500149250
5.3653941862 -18.5847389131 -2.8500149250
5.0240595705 -18.6384994942 -2.8500149250
11.3009931606 -24.6125307295 -2.8500149250
5.3311034119 -18.5647366682 -2.8500149250
11.2329112130 -25.0985194708 -2.8500149250
11.2608866669 -24.9748285344 -2.8500149250
11.3375981573 -24.5217014758 -2.8500149250
5.0773396775 -18.5794829139 -2.8500149250
11.2412725009 -25.1659970241 -2.8500149250
11.2234609950 -25.3264206331 -2.8500149250
11.4183157086 -24.6456739938 -2.8500149250
11.2468185288 -25.5014622754 -2.8500149250
7.3851623124 -21.6550641017 -2.8500149250
8.6596528980 -22.8191627618 -2.8500149250
7.8713941500 -21.8815000952 -2.8500149250
8.2874290382 -22.2160667972 -2.8500149250
7.2728254063 -21.5291236256 -2.8500149250
11.0601716263 -25.1575928691 -2.8500149250
11.1882052074 -24.4574798845 -2.8500149250
11.1892681099 -24.4429536145 -2.8500149250
11.1992568986 -24.6050571082 -2.8500149250
11.2233319377 -24.2546781768 -2.8500149250
11.2259390862 -24.1229783040 -2.8500149250
11.2471826717 -23.9172567592 -2.8500149250
11.2682139274 -23.8425811865 -2.8500149250
11.2790562344 -23.6487854813 -2.8500149250
11.3137394797 -24.3920338675 -2.8500149250
11.3081912187 -23.4656158684 -2.8500149250
11.3604862095 -23.7625704625 -2.8500149250
11.3243917611 -23.4028768202 -2.8500149250
11.3223343611 -23.3879523001 -2.8500149250
11.4060453112 -24.8889511525 -2.8500149250
5.4288109389 -18.7998744454 -2.8500149250
5.2415632122 -18.8333534518 -2.8500149250
5.6932272619 -18.7398363322 -2.8500149250
5.9136481805 -18.6960869214 -2.8500149250
5.8338965672 -18.7020689763 -2.8500149250
4.7201395080 -18.9131260416 -2.8500149250
5.3539233462 -18.7388340014 -2.8500149250
5.9411109290 -18.6216427616 -2.8500149250
4.2224206306 -18.9593957477 -2.8500149250
8.2998276055 -22.3310979460 -2.8500149250
7.5946610865 -21.7799502108 -2.8500149250
11.0074315903 -24.7953473020 -2.8500149250
11.0118399113 -24.7559740887 -2.8500149250
11.0158986436 -24.7165633045 -2.8500149250
11.0229660907 -24.6376414416 -2.8500149250
11.0302084039 -24.5322408108 -2.8500149250
11.0424802897 -24.6924973873 -2.8500149250
11.0436841504 -24.6792741185 -2.8500149250
11.0527572513 -24.5601209428 -2.8500149250
11.0581568339 -24.4540370624 -2.8500149250
11.0832741296 -24.4282985777 -2.8500149250
11.0963092901 -24.6300892228 -2.8500149250
11.1040544137 -24.5095525690 -2.8500149250
11.1069698362 -24.4425116549 -2.8500149250
11.1061353513 -24.0936532402 -2.8500149250
11.1049598734 -24.0668370753 -2.8500149250
11.1242687099 -24.5781287580 -2.8500149250
11.1288621264 -24.4973053287 -2.8500149250
11.1227852264 -23.9579549303 -2.8500149250
11.1311108145 -23.7806409828 -2.8500149250
11.1455286573 -23.6967687361 -2.8500149250
11.1897961605 -23.8845246290 -2.8500149250
11.2198283602 -24.5982191554 -2.8500149250
11.2542669516 -24.1984812987 -2.8500149250
11.2784364111 -24.1980659549 -2.8500149250
11.2699106819 -24.8400025814 -2.8500149250
11.1988594788 -23.1805319863 -2.8500149250
11.3691601742 -24.0260267107 -2.8500149250
11.3237831402 -23.5738252625 -2.8500149250
11.4121424084 -23.9375416534 -2.8500149250
7.7475998633 -22.0555997476 -2.8500149250
7.9529632281 -22.0870448350 -2.8500149250
7.6783402426 -21.9555000928 -2.8500149250
8.3039546561 -22.1947412396 -2.8500149250
7.4376129193 -21.8420591018 -2.8500149250
7.7453876053 -21.8502012680 -2.8500149250
7.7048337969 -21.7359393261 -2.8500149250
10.9914497444 -24.1847408969 -2.8500149250
10.9884638855 -24.1362977986 -2.8500149250
11.0080171247 -24.0738128001 -2.8500149250
11.0001154109 -23.9887431589 -2.8500149250
11.0228803804 -23.9740484537 -2.8500149250
11.0202120256 -23.9496402215 -2.8500149250
11.0159388479 -23.9130585414 -2.8500149250
11.0129097778 -23.8886924451 -2.8500149250
11.0494565086 -23.9960584102 -2.8500149250
11.0320474233 -23.8489122214 -2.8500149250
11.0303610812 -23.8366795617 -2.8500149250
11.0268798750 -23.8122294753 -2.8500149250
11.0250850413 -23.8000122627 -2.8500149250
11.0232540748 -23.7878004129 -2.8500149250
11.0668515029 -23.9319039059 -2.8500149250
11.0489961356 -23.7964633401 -2.8500149250
11.0471545661 -23.7841807725 -2.8500149250
11.0729072300 -23.7929144176 -2.8500149250
11.0551596667 -23.5543661120 -2.8500149250
11.0710069511 -23.5123934094 -2.8500149250
11.0720324811 -23.4081974420 -2.8500149250
11.1883659165 -23.9307537760 -2.8500149250
11.0894479558 -23.1914620307 -2.8500149250
11.3339524426 -23.9276914882 -2.8500149250
11.3934775503 -24.0420308470 -2.8500149250
8.7568665769 -22.1411022963 -2.8500149250
10.9720668326 -23.6135372334 -2.8500149250
10.9765617521 -23.5303934220 -2.8500149250
10.9853041708 -23.4688470769 -2.8500149250
10.9993737827 -23.4290726927 -2.8500149250
11.0089194796 -23.0035473118 -2.8500149250
11.1379975105 -23.0714551774 -2.8500149250
7.4495976880 -21.9046306034 -2.8500149250
8.1738114914 -21.9432927172 -2.8500149250
8.1054341325 -21.9285703919 -2.8500149250
7.3088881129 -21.8915729173 -2.8500149250
7.1395745280 -21.9151692117 -2.8500149250
8.1485930951 -21.9129008111 -2.8500149250
8.4058678055 -21.9569926716 -2.8500149250
8.5114699474 -21.9676606929 -2.8500149250
8.3828005776 -21.9243798380 -2.8500149250
8.3138456845 -21.9041008168 -2.8500149250
7.8989611832 -21.8224487339 -2.8500149250
7.6281243686 -21.8046448239 -2.8500149250
8.0373656828 -21.8176969825 -2.8500149250
7.9337495857 -21.8023555601 -2.8500149250
7.2266608302 -21.8040497726 -2.8500149250
8.0973849945 -21.8038528664 -2.8500149250
7.8398721182 -21.7676695349 -2.8500149250
6.7096081320 -21.8996992580 -2.8500149250
8.3570421670 -21.8409935059 -2.8500149250
8.2858766148 -21.8214297382 -2.8500149250
7.8584267152 -21.7451588057 -2.8500149250
6.8667066254 -21.8269292302 -2.8500149250
8.3239430331 -21.8065730171 -2.8500149250
7.7800199161 -21.6900958197 -2.8500149250
7.1395858917 -21.7191207448 -2.8500149250
8.0490621076 -21.6971176073 -2.8500149250
7.8487808495 -21.6713887008 -2.8500149250
7.7984645911 -21.6671830073 -2.8500149250
7.6731453393 -21.6364188020 -2.8500149250
6.9486640020 -21.7069571182 -2.8500149250
6.4026575565 -21.8908344077 -2.8500149250
8.5937772159 -21.7918870525 -2.8500149250
7.6567634234 -21.6117914788 -2.8500149250
8.2921236524 -21.6235483509 -2.8500149250
7.9061463447 -21.5313673650 -2.8500149250
9.0517250582 -21.7874195341 -2.8500149250
8.4156660838 -21.5058810370 -2.8500149250
8.8751952690 -21.6462640831 -2.8500149250
8.8582649653 -21.6386907903 -2.8500149250
8.9191158483 -21.6397929368 -2.8500149250
10.9391465074 -23.0797458884 -2.8500149250
10.9349184241 -23.0698349081 -2.8500149250
10.9485379500 -23.0404012250 -2.8500149250
10.9354163058 -23.0106242287 -2.8500149250
10.9574933545 -23.0007784580 -2.8500149250
10.9530315910 -22.9908135499 -2.8500149250
10.9485403691 -22.9808618842 -2.8500149250
10.9440197279 -22.9709235478 -2.8500149250
10.9394697071 -22.9609986278 -2.8500149250
10.9428145117 -22.9110694176 -2.8500149250
10.9333310343 -22.8912412588 -2.8500149250
10.9285453457 -22.8813483066 -2.8500149250
10.9598945622 -22.8907183407 -2.8500149250
10.9502903821 -22.8707894868 -2.8500149250
10.9405684643 -22.8509178032 -2.8500149250
10.9423269923 -22.8004056359 -2.8500149250
10.9381520530 -22.7396999332 -2.8500149250
10.9647799399 -22.7384245588 -2.8500149250
10.9595420542 -22.7284392437 -2.8500149250
10.9329108199 -22.6787474851 -2.8500149250
10.9321611287 -22.6274549591 -2.8500149250
10.9532437841 -22.6156288472 -2.8500149250
10.9420121986 -22.5957441561 -2.8500149250
10.9400665236 -22.5439774331 -2.8500149250
10.9550868026 -22.5218059653 -2.8500149250
10.9433000971 -22.5019120123 -2.8500149250
10.9313958986 -22.4820881416 -2.8500149250
4.1142444441 -22.7102545756 -2.8500149250
4.1089532006 -22.7205345066 -2.8500149250
10.9399870139 -22.4497071155 -2.8500149250
10.9500820896 -22.3744722414 -2.8500149250
10.9437676315 -22.3645319975 -2.8500149250
4.1168879869 -22.5525959689 -2.8500149250
4.1111303491 -22.5628687697 -2.8500149250
4.1192940077 -22.4995781529 -2.8500149250
10.9455683679 -22.2785836952 -2.8500149250
4.1163998395 -22.4566024864 -2.8500149250
4.1184170280 -22.3597625751 -2.8500149250
4.1231965198 -22.1740317680 -2.8500149250
4.1240745147 -22.1297165465 -2.8500149250
4.1100876306 -22.1502440184 -2.8500149250
4.1056537606 -22.0713875609 -2.8500149250
4.1252320187 -21.9610725447 -2.8500149250
4.1019293869 -21.0257097492 -2.8500149250
7.4314918660 -22.3992642917 -2.8500149250
7.1768748792 -21.9173948509 -2.8500149250
7.2399505458 -21.8494073458 -2.8500149250
8.7965716816 -21.5708442065 -2.8500149250
10.8360547084 -22.4221401359 -2.8500149250
10.8239556217 -22.4050024919 -2.8500149250
4.0406586491 -23.2446140037 -2.8500149250
4.0398720234 -23.1681116218 -2.8500149250
4.0212113254 -23.2258390498 -2.8500149250
4.0428024416 -23.0139121422 -2.8500149250
4.0385458644 -23.0254274519 -2.8500149250
4.0288067194 -22.9823709226 -2.8500149250
4.0244568987 -22.9939277723 -2.8500149250
4.0294812764 -22.8491022252 -2.8500149250
4.0247372199 -22.8606576625 -2.8500149250
4.0200273672 -22.8722270830 -2.8500149250
4.0265610543 -22.7935448751 -2.8500149250
4.0119386121 -22.8282811385 -2.8500149250
4.0295199209 -22.7261385372 -2.8500149250
4.0178013270 -22.6931365269 -2.8500149250
3.8807770236 -22.8297205473 -2.8500149250
7.5315727821 -21.8565320083 -2.8500149250
7.3852114300 -21.9043793882 -2.8500149250
7.7305958837 -21.6336728925 -2.8500149250
4.0339995553 -23.7843097788 -2.8500149250
4.0307056977 -23.8093629125 -2.8500149250
4.0291143670 -23.8218966776 -2.8500149250
4.0208732397 -23.7056268334 -2.8500149250
4.0189750819 -23.7181901386 -2.8500149250
4.0171140970 -23.7307590038 -2.8500149250
4.0070811846 -23.6388979127 -2.8500149250
4.0049856910 -23.6515023092 -2.8500149250
4.0038908578 -23.5211201368 -2.8500149250
3.9943393486 -23.5716201382 -2.8500149250
3.9956978530 -23.4405376781 -2.8500149250
3.9861075301 -23.3720627675 -2.8500149250
3.9871047016 -23.2650820968 -2.8500149250
3.9547094163 -22.8674716364 -2.8500149250
3.7483294985 -23.7322774003 -2.8500149250
3.9363431062 -22.7746114646 -2.8500149250
3.7081831088 -23.6717034509 -2.8500149250
3.9319580211 -22.4604365783 -2.8500149250
3.7402362010 -22.7484757727 -2.8500149250
3.0501394252 -23.2384097208 -2.8500149250
7.3047058652 -22.4669208115 -2.8500149250
7.2823270938 -21.9619565128 -2.8500149250
7.5692850547 -21.7398523076 -2.8500149250
7.3628650448 -21.8352229414 -2.8500149250
6.7912966802 -22.2324435200 -2.8500149250
7.7306975519 -21.6540775657 -2.8500149250
8.1570719060 -21.5253727161 -2.8500149250
8.0079212313 -21.5531796286 -2.8500149250
7.7382177861 -21.6261379302 -2.8500149250
7.6626857217 -21.6520727787 -2.8500149250
6.5998684163 -22.3539914824 -2.8500149250
8.1772066084 -21.4978390870 -2.8500149250
7.6393512807 -21.6348318470 -2.8500149250
7.3258161016 -21.7455540975 -2.8500149250
8.2763263124 -21.3634049498 -2.8500149250
7.6952603615 -21.4114146026 -2.8500149250
6.3995054794 -22.1435597532 -2.8500149250
7.6093856506 -21.1089899101 -2.8500149250
4.0183650048 -24.3380471682 -2.8500149250
4.0204093599 -24.3919780629 -2.8500149250
4.0210201481 -24.4054567119 -2.8500149250
4.0216708059 -24.4189334951 -2.8500149250
3.9920653268 -24.1489496084 -2.8500149250
3.9919573169 -24.1625131675 -2.8500149250
3.9919265208 -24.2167688187 -2.8500149250
3.9923247265 -24.2574587190 -2.8500149250
3.9930840165 -24.2981434832 -2.8500149250
3.9934173446 -24.3117033760 -2.8500149250
3.9937907838 -24.3252622235 -2.8500149250
3.9942043310 -24.3388199070 -2.8500149250
3.9956855819 -24.3794847868 -2.8500149250
3.9729745205 -23.9715436019 -2.8500149250
3.9709960550 -24.3668469751 -2.8500149250
3.9740823400 -24.4349539735 -2.8500149250
3.9509803318 -23.9293215970 -2.8500149250
3.9460107563 -23.6945252101 -2.8500149250
3.9214586156 -24.0518358689 -2.8500149250
3.9298849826 -23.6231457360 -2.8500149250
3.9250175595 -23.6644095963 -2.8500149250
3.9052538703 -23.8851061825 -2.8500149250
3.9042194479 -23.6340282504 -2.8500149250
3.8743733385 -24.3705096464 -2.8500149250
3.9097288910 -23.4233677699 -2.8500149250
3.8507683935 -24.3854075110 -2.8500149250
3.8836117598 -23.4333194779 -2.8500149250
3.8791195424 -23.3180464437 -2.8500149250
3.8339098349 -23.6113926285 -2.8500149250
3.8107081459 -23.8505575569 -2.8500149250
3.8019063011 -24.3732566499 -2.8500149250
3.7744693874 -24.2321397071 -2.8500149250
3.8659188356 -23.1413364685 -2.8500149250
3.8597837698 -23.1692278068 -2.8500149250
3.8567781444 -23.1831869653 -2.8500149250
3.8551542207 -23.0801234804 -2.8500149250
3.8486571867 -23.1080795771 -2.8500149250
3.8214718842 -23.2343374769 -2.8500149250
3.7673510420 -23.5598690483 -2.8500149250
3.7433842755 -23.5567179557 -2.8500149250
3.6806003144 -24.3633509983 -2.8500149250
3.6577768938 -23.9855980275 -2.8500149250
3.6542644661 -24.1020632371 -2.8500149250
3.6595235036 -24.4369548694 -2.8500149250
3.6052640297 -24.2335453192 -2.8500149250
3.8300005768 -22.6344026246 -2.8500149250
3.5823863693 -24.0711824618 -2.8500149250
3.5629508897 -24.4417605692 -2.8500149250
3.9750434040 -22.0679099160 -2.8500149250
3.8740755717 -22.3019316701 -2.8500149250
8.0440894018 -22.2587899946 -2.8500149250
6.8783974761 -22.2483160225 -2.8500149250
6.9632605982 -21.9525953356 -2.8500149250
3.9314762991 -24.4735094093 -2.8500149250
3.9693006949 -24.7637447661 -2.8500149250
3.9839891708 -24.8503262182 -2.8500149250
3.8902729926 -24.2559868704 -2.8500149250
3.9708905356 -24.9124322300 -2.8500149250
3.8500116418 -24.3772114236 -2.8500149250
3.6683967665 -23.7923718896 -2.8500149250
3.7052604490 -23.1624891008 -2.8500149250
3.6787925392 -24.6073620507 -2.8500149250
9.7061183631 -18.7132909723 -2.8500149250
10.1196018810 -18.7472964562 -2.8500149250
9.9585329089 -18.6615731295 -2.8500149250
3.5286385764 -25.1611931432 -2.8500149250
10.0677266542 -18.9453361710 -2.8500149250
9.1522663374 -18.7743410360 -2.8500149250
8.9466740683 -18.7518807866 -2.8500149250
8.9319727857 -18.7523292559 -2.8500149250
8.8584898097 -18.7552238171 -2.8500149250
8.8377913559 -18.6352173853 -2.8500149250
8.5674312452 -18.6558990033 -2.8500149250
9.3522656515 -18.5872230929 -2.8500149250
3.7594981287 -24.4647942722 -2.8500149250
3.6821697900 -24.2161148780 -2.8500149250
7.8897578292 -22.2739322678 -2.8500149250
7.0936848917 -22.0125314150 -2.8500149250
6.9988543137 -22.1711083487 -2.8500149250
6.9319057371 -22.3011763683 -2.8500149250
6.8753151133 -22.4276852205 -2.8500149250
7.3389945339 -21.6552442507 -2.8500149250
7.2949138991 -21.6680945214 -2.8500149250
6.7597032701 -22.6002508317 -2.8500149250
7.6023864328 -21.2495290163 -2.8500149250
6.6781532276 -22.5392662124 -2.8500149250
6.5096879244 -23.0378518942 -2.8500149250
6.9502854148 -21.6298210606 -2.8500149250
9.8186256348 -19.0196865180 -2.8500149250
9.7664388548 -19.0136090199 -2.8500149250
9.7533812087 -19.0121861646 -2.8500149250
9.7272535752 -19.0094563655 -2.8500149250
9.7011102485 -19.0068811940 -2.8500149250
9.5439720128 -18.9946820137 -2.8500149250
9.7165534413 -18.9840928423 -2.8500149250
9.6376315718 -18.9770254687 -2.8500149250
9.5981267059 -18.9740173473 -2.8500149250
9.5454149833 -18.9705520921 -2.8500149250
9.4926659482 -18.9677107891 -2.8500149250
9.3738824574 -18.9636011015 -2.8500149250
9.8245020736 -18.9716989301 -2.8500149250
9.7057071501 -18.9587541784 -2.8500149250
9.7478551420 -18.9386754543 -2.8500149250
9.6947147558 -18.9334410168 -2.8500149250
9.6434584442 -18.9047408570 -2.8500149250
8.8392841459 -18.9114231704 -2.8500149250
9.7260319411 -18.8878664293 -2.8500149250
9.1600801814 -18.8674474118 -2.8500149250
8.8772455576 -18.8836203478 -2.8500149250
9.7714623522 -18.8439437768 -2.8500149250
9.6220961623 -18.8303454579 -2.8500149250
9.6084970211 -18.8293503962 -2.8500149250
8.6291933317 -18.8635743433 -2.8500149250
8.9801931832 -18.8030193741 -2.8500149250
8.4320228654 -18.8468476293 -2.8500149250
9.7929799345 -18.7733402136 -2.8500149250
9.7792114137 -18.7718398962 -2.8500149250
8.8367451354 -18.7416797678 -2.8500149250
9.7029807000 -18.6914638349 -2.8500149250
8.1395135225 -18.8110632742 -2.8500149250
8.7034437491 -18.6831198369 -2.8500149250
9.5955615586 -18.6103923205 -2.8500149250
7.9499199561 -18.7614168422 -2.8500149250
7.9361242281 -18.7653686818 -2.8500149250
7.8327192714 -18.7710867764 -2.8500149250
9.4700586928 -18.5312062487 -2.8500149250
7.6194286295 -18.8170763389 -2.8500149250
9.7470792646 -18.5256110386 -2.8500149250
3.6734849025 -25.3146779055 -2.8500149250
3.7633997485 -25.6936032597 -2.8500149250
3.7666231141 -25.8852842312 -2.8500149250
6.8426650895 -22.3604666086 -2.8500149250
6.9602102977 -21.8644024473 -2.8500149250
6.7201496204 -22.2642278398 -2.8500149250
6.5963302044 -22.9522600766 -2.8500149250
6.5324357017 -23.5663795118 -2.8500149250
9.1120986545 -19.0132297166 -2.8500149250
9.0999988221 -19.0141373159 -2.8500149250
9.0637161751 -19.0170748176 -2.8500149250
9.0153825797 -19.0214921333 -2.8500149250
9.1224999771 -18.9882448187 -2.8500149250
9.0616585774 -18.9929895197 -2.8500149250
9.0494990915 -18.9940464184 -2.8500149250
8.9766126723 -19.0011427370 -2.8500149250
8.9130668884 -18.9840466583 -2.8500149250
8.8400244813 -18.9935659752 -2.8500149250
8.8000206219 -18.9749003143 -2.8500149250
8.7146562571 -18.9884748373 -2.8500149250
8.7719120925 -18.9547086476 -2.8500149250
8.6616837471 -18.9732414141 -2.8500149250
8.9167362326 -18.9105693968 -2.8500149250
8.7769499441 -18.9050297762 -2.8500149250
8.4317328635 -18.9720368614 -2.8500149250
9.0744962729 -18.8464013562 -2.8500149250
9.0493129914 -18.8484777324 -2.8500149250
8.8734356329 -18.8671784187 -2.8500149250
8.1858993034 -18.9373565546 -2.8500149250
9.1183782719 -18.7462236673 -2.8500149250
8.3225463022 -18.8496032595 -2.8500149250
8.9459423248 -18.7126923766 -2.8500149250
8.0957251461 -18.8636195064 -2.8500149250
7.7843186188 -18.8953444854 -2.8500149250
8.7866396277 -18.6104995454 -2.8500149250
8.3516644219 -18.6929276869 -2.8500149250
8.9843070828 -18.5630784929 -2.8500149250
8.2625349394 -18.6154405713 -2.8500149250
6.8283585161 -22.1774730312 -2.8500149250
8.4751996118 -19.0380143264 -2.8500149250
8.4245767120 -19.0270188148 -2.8500149250
8.2037161015 -19.0203587452 -2.8500149250
8.1926513733 -19.0241762746 -2.8500149250
8.1625031911 -19.0091171877 -2.8500149250
8.1514053888 -19.0130566815 -2.8500149250
7.9479326219 -19.0134507812 -2.8500149250
6.7332771460 -22.5558172278 -2.8500149250
6.4250796805 -22.6856167039 -2.8500149250
6.4301608519 -21.8353969036 -2.8500149250
6.3687398047 -22.1508524984 -2.8500149250
6.3001280504 -22.1173824400 -2.8500149250
6.4383338719 -21.4322951902 -2.8500149250
6.4137746548 -23.5046038399 -2.8500149250
6.4623665271 -24.0383119366 -2.8500149250
7.3967072760 -19.0928503200 -2.8500149250
7.3965744781 -19.0662223100 -2.8500149250
7.3049407812 -25.9143816153 -2.8500149250
7.2638955254 -19.0769856554 -2.8500149250
7.2537804073 -19.0821280362 -2.8500149250
7.2536584756 -25.9156506269 -2.8500149250
7.2021107414 -25.9161812377 -2.8500149250
7.2122274711 -25.9214764647 -2.8500149250
7.1808275339 -19.0655531838 -2.8500149250
7.1287735121 -19.0660537011 -2.8500149250
7.1186266465 -19.0715958451 -2.8500149250
7.1185043390 -25.9261779948 -2.8500149250
7.0562096858 -19.0787319850 -2.8500149250
7.0560876329 -25.9190396275 -2.8500149250
6.9835110563 -19.0929112125 -2.8500149250
6.9934736995 -25.9108000992 -2.8500149250
7.0035754237 -25.9167125359 -2.8500149250
6.8116439799 -25.9126735421 -2.8500149250
6.8623737715 -25.9446252528 -2.8500149250
6.7784534671 -19.0777975906 -2.8500149250
7.6741104361 -22.5335223545 -2.8500149250
6.4134987074 -22.5093302489 -2.8500149250
6.3667863914 -22.1516162148 -2.8500149250
6.3504551557 -21.9651379540 -2.8500149250
6.2847918507 -21.7098392884 -2.8500149250
6.2556500303 -21.4952424191 -2.8500149250
6.1404246285 -21.8728576027 -2.8500149250
6.3997078454 -23.3883301135 -2.8500149250
6.2070710165 -23.2468862557 -2.8500149250
6.9937452928 -19.1665033708 -2.8500149250
6.9134801771 -19.1621419547 -2.8500149250
6.8552969276 -19.1731356765 -2.8500149250
6.7385845467 -19.1983321444 -2.8500149250
6.7329203478 -19.1723742688 -2.8500149250
6.7240664694 -19.1790044255 -2.8500149250
6.7441076525 -19.0742734191 -2.8500149250
6.4905005548 -19.2101254800 -2.8500149250
6.3645788277 -19.2228504932 -2.8500149250
7.7730557795 -25.9654768514 -2.8500149250
7.7955397468 -25.9724906462 -2.8500149250
7.8067971931 -25.9759476292 -2.8500149250
7.6869543074 -25.9627831368 -2.8500149250
7.7094238447 -25.9703063840 -2.8500149250
7.7206752064 -25.9740181230 -2.8500149250
7.7432106235 -25.9813416694 -2.8500149250
7.7770940037 -25.9920766814 -2.8500149250
7.6341376947 -25.9701447774 -2.8500149250
7.6453889077 -25.9740792271 -2.8500149250
7.5584627634 -25.9685011952 -2.8500149250
7.6035226087 -25.9849345918 -2.8500149250
7.5161799033 -25.9784117723 -2.8500149250
7.5387448936 -25.9869451046 -2.8500149250
7.5500462224 -25.9911616700 -2.8500149250
7.5726860528 -25.9994944147 -2.8500149250
7.4849150164 -25.9922785995 -2.8500149250
7.5075625948 -26.0009966627 -2.8500149250
7.4081379673 -25.9876972779 -2.8500149250
7.4307597848 -25.9968696601 -2.8500149250
7.4420909447 -26.0014056215 -2.8500149250
7.3536456760 -25.9912166331 -2.8500149250
7.3649604506 -25.9959807368 -2.8500149250
7.2324553610 -25.9908522282 -2.8500149250
7.2437695880 -25.9959748363 -2.8500149250
7.2110884822 -26.0076728328 -2.8500149250
6.7834998472 -25.9498123058 -2.8500149250
6.9076731308 -26.0189398639 -2.8500149250
6.4305884997 -26.0156691178 -2.8500149250
7.1999399373 -26.4247938288 -2.8500149250
6.5646795730 -22.7253111469 -2.8500149250
6.5370888693 -22.7192570002 -2.8500149250
6.3717632325 -22.7583751438 -2.8500149250
6.6972096063 -23.5842102247 -2.8500149250
6.1686837959 -22.5730970521 -2.8500149250
6.5801176665 -23.5883326690 -2.8500149250
6.8387421257 -23.9334570289 -2.8500149250
6.9297577167 -24.0224497511 -2.8500149250
5.9602149634 -22.1947535242 -2.8500149250
6.4375211882 -19.2992540891 -2.8500149250
6.3422141182 -19.3234534888 -2.8500149250
8.3339292074 -25.9667156869 -2.8500149250
8.3698001268 -25.9714869136 -2.8500149250
8.2466167768 -25.9782205681 -2.8500149250
8.3066042679 -25.9872858043 -2.8500149250
8.3306357048 -25.9906632989 -2.8500149250
8.1706068054 -25.9899759085 -2.8500149250
8.1826285790 -25.9920847215 -2.8500149250
8.1946565382 -25.9941579628 -2.8500149250
8.2066905777 -25.9961956140 -2.8500149250
8.3273422023 -26.0146109110 -2.8500149250
8.3878590906 -26.0224782064 -2.8500149250
8.0458384177 -25.9906038355 -2.8500149250
8.0819326757 -25.9979307657 -2.8500149250
8.0939783691 -26.0003018581 -2.8500149250
7.9685187959 -25.9985678446 -2.8500149250
7.9926228983 -26.0039453691 -2.8500149250
8.0046867748 -26.0065806295 -2.8500149250
8.0167583941 -26.0091801914 -2.8500149250
8.0288376505 -26.0117440318 -2.8500149250
7.8785935122 -26.0020873591 -2.8500149250
7.9510757838 -26.0193870985 -2.8500149250
7.9631855215 -26.0221451953 -2.8500149250
7.9874292087 -26.0275538606 -2.8500149250
7.8061005323 -26.0334364895 -2.8500149250
8.3731643514 -26.1424467302 -2.8500149250
7.5790531875 -26.0428863751 -2.8500149250
7.8494919155 -26.1193966901 -2.8500149250
7.9739438029 -26.1483231420 -2.8500149250
8.1755024265 -26.2605636134 -2.8500149250
7.9483246596 -26.2664419024 -2.8500149250
8.0383753960 -26.2849992237 -2.8500149250
7.2031111603 -26.0868432340 -2.8500149250
7.1200713344 -26.0784952170 -2.8500149250
7.0269282474 -26.0905686221 -2.8500149250
6.6416800104 -25.9513147754 -2.8500149250
7.3746213772 -26.2805066876 -2.8500149250
7.9124578590 -26.4318081669 -2.8500149250
7.2635480585 -26.2660768080 -2.8500149250
7.6809473170 -26.4003360683 -2.8500149250
6.6548405820 -26.0413559600 -2.8500149250
6.4366121106 -26.1124623371 -2.8500149250
6.9883321560 -23.9707022060 -2.8500149250
8.7286221221 -25.9860653340 -2.8500149250
8.8302666501 -25.9858369081 -2.8500149250
8.8429710021 -25.9856392235 -2.8500149250
8.9318773109 -25.9832033041 -2.8500149250
8.9445734276 -25.9827050483 -2.8500149250
8.7156138003 -26.0100958784 -2.8500149250
8.8306069960 -26.0100075400 -2.8500149250
8.8561580553 -26.0095721533 -2.8500149250
8.9072502103 -26.0082479171 -2.8500149250
8.5483693331 -26.0289611896 -2.8500149250
8.6125522375 -26.0317616328 -2.8500149250
8.6767695411 -26.0336124798 -2.8500149250
8.6896158935 -26.0338686583 -2.8500149250
8.7795537097 -26.0345977418 -2.8500149250
8.4439800636 -26.0466126047 -2.8500149250
8.4955393535 -26.0501628570 -2.8500149250
8.5848381628 -26.0790585433 -2.8500149250
8.6367715072 -26.0809398258 -2.8500149250
8.2713074232 -26.0789028901 -2.8500149250
8.1253084976 -26.0842792467 -2.8500149250
7.9654418446 -26.0824157713 -2.8500149250
7.8828540351 -26.0911447291 -2.8500149250
8.8867166533 -26.2023049069 -2.8500149250
8.9934338485 -26.1982748969 -2.8500149250
8.7263050656 -26.2277845088 -2.8500149250
8.8605081290 -26.2270859108 -2.8500149250
7.8685242460 -26.1622339315 -2.8500149250
8.4430107055 -26.2404446115 -2.8500149250
8.6990905506 -26.2516179462 -2.8500149250
9.0105740591 -26.2700126325 -2.8500149250
7.6065767484 -26.1513252130 -2.8500149250
7.6859208928 -26.1712676391 -2.8500149250
8.8892219342 -26.2989645577 -2.8500149250
7.4351595976 -26.1535506954 -2.8500149250
7.9671471700 -26.3037174353 -2.8500149250
8.9492092410 -26.4421636957 -2.8500149250
8.9783701103 -26.4651690451 -2.8500149250
8.3831926599 -26.4783113328 -2.8500149250
6.4610637439 -26.0945795724 -2.8500149250
3.6979474231 -19.6167581501 -2.8500149250
3.7041507585 -19.4779672041 -2.8500149250
3.4065459415 -19.6986849740 -2.8500149250
6.7212986672 -23.0206946375 -2.8500149250
6.2740650058 -22.6881562323 -2.8500149250
6.1881090898 -22.5648858365 -2.8500149250
6.1807650755 -22.7180725100 -2.8500149250
9.4293618944 -25.9968144290 -2.8500149250
9.4427038623 -25.9943703150 -2.8500149250
9.4826855685 -25.9868013169 -2.8500149250
9.5225985295 -25.9788778016 -2.8500149250
9.5889588294 -25.9648858343 -2.8500149250
8.8380779218 -26.0891680533 -2.8500149250
9.2722061059 -26.0469808188 -2.8500149250
9.5274106633 -26.0025670112 -2.8500149250
9.5674617748 -25.9942459649 -2.8500149250
8.3824763559 -26.2102226508 -2.8500149250
9.5788806432 -26.1153607598 -2.8500149250
8.3953638840 -26.2350229059 -2.8500149250
9.5241010108 -26.2003801524 -2.8500149250
8.7800399442 -26.3819418094 -2.8500149250
7.5369904020 -26.2907725180 -2.8500149250
3.7637589799 -20.3733619315 -2.8500149250
3.6428627786 -21.2611470447 -2.8500149250
3.6323242241 -21.0536047333 -2.8500149250
3.7752437545 -20.1322940519 -2.8500149250
3.7267951184 -20.3191688170 -2.8500149250
3.8915851908 -19.7005826563 -2.8500149250
3.6301097151 -20.6792864010 -2.8500149250
3.6086561240 -20.5232177716 -2.8500149250
3.6434932007 -20.2525851767 -2.8500149250
7.7922688309 -22.7137335144 -2.8500149250
7.0163331490 -23.5864312741 -2.8500149250
6.9399102582 -23.8784020870 -2.8500149250
4.0012255844 -20.0711716073 -2.8500149250
3.9633661648 -20.2154855510 -2.8500149250
3.8487572547 -20.9107349672 -2.8500149250
3.9497988949 -20.1700452560 -2.8500149250
3.9303289955 -20.2495066719 -2.8500149250
3.8486504062 -20.6918213652 -2.8500149250
3.9473589688 -20.0845661557 -2.8500149250
3.9366892387 -20.1242786858 -2.8500149250
3.8801080992 -20.3643995036 -2.8500149250
3.8363869045 -20.6071913684 -2.8500149250
3.9504423743 -19.9854261020 -2.8500149250
3.9098201688 -20.1314376336 -2.8500149250
3.8795192759 -20.1521625075 -2.8500149250
3.7110561212 -21.3592003144 -2.8500149250
3.6930109885 -20.5852957786 -2.8500149250
3.6383480090 -21.2751943263 -2.8500149250
3.6352678169 -21.7574278142 -2.8500149250
3.7451574081 -19.9995220558 -2.8500149250
3.6239235751 -20.4142911609 -2.8500149250
9.0121796747 -26.2185914716 -2.8500149250
9.6446731239 -26.0997753788 -2.8500149250
8.4134750168 -26.3270529316 -2.8500149250
8.8140404212 -26.3113189567 -2.8500149250
9.0945524900 -26.2811046763 -2.8500149250
8.3836136067 -26.3511174831 -2.8500149250
8.3985360578 -26.3511937904 -2.8500149250
9.4944442510 -26.2347917429 -2.8500149250
10.0827707656 -26.0682155138 -2.8500149250
8.9847380384 -26.3678148199 -2.8500149250
9.6221993898 -26.2548854278 -2.8500149250
8.6555178538 -26.4181781627 -2.8500149250
9.2871152827 -26.3492028904 -2.8500149250
9.1897534117 -26.4139427722 -2.8500149250
10.4216390462 -26.1457720573 -2.8500149250
7.8930532211 -22.8479169811 -2.8500149250
6.2557591971 -23.0089391129 -2.8500149250
7.4218228300 -23.7274961092 -2.8500149250
7.2934312834 -23.7107972371 -2.8500149250
6.4675737897 -23.3648496626 -2.8500149250
4.0043412723 -20.6530300263 -2.8500149250
3.9999515260 -20.6902460144 -2.8500149250
3.9958922237 -20.7274994934 -2.8500149250
3.9877073248 -20.8145535903 -2.8500149250
3.9829654562 -20.8768296008 -2.8500149250
3.9803474701 -20.6500918741 -2.8500149250
3.9745348049 -20.7000057791 -2.8500149250
3.9731739542 -20.7124947292 -2.8500149250
3.9550071525 -20.9378688165 -2.8500149250
3.9498209220 -21.0759570215 -2.8500149250
3.9493608574 -21.1010785285 -2.8500149250
3.9491393201 -20.7099117759 -2.8500149250
3.9315672970 -20.9239536237 -2.8500149250
3.9247137669 -21.1512424063 -2.8500149250
3.9246879737 -21.1638767616 -2.8500149250
3.9255538878 -21.2523116464 -2.8500149250
3.9154402494 -20.8085131145 -2.8500149250
3.9060664683 -20.9479570790 -2.8500149250
3.9038757989 -20.6793455942 -2.8500149250
3.8582470185 -21.6794510740 -2.8500149250
3.8613590300 -21.7051038008 -2.8500149250
3.8312648496 -21.6564784705 -2.8500149250
3.7816553509 -21.0331809884 -2.8500149250
3.8509064704 -21.9563874210 -2.8500149250
3.8057226200 -21.9780272528 -2.8500149250
3.8108417489 -22.1255880330 -2.8500149250
3.7102390363 -20.6708113305 -2.8500149250
3.7009416034 -20.7637922630 -2.8500149250
3.7900996410 -22.1437911602 -2.8500149250
3.6482928221 -20.8132623925 -2.8500149250
3.7643130872 -22.2462501183 -2.8500149250
3.7876248078 -22.3377736477 -2.8500149250
3.7946329128 -22.3638326775 -2.8500149250
3.6105341660 -21.1365722420 -2.8500149250
3.6066573851 -21.5993826741 -2.8500149250
3.5857711953 -20.6984330551 -2.8500149250
3.5667690959 -20.9581377334 -2.8500149250
3.6228639655 -21.9142710551 -2.8500149250
3.5154758850 -21.0390110739 -2.8500149250
3.9187737993 -23.2430308336 -2.8500149250
3.4414742251 -20.6837887884 -2.8500149250
3.3514403675 -20.6166681780 -2.8500149250
3.3482734686 -20.6453379436 -2.8500149250
9.0335952267 -26.3857076830 -2.8500149250
9.4741357011 -26.3454261675 -2.8500149250
7.9177345447 -22.7495526880 -2.8500149250
7.2883512460 -22.6655265529 -2.8500149250
8.0105103804 -22.8457130097 -2.8500149250
7.9205063309 -22.8704961092 -2.8500149250
6.6538376592 -23.3764595241 -2.8500149250
7.3534013636 -23.6480455320 -2.8500149250
4.0022723318 -21.2739123863 -2.8500149250
4.0029062763 -21.2855999803 -2.8500149250
4.0042778734 -21.3089692867 -2.8500149250
4.0074357245 -21.3556815102 -2.8500149250
3.9880808815 -21.4161433429 -2.8500149250
3.9949295719 -21.4864674345 -2.8500149250
3.9961923249 -21.4981758197 -2.8500149250
3.9672899974 -21.4536636504 -2.8500149250
3.9761827867 -21.5361185755 -2.8500149250
3.9835791467 -21.5948934518 -2.8500149250
3.9662002321 -21.6453093388 -2.8500149250
3.9752126576 -21.7042199172 -2.8500149250
3.9790614354 -21.7277457418 -2.8500149250
3.9576941424 -21.8780192486 -2.8500149250
3.8105227932 -21.3086163028 -2.8500149250
3.7724818211 -21.4476784463 -2.8500149250
3.9136269315 -22.2942764595 -2.8500149250
3.7869426412 -21.8871022924 -2.8500149250
3.9054077583 -22.3493000185 -2.8500149250
3.6824425443 -21.5197017583 -2.8500149250
3.6174707942 -21.3199469578 -2.8500149250
3.8454708478 -22.4761356781 -2.8500149250
3.8895978950 -22.6658301904 -2.8500149250
3.6257445567 -21.8129633388 -2.8500149250
3.5815969468 -21.6880393301 -2.8500149250
3.6259817918 -22.2568772263 -2.8500149250
3.8650923625 -22.9179756548 -2.8500149250
3.5280344849 -22.3545548405 -2.8500149250
3.3659036638 -22.3138920046 -2.8500149250
10.5056977607 -26.4012539159 -2.8500149250
7.3503621416 -22.7062890516 -2.8500149250
7.9091357618 -22.7528069676 -2.8500149250
8.0421085164 -22.7561208908 -2.8500149250
8.0291996323 -22.8323750122 -2.8500149250
8.0061618726 -22.8609253355 -2.8500149250
8.0880240096 -22.8454117867 -2.8500149250
7.9600793122 -22.8924264154 -2.8500149250
7.8578119508 -22.9523830216 -2.8500149250
7.4595167642 -23.1634319871 -2.8500149250
7.3826683398 -23.2024032891 -2.8500149250
7.3891593893 -23.2033251131 -2.8500149250
7.3956531373 -23.2042277313 -2.8500149250
7.4021495271 -23.2051111359 -2.8500149250
7.6727519482 -23.6357079280 -2.8500149250
6.6981338400 -23.5165516637 -2.8500149250
6.2719635176 -23.3296945687 -2.8500149250
6.2199381422 -23.3827888967 -2.8500149250
6.4110451537 -23.5729433042 -2.8500149250
6.9304368834 -23.8482894346 -2.8500149250
7.1941406442 -23.9557380150 -2.8500149250
8.3591166850 -23.9490864896 -2.8500149250
5.8626206603 -23.4603392751 -2.8500149250
4.0309071023 -21.8563797591 -2.8500149250
4.0098955688 -21.8727377544 -2.8500149250
4.0124679845 -21.8836426680 -2.8500149250
4.0177095354 -21.9054294278 -2.8500149250
4.0108259580 -21.9767380475 -2.8500149250
4.0137060213 -21.9876397539 -2.8500149250
3.9962379296 -22.0157643521 -2.8500149250
3.9979390083 -22.1099642035 -2.8500149250
4.0112298749 -22.1536624007 -2.8500149250
4.0146333107 -22.1645621380 -2.8500149250
10.7810717664 -23.3306176078 -2.8500149250
4.0055926720 -22.2155704326 -2.8500149250
3.9862252236 -22.2340659646 -2.8500149250
3.9935404557 -22.2560018523 -2.8500149250
4.0009853399 -22.2778940768 -2.8500149250
4.0047563203 -22.2888235758 -2.8500149250
4.0085596156 -22.2997418717 -2.8500149250
3.9524756290 -22.2084573313 -2.8500149250
3.9934947542 -22.3296649074 -2.8500149250
3.9974189148 -22.3406163384 -2.8500149250
4.0013754546 -22.3515561130 -2.8500149250
4.0053643389 -22.3624841357 -2.8500149250
3.9867149481 -22.3817895820 -2.8500149250
3.9907933326 -22.3927608408 -2.8500149250
3.9990473770 -22.4146669246 -2.8500149250
3.9848868563 -22.4452474518 -2.8500149250
3.9891529687 -22.4562238408 -2.8500149250
3.9934515325 -22.4671875618 -2.8500149250
3.8392528357 -22.0830389128 -2.8500149250
3.9841290232 -22.5090578991 -2.8500149250
3.9885839017 -22.5200362507 -2.8500149250
3.8159658921 -22.0895237829 -2.8500149250
10.7262810716 -23.7746941350 -2.8500149250
10.7507093523 -23.7477067583 -2.8500149250
10.9109903018 -23.5964897208 -2.8500149250
3.9810749263 -22.9093170503 -2.8500149250
3.9652248175 -22.9313732072 -2.8500149250
7.9834175099 -22.7424792354 -2.8500149250
8.0296910078 -22.7272761033 -2.8500149250
8.0115446640 -22.7588508385 -2.8500149250
8.1749542568 -22.7230874878 -2.8500149250
8.2105374123 -22.7074074436 -2.8500149250
7.9551178105 -22.9519602894 -2.8500149250
7.7370469517 -23.0705376478 -2.8500149250
7.4670751358 -23.2129822998 -2.8500149250
7.4912068662 -23.4059478968 -2.8500149250
7.1827461181 -23.5633810627 -2.8500149250
6.7062983391 -23.5460609355 -2.8500149250
7.7002804128 -23.6350718250 -2.8500149250
8.1212392605 -23.6081388598 -2.8500149250
7.0246320784 -23.6896671794 -2.8500149250
7.8631065860 -23.7115490642 -2.8500149250
8.1335183378 -23.6548995847 -2.8500149250
6.8833701128 -23.7383009812 -2.8500149250
8.2483086738 -23.6978968367 -2.8500149250
8.5634081277 -23.6085742408 -2.8500149250
5.9801638917 -23.4973318888 -2.8500149250
8.7203811678 -23.6429540849 -2.8500149250
4.0608259737 -22.4306872010 -2.8500149250
4.0650820777 -22.4406639709 -2.8500149250
4.0602949466 -22.4902241737 -2.8500149250
4.0647271740 -22.5002022540 -2.8500149250
4.0654009397 -22.5600647254 -2.8500149250
4.0719296445 -22.6301912530 -2.8500149250
4.0649059337 -22.6707284739 -2.8500149250
4.0634253724 -22.7215010424 -2.8500149250
4.0519185685 -22.8038523900 -2.8500149250
4.0626681974 -22.8238394640 -2.8500149250
4.0634036688 -22.8753846822 -2.8500149250
4.0591944005 -22.9171871715 -2.8500149250
10.9185270960 -22.7701771333 -2.8500149250
10.9132962629 -22.8327825633 -2.8500149250
10.9181433729 -22.8750474000 -2.8500149250
4.0658510334 -23.1165495953 -2.8500149250
10.9053308109 -22.9484111586 -2.8500149250
10.9110884884 -22.9381383801 -2.8500149250
10.9168157519 -22.9278486142 -2.8500149250
10.9058185876 -23.0444046429 -2.8500149250
10.9164268600 -23.1206876779 -2.8500149250
10.9115388374 -23.1745598330 -2.8500149250
4.1077175321 -23.4359850625 -2.8500149250
10.9061337031 -23.2725759338 -2.8500149250
10.9058983825 -23.3167195663 -2.8500149250
10.9011281606 -23.6551980272 -2.8500149250
8.1651708074 -22.7952352065 -2.8500149250
7.8341372539 -23.0456156289 -2.8500149250
7.5823081129 -23.1603774648 -2.8500149250
7.5591366825 -23.2137774046 -2.8500149250
7.3265477837 -23.6053991419 -2.8500149250
7.1432439887 -23.6337981407 -2.8500149250
6.9763168101 -23.6990913788 -2.8500149250
7.2610519385 -23.7051498922 -2.8500149250
7.8780066304 -23.6126500938 -2.8500149250
8.2217390375 -23.4934873938 -2.8500149250
7.8583007206 -24.0657735619 -2.8500149250
4.1532911959 -23.0205105246 -2.8500149250
4.1651150288 -23.0383562298 -2.8500149250
4.1540937077 -23.1506795699 -2.8500149250
4.1726518322 -23.2182026759 -2.8500149250
10.9759168830 -22.2161379693 -2.8500149250
10.9794062703 -22.2048905249 -2.8500149250
10.9809396187 -22.2797549453 -2.8500149250
10.9882613976 -22.2572189539 -2.8500149250
10.9810066276 -22.3550412390 -2.8500149250
10.9849068936 -22.3437781304 -2.8500149250
10.9878078154 -22.4081901467 -2.8500149250
10.9998799725 -22.3743040049 -2.8500149250
10.9766843873 -22.5067646923 -2.8500149250
10.9938808691 -22.4616842436 -2.8500149250
10.9858932980 -22.5493884141 -2.8500149250
4.2263438157 -23.9164001767 -2.8500149250
10.9853389959 -22.6148589950 -2.8500149250
10.9900078309 -22.6035819338 -2.8500149250
10.9836767260 -22.6806433352 -2.8500149250
10.9926568459 -22.7792728970 -2.8500149250
10.9978120150 -22.7679734688 -2.8500149250
11.0029337357 -22.7566588402 -2.8500149250
11.1389533654 -22.5562898872 -2.8500149250
11.0042858755 -22.9235447641 -2.8500149250
11.2157465124 -22.7528592624 -2.8500149250
11.2328445933 -22.7743467006 -2.8500149250
7.6544650469 -22.6815969580 -2.8500149250
7.9635165485 -23.0128328154 -2.8500149250
7.6089190670 -23.2432640056 -2.8500149250
8.6718422325 -23.2313723201 -2.8500149250
8.6360625212 -23.2911275902 -2.8500149250
10.9889028686 -21.6683642152 -2.8500149250
10.9921374056 -21.6443131195 -2.8500149250
10.9967222689 -21.6082016473 -2.8500149250
10.9964405800 -21.7802691018 -2.8500149250
10.9984066373 -21.7682231585 -2.8500149250
11.0003370519 -21.7561714520 -2.8500149250
11.0040908858 -21.7320511710 -2.8500149250
11.0077019503 -21.7079091033 -2.8500149250
11.0161041784 -21.6474641642 -2.8500149250
11.0192145875 -21.6232525022 -2.8500149250
11.0031830288 -21.8809089575 -2.8500149250
11.0141444859 -21.8205119316 -2.8500149250
11.0416532779 -21.6384407664 -2.8500149250
11.0150123463 -21.9459804859 -2.8500149250
11.0246221260 -21.8975312046 -2.8500149250
