7.4931693009 -8.2543196112 -3.4002599716
7.5383662509 -8.3659959711 -3.4002599716
7.6043023529 -8.5031362924 -3.4002599716
7.4638821307 -8.2446954054 -3.4002599716
7.5455609694 -8.4398418768 -3.4002599716
7.5127141760 -6.5856852811 -3.4002599716
7.5046231801 -6.6033768657 -3.4002599716
7.4367742380 -6.7717385276 -3.4002599716
7.3111187804 -7.5743086306 -3.4002599716
7.3406082114 -7.8709111268 -3.4002599716
7.5956940621 -8.5882171439 -3.4002599716
7.4392623971 -8.3163663499 -3.4002599716
7.3846439260 -6.7743026584 -3.4002599716
7.4983748131 -6.4001512500 -3.4002599716
7.2926774652 -6.8221338254 -3.4002599716
7.2202990216 -7.8842696598 -3.4002599716
7.4973672139 -8.6597551798 -3.4002599716
7.3502762122 -6.5943062186 -3.4002599716
7.1751625673 -7.7236976405 -3.4002599716
7.3925415762 -6.4454304370 -3.4002599716
7.1594877572 -7.2101395209 -3.4002599716
7.3253017531 -8.4211512596 -3.4002599716
7.2964410232 -8.5909366595 -3.4002599716
7.1183793057 -8.1981746982 -3.4002599716
7.1811862169 -8.3861624397 -3.4002599716
7.1900253423 -8.5927409098 -3.4002599716
6.9823755888 -8.0550883676 -3.4002599716
6.9762561260 -6.8772418079 -3.4002599716
7.0050932077 -8.8178858143 -3.4002599716
7.0154661373 -6.0754284090 -3.4002599716
7.0117619706 -6.0338020711 -3.4002599716
7.0030941655 -6.0485619516 -3.4002599716
7.9117120035 -4.0954696245 -3.4002599716
7.8915551871 -10.9075229273 -3.4002599716
7.8710960622 -4.0879017003 -3.4002599716
7.8609911588 -4.0927416788 -3.4002599716
7.8403617582 -4.0758568108 -3.4002599716
7.8200955894 -4.0857486839 -3.4002599716
7.8099845402 -4.0907395405 -3.4002599716
7.7696838818 -10.9014603443 -3.4002599716
7.7898015129 -10.9116509121 -3.4002599716
7.7998828495 -10.9167015178 -3.4002599716
7.7587022583 -4.0894695728 -3.4002599716
7.7385180564 -4.0998443328 -3.4002599716
7.7485970333 -10.9178196956 -3.4002599716
7.7172713624 -4.0836429627 -3.4002599716
7.6668397568 -10.9020448608 -3.4002599716
7.7572285536 -4.0360214828 -3.4002599716
7.6857491023 -4.0728959638 -3.4002599716
7.6756006202 -4.0782842978 -3.4002599716
7.6452514329 -4.0946290946 -3.4002599716
7.4370291308 -10.7959700170 -3.4002599716
7.5207930683 -10.9031777266 -3.4002599716
7.4783609794 -10.9062320232 -3.4002599716
7.5086137649 -10.9240583361 -3.4002599716
7.4412741294 -4.0439140989 -3.4002599716
7.6390217598 -11.0788529859 -3.4002599716
7.4289100352 -4.0231423764 -3.4002599716
7.2965233719 -10.9070327668 -3.4002599716
7.2702161836 -10.9475947314 -3.4002599716
7.3008442363 -10.9672665838 -3.4002599716
7.2061146009 -4.0781698454 -3.4002599716
7.1858732173 -4.0918140973 -3.4002599716
7.1858677614 -10.9206467248 -3.4002599716
7.1894802454 -4.0311447984 -3.4002599716
7.1078958915 -4.0868437618 -3.4002599716
6.9298057260 -10.9156750638 -3.4002599716
6.8351313014 -10.9344939257 -3.4002599716
6.7898007516 -10.9296373194 -3.4002599716
6.5963440107 -4.0535780501 -3.4002599716
7.6907358852 -7.2487601442 -3.4944903851
7.6913213799 -7.2539965432 -3.4944903851
7.7238181645 -7.4461245373 -3.4944903851
7.6569871709 -7.1182821017 -3.4944903851
7.6650225304 -7.2354781144 -3.4944903851
7.7038412258 -7.4670651879 -3.4944903851
7.7440858426 -7.6110386060 -3.4944903851
7.6614928310 -7.3825534608 -3.4944903851
7.6697843151 -7.4250474740 -3.4944903851
7.6867053137 -7.4988969997 -3.4944903851
7.7555845903 -7.7153623623 -3.4944903851
7.6300922742 -6.7647809687 -3.4944903851
7.6174837826 -7.2458073797 -3.4944903851
7.6580452682 -7.4834772729 -3.4944903851
7.6659613947 -7.5154116560 -3.4944903851
7.6981034180 -7.6259703760 -3.4944903851
7.5998135278 -6.8049926450 -3.4944903851
7.5704258254 -6.8464774352 -3.4944903851
7.5665455414 -6.8856711355 -3.4944903851
7.5725248144 -7.2787825092 -3.4944903851
7.5465722591 -7.2646635732 -3.4944903851
7.5952642624 -6.4856538758 -3.4944903851
7.5522834546 -6.6532615909 -3.4944903851
7.5199912924 -6.8641721047 -3.4944903851
7.5259201030 -7.2959637118 -3.4944903851
7.7362223976 -7.9637059108 -3.4944903851
7.5277693251 -7.4545061362 -3.4944903851
7.5404773164 -7.5115157957 -3.4944903851
7.7939362134 -8.1113820274 -3.4944903851
7.6132084776 -7.8150086457 -3.4944903851
7.4426031907 -7.1858563176 -3.4944903851
7.5626082002 -7.7517415860 -3.4944903851
7.4180945852 -7.1813952571 -3.4944903851
7.5136197064 -7.8899570602 -3.4944903851
7.8236081474 -8.4369776538 -3.4944903851
7.0515049447 -7.0473339392 -3.4944903851
7.0377792864 -6.2449223913 -3.4944903851
7.0911137046 -8.2420547112 -3.4944903851
7.0374568310 -5.5183507080 -3.4944903851
7.0355235465 -5.4766046272 -3.4944903851
7.5920640672 -4.1834991636 -3.4944903851
7.5228404006 -4.1713404928 -3.4944903851
7.3791923480 -4.1832471153 -3.4944903851
7.3394361802 -4.1823959645 -3.4944903851
7.1786864677 -4.1838329695 -3.4944903851
7.1296211803 -4.1923022018 -3.4944903851
7.0924505636 -4.1290652526 -3.4944903851
7.0772356885 -4.1102811408 -3.4944903851
6.9912268531 -4.1820796113 -3.4944903851
8.2091349081 -10.9594791922 -3.4944903851
8.2554404522 -10.9740203649 -3.4944903851
8.1553542067 -10.9673215844 -3.4944903851
8.1012136873 -10.9744349402 -3.4944903851
8.0583471315 -10.9849788508 -3.4944903851
7.8188781477 -10.9173993967 -3.4944903851
7.8902434306 -10.9730139002 -3.4944903851
7.9818856226 -11.0858455069 -3.4944903851
7.1039589680 -3.4340270738 -3.4944903851
8.0699334135 -11.1426057945 -3.4944903851
7.2576786821 -10.7965463358 -3.4944903851
7.4498303009 -10.9848481213 -3.4944903851
7.1075632791 -10.8185524988 -3.4944903851
7.2761730711 -11.0019317867 -3.4944903851
7.1939810418 -11.0111332789 -3.4944903851
7.1467467092 -11.0117251173 -3.4944903851
7.1702056714 -11.0253487250 -3.4944903851
7.0634380380 -11.0184308610 -3.4944903851
7.6476627379 -7.2548708220 -3.5008981228
7.7271320381 -7.4668818668 -3.5008981228
7.6477487718 -7.3329661323 -3.5008981228
7.5013446470 -6.8451098400 -3.5008981228
7.8304761517 -7.8377454650 -3.5008981228
7.0292925212 -4.3194708012 -3.5008981228
6.9981803049 -4.3159220076 -3.5008981228
8.7691323507 -10.9680199617 -3.5008981228
8.5733096617 -10.9855599464 -3.5008981228
8.5858811659 -10.9878445006 -3.5008981228
8.5984593732 -10.9900918561 -3.5008981228
8.7815488933 -11.0672578494 -3.5008981228
8.3314443718 -11.0086358025 -3.5008981228
8.3440851968 -11.0116357370 -3.5008981228
8.2497578902 -11.0132602420 -3.5008981228
6.2903833921 -3.4545419953 -3.5008981228
7.7140102615 -10.9160212189 -3.5008981228
7.4233533540 -10.8168549229 -3.5008981228
7.0676521687 -10.7405958498 -3.5008981228
7.7591280137 -11.0624588686 -3.5008981228
7.4749521314 -6.9760119090 -3.5014672279
7.6241303981 -7.3619626617 -3.5014672279
7.8735763914 -7.6879164924 -3.5014672279
9.2575231351 -10.9806968862 -3.5014672279
9.4058648575 -10.9761694401 -3.5014672279
9.2307411470 -11.0051735333 -3.5014672279
8.9297309737 -11.0462176253 -3.5014672279
8.9571052945 -11.0476917140 -3.5014672279
9.0803778938 -11.0523199806 -3.5014672279
8.7223425304 -11.0540544632 -3.5014672279
8.7497668462 -11.0567553945 -3.5014672279
8.8321289490 -11.0638840460 -3.5014672279
8.6785834751 -11.0737258855 -3.5014672279
8.7336834311 -11.0794818496 -3.5014672279
8.9961537014 -11.0979026101 -3.5014672279
8.4514051576 -11.0919447143 -3.5014672279
8.5205847563 -11.1023958281 -3.5014672279
9.0081070451 -11.1467724637 -3.5014672279
9.0360749104 -11.1477810934 -3.5014672279
8.1163942440 -11.0511450736 -3.5014672279
8.1300984492 -11.0543083382 -3.5014672279
7.9737242701 -11.0406617547 -3.5014672279
7.7695943968 -7.4869865449 -3.4986357689
7.4661406546 -7.1751710468 -3.4986357689
7.4815137791 -7.1974400943 -3.4986357689
7.0139280419 -6.6255999999 -3.4986357689
6.9518593188 -6.4291639771 -3.4986357689
7.0947261944 -7.2184140858 -3.4986357689
7.2007636942 -7.3865004379 -3.4986357689
9.5859428610 -11.0331226764 -3.4986357689
9.3121260725 -11.0835989466 -3.4986357689
9.6324715926 -11.0515089616 -3.4986357689
9.6614771056 -11.0475592634 -3.4986357689
9.8925765964 -11.0097992104 -3.4986357689
9.9787392534 -10.9928258279 -3.4986357689
10.0360077972 -10.9806618026 -3.4986357689
9.1815753189 -11.1148601452 -3.4986357689
9.4896020274 -11.0927251824 -3.4986357689
9.6210799910 -11.0773903020 -3.4986357689
9.2120894082 -11.1377237864 -3.4986357689
9.6827773863 -11.0933846155 -3.4986357689
9.7967403366 -11.1493299273 -3.4986357689
7.2363304008 -7.0171565067 -3.5008025169
7.5001545555 -7.3024988358 -3.5008025169
7.0548791321 -6.7730197181 -3.5008025169
7.5394390284 -7.3672168970 -3.5008025169
6.6580549559 -6.3916141339 -3.5008025169
3.9315581599 -5.0016015957 -3.5008025169
3.8960524262 -5.2149814005 -3.5008025169
3.8940224920 -5.2292599158 -3.5008025169
3.8863254001 -5.2864321511 -3.5008025169
3.8744851812 -5.3866882605 -3.5008025169
3.9845735868 -4.6579108752 -3.5008025169
3.9529656174 -4.7844618745 -3.5008025169
3.9496618795 -4.7985739140 -3.5008025169
3.8459905218 -5.4273531111 -3.5008025169
3.8840556024 -4.9926100352 -3.5008025169
3.8492914989 -4.6989986427 -3.5008025169
9.9956374377 -11.1383913998 -3.5008025169
10.2023945058 -11.1087991580 -3.5008025169
10.3628676365 -11.0857752419 -3.5008025169
10.4622110251 -11.0787440107 -3.5008025169
3.9957011633 -5.1787250154 -3.4996081506
3.9665296589 -5.5340088747 -3.4996081506
3.9435711290 -5.5064651242 -3.4996081563
3.9389516191 -5.6524431761 -3.4996081563
3.9403101766 -5.8515916169 -3.4996081563
3.9400902084 -5.2391581255 -3.4996081621
3.9236344063 -6.0123028827 -3.4996081621
3.9036890838 -5.3702088010 -3.4996081679
3.8902782645 -5.6785402347 -3.4996081679
3.8912853091 -5.8261610393 -3.4996081679
3.8058534212 -6.0611172519 -3.4996081909
7.1410483262 -7.1141107862 -3.5001811053
7.7162005495 -7.3502188838 -3.5001811053
7.0963209676 -7.1140210971 -3.5001811168
7.7004437574 -7.3714714485 -3.5001811168
7.8461005269 -7.4226781580 -3.5001811284
7.0191059822 -7.1493149376 -3.5001811514
8.0129722223 -7.4868712293 -3.5001811514
7.3962687766 -7.3785001185 -3.5001811629
8.0744604278 -7.5129966092 -3.5001811629
6.9257182110 -7.2313444597 -3.5001812090
4.0107417391 -5.8515764187 -3.5001822003
3.9844195036 -5.8165857975 -3.5001822119
3.9900561574 -5.9018354841 -3.5001822119
3.9951624825 -5.9626476009 -3.5001822119
3.9689267817 -5.9403901611 -3.5001822234
3.9699902243 -5.9526208560 -3.5001822234
3.9679666171 -6.1510705786 -3.5001822349
3.9566540238 -6.2403508613 -3.5001822464
3.9611228893 -6.4039967475 -3.5001822580
3.9635577982 -6.4162484993 -3.5001822580
3.8695433753 -5.9110578159 -3.5001822695
3.8880853737 -6.0985710059 -3.5001822695
3.8410866233 -5.8498811656 -3.5001822810
3.8850183592 -6.2516357673 -3.5001822810
3.9399646297 -6.5369275466 -3.5001822810
3.8329054883 -6.0412734169 -3.5001822925
3.8827652240 -6.3805978008 -3.5001822925
3.9496935615 -6.6780382906 -3.5001822925
3.9595393784 -6.7148623068 -3.5001822925
4.0105708658 -6.9656620594 -3.5001823041
4.0260267272 -7.0824648806 -3.5001823156
4.0175722173 -7.1962586406 -3.5001823386
4.2972601518 -7.9192936254 -3.5001823732
3.2020389834 -6.4187834876 -3.5001826153
3.2070458020 -6.4477704712 -3.5001826153
3.2468824178 -6.6497790522 -3.5001826153
3.1884411739 -6.4810529522 -3.5001826268
3.1993639734 -6.5391533264 -3.5001826268
3.2464268336 -6.7557762394 -3.5001826268
7.3287401974 -7.2388810716 -3.4999264106
7.2712549309 -7.2485517548 -3.4999264278
7.5963254095 -7.3090360546 -3.4999264278
7.0653351118 -7.2027861618 -3.4999264451
7.1308804236 -7.2283450724 -3.4999264451
7.1359623101 -7.2302064373 -3.4999264451
7.3274684980 -7.2883764109 -3.4999264451
7.7886919589 -7.3407013129 -3.4999264451
6.8731474259 -7.1377025424 -3.4999264624
7.2580957567 -7.2950724734 -3.4999264624
7.6410682824 -7.3610684879 -3.4999264624
6.9605422832 -7.2093092966 -3.4999264797
7.7116165052 -7.3885393001 -3.4999264797
7.9998383472 -7.3741927210 -3.4999264797
7.2110006086 -7.3568963705 -3.4999265143
6.8726331895 -7.2468428956 -3.4999265316
8.1675366455 -7.4439668855 -3.4999265489
8.3260409636 -7.4038428056 -3.4999265489
7.1563341796 -7.4159169250 -3.4999265662
7.6020717003 -7.5036373305 -3.4999265662
6.6584510794 -7.2063275968 -3.4999265835
7.1474414410 -7.4638133217 -3.4999266007
7.3596940979 -7.5430426437 -3.4999266180
8.3536298825 -7.4965154340 -3.4999266180
7.2286318843 -7.6374425125 -3.4999267045
8.8705821982 -7.4864731116 -3.4999267564
10.7679249074 -7.8165159619 -3.4999278456
4.0029009210 -6.4868243837 -3.4999279148
4.0147061532 -6.5312431488 -3.4999279148
10.7733773064 -7.9654878736 -3.4999279148
4.0037879960 -6.5821417297 -3.4999279321
4.0134385115 -6.6154573222 -3.4999279321
4.0105609803 -6.6890641669 -3.4999279494
3.9945739038 -6.7186176181 -3.4999279666
3.9981616470 -6.7297589752 -3.4999279666
4.0091377259 -6.8375928594 -3.4999279839
3.8479713705 -6.4654529639 -3.4999280185
3.8685656943 -6.5463049578 -3.4999280185
4.0827640895 -7.1525345941 -3.4999280185
4.0461811079 -7.1294627195 -3.4999280358
3.9863244588 -7.2901834759 -3.4999281223
3.9968078698 -7.3676135894 -3.4999281395
3.0939716760 -6.7373950562 -3.4999285891
3.1529513782 -6.9432823487 -3.4999285891
7.2964800145 -7.2732422573 -3.5000156835
7.5723110678 -7.2942374330 -3.5000156892
7.0202954495 -7.2827100249 -3.5000156950
7.1282643992 -7.3275487602 -3.5000157007
6.8701815679 -7.2935083023 -3.5000157065
7.1653847319 -7.3817148255 -3.5000157123
6.5802580064 -7.2326533204 -3.5000157180
7.8194243023 -7.3788211774 -3.5000157180
6.7560685362 -7.3322105202 -3.5000157238
7.1877112095 -7.4331971557 -3.5000157238
7.2106499059 -7.4357310707 -3.5000157238
7.3487653307 -7.4452212352 -3.5000157238
8.2098359440 -7.3553957570 -3.5000157411
7.4121643256 -7.5429817241 -3.5000157468
7.4484963346 -7.5426798414 -3.5000157468
7.7987167235 -7.5801695707 -3.5000157641
7.9698781228 -7.6411739610 -3.5000157872
7.1447072085 -7.7445522106 -3.5000157987
4.0790167283 -7.0785336154 -3.5000161388
4.0714478665 -7.1186201282 -3.5000161445
4.0842421145 -7.1984752065 -3.5000161503
4.0884312479 -7.2588511974 -3.5000161560
10.9225530620 -7.5246114743 -3.5000162252
10.8902202946 -7.7173220933 -3.5000162425
10.9041219535 -7.7848166098 -3.5000162540
10.9507672826 -7.7120460408 -3.5000162540
10.9086682693 -7.9079679794 -3.5000162713
10.9172622008 -8.1836083727 -3.5000163117
7.3333382035 -7.3025161178 -3.5000133478
7.1083312568 -7.3462881232 -3.5000133219
7.3158179848 -7.3294902467 -3.5000133219
7.3685954964 -7.3213377337 -3.5000133219
7.6453945389 -7.2769861251 -3.5000132959
6.7383111364 -7.3658078213 -3.5000132700
7.2762243728 -7.4075559408 -3.5000132441
8.0825730353 -7.1779315882 -3.5000131922
8.0522269483 -7.3356167733 -3.5000130625
7.4552787143 -7.5758842306 -3.5000130366
7.5033118236 -7.5661179740 -3.5000130366
7.3681293102 -7.6150427319 -3.5000130106
7.3343318674 -7.6440465505 -3.5000129847
7.3902098493 -7.6361751785 -3.5000129847
7.4705072784 -7.6221859580 -3.5000129847
7.2255912263 -7.7035298264 -3.5000129328
7.3149719742 -7.6950946852 -3.5000129328
7.3277094540 -7.6935877483 -3.5000129328
7.2532206435 -7.7255829273 -3.5000129069
4.1745698146 -7.4208713009 -3.5000115583
4.1801422072 -7.4294183298 -3.5000115583
4.0992224498 -7.4823461805 -3.5000114546
4.0923307853 -7.6019498278 -3.5000113768
4.1709778223 -8.0572019514 -3.5000111433
10.9751217069 -6.7857498790 -3.5000108581
10.9824151387 -6.7626041821 -3.5000108581
10.9944357623 -6.8047077242 -3.5000108321
10.9822214902 -6.9168313825 -3.5000108062
10.9862730551 -6.9052423519 -3.5000108062
10.9982218087 -6.8704040590 -3.5000108062
11.0060156788 -6.8471202125 -3.5000108062
10.9981754285 -7.0145754610 -3.5000107543
3.5056930334 -7.8555493126 -3.5000107024
10.9928626951 -7.1601329541 -3.5000107024
11.0006085341 -7.2043239732 -3.5000106765
11.0962560408 -6.9568876345 -3.5000106765
11.0047070212 -7.4304093730 -3.5000105728
10.9960442912 -7.5566356842 -3.5000105209
10.9918177863 -7.7185846062 -3.5000104431
11.0085715702 -7.8358726996 -3.5000103653
7.3496203292 -7.3432510925 -3.5000105473
7.5419692267 -7.2874360429 -3.5000104810
7.5056241654 -7.5421509886 -3.5000098845
7.4346614500 -7.5952536701 -3.5000098182
7.4404233406 -7.5931698438 -3.5000098182
7.4976935289 -7.5713977065 -3.5000098182
7.5655302760 -7.5430495331 -3.5000098182
7.5879136344 -7.5330672422 -3.5000098182
7.3137909724 -7.6849362457 -3.5000096857
7.6249650862 -7.5692651841 -3.5000096857
7.3020933167 -7.7133152154 -3.5000096194
7.4112907993 -7.6801035886 -3.5000096194
11.0146141371 -6.3777773333 -3.5000035881
11.0532169715 -6.4370904444 -3.5000034556
11.0427223548 -6.7154048041 -3.5000033230
11.0253094567 -6.8743312343 -3.5000032567
11.0360373325 -6.8361920694 -3.5000032567
7.2449243185 -7.4150974853 -3.5000133219
7.4039789502 -7.6319142824 -3.5000130366
7.4628071969 -7.5990298277 -3.5000130366
7.5872545318 -7.5207494165 -3.5000130366
7.6247827228 -7.5536530281 -3.5000129847
7.5697011436 -7.6189944017 -3.5000129588
7.7447745583 -7.5564716832 -3.5000129069
11.0315394004 -5.8921813031 -3.5000103134
11.0561293829 -5.8652132893 -3.5000102875
11.0803005526 -5.8655130244 -3.5000102616
11.0987783739 -6.0457619771 -3.5000102356
11.1011333475 -6.5075160692 -3.5000101838
11.0806589224 -6.8757136214 -3.5000101319
11.1625714027 -6.4166597026 -3.5000101319
7.4818858850 -7.6343868058 -3.5000195053
7.6544872237 -7.4742825040 -3.5000195053
7.5590687570 -7.5998216473 -3.5000195543
7.6142293706 -7.5486548859 -3.5000195543
7.7147235099 -7.4452604298 -3.5000195543
7.6384582617 -7.5923715585 -3.5000196522
7.7771048078 -7.4843785863 -3.5000197012
11.0396370393 -5.2941123845 -3.5000252859
11.1138526698 -5.8321614656 -3.5000253349
11.2210640822 -5.6020242004 -3.5000255798
7.1067903715 -7.7245265438 -3.5000201837
7.6344012379 -7.0195636696 -3.5000201837
7.1437424411 -7.7250415006 -3.5000202471
7.5333428490 -7.5241033546 -3.5000206275
7.5940762258 -7.5238183408 -3.5000207542
7.6626256423 -7.5114079216 -3.5000208810
5.5298493137 -11.1629998067 -3.5000281082
11.1174652403 -4.5755193082 -3.5000296297
11.1339321872 -4.1310208628 -3.5000300735
7.2470496882 -7.4917101239 -3.5000156835
7.3270524783 -7.3433614298 -3.5000156835
7.5194637067 -7.6484772315 -3.5000157584
7.6157206132 -7.4680771607 -3.5000157584
5.1784351475 -11.0042994659 -3.5000163232
5.4545840100 -11.0294401898 -3.5000163232
5.2810759236 -11.0399559851 -3.5000163289
5.5327047566 -11.0576197915 -3.5000163289
5.6123278238 -11.0602567230 -3.5000163289
5.2919933805 -11.0653015571 -3.5000163347
5.7452260207 -11.0856827936 -3.5000163347
5.9599805794 -11.1036260964 -3.5000163405
6.2033262822 -11.1085275447 -3.5000163462
6.0708100422 -11.1449094998 -3.5000163520
6.3302824833 -11.1420044997 -3.5000163578
6.2382454323 -11.1776610020 -3.5000163635
7.3090230909 -7.4385928864 -3.5000133219
7.2945774914 -7.5531262923 -3.5000132959
7.3003417348 -7.5379478798 -3.5000132959
7.3708383967 -7.4005861592 -3.5000132700
7.3368934364 -7.6417429030 -3.5000132181
7.4560423959 -7.2494978641 -3.5000132181
7.5321617404 -7.5343013504 -3.5000130625
7.5359040062 -7.5227827865 -3.5000130625
7.5473502241 -7.5650795235 -3.5000130366
7.5800216251 -7.5434833526 -3.5000130106
7.6030117418 -7.5509526108 -3.5000129847
5.8056798255 -11.0403859107 -3.5000108062
6.1912395514 -11.0508022077 -3.5000107543
6.2934294462 -11.0591763616 -3.5000107284
6.5492486601 -11.0572334430 -3.5000106765
6.8264201690 -11.0589819032 -3.5000105987
7.5624170495 -7.5255633582 -3.5000140242
7.5679449322 -7.4830319329 -3.5000140242
7.5670518158 -7.7537268529 -3.5000139954
6.6778640918 -10.9929205703 -3.5000129148
7.2865549328 -7.8167124817 -3.5000154740
7.2930910493 -7.7583338840 -3.5000154740
7.2548826990 -8.0898719810 -3.5000154769
7.2622637764 -8.1490105160 -3.5000154798
7.3330773270 -7.8337462202 -3.5000154798
7.3377992317 -7.7956535512 -3.5000154798
7.3079502510 -7.1958622434 -3.5000154798
7.3969203415 -7.6496316963 -3.5000154855
7.4044765991 -7.3264509212 -3.5000154884
7.2876550954 -8.5257390628 -3.5000154999
7.5664081910 -7.6429836641 -3.5000155057
7.5670814062 -7.6062275216 -3.5000155057
7.5671733463 -7.5878464170 -3.5000155057
7.5664704480 -7.5327083410 -3.5000155057
7.5628646461 -7.4531422005 -3.5000155057
7.5601690791 -7.4164788516 -3.5000155057
7.5899842798 -7.6622273649 -3.5000155086
7.5902755843 -7.5196864419 -3.5000155086
7.5895986075 -7.5011029098 -3.5000155086
7.5884394845 -7.4763356037 -3.5000155086
7.5802474216 -7.3712887730 -3.5000155086
7.5782538936 -7.3528000789 -3.5000155086
7.6153052443 -7.5565239873 -3.5000155115
7.6055445171 -7.3812816382 -3.5000155115
7.6363751565 -7.4674574226 -3.5000155143
7.6360131178 -7.4611261111 -3.5000155143
7.6302089726 -7.3852519044 -3.5000155143
7.5905576847 -8.2331107815 -3.5000155201
7.3607099657 -10.9110834430 -3.5000157132
7.2897528370 -4.1142492429 -3.5000157247
7.3637372926 -4.0985401269 -3.5000157305
7.6651670541 -10.9246539182 -3.5000157334
7.5228377931 -4.1043524171 -3.5000157391
7.7844912755 -10.9322426663 -3.5000157420
7.6299757213 -4.1120945659 -3.5000157449
7.7173365665 -4.1097765941 -3.5000157506
7.7951474759 -4.1026611216 -3.5000157564
7.7772732735 -4.0621010104 -3.5000157593
8.0867960972 -10.9516244846 -3.5000157650
8.1026502386 -4.0821570054 -3.5000157795
8.2191317487 -4.0796038227 -3.5000157881
7.3089848992 -7.7136324207 -3.5000156835
7.2628369964 -7.4758811849 -3.5000156835
7.3441502596 -8.0304670648 -3.5000156892
7.2991506176 -7.5214816114 -3.5000156892
7.3239130701 -7.5212377409 -3.5000156950
7.3802655190 -7.6992454896 -3.5000157007
7.2721666131 -7.2695271762 -3.5000157007
7.2298861766 -7.1683510151 -3.5000157007
7.3853004704 -8.4904869803 -3.5000157180
7.4666439983 -7.8717840227 -3.5000157180
7.5634691501 -7.8746740846 -3.5000157411
7.5663124324 -7.6328296981 -3.5000157468
7.5635656097 -7.6148717482 -3.5000157468
7.5874442716 -7.6111107921 -3.5000157526
7.5855018966 -7.5990114653 -3.5000157526
7.5824542003 -7.5808845514 -3.5000157526
7.5792457579 -7.5627853978 -3.5000157526
7.5781405991 -7.5567587621 -3.5000157526
7.5634914172 -7.4847112454 -3.5000157526
7.5594302374 -7.4667841631 -3.5000157526
7.6103494639 -7.6012281152 -3.5000157584
7.5923179618 -7.5037122097 -3.5000157584
7.5884242698 -7.4855285598 -3.5000157584
7.5829819542 -7.4613388054 -3.5000157584
7.5712405947 -7.4131609425 -3.5000157584
7.5696928547 -7.4071586421 -3.5000157584
7.5649431948 -7.3891795794 -3.5000157584
7.5656098163 -7.3046130286 -3.5000157641
7.5960760287 -7.3217112093 -3.5000157699
7.4208741038 -10.8254248123 -3.5000160811
7.4683737554 -10.8230954511 -3.5000160869
7.5160795514 -10.8200441214 -3.5000160926
7.5246102293 -10.8141900908 -3.5000160926
7.7806433945 -10.8062799662 -3.5000161272
7.7524836980 -10.8583681984 -3.5000161330
7.8935491468 -10.9327956480 -3.5000161676
8.0486279029 -10.8364443006 -3.5000161733
6.8434034918 -4.0437062709 -3.5000162367
6.8318914801 -4.0398717871 -3.5000162367
7.1324735551 -4.0741774583 -3.5000162540
7.0291761095 -4.0331904358 -3.5000162540
7.0176321772 -4.0288064491 -3.5000162540
7.0841027519 -4.0285852260 -3.5000162598
7.4768558429 -4.0179144470 -3.5000163001
7.5224306513 -4.0136703201 -3.5000163059
7.4134218441 -7.8967109742 -3.5000152588
7.4053782716 -7.8602034650 -3.5000152588
7.3142359128 -7.5757184336 -3.5000152588
7.4645219290 -8.0626867709 -3.5000152588
7.2850381326 -7.4531796456 -3.5000152588
7.2420632658 -7.3718392168 -3.5000152588
7.1745518963 -7.2609053367 -3.5000152588
7.3905579047 -7.6390263760 -3.5000152588
7.5219782547 -8.1735479349 -3.5000152588
7.5470244208 -8.3410858487 -3.5000152588
7.5261776841 -7.9765172563 -3.5000152588
7.4628618329 -7.7026692266 -3.5000152588
7.4543181790 -7.6758653126 -3.5000152588
7.3424151540 -7.4058409217 -3.5000152588
7.3188926809 -7.3609982351 -3.5000152588
7.3080567282 -7.3412723764 -3.5000152588
7.5612374875 -8.0575580747 -3.5000152588
7.3482226845 -7.3645521588 -3.5000152588
7.5843846993 -8.4867625275 -3.5000152588
7.5537877156 -7.5929860217 -3.5000152588
7.0325634261 -6.7935280332 -3.5000152588
7.5758895489 -7.5137081600 -3.5000152588
7.5575266501 -7.4682618917 -3.5000152588
7.5503640637 -7.4513334890 -3.5000152588
7.6221644504 -7.5688273862 -3.5000152588
7.5938655192 -7.4933828343 -3.5000152588
7.5576374764 -7.4077597281 -3.5000152588
7.6321097338 -7.5254156370 -3.5000152588
7.6116677375 -7.4728187536 -3.5000152588
7.6069353813 -7.4612056842 -3.5000152588
7.5898328292 -7.4207846866 -3.5000152588
7.5666204849 -7.3693503165 -3.5000152588
7.5639570139 -7.3636739927 -3.5000152588
7.5531355660 -7.3410482316 -3.5000152588
7.7230901116 -7.7346791854 -3.5000152588
7.5885193397 -7.3591143290 -3.5000152588
7.5693068509 -7.3190965377 -3.5000152588
7.8132674551 -8.1975764283 -3.5000152588
7.8303807551 -8.4559434403 -3.5000152588
7.5646150144 -7.2057784176 -3.5000152588
7.3430314004 -6.8787489189 -3.5000152588
7.5664214537 -7.1598266948 -3.5000152588
8.1483286167 -8.4164972215 -3.5000152588
7.9624125947 -10.6907159420 -3.5000152588
8.0247408933 -10.6976995941 -3.5000152588
6.1906444349 -4.0307056615 -3.5000152588
6.1937245502 -4.0067296699 -3.5000152588
6.4114633776 -4.0158356890 -3.5000152588
6.3988846582 -4.0135912018 -3.5000152588
6.3611094331 -4.0070811370 -3.5000152588
6.3232779223 -4.0009065625 -3.5000152588
6.3106554257 -3.9989230092 -3.5000152588
6.4788872087 -4.0038908024 -3.5000152588
6.5721006156 -3.9984173971 -3.5000152588
6.4961972889 -3.9826608800 -3.5000152588
6.7349252477 -3.9871046292 -3.5000152588
6.5360589718 -3.9167147067 -3.5000152588
6.9250328957 -3.9895199507 -3.5000152588
6.8107140927 -3.9569989035 -3.5000152588
7.2461961288 -4.0730980402 -3.5000152588
6.6366071719 -3.8889126596 -3.5000152588
7.0610571708 -3.9561689400 -3.5000152588
7.4718497212 -4.0870265553 -3.5000152588
7.7025634378 -4.1684967637 -3.5000152588
7.2850749568 -3.9327181702 -3.5000152588
7.8694239662 -4.1738341837 -3.5000152588
7.5159916775 -7.8573094836 -3.5000152588
7.5242195139 -7.4616339350 -3.5000152588
7.5255155482 -7.2545038121 -3.5000152588
5.6484603769 -4.0188165775 -3.5000152588
5.7560965940 -3.9921519701 -3.5000152588
5.5798575158 -3.9975281000 -3.5000152588
5.9330692313 -3.9693915729 -3.5000152588
6.2805001018 -3.9190967283 -3.5000152588
6.3659640022 -3.9042183516 -3.5000152588
6.3521383229 -3.9025875227 -3.5000152588
6.7005999794 -3.9318490776 -3.5000152588
6.6593408009 -3.9241085282 -3.5000152588
6.6180145540 -3.9167344357 -3.5000152588
5.9922962460 -3.8504237533 -3.5000152588
6.8428673120 -3.9366963170 -3.5000152588
7.4350154961 -7.7721273783 -3.5000152588
7.3889856943 -7.7144908558 -3.5000152588
7.4278487633 -7.7238177951 -3.5000152588
7.3220911457 -7.6035359664 -3.5000152588
7.5945046449 -7.9220385361 -3.5000152588
7.2701742560 -7.5183807128 -3.5000152588
7.5442577529 -7.7989673456 -3.5000152588
7.6275403741 -7.8830955200 -3.5000152588
7.8418648514 -8.3065179188 -3.5000152588
7.6929605359 -7.9487047865 -3.5000152588
7.5300114128 -7.6195288890 -3.5000152588
7.9676438089 -8.3061624412 -3.5000152588
7.4876161661 -7.3584728816 -3.5000152588
7.3055573339 -7.1689706872 -3.5000152588
5.3810861529 -3.9482427671 -3.5000152588
5.3085893306 -3.9582366717 -3.5000152588
5.2651649804 -3.9647473224 -3.5000152588
5.2507032480 -3.9670031455 -3.5000152588
5.1208659603 -3.9892277364 -3.5000152588
5.7293219073 -3.8911130113 -3.5000152588
5.6119513468 -3.8993931662 -3.5000152588
5.2324167142 -3.9454343011 -3.5000152588
5.1164707138 -3.9654576483 -3.5000152588
5.9494356420 -3.8589117319 -3.5000152588
5.8607826528 -3.8609599332 -3.5000152588
5.5069528393 -3.8848699203 -3.5000152588
5.0540073251 -3.9527804358 -3.5000152588
5.1954409396 -3.9024941023 -3.5000152588
4.9330490193 -3.9534243535 -3.5000152588
5.2799127130 -3.8647196512 -3.5000152588
5.4249847164 -3.8209923132 -3.5000152588
10.6236571934 -11.1981499153 -3.5000152588
11.1850778701 -10.6858916202 -3.5000152588
7.7021209844 -7.9810924234 -3.5000152588
7.6922157606 -7.9684996792 -3.5000152588
7.5345717901 -7.7944656530 -3.5000152588
7.3727375450 -7.6552153324 -3.5000152588
7.8234902643 -8.0670799133 -3.5000152588
7.7368752030 -7.9470517043 -3.5000152588
7.5078980457 -7.7038349082 -3.5000152588
7.9294069846 -8.1965533109 -3.5000152588
7.7895246545 -7.9763484639 -3.5000152588
7.9145972152 -8.1214093405 -3.5000152588
7.8852053555 -8.0734330886 -3.5000152588
7.7140266559 -7.8434654743 -3.5000152588
7.5016343423 -7.6345737783 -3.5000152588
8.0618198213 -8.3018064242 -3.5000152588
6.7924200031 -7.2095510025 -3.5000152588
8.0595064102 -8.2389668501 -3.5000152588
7.2646331958 -7.3248319961 -3.5000152588
7.2331328666 -7.3076028871 -3.5000152588
7.8889888846 -7.7888349786 -3.5000152588
7.8600097724 -7.7166333500 -3.5000152588
7.8228648072 -7.6750119395 -3.5000152588
11.0302154343 -10.1804817505 -3.5000152588
11.0365784429 -10.1523481971 -3.5000152588
11.0631477364 -10.0253016818 -3.5000152588
11.0932949472 -9.8548917716 -3.5000152588
11.1119256959 -9.7264408487 -3.5000152588
11.0265295532 -10.2985830738 -3.5000152588
11.0537770683 -10.1858840355 -3.5000152588
11.1395860128 -9.7008410040 -3.5000152588
11.1049301041 -10.0631409467 -3.5000152588
11.1291004310 -9.9343064887 -3.5000152588
11.1410437429 -9.8624676309 -3.5000152588
11.1653627741 -9.6893957163 -3.5000152588
11.0187785693 -10.5079875530 -3.5000152588
11.1875560064 -9.7068593794 -3.5000152588
11.1817723390 -10.0484660017 -3.5000152588
11.0924921530 -10.5145217300 -3.5000152588
11.1362592422 -10.3571386980 -3.5000152588
11.2253239102 -10.1944505321 -3.5000152588
5.1122064283 -3.8357750015 -3.5000152588
5.0191207222 -3.8572971144 -3.5000152588
4.9264316563 -3.8804679391 -3.5000152588
4.6437285377 -3.9367549304 -3.5000152588
4.8366832838 -3.8544189907 -3.5000152588
4.7748234134 -3.8718423429 -3.5000152588
4.6445048994 -3.8858150182 -3.5000152588
4.1710258244 -3.8758672919 -3.5000152588
4.5953741098 -3.6732399636 -3.5000152588
4.6526995308 -3.6305389521 -3.5000152588
7.4980341985 -7.7004755577 -3.5000152588
7.5875801627 -7.6700647236 -3.5000152588
7.4116474162 -7.3586348927 -3.5000152588
7.0921854214 -7.0746004455 -3.5000152588
6.5336977660 -6.9904539837 -3.5000152588
6.4389826829 -6.9940444815 -3.5000152588
11.0104092976 -9.7690961452 -3.5000152588
11.0184100901 -9.6902634326 -3.5000152588
11.0373070603 -9.3078603615 -3.5000152588
11.0602561810 -9.3876743881 -3.5000152588
11.0850807352 -9.2013820301 -3.5000152588
11.0829938743 -9.1213134569 -3.5000152588
11.0995967871 -8.9730384427 -3.5000152588
11.0922928115 -8.8793776409 -3.5000152588
11.1251338896 -9.5646573689 -3.5000152588
7.5846463240 -7.7701913964 -3.5000152588
7.4487677403 -7.6942168125 -3.5000152588
7.3992088976 -7.6539025117 -3.5000152588
7.2466471862 -7.6172563833 -3.5000152588
7.7855300524 -7.7865348938 -3.5000152588
7.1518093161 -7.5524993826 -3.5000152588
8.2487140246 -8.0415500444 -3.5000152588
8.1609712276 -7.9602171122 -3.5000152588
7.5504816356 -7.6012423759 -3.5000152588
7.5343787827 -7.5955057005 -3.5000152588
7.2651784525 -7.5223566642 -3.5000152588
6.9426813373 -7.4872156611 -3.5000152588
7.2500210392 -7.4457308335 -3.5000152588
8.0861445089 -7.6882202308 -3.5000152588
7.2950045218 -7.2327838724 -3.5000152588
6.3777879173 -7.0100941841 -3.5000152588
11.0162456399 -9.1955877992 -3.5000152588
11.0090016047 -9.0859821395 -3.5000152588
11.0059387926 -9.0494945725 -3.5000152588
11.0340531764 -9.0963067194 -3.5000152588
11.0289186124 -9.0351381774 -3.5000152588
11.0428371281 -8.9346768338 -3.5000152588
11.0384302339 -8.8978949538 -3.5000152588
11.0353110347 -8.8733960534 -3.5000152588
11.0320469464 -8.8489160361 -3.5000152588
11.0639325604 -8.9072400780 -3.5000152588
11.0267432806 -8.6616792004 -3.5000152588
11.0436579756 -8.6205150299 -3.5000152588
11.1355457536 -9.1641362532 -3.5000152588
11.0626140172 -8.5913137944 -3.5000152588
11.0473767999 -8.5174936712 -3.5000152588
11.0447099835 -8.5052171131 -3.5000152588
11.0392674604 -8.4806879322 -3.5000152588
11.1388927198 -8.9236003809 -3.5000152588
11.0628509762 -8.4753819857 -3.5000152588
11.0572316210 -8.4507459987 -3.5000152588
11.0455561431 -8.4015759175 -3.5000152588
11.0598520812 -8.3588590288 -3.5000152588
11.0535433895 -8.3342428237 -3.5000152588
11.0404896502 -8.2851245393 -3.5000152588
11.0535861329 -8.2418354778 -3.5000152588
11.0430302370 -8.2049854895 -3.5000152588
11.0209394805 -8.1315737939 -3.5000152588
11.0363289368 -8.0998846655 -3.5000152588
11.0164566565 -8.0387914565 -3.5000152588
10.9552262605 -7.8005684356 -3.5000152588
10.9209722214 -7.7168648321 -3.5000152588
10.9227862262 -7.6597089765 -3.5000152588
10.8627697456 -7.4721912013 -3.5000152588
7.7951877819 -7.7716803201 -3.5000152588
7.7287619838 -7.7515028281 -3.5000152588
7.5720368082 -7.6900363159 -3.5000152588
8.1172310223 -7.8571214997 -3.5000152588
8.0538520705 -7.8244992626 -3.5000152588
8.0390512484 -7.8173188401 -3.5000152588
7.9082587877 -7.7606599809 -3.5000152588
8.2201470271 -7.8885276187 -3.5000152588
7.9736009572 -7.7611644857 -3.5000152588
8.1550003094 -7.8226468280 -3.5000152588
8.3454028149 -7.9130818196 -3.5000152588
7.7127996905 -7.5473234854 -3.5000152588
8.2858369861 -7.7587051721 -3.5000152588
7.5720582564 -7.4936608221 -3.5000152588
7.1129063026 -7.4696107734 -3.5000152588
10.9956023316 -8.6080164802 -3.5000152588
10.9849188129 -8.5636088006 -3.5000152588
11.0028141032 -8.5355212686 -3.5000152588
10.9942070766 -8.5021424633 -3.5000152588
10.9930389152 -8.4068281477 -3.5000152588
10.9898221694 -8.3957228882 -3.5000152588
10.9799750222 -8.3624648841 -3.5000152588
10.9796339815 -8.2037046402 -3.5000152588
11.0063047184 -8.2069979369 -3.5000152588
11.0024967807 -8.1958543091 -3.5000152588
10.9986558947 -8.1847219947 -3.5000152588
10.9373042463 -7.9553462199 -3.5000152588
11.0045096697 -7.9923911173 -3.5000152588
10.9977584691 -7.6764584523 -3.5000152588
11.0240914273 -7.5661555372 -3.5000152588
4.1878847290 -6.4983440599 -3.5000152588
7.7979411295 -7.7354769718 -3.5000152588
7.9221841185 -7.7301800137 -3.5000152588
7.7583295540 -7.7069094908 -3.5000152588
7.7423739669 -7.7054569412 -3.5000152588
7.3234320770 -7.6935954750 -3.5000152588
7.2806639405 -7.7003316733 -3.5000152588
7.2009543531 -7.7156813125 -3.5000152588
7.5657853411 -7.6505022616 -3.5000152588
7.2820283053 -7.6755899869 -3.5000152588
7.7563177966 -7.6096186240 -3.5000152588
7.6664948894 -7.6037139652 -3.5000152588
8.3835958884 -7.7504492301 -3.5000152588
7.7016531458 -7.5812999883 -3.5000152588
6.8613505118 -7.6935796689 -3.5000152588
8.3554542124 -7.6853250748 -3.5000152588
8.5415983703 -7.7207477617 -3.5000152588
7.2896858961 -7.5030934025 -3.5000152588
8.1555243444 -7.5376245319 -3.5000152588
8.6602154841 -7.7327529316 -3.5000152588
8.6354069595 -7.6899765346 -3.5000152588
8.2635433249 -7.5209865001 -3.5000152588
7.8105777865 -7.4206507581 -3.5000152588
8.1468009199 -7.0611028811 -3.5000152588
6.8216339415 -7.0666084461 -3.5000152588
8.8982390466 -7.0891594705 -3.5000152588
6.2041770688 -7.0732805400 -3.5000152588
10.9306615177 -8.0599383860 -3.5000152588
10.9348908234 -7.9510891183 -3.5000152588
10.9209771049 -7.9214367540 -3.5000152588
4.1036928669 -7.7308319525 -3.5000152588
4.1152486801 -7.6053903180 -3.5000152588
10.9374242728 -7.3546123838 -3.5000152588
10.9310511153 -7.3447096724 -3.5000152588
4.1120894243 -7.3700336038 -3.5000152588
4.1106795640 -7.3264492259 -3.5000152588
4.0416721993 -7.4406911449 -3.5000152588
4.1163194699 -7.1842894707 -3.5000152588
4.0795972616 -6.7808776547 -3.5000152588
4.0598752521 -6.6118402519 -3.5000152588
7.3494688140 -7.7247404994 -3.5000152588
7.4360903258 -7.6728346691 -3.5000152588
7.2951980428 -7.7182032088 -3.5000152588
7.4029044496 -7.6571963524 -3.5000152588
7.1837581888 -7.7368189891 -3.5000152588
8.2647073111 -7.5856263950 -3.5000152588
8.1391895424 -7.5433986614 -3.5000152588
7.5900880360 -7.5386442437 -3.5000152588
7.6723959625 -7.5013459341 -3.5000152588
7.2865975707 -7.5929536039 -3.5000152588
8.1576128208 -7.0350896574 -3.5000152588
8.8382285782 -7.0436575698 -3.5000152588
10.8200440061 -7.4839200234 -3.5000152588
10.9421924220 -7.3209976257 -3.5000152588
10.8482223730 -7.1165466545 -3.5000152588
4.0360711320 -8.1796301572 -3.5000152588
4.0323048222 -8.1911646529 -3.5000152588
10.9248887900 -6.6170508350 -3.5000152588
4.0365534819 -8.1027180573 -3.5000152588
4.0428019648 -8.0139073738 -3.5000152588
4.0301345189 -8.0484908262 -3.5000152588
4.0244564219 -7.9939230039 -3.5000152588
4.0195263382 -7.9390245679 -3.5000152588
4.0170470188 -7.6367286552 -3.5000152588
4.0179143245 -7.5231424866 -3.5000152588
3.9988793782 -7.1995424793 -3.5000152588
3.3629672453 -7.7614662754 -3.5000152588
7.9169264270 -7.0427626138 -3.5000152588
4.0189750819 -8.7181825092 -3.5000152588
4.0152903013 -8.7433256899 -3.5000152588
3.9984174587 -8.4278991002 -3.5000152588
3.9903707945 -8.4658158047 -3.5000152588
3.9919893828 -8.3467458002 -3.5000152588
3.9399366947 -8.6012785104 -3.5000152588
7.9829641543 -7.4618871090 -3.5000152588
7.8917129457 -7.4959608928 -3.5000152588
7.6778528952 -7.5436924152 -3.5000152588
7.6027530296 -7.5587242392 -3.5000152588
7.0733388983 -7.9885091327 -3.5000152588
7.8495102338 -7.0732189373 -3.5000152588
3.9920191330 -9.2303315380 -3.5000152588
3.9934173446 -9.3117024224 -3.5000152588
3.9495057619 -8.9566949382 -3.5000152588
3.9456206579 -9.0525636086 -3.5000152588
3.9435436754 -9.1759055752 -3.5000152588
3.9445586784 -8.7082260416 -3.5000152588
3.9333332906 -8.5956602421 -3.5000152588
3.9298849826 -8.6231447824 -3.5000152588
3.9282218218 -8.6368945828 -3.5000152588
3.9163822236 -8.7470578221 -3.5000152588
3.9129868059 -8.5649746073 -3.5000152588
3.9030893442 -8.4648174174 -3.5000152588
11.4517307507 -5.3749426136 -3.5000152588
7.8884386541 -7.4831267607 -3.5000152588
7.8101679584 -7.5366682185 -3.5000152588
7.8708442869 -7.4657223651 -3.5000152588
7.7744798650 -7.5329039891 -3.5000152588
7.7155131235 -7.5788638989 -3.5000152588
7.6465462713 -7.6378936606 -3.5000152588
7.5844235356 -7.6965526235 -3.5000152588
8.0847971854 -7.3198121110 -3.5000152588
7.8261223457 -7.4664242398 -3.5000152588
7.7600175096 -7.5135345400 -3.5000152588
7.6877104203 -7.5704097488 -3.5000152588
7.4399396933 -7.8193680786 -3.5000152588
8.1805283783 -7.2527051442 -3.5000152588
7.7455551542 -7.4941650910 -3.5000152588
7.2965038985 -7.9312892939 -3.5000152588
7.6545055113 -7.5038476622 -3.5000152588
7.2789959699 -7.8714414388 -3.5000152588
7.7439061442 -7.3762582586 -3.5000152588
7.2625489415 -7.8528213928 -3.5000152588
7.2110251835 -7.9294078361 -3.5000152588
7.7639891873 -7.3334530706 -3.5000152588
7.5289839266 -7.5160629643 -3.5000152588
7.8307072184 -7.2629361545 -3.5000152588
7.4525741596 -7.5549730465 -3.5000152588
7.1807091707 -7.7189766228 -3.5000152588
7.7440259081 -7.1176131374 -3.5000152588
3.9329592208 -9.4880707069 -3.5000152588
3.9344852110 -9.5026275540 -3.5000152588
4.0179640606 -10.0226389399 -3.5000152588
4.0339215962 -10.0940603964 -3.5000152588
3.8887240636 -9.2266114679 -3.5000152588
3.8959621382 -9.3440508979 -3.5000152588
3.9364519905 -9.7094336847 -3.5000152588
3.9408566226 -9.7385182625 -3.5000152588
3.9454332517 -9.7675762721 -3.5000152588
3.9708905356 -9.9124322300 -3.5000152588
3.9943343660 -10.0277352926 -3.5000152588
3.8589116373 -9.0505572290 -3.5000152588
3.8597389887 -9.0948882689 -3.5000152588
3.8805075216 -9.4489163645 -3.5000152588
3.9835101295 -10.0905462993 -3.5000152588
3.8446766965 -9.3031482795 -3.5000152588
3.9290627251 -9.9506618369 -3.5000152588
3.9348946733 -9.9797859102 -3.5000152588
3.8323753307 -9.4534587566 -3.5000152588
3.8432658209 -9.5573461882 -3.5000152588
10.4723901627 -3.8454050990 -3.5000152588
10.3962780125 -3.8220387874 -3.5000152588
10.7233785129 -3.8540898274 -3.5000152588
10.3658878687 -3.6369788578 -3.5000152588
10.3025669238 -3.6194704815 -3.5000152588
10.2510985250 -3.5558936530 -3.5000152588
10.1664177799 -3.9665827794 -3.5000152588
3.8610451245 -9.9963588330 -3.5000152588
3.9085583906 -10.2645398831 -3.5000152588
3.8762412331 -10.3246743593 -3.5000152588
3.9463317848 -10.6775936170 -3.5000152588
7.4165884473 -8.0403792056 -3.5000152588
7.7165465521 -7.3003584319 -3.5000152588
7.0746009152 -7.9078161565 -3.5000152588
7.0859947651 -7.7714616756 -3.5000152588
6.9527699340 -8.6534511714 -3.5000152588
9.8055857388 -4.0181168876 -3.5000152588
9.7011102485 -4.0068888234 -3.5000152588
9.7296943535 -3.9854145067 -3.5000152588
9.4926659482 -3.9677184185 -3.5000152588
9.6660374561 -3.9551502733 -3.5000152588
9.4805596465 -3.9429570095 -3.5000152588
9.2947360424 -3.9384534931 -3.5000152588
9.2150704632 -3.9388798002 -3.5000152588
9.1088853169 -3.9416474474 -3.5000152588
9.0936432928 -3.8938643445 -3.5000152588
8.7806310121 -3.8688891731 -3.5000152588
9.7194978549 -3.8143807612 -3.5000152588
7.6543769222 -7.6953159691 -3.5000152588
9.1740508818 -4.0333746717 -3.5000152588
9.0758074765 -4.0160741799 -3.5000152588
8.9252565524 -3.9826005173 -3.5000152588
9.1421797163 -3.9142450847 -3.5000152588
8.9788125099 -3.9037045589 -3.5000152588
8.6819515100 -3.9450756627 -3.5000152588
8.5592610261 -3.9685136455 -3.5000152588
8.4015804893 -3.9544425103 -3.5000152588
8.3893098202 -3.9574522081 -3.5000152588
8.4329301671 -3.9220958857 -3.5000152588
8.3588636196 -3.9401465153 -3.5000152588
8.3096689476 -3.9529093605 -3.5000152588
8.0631979587 -3.9754842161 -3.5000152588
7.8366596085 -4.0306233127 -3.5000152588
7.8246167678 -4.0353038153 -3.5000152588
7.7537449967 -7.3594465076 -3.5000152588
7.7329397291 -7.4627372704 -3.5000152588
7.8175923943 -7.0794675299 -3.5000152588
7.8657325475 -6.9181497117 -3.5000152588
7.6777226210 -7.5027134209 -3.5000152588
7.7478754102 -6.9962646014 -3.5000152588
7.7217726726 -7.0585299043 -3.5000152588
7.5793682610 -8.0172211426 -3.5000152588
6.9974682801 -9.5435991836 -3.5000152588
8.6024988168 -4.0305356415 -3.5000152588
8.5804339127 -4.0358439044 -3.5000152588
8.4972534970 -4.0320867618 -3.5000152588
8.3914670555 -4.0366125751 -3.5000152588
8.4513544243 -3.9944198561 -3.5000152588
8.3403534380 -4.0267500291 -3.5000152588
8.2999376296 -4.0140457124 -3.5000152588
8.1926513733 -4.0241796124 -3.5000152588
8.0850677144 -4.0373848088 -3.5000152588
6.9011204728 -10.7879103117 -3.5000152588
7.9663093941 -4.0581714017 -3.5000152588
8.5694232764 -3.8396463601 -3.5000152588
7.8366819188 -4.0876138599 -3.5000152588
7.2161801364 -7.4752540578 -3.5000152588
7.2186867820 -7.5963924912 -3.5000152588
7.2197473690 -7.1828400959 -3.5000152588
7.2135821710 -7.2197113261 -3.5000152588
7.2104024111 -7.2408353823 -3.5000152588
7.2096465439 -7.2461221598 -3.5000152588
7.2001890203 -7.3256634135 -3.5000152588
7.1982638724 -7.3469385264 -3.5000152588
7.1924187455 -7.5443533882 -3.5000152588
7.1935080328 -7.5763776897 -3.5000152588
7.2135722055 -7.7782165851 -3.5000152588
7.2272528327 -7.0359139773 -3.5000152588
7.2218973401 -7.0568891428 -3.5000152588
7.1681268262 -7.4583761093 -3.5000152588
7.1701251141 -7.5936317348 -3.5000152588
7.2081014923 -7.0138990916 -3.5000152588
7.1971234885 -7.0563706709 -3.5000152588
7.1741009336 -7.1635817378 -3.5000152588
7.1871393052 -7.8988368349 -3.5000152588
7.2152390050 -6.9065347388 -3.5000152588
7.1197912010 -7.5406218539 -3.5000152588
7.1623451151 -7.8986248984 -3.5000152588
7.2083330905 -8.0702666095 -3.5000152588
7.1462181486 -7.0612356902 -3.5000152588
7.1286218240 -7.1437725001 -3.5000152588
7.1087950227 -7.2716306054 -3.5000152588
7.0960752650 -7.4398923357 -3.5000152588
7.1528786599 -7.9640187958 -3.5000152588
7.2288361906 -8.1994641173 -3.5000152588
7.1842544798 -6.8481994008 -3.5000152588
7.0968914068 -7.1841371315 -3.5000152588
7.1127142289 -7.8977712265 -3.5000152588
7.0563833217 -7.3059960829 -3.5000152588
7.0500567719 -7.3865164140 -3.5000152588
7.1445897786 -8.1087927032 -3.5000152588
7.1817711594 -8.2119014386 -3.5000152588
7.2013924448 -8.2599762524 -3.5000152588
7.1282815007 -6.7904164454 -3.5000152588
7.0844323008 -6.9191152512 -3.5000152588
7.0014880133 -7.8295885331 -3.5000152588
6.9711563966 -7.2062684509 -3.5000152588
7.0807060060 -6.7134110597 -3.5000152588
6.9343669953 -7.6855830459 -3.5000152588
7.2666027698 -8.6804541712 -3.5000152588
6.9281339405 -6.9379882851 -3.5000152588
6.8633300391 -7.2931712290 -3.5000152588
6.9461288579 -6.7967866762 -3.5000152588
6.9339889907 -6.8332999250 -3.5000152588
6.8573610630 -7.8469629241 -3.5000152588
6.9224766349 -8.1278946402 -3.5000152588
6.9689520724 -6.3871935031 -3.5000152588
6.9217065304 -8.5735325154 -3.5000152588
7.3459776738 -4.0903469033 -3.5000152588
7.3257185709 -10.8977562141 -3.5000152588
7.3357800323 -10.9026858649 -3.5000152588
7.3559464834 -10.9124557681 -3.5000152588
7.2949653872 -4.0884947911 -3.5000152588
7.2235259910 -4.0978097368 -3.5000152588
7.1734151449 -4.1244149828 -3.5000152588
7.2334735134 -10.9053508309 -3.5000152588
7.2123486571 -4.0763760602 -3.5000152588
7.0882840850 -4.0884773742 -3.5000152588
7.0460996887 -4.0845640707 -3.5000152588
6.9261480679 -4.1559609247 -3.5000152588
6.9835101026 -4.0929865527 -3.5000152588
6.9934727458 -10.9108754395 -3.5000152588
7.0747700542 -10.9573346276 -3.5000152588
6.9308019965 -4.0963904243 -3.5000152588
6.8878351981 -10.9036030467 -3.5000152588
6.8348458576 -4.0991118908 -3.5000152588
6.7045721897 -4.0977458018 -3.5000152588
6.5243481728 -4.0761631271 -3.5000152588
6.4449827450 -10.9235544034 -3.5000152588
6.4305377098 -10.9429367727 -3.5000152588
6.3855820355 -4.0586214116 -3.5000152588
6.3403674053 -4.0628099946 -3.5000152588
6.2901629336 -10.9573774715 -3.5000152588
6.1375774725 -4.0392732139 -3.5000152588
7.2379893630 -7.5851539840 -3.5000152588
7.1817002465 -7.4177161288 -3.5000152588
7.1872402313 -7.4546864663 -3.5000152588
7.2183017551 -7.6063668817 -3.5000152588
7.2334690156 -7.6631184076 -3.5000152588
7.2472467398 -7.7091647862 -3.5000152588
7.2537626773 -7.7295088070 -3.5000152588
7.1418852702 -7.0917458329 -3.5000152588
7.1403066329 -7.1566678172 -3.5000152588
7.1415748756 -7.2378319799 -3.5000152588
7.1707369449 -7.5011805458 -3.5000152588
7.1922567641 -7.6017186080 -3.5000152588
7.2178236878 -7.6957087044 -3.5000152588
7.2447215023 -7.7780094776 -3.5000152588
7.2501969520 -7.7932944428 -3.5000152588
7.2577081441 -7.8135976658 -3.5000152588
7.2654590476 -7.8338105915 -3.5000152588
7.1289152804 -7.3863153336 -3.5000152588
7.1309192245 -7.4026434385 -3.5000152588
7.2679462039 -7.9034613528 -3.5000152588
7.2745340540 -7.9185352717 -3.5000152588
7.1216373087 -6.8359230767 -3.5000152588
7.1284459288 -7.5372416673 -3.5000152588
7.1364722046 -7.5752890540 -3.5000152588
7.1414118172 -7.5969531827 -3.5000152588
7.1683580611 -7.6989873753 -3.5000152588
7.1699347088 -7.7043139980 -3.5000152588
7.2978125913 -8.0235883918 -3.5000152588
7.0647903963 -6.8835766237 -3.5000152588
7.1096252547 -7.6687630488 -3.5000152588
7.1733197347 -7.8636526728 -3.5000152588
7.0299771713 -6.9658455145 -3.5000152588
7.1088611000 -7.7525869562 -3.5000152588
7.1213504746 -7.7909936952 -3.5000152588
7.0746748552 -6.6142107365 -3.5000152588
7.0388872549 -6.7557506603 -3.5000152588
7.0085023864 -6.9401088769 -3.5000152588
7.0125294972 -7.4294832249 -3.5000152588
7.1282301483 -7.8810960190 -3.5000152588
7.2799184382 -8.1900551458 -3.5000152588
7.3667978177 -8.3216267616 -3.5000152588
7.0402645439 -6.6472633473 -3.5000152588
7.0774263729 -7.8120205284 -3.5000152588
7.3171317801 -8.3352358768 -3.5000152588
6.9279611385 -7.0221418271 -3.5000152588
7.1583088058 -8.1221244083 -3.5000152588
6.9633376521 -7.6827132224 -3.5000152588
7.0188417869 -7.8642941384 -3.5000152588
7.0255963692 -6.3870595556 -3.5000152588
6.8568394083 -7.3364229319 -3.5000152588
6.9329614038 -7.7552125111 -3.5000152588
6.8036462758 -7.2570331544 -3.5000152588
6.8814425431 -6.1743421441 -3.5000152588
6.9760178889 -4.1782225029 -3.5000152588
6.9271266208 -4.1820703264 -3.5000152588
6.8604431843 -4.1990868473 -3.5000152588
6.7561972745 -4.1851592881 -3.5000152588
6.7385845467 -4.1983078257 -3.5000152588
6.7240664694 -4.1789801068 -3.5000152588
6.6741024921 -4.1866071929 -3.5000152588
6.6564997674 -4.2002414055 -3.5000152588
6.5701379112 -4.1451498340 -3.5000152588
6.4749743908 -4.1915735194 -3.5000152588
7.8026700237 -10.9493688291 -3.5000152588
7.7955397468 -10.9724663275 -3.5000152588
7.6869543074 -10.9627588181 -3.5000152588
7.6981835123 -10.9665370590 -3.5000152588
7.7319374988 -10.9776722435 -3.5000152588
7.7432106235 -10.9813173507 -3.5000152588
7.7657889747 -10.9885074418 -3.5000152588
