54.7099925518 -11.2848441922 -2.9986357689
54.5630947789 -11.3522510118 -2.9986357689
54.6585069929 -11.3650420668 -2.9986357689
48.7349642226 -5.1701612908 -2.9986357689
48.7237733791 -5.2322840101 -2.9986357689
55.0568472276 -11.3716244835 -2.9986357689
55.1031707286 -11.3618568064 -2.9986357689
48.8062832444 -4.7485358005 -2.9986357689
48.7708896418 -4.8867418610 -2.9986357689
48.7599109796 -4.9330138969 -2.9986357689
48.6820651627 -5.3376509381 -2.9986357689
48.8086978341 -4.6502216935 -2.9986357689
48.6761432894 -5.2239945175 -2.9986357689
48.6655935434 -5.2868094648 -2.9986357689
48.6534527658 -5.3654964742 -2.9986357689
49.1612283324 -3.6928993738 -2.9986357689
48.6750891018 -4.9792668578 -2.9986357689
48.8710852127 -4.2318900903 -2.9986357689
48.8542911628 -4.2772987338 -2.9986357689
48.7481047162 -4.5990805329 -2.9986357689
48.7214565867 -4.6921699129 -2.9986357689
48.7815403877 -4.3374099593 -2.9986357689
48.6223550948 -4.8843051290 -2.9986357689
48.7578487264 -4.2595989778 -2.9986357689
52.2544974260 -7.4042384104 -3.0008025169
52.2288564116 -7.8304745439 -3.0008025169
51.6527110194 -7.2352134716 -3.0008025169
51.7817860686 -7.4951846078 -3.0008025169
52.3657431980 -8.1302512677 -3.0008025169
52.9244716863 -8.4116369899 -3.0008025169
52.1102491926 -8.0743070354 -3.0008025169
52.2079144251 -8.1436614865 -3.0008025169
48.9307221756 -4.8834448067 -3.0008025169
48.8807140716 -5.1542076389 -3.0008025169
48.8302623768 -5.6296371846 -3.0008025169
48.9502417804 -4.6940378972 -3.0008025169
48.8735638253 -5.0499158167 -3.0008025169
48.8590922181 -5.1360987602 -3.0008025169
48.8118734318 -5.5410617072 -3.0008025169
48.8107553118 -5.3062256120 -3.0008025169
48.7511209609 -6.0224688394 -3.0008025169
48.7533528539 -6.0959749268 -3.0008025169
48.7333300159 -6.1854675113 -3.0008025169
48.7024284819 -6.4112956484 -3.0008025169
48.7070896896 -6.4558201336 -3.0008025169
54.4798287681 -11.2376429803 -3.0008025169
54.7467642018 -11.1928019786 -3.0008025169
54.4673935240 -11.2638041130 -3.0008025169
55.0013625101 -11.1618768977 -3.0008025169
55.3934751915 -11.0759746621 -3.0008025169
54.2657610558 -11.3366146351 -3.0008025169
54.7492571143 -11.2907880533 -3.0008025169
55.1128106194 -11.2084835508 -3.0008025169
55.1754271381 -11.1916536704 -3.0008025169
55.0934243899 -11.2634545960 -3.0008025169
55.7464822631 -11.0522003781 -3.0008025169
55.4592724685 -11.3341336574 -3.0008025169
52.2943513136 -7.4266105806 -2.9996073358
52.3247940047 -7.4464435977 -2.9996073358
51.9022484538 -7.6493876656 -2.9996074338
52.2858834794 -7.8985134002 -2.9996074338
52.7438840352 -8.0826031816 -2.9996074338
51.7584519267 -7.5591659033 -2.9996074396
52.2897887838 -7.9549461815 -2.9996074453
52.7876166147 -8.1448523434 -2.9996074453
52.8091485262 -8.1504306575 -2.9996074453
52.2230232973 -8.0020143692 -2.9996074626
52.6151394673 -8.2200604102 -2.9996074741
52.2690518330 -8.3727190878 -2.9996075375
48.9956820899 -5.1787245386 -2.9996079122
48.9910406022 -5.2180709464 -2.9996079122
48.9853954602 -5.2705939516 -2.9996079122
48.9759714949 -5.3758219563 -2.9996079122
48.9670844549 -5.5208144243 -2.9996079122
48.9685382308 -5.2021545022 -2.9996079179
48.9655441999 -5.2285410653 -2.9996079179
48.9389325456 -5.6524426993 -2.9996079179
48.9400711349 -5.2391576486 -2.9996079237
48.9359681471 -5.2789951928 -2.9996079237
48.9152515433 -5.6253768857 -2.9996079237
48.9148953114 -5.7989089263 -2.9996079237
48.9157607935 -5.8389478494 -2.9996079237
48.9165351697 -5.8656355166 -2.9996079237
48.9174904839 -5.2232324398 -2.9996079294
48.8912662356 -5.8261605624 -2.9996079294
48.8878549810 -5.2742555328 -2.9996079352
48.8658844105 -5.7187881839 -2.9996079352
48.8663446130 -5.7862484283 -2.9996079352
48.8753698276 -6.0154188706 -2.9996079352
48.8813049638 -6.0961548622 -2.9996079352
48.8824334307 -6.1096000696 -2.9996079352
48.8461079920 -5.9221700222 -2.9996079410
48.8234986723 -5.4870579796 -2.9996079467
48.8225753255 -5.9368499619 -2.9996079467
48.8448321507 -6.2222830408 -2.9996079467
48.8579676234 -6.3305707467 -2.9996079467
48.7967723748 -6.2275365226 -2.9996079583
48.8468251533 -6.5682642589 -2.9996079583
48.7733293358 -5.2073065634 -2.9996079640
48.8281719134 -6.5998826262 -2.9996079640
48.7217992940 -5.8161493180 -2.9996079698
48.7253587647 -5.9274621072 -2.9996079698
48.7603042027 -6.3295471429 -2.9996079698
48.8325679719 -6.7407547975 -2.9996079698
48.7284308937 -5.1741903299 -2.9996079755
48.6649369494 -5.3233155674 -2.9996079871
48.6483946077 -5.7469353629 -2.9996079871
48.6656655821 -6.1281164858 -2.9996079871
48.7156381359 -6.5206448387 -2.9996079871
48.8001834286 -7.0097711652 -2.9996079928
48.6021749118 -5.5758669154 -2.9996079986
48.8433676286 -7.2348150127 -2.9996079986
48.5820810071 -5.4747681813 -2.9996080044
48.8674159824 -7.3779786569 -2.9996080044
55.6265255392 -11.2119644933 -2.9996082580
55.7168127787 -11.2011353357 -2.9996082637
55.4276272978 -11.4926011379 -2.9996083041
55.3151441290 -11.5557880736 -2.9996083098
55.2428490252 -11.6292893245 -2.9996083213
54.8895351363 -11.8011352877 -2.9996083386
52.3662993037 -7.4706198021 -3.0001814475
52.3718745774 -7.4727937226 -3.0001814475
52.5516296762 -7.9325261562 -3.0001816319
52.2442383536 -7.9670281334 -3.0001816895
52.4513247895 -8.0319393276 -3.0001816895
52.3308381205 -8.1736904004 -3.0001817702
48.9858374277 -5.8409544947 -3.0001824503
48.9919783487 -5.9261693409 -3.0001824503
48.9951500848 -5.9626476009 -3.0001824503
48.9678871265 -5.9281563738 -3.0001824618
48.9710774452 -5.9648483516 -3.0001824618
48.9745932589 -6.0015105722 -3.0001824618
48.9886596887 -6.1234660082 -3.0001824618
48.9530803731 -6.0284906486 -3.0001824733
48.9557649435 -6.0530409765 -3.0001824733
48.9749179426 -6.1999703464 -3.0001824733
48.9197046823 -5.9321304396 -3.0001824849
48.9091340412 -6.0708496208 -3.0001824964
48.9494801652 -6.3426328956 -3.0001824964
48.9370624852 -6.6288064419 -3.0001825310
48.9263009861 -6.6841785329 -3.0001825425
48.9362022149 -6.7212097932 -3.0001825425
48.7423514817 -5.8171344275 -3.0001825655
48.7817516328 -6.2155838217 -3.0001825655
48.9142035109 -6.8209218283 -3.0001825655
48.7204382238 -5.8573200580 -3.0001825771
48.7230096540 -5.8962107955 -3.0001825771
48.9044737292 -7.0291107015 -3.0001826001
48.6959457615 -6.7586258131 -3.0001826578
48.7169184817 -7.1517884683 -3.0001827039
52.4415017561 -7.8995430842 -2.9999268601
52.5266625682 -7.9823151194 -2.9999269120
52.3320524641 -8.2255171236 -2.9999271022
52.3883434073 -8.2338511059 -2.9999271022
49.0044100516 -6.3920681181 -2.9999278975
49.0070317593 -6.4031818168 -2.9999278975
49.0178470048 -6.4475575989 -2.9999278975
49.0234513443 -6.4696967234 -2.9999278975
49.0029042588 -6.4868243837 -2.9999279148
49.0147094911 -6.5312431488 -2.9999279148
49.0177428586 -6.5423257709 -2.9999279148
49.0208089973 -6.5533993713 -2.9999279148
49.0037913339 -6.5821417297 -2.9999279321
49.0069753164 -6.5932564270 -2.9999279321
55.7626865305 -8.0164339985 -2.9999279321
48.9902533903 -6.6222859861 -2.9999279494
48.9968919645 -6.6445853057 -2.9999279494
48.9805563171 -6.6739475216 -2.9999279666
48.9875007080 -6.6963033081 -2.9999279666
48.8921743000 -6.4425596841 -2.9999279839
48.8977512696 -6.4654424181 -2.9999279839
48.9788093318 -6.7484012043 -2.9999279839
48.9861942462 -6.7707660235 -2.9999279839
48.9937113492 -6.7930867597 -2.9999279839
49.0013603777 -6.8153626316 -2.9999279839
49.0052342804 -6.8264834997 -2.9999279839
48.9824184000 -6.8344691670 -2.9999280012
48.9863489062 -6.8456459852 -2.9999280012
48.9963844446 -6.9432222073 -2.9999280185
48.8452070083 -6.5525139129 -2.9999280358
48.9895046742 -7.1807640537 -2.9999280877
48.8268038033 -6.9020178664 -2.9999281223
48.9806683994 -7.3894970532 -2.9999281568
55.7236783971 -8.5556734813 -2.9999281741
51.6603483353 -7.8611258504 -3.0000153738
51.9184443271 -7.9529227236 -3.0000153795
52.6585593504 -8.0145337168 -3.0000153853
51.3839871632 -7.8340595692 -3.0000153910
52.1478747133 -8.0367851053 -3.0000153910
53.2572760276 -7.9071964601 -3.0000153910
52.2953213930 -8.1204823662 -3.0000154083
53.3774833255 -7.9657983794 -3.0000154141
52.0332100123 -8.1443390108 -3.0000154199
53.9027478790 -7.9762066173 -3.0000154717
49.0608703063 -6.9202225083 -3.0000156504
49.0650983539 -6.9301335037 -3.0000156504
49.0386219564 -6.9296748208 -3.0000156562
49.0514787223 -6.9595671379 -3.0000156562
49.0558231996 -6.9695057433 -3.0000156562
49.0646002594 -6.9893441814 -3.0000156562
49.0690327651 -6.9992438405 -3.0000156562
49.0651260046 -7.0488812010 -3.0000156619
49.0697346293 -7.0587790444 -3.0000156619
49.0666851016 -7.1087271587 -3.0000156677
49.0497256803 -7.1291788698 -3.0000156734
49.0742503094 -7.1787494515 -3.0000156734
49.0427019803 -7.1697160926 -3.0000156792
49.0627432176 -7.2094819340 -3.0000156792
49.0566589057 -7.2503464579 -3.0000156850
49.0618635382 -7.2602684670 -3.0000156850
49.0617195884 -7.3113141620 -3.0000156907
49.0467713609 -7.3843394987 -3.0000157023
49.0523724123 -7.3942901707 -3.0000157023
49.0580028750 -7.4042242303 -3.0000157023
49.0661193546 -7.5601720100 -3.0000157195
55.9125716389 -7.2904895185 -3.0000157195
55.9016483351 -7.5125131186 -3.0000157426
55.9105120433 -7.5453377554 -3.0000157484
55.9085234486 -7.6426124175 -3.0000157599
55.9098200690 -7.6863790991 -3.0000157657
55.8360665941 -7.8429351438 -3.0000157714
55.8829475433 -7.8600229853 -3.0000157829
55.8907827598 -8.0985070941 -3.0000158175
52.5630977772 -7.5273877938 -3.0000125857
52.7126046652 -7.8879813727 -3.0000121707
52.2799761669 -8.0386918746 -3.0000120929
52.6816741623 -7.9711552732 -3.0000120929
52.7461368574 -7.9539217477 -3.0000120929
52.6549988136 -8.0522948183 -3.0000120151
52.5022241253 -8.2547776765 -3.0000118336
49.1567949409 -7.4817819307 -3.0000110296
49.2211362883 -8.3254494135 -3.0000105109
55.9664600927 -6.7323556277 -3.0000104072
55.9824227681 -6.7626041821 -3.0000103812
49.0667178760 -8.3740837203 -3.0000103553
55.9798625651 -6.9945240384 -3.0000103034
55.9849548659 -7.0494076650 -3.0000102775
55.9893986036 -7.0378099911 -3.0000102775
55.9846517334 -7.1162111058 -3.0000102515
55.9984727805 -7.0813789612 -3.0000102515
55.9857039640 -7.2391702977 -3.0000101997
55.9994359910 -7.3851260303 -3.0000101219
56.2105546537 -7.1362308413 -3.0000100181
55.9882578235 -6.2315090847 -3.0000034822
56.0306502179 -6.5518135939 -3.0000032171
56.0395499449 -6.8234580432 -3.0000030183
56.2489091507 -7.0547186703 -3.0000022892
52.5528241920 -7.9086749716 -3.0000122226
52.3812113499 -8.0449925890 -3.0000121707
51.9836757185 -8.2009496455 -3.0000121448
52.7805226262 -7.8568274441 -3.0000121448
52.1734468082 -8.1991008686 -3.0000120929
51.9245033064 -8.3127373349 -3.0000120410
53.3838337286 -7.4452090539 -3.0000120410
51.7745531139 -8.3869491305 -3.0000119892
52.6482025536 -8.1862680234 -3.0000119114
52.0853799960 -8.4249591622 -3.0000118854
52.6734504258 -8.2004003305 -3.0000118854
56.0062053395 -5.6747380246 -3.0000098625
56.0048443702 -5.6340689415 -3.0000098625
56.0031225392 -5.5934135378 -3.0000098625
56.0316279035 -5.7285638918 -3.0000098366
56.0266115796 -5.5786638936 -3.0000098366
56.0529536574 -5.9885319684 -3.0000098107
56.0715050338 -6.0995581150 -3.0000097847
56.0808987489 -6.2805080333 -3.0000097588
56.0941052562 -6.3797927480 -3.0000097328
56.1031785952 -6.4936739406 -3.0000097069
56.1207926722 -6.5388991660 -3.0000096810
56.1250361230 -6.5110920207 -3.0000096810
56.1660866211 -6.3886075451 -3.0000096550
56.2256626619 -5.8246902197 -3.0000096291
56.1371659929 -6.8447225866 -3.0000096032
56.1630998236 -6.7188587069 -3.0000096032
56.1545259616 -6.8779282613 -3.0000095772
56.2206643910 -6.5253958270 -3.0000095772
56.2572285884 -6.6041365254 -3.0000095254
56.3041279651 -6.2303263343 -3.0000095254
56.3306374536 -6.2033822538 -3.0000094994
56.1878673915 -7.1404690198 -3.0000094735
56.3928109976 -5.6635176256 -3.0000094476
56.0354546778 -7.7897417348 -3.0000093957
55.9967319677 -7.9354987753 -3.0000093698
56.0092403422 -7.9084011721 -3.0000093698
52.6487734140 -7.4099103416 -3.0000189305
52.6395708884 -7.8801047644 -3.0000196163
52.7630060252 -7.8712512312 -3.0000197633
52.5286231706 -8.0815756886 -3.0000198122
53.1059647487 -7.5428498254 -3.0000198122
53.1758574459 -7.5307828574 -3.0000199102
51.9964811876 -8.4292856339 -3.0000199592
52.3375225911 -8.3345449793 -3.0000200572
52.9400546298 -8.0374136636 -3.0000202531
56.0517711378 -5.3810903995 -3.0000248090
56.0656987962 -5.3051154792 -3.0000248580
55.9961845511 -4.9291712105 -3.0000248580
56.1354323253 -5.7721842982 -3.0000249070
56.0443532467 -5.0395153564 -3.0000249070
56.1652722637 -5.9490961392 -3.0000249560
56.1644408886 -5.9045506128 -3.0000249560
56.1571636716 -5.7264948988 -3.0000249560
56.1897790718 -5.9785956783 -3.0000250050
56.2004828918 -5.6488566654 -3.0000250540
56.1824567207 -5.4547799498 -3.0000250540
56.2245301879 -6.6424866252 -3.0000251519
56.2613143152 -6.1293562852 -3.0000251519
56.2575633227 -5.7964182969 -3.0000251519
56.2572086093 -6.5698797053 -3.0000252009
56.2980125713 -5.6570077153 -3.0000252499
56.3259256094 -6.6082887620 -3.0000253479
56.2783132777 -4.9768636348 -3.0000253969
56.3961759352 -6.3656953982 -3.0000254459
56.3911078649 -5.0505465565 -3.0000255928
50.2431261617 -11.3027726520 -3.0000256418
50.4626003400 -11.3356009201 -3.0000256418
49.7723481371 -11.2253888691 -3.0000256908
49.8649416496 -11.2489386351 -3.0000256908
49.8747331739 -11.2761997101 -3.0000257398
49.5915825746 -11.2752226353 -3.0000258868
52.7052927266 -7.4034992239 -3.0000201024
52.7184819574 -7.3821667841 -3.0000201024
52.7291366153 -7.4109535751 -3.0000201658
52.7541145400 -7.8281560244 -3.0000208631
52.9685947545 -7.6199317144 -3.0000209899
52.6132172140 -8.0829687294 -3.0000210533
52.8468894872 -7.8293811474 -3.0000210533
52.4673433383 -8.2412794192 -3.0000211167
52.2754105008 -8.4081688092 -3.0000211801
52.4706185617 -8.2694860589 -3.0000211801
52.3201154626 -8.4078784920 -3.0000212435
52.4243134851 -8.4244543394 -3.0000214337
53.3145897238 -7.4496147257 -3.0000215605
50.0370119343 -11.1240272996 -3.0000274564
50.4699244920 -11.1822478539 -3.0000274564
50.1192952394 -11.1626046777 -3.0000275198
50.8038313877 -11.2249249906 -3.0000275198
49.5840347370 -11.0704039834 -3.0000275831
49.5982167191 -11.0743027292 -3.0000275831
50.4216819233 -11.2262707164 -3.0000275831
50.9798043629 -11.2497143983 -3.0000275831
51.0386245931 -11.2485294800 -3.0000275831
51.0680284210 -11.2476760422 -3.0000275831
50.6255917158 -11.2663415122 -3.0000276465
50.6403487593 -11.2671582868 -3.0000276465
50.9210320737 -11.2743762041 -3.0000276465
51.0983424092 -11.2708043334 -3.0000276465
51.1426414541 -11.2689281048 -3.0000276465
51.2311808718 -11.2639966604 -3.0000276465
49.6860268473 -11.1473063766 -3.0000277099
51.3511995929 -11.2790576354 -3.0000277099
49.8393925980 -11.2822016783 -3.0000279635
49.3591404702 -11.4079447295 -3.0000285975
56.2618554304 -5.7090603335 -3.0000286609
56.2509109847 -5.6141479046 -3.0000286609
56.2264784188 -5.4407066335 -3.0000286609
56.2599373602 -5.5002051037 -3.0000287243
56.3192718435 -5.7998944107 -3.0000287877
56.1602313023 -4.7991751127 -3.0000288511
56.2251313613 -4.9492759493 -3.0000289145
56.3229137482 -4.9418352965 -3.0000291681
56.1096428142 -4.2658371033 -3.0000291681
56.3185706282 -4.7372912768 -3.0000292948
56.3312421603 -4.4522164500 -3.0000295484
52.6805576398 -7.4426023751 -3.0000150546
52.6881975045 -7.4251788406 -3.0000150546
52.7326143169 -7.3815260671 -3.0000150604
52.7827763722 -7.3178389995 -3.0000150662
52.7574721177 -7.8154752594 -3.0000151123
52.8553735248 -7.6916313399 -3.0000151180
52.5182093842 -8.2143347200 -3.0000151238
52.9181033384 -7.6752547693 -3.0000151296
53.0376322977 -7.4645557779 -3.0000151353
52.9270934248 -7.7627033026 -3.0000151411
52.8734987088 -7.9934826790 -3.0000151584
52.9994583108 -7.8811889559 -3.0000151699
52.9877517739 -8.4095529087 -3.0000152391
50.2074553904 -10.9834201895 -3.0000156022
50.1784327633 -11.0042980354 -3.0000156079
50.1915436496 -11.0058838864 -3.0000156079
50.2046591698 -11.0074309461 -3.0000156079
50.2177792091 -11.0089392009 -3.0000156079
50.3623650395 -11.0229653520 -3.0000156079
50.3886986691 -11.0250097308 -3.0000156079
50.2942894551 -11.0412366196 -3.0000156137
50.8520011319 -11.0838463644 -3.0000156195
51.0555092215 -11.1218146722 -3.0000156310
51.1248798390 -11.1404498336 -3.0000156367
51.2732640739 -11.1248944864 -3.0000156367
51.3742105836 -11.1603484930 -3.0000156483
51.4284442228 -11.1522991720 -3.0000156483
50.8975213065 -11.2274409195 -3.0000156540
51.4905242012 -11.1912973967 -3.0000156598
51.5859843757 -11.1743752591 -3.0000156598
50.9561866100 -11.2974567636 -3.0000156713
50.3530781822 -11.3132131386 -3.0000156771
51.8057857391 -11.2020868859 -3.0000156771
51.4014693178 -11.3518019324 -3.0000156944
52.1937882540 -11.1698461620 -3.0000156944
50.1599196401 -11.3916030517 -3.0000157001
52.2829241316 -11.1658701064 -3.0000157001
52.2965037693 -11.1612297844 -3.0000157001
52.3236215670 -11.1518287291 -3.0000157001
56.3302377923 -4.9392933780 -3.0000159364
56.4582207491 -4.6220455975 -3.0000159883
56.6469955921 -4.9039398311 -3.0000160114
52.6983799655 -8.2013412865 -3.0000121189
53.0277066968 -7.8685868924 -3.0000119632
53.0418244278 -7.8323834020 -3.0000119632
50.8031201800 -10.9921069304 -3.0000103812
50.8394621784 -10.9900288198 -3.0000103812
50.8515719029 -10.9892644557 -3.0000103812
50.8043930886 -11.0162464205 -3.0000103553
50.8653091151 -11.0125822950 -3.0000103553
50.9139987585 -11.0090025386 -3.0000103553
50.9383268438 -11.0069966754 -3.0000103553
50.9626426359 -11.0048469143 -3.0000103553
51.0259286101 -11.0228809939 -3.0000103293
51.1632974917 -11.0303618868 -3.0000103034
51.1877475829 -11.0268807148 -3.0000103034
51.0680730965 -11.0668521753 -3.0000102775
51.2403447861 -11.0433633789 -3.0000102775
51.3794658196 -11.0436595602 -3.0000102515
51.5738371496 -11.0514684658 -3.0000101997
51.0286271318 -11.1684309040 -3.0000101737
51.6594357053 -11.0801341771 -3.0000101478
51.7770614442 -11.0733541912 -3.0000101219
50.9589028043 -11.2478496556 -3.0000100959
51.9220174611 -11.1054577682 -3.0000100441
50.9257994018 -11.3232854109 -3.0000100181
50.9276431733 -11.3473880205 -3.0000099922
51.3247969425 -11.3235352870 -3.0000099663
51.2760471362 -11.3558434636 -3.0000099403
51.3327423597 -11.3712239803 -3.0000099144
51.9819482727 -11.3400250735 -3.0000097847
52.5344425552 -11.1271749027 -3.0000097847
52.8242963182 -7.2318220269 -3.0000134033
52.9348148838 -7.4616065805 -3.0000133313
52.9354676575 -7.4544364804 -3.0000133313
52.9726353255 -7.7104326348 -3.0000132880
53.0125072042 -7.8656189660 -3.0000132448
53.0502511322 -7.8115894874 -3.0000132304
53.0797629093 -7.6604601648 -3.0000132304
51.3919782322 -10.9956049114 -3.0000124812
51.4030919626 -10.9929833384 -3.0000124812
51.4141978894 -10.9903289005 -3.0000124812
53.0009322214 -4.2559028446 -3.0000124668
51.5820518363 -10.9962259323 -3.0000124524
51.6042718410 -10.9898253712 -3.0000124524
51.6153675457 -10.9865758206 -3.0000124524
51.6667550640 -10.9963559398 -3.0000124380
51.6850404174 -11.0160065348 -3.0000124235
51.7185276130 -11.0054416783 -3.0000124235
51.7407997526 -10.9982335193 -3.0000124235
51.8152727087 -10.9986597146 -3.0000124091
51.8790160335 -11.0016823037 -3.0000123947
51.9319846147 -11.0078562601 -3.0000123803
51.7708447744 -11.0901392383 -3.0000123659
51.7324075263 -11.1278364312 -3.0000123515
52.0612619884 -11.0089043160 -3.0000123515
51.9460436895 -11.2601598060 -3.0000122362
52.0613478748 -11.2430853311 -3.0000122218
52.2003032462 -11.2127842562 -3.0000122074
51.8242885561 -11.3776712428 -3.0000121930
52.7971014223 -7.8202199993 -3.0000150577
52.8669936432 -8.2347263728 -3.0000150750
52.8720418186 -8.3046068869 -3.0000150779
52.8269802011 -8.5076128723 -3.0000150807
53.0678834437 -7.3975831924 -3.0000150894
53.0626886725 -7.3367756609 -3.0000150894
52.9761625662 -6.8801757017 -3.0000150894
53.0979025991 -7.5111545892 -3.0000150923
53.0965009734 -7.4726788911 -3.0000150923
53.2916365059 -7.5220830096 -3.0000151153
51.9400726308 -10.9306654739 -3.0000152162
52.0390104604 -10.9394743786 -3.0000152219
52.0988607667 -10.9380922525 -3.0000152248
52.1087678441 -10.9333358739 -3.0000152248
52.3626493740 -10.9377033152 -3.0000152392
52.4560316536 -10.9400721998 -3.0000152450
52.4659430253 -10.9342592364 -3.0000152450
52.5403732694 -10.9460554046 -3.0000152508
52.6882820435 -10.9384526859 -3.0000152594
52.7706704798 -7.7096617091 -3.0000153161
52.8262839923 -7.7993196856 -3.0000153276
52.9681606854 -7.7477257360 -3.0000153622
52.9878558628 -7.6951752009 -3.0000153680
52.9426303252 -7.4080340341 -3.0000153680
53.0654662855 -8.1142979119 -3.0000153853
53.0809856735 -7.6557365101 -3.0000153910
53.0695324904 -7.5657798743 -3.0000153910
53.1077912817 -7.4979726452 -3.0000154026
53.1112089020 -7.3870641629 -3.0000154083
53.1062595904 -7.3642801388 -3.0000154083
53.1753542843 -7.6296400226 -3.0000154141
53.1955954927 -8.4272455254 -3.0000154256
53.2443704860 -8.8203778012 -3.0000154602
52.8458056577 -6.2652681345 -3.0000154602
52.4340347837 -10.8456937647 -3.0000156100
52.4817733448 -10.8432071258 -3.0000156158
52.5864305349 -10.8300174647 -3.0000156273
52.6175905635 -10.8375324410 -3.0000156331
52.7147705959 -10.8262430490 -3.0000156446
52.7464815307 -10.8325743765 -3.0000156504
52.8040374609 -10.8186651224 -3.0000156562
52.8360972485 -10.8241613214 -3.0000156619
53.4696396258 -10.7710317921 -3.0000157541
51.7783869691 -4.0479088047 -3.0000157541
51.7668876736 -4.0442665993 -3.0000157541
51.7553776542 -4.0406584268 -3.0000157541
51.8318800360 -4.0398717871 -3.0000157599
51.8203567315 -4.0360713747 -3.0000157599
51.8088222351 -4.0323050670 -3.0000157599
51.7972766478 -4.0285728968 -3.0000157599
51.8972688315 -4.0365537105 -3.0000157657
51.8857354254 -4.0325598808 -3.0000157657
51.8741902554 -4.0286001864 -3.0000157657
51.8626334223 -4.0246746620 -3.0000157657
51.9514960613 -4.0301347376 -3.0000157714
51.9399434295 -4.0259805220 -3.0000157714
52.0291646654 -4.0331904358 -3.0000157772
52.0176207331 -4.0288064491 -3.0000157772
51.9944942152 -4.0201410183 -3.0000157772
52.0956356037 -4.0331658457 -3.0000157829
52.0840913078 -4.0285852260 -3.0000157829
52.0377801383 -4.0106048451 -3.0000157829
52.1277645711 -4.0200270767 -3.0000157887
52.1717105141 -4.0119383136 -3.0000157945
52.2720371690 -4.0022878452 -3.0000158060
52.0458411620 -3.8072176455 -3.0000158291
52.2701754610 -3.8435276216 -3.0000158406
52.1411658124 -3.7395777560 -3.0000158521
52.1995587757 -3.7363183504 -3.0000158579
52.7366176849 -7.6914913681 -3.0000147820
52.8660444322 -7.3928673850 -3.0000147820
52.9752625912 -7.6479762454 -3.0000147820
52.8529349638 -7.2984613520 -3.0000147820
52.9685802643 -7.5380437331 -3.0000147820
52.8913209736 -7.2657324614 -3.0000147820
53.1265485398 -8.1655172776 -3.0000147820
53.1259054037 -8.1508458432 -3.0000147820
53.0021240638 -7.4109902462 -3.0000147820
52.9947639937 -7.2609723422 -3.0000147820
52.9459281892 -7.0994369622 -3.0000147820
53.2495719134 -7.9119546190 -3.0000147820
53.2700765187 -7.1061115226 -3.0000147820
53.2122182443 -6.9832781647 -3.0000147820
51.2031677157 -4.0323350152 -3.0000147820
51.2818114860 -4.0189759933 -3.0000147820
51.2692426206 -4.0171150092 -3.0000147820
51.2063187429 -4.0083682400 -3.0000147820
51.3862936321 -4.0113848883 -3.0000147820
51.3358887740 -4.0029284004 -3.0000147820
51.4662671371 -4.0014478693 -3.0000147820
51.4536456133 -3.9990413088 -3.0000147820
51.3016679978 -3.9730813655 -3.0000147820
51.5088613580 -3.9851943245 -3.0000147820
51.3346359559 -3.9292843174 -3.0000147820
51.7222543993 -3.9839043627 -3.0000147820
51.7663178977 -3.9702288079 -3.0000147820
51.8743258961 -3.9746914015 -3.0000147820
51.8234526984 -3.9604628579 -3.0000147820
51.9192229658 -3.9625764970 -3.0000147820
51.2644314387 -3.7722781239 -3.0000147820
52.2509834597 -3.9457613992 -3.0000147820
51.5966574756 -3.7564784587 -3.0000147820
52.2850692347 -3.9327191239 -3.0000147820
51.7486475333 -3.7663019710 -3.0000147820
51.4788888672 -3.5613273572 -3.0000147820
52.7851109872 -7.6882452197 -3.0000147820
52.7798176069 -7.6765621389 -3.0000147820
52.8292067097 -7.6684233027 -3.0000147820
53.1656741745 -7.8827617987 -3.0000147820
52.8648289087 -7.2316162628 -3.0000147820
52.9610885235 -6.9890556611 -3.0000147820
50.6484684831 -4.0188156238 -3.0000147820
50.5945438763 -4.0210196132 -3.0000147820
50.8510509229 -3.9920642881 -3.0000147820
50.6611806286 -3.9942036652 -3.0000147820
50.5798656221 -3.9975271464 -3.0000147820
50.9739632541 -3.9706841327 -3.0000147820
50.8649138023 -3.9680412242 -3.0000147820
51.1957490524 -3.9355281679 -3.0000147820
51.3768546732 -3.9298829112 -3.0000147820
51.4763915372 -3.9187348571 -3.0000147820
51.5766325998 -3.9097264272 -3.0000147820
51.6360163943 -3.8953473518 -3.0000147820
51.3996270815 -3.8596317244 -3.0000147820
50.8970512340 -3.7026012832 -3.0000147820
56.3376833127 -10.7429546662 -3.0000147820
52.7484142547 -7.6270116157 -3.0000147820
52.7411212503 -7.6168101127 -3.0000147820
52.7374521466 -7.6117255864 -3.0000147820
52.6070965551 -6.9772203746 -3.0000147820
52.8552557322 -7.1118232178 -3.0000147820
52.6521287795 -6.8888121170 -3.0000147820
53.1911443465 -7.4621533280 -3.0000147820
52.2579997331 -6.5920266027 -3.0000147820
52.3353895760 -6.5800884890 -3.0000147820
53.6304986621 -8.3879338474 -3.0000147820
50.1640639608 -3.9814355489 -3.0000147820
50.6852705226 -3.8938925396 -3.0000147820
50.9494208601 -3.8589117319 -3.0000147820
50.7574049370 -3.8653376604 -3.0000147820
50.3894820314 -3.8984138032 -3.0000147820
50.1120606853 -3.9416875601 -3.0000147820
51.0827332996 -3.8346191106 -3.0000147820
50.6227666536 -3.8500121714 -3.0000147820
51.2471074843 -3.8151530434 -3.0000147820
51.2321989284 -3.8145047138 -3.0000147820
51.2172885198 -3.8139004893 -3.0000147820
51.1576309690 -3.8119247416 -3.0000147820
51.2032479819 -3.7891830655 -3.0000147820
50.0352877530 -3.8579147658 -3.0000147820
50.3592039218 -3.7804505042 -3.0000147820
50.2842277789 -3.7907861906 -3.0000147820
51.6906682328 -3.7572355739 -3.0000147820
51.4355297304 -3.7058963947 -3.0000147820
50.5176102950 -3.6894444129 -3.0000147820
50.5767043298 -3.6597704123 -3.0000147820
50.4232485352 -3.6751692532 -3.0000147820
50.3404603939 -3.6366285645 -3.0000147820
50.0132249741 -3.6651810516 -3.0000147820
49.9777939854 -3.6475287049 -3.0000147820
56.1812180480 -10.2979817727 -3.0000147820
56.2254458104 -10.1293169812 -3.0000147820
56.2541525718 -10.0057937218 -3.0000147820
56.2829434772 -9.8660628875 -3.0000147820
56.1958288472 -10.3351377638 -3.0000147820
56.1347513558 -10.7536626201 -3.0000147820
56.3415600964 -10.0580679965 -3.0000147820
56.5374563121 -10.0681096219 -3.0000147820
52.6407174181 -7.5631519125 -3.0000147820
52.6337926517 -7.5248902344 -3.0000147820
52.9383164589 -7.3778440914 -3.0000147820
53.1432410136 -7.4898292242 -3.0000147820
53.4778755447 -7.8398902013 -3.0000147820
53.0176250375 -7.2529785082 -3.0000147820
52.8029167007 -7.0410944832 -3.0000147820
52.4507421636 -6.8211891088 -3.0000147820
52.4034940282 -6.7973975509 -3.0000147820
52.5556844525 -6.8506824063 -3.0000147820
52.0605342885 -6.6082136676 -3.0000147820
52.0752083022 -6.5875048763 -3.0000147820
52.7189200794 -6.8651041163 -3.0000147820
52.6173095182 -6.7745690818 -3.0000147820
51.7207268697 -6.3542067651 -3.0000147820
53.8267725202 -7.6712422103 -3.0000147820
56.1259226341 -9.8013690900 -3.0000147820
56.1377681332 -9.7152191771 -3.0000147820
56.1526649664 -9.5856340563 -3.0000147820
56.0605466326 -10.2621469887 -3.0000147820
56.1781636770 -9.5735820109 -3.0000147820
56.1529238218 -9.9384471156 -3.0000147820
56.1857201135 -9.7213794301 -3.0000147820
56.1893641971 -9.6923339389 -3.0000147820
56.1992645280 -9.6050752280 -3.0000147820
56.2144118314 -9.4300994400 -3.0000147820
56.2203764272 -9.3278187089 -3.0000147820
56.1767395832 -9.9425877424 -3.0000147820
56.2711480888 -9.2710673107 -3.0000147820
56.2713485814 -8.9164306174 -3.0000147820
56.2689343192 -8.8573617392 -3.0000147820
56.1715928680 -10.2128954604 -3.0000147820
56.2365489635 -9.8776193495 -3.0000147820
56.2803498614 -8.6635989554 -3.0000147820
56.3165078584 -8.8401963471 -3.0000147820
56.3215439395 -9.7995848281 -3.0000147820
56.5756659944 -9.8993230049 -3.0000147820
50.6014082677 -3.7750590691 -3.0000147820
50.4131704504 -3.8024283796 -3.0000147820
50.7565922098 -3.7333073208 -3.0000147820
50.5352193016 -3.7594978319 -3.0000147820
50.4721873788 -3.7686625167 -3.0000147820
50.2681586260 -3.8035867961 -3.0000147820
50.2212762297 -3.8127586746 -3.0000147820
50.8817446167 -3.6983563053 -3.0000147820
50.7065110424 -3.7141098610 -3.0000147820
50.3580446715 -3.7626725492 -3.0000147820
50.5444624836 -3.7094204091 -3.0000147820
50.4490661295 -3.7232908018 -3.0000147820
50.3381026167 -3.7416097337 -3.0000147820
49.3546903688 -3.9858091558 -3.0000147820
50.0438421160 -3.7521226447 -3.0000147820
49.6218149416 -3.8676283985 -3.0000147820
49.2465404023 -3.9758207246 -3.0000147820
49.7637872252 -3.7744250158 -3.0000147820
49.4517564842 -3.7199577903 -3.0000147820
53.2090290649 -7.4769422560 -3.0000147820
52.5501122605 -7.0234458186 -3.0000147820
52.5099277807 -7.0064598282 -3.0000147820
52.9646599652 -7.2235251487 -3.0000147820
52.7188052123 -7.0769945094 -3.0000147820
52.4455156295 -6.9293183155 -3.0000147820
53.2960737757 -7.4256109160 -3.0000147820
52.0031933962 -6.7606880452 -3.0000147820
53.1017765167 -7.1720628324 -3.0000147820
52.5383897900 -6.8354771055 -3.0000147820
56.0074473259 -9.7953415800 -3.0000147820
56.0132474172 -9.7428354599 -3.0000147820
56.0171895475 -9.7034128417 -3.0000147820
56.0314580808 -9.7981378150 -3.0000147820
56.0329745102 -9.7849467362 -3.0000147820
56.0344519114 -9.7717512292 -3.0000147820
56.0358902714 -9.7585514096 -3.0000147820
56.0510309455 -9.5866139041 -3.0000147820
56.0527729870 -9.5601152207 -3.0000147820
56.0613047502 -9.2283515241 -3.0000147820
56.0653165588 -9.7080097882 -3.0000147820
56.0834561061 -9.1346564059 -3.0000147820
56.1091747564 -9.3620108884 -3.0000147820
56.1055831798 -9.0802385664 -3.0000147820
56.1193613014 -9.6454049727 -3.0000147820
56.1308350033 -9.1061423880 -3.0000147820
56.1367034063 -8.8346035413 -3.0000147820
56.1353690665 -8.8211053437 -3.0000147820
56.1482771470 -9.8391974351 -3.0000147820
56.1566181600 -8.7915652582 -3.0000147820
56.1489086094 -8.7238256743 -3.0000147820
56.1364338917 -8.6291975853 -3.0000147820
56.2019498012 -9.4870794916 -3.0000147820
56.1677725809 -8.6801153482 -3.0000147820
56.2305052068 -9.2264451304 -3.0000147820
56.2211112745 -8.9786390777 -3.0000147820
56.1697144962 -8.5270438387 -3.0000147820
56.1454647216 -8.3914144815 -3.0000147820
56.3464416113 -9.0555310007 -3.0000147820
56.2819631526 -8.4657121546 -3.0000147820
56.1721298399 -7.8949952670 -3.0000147820
56.2306657592 -8.0115691030 -3.0000147820
56.1698637337 -7.8062125932 -3.0000147820
56.1566132551 -7.7654763545 -3.0000147820
56.1093402894 -7.4926663841 -3.0000147820
49.6187405378 -3.7476006846 -3.0000147820
49.5287548637 -3.7544399085 -3.0000147820
51.8269419337 -6.7623597569 -3.0000147820
52.2953976218 -6.7428155435 -3.0000147820
52.2351129682 -6.7101278567 -3.0000147820
53.3498178222 -6.8279846261 -3.0000147820
55.9914635727 -9.1847447116 -3.0000147820
55.9876417009 -9.1241966242 -3.0000147820
56.0090159098 -9.0859821395 -3.0000147820
56.0037313815 -9.0251852492 -3.0000147820
56.0572100043 -9.0821519454 -3.0000147820
56.0320612515 -8.8489160361 -3.0000147820
56.0286523883 -8.8244557587 -3.0000147820
56.1098915964 -9.1406166081 -3.0000147820
56.1369573870 -9.1892230874 -3.0000147820
56.0968321525 -8.7893693098 -3.0000147820
56.0871510001 -8.7273060280 -3.0000147820
56.0698280216 -8.2105672551 -3.0000147820
56.2787507515 -9.1297072278 -3.0000147820
56.3201188495 -9.0349048705 -3.0000147820
56.3168272786 -8.6359208288 -3.0000147820
52.9001089307 -7.1719467327 -3.0000147820
52.6921706909 -7.1223240895 -3.0000147820
52.5373138703 -7.0977547298 -3.0000147820
53.0575186617 -7.1971939483 -3.0000147820
52.8581629084 -7.1353470439 -3.0000147820
52.3179038443 -7.0561720116 -3.0000147820
52.8713568314 -7.1138387438 -3.0000147820
52.6870067406 -7.0721444160 -3.0000147820
52.9482445375 -7.1104696738 -3.0000147820
52.6227692892 -7.0121309387 -3.0000147820
51.9146895782 -6.9544314939 -3.0000147820
51.3647930026 -6.6796020728 -3.0000147820
49.2457837112 -7.1657676791 -3.0000147820
49.2389252034 -7.1746274384 -3.0000147820
55.9746350473 -8.6245842480 -3.0000147820
55.9903219640 -8.5857977921 -3.0000147820
55.9821615966 -8.5525278296 -3.0000147820
55.9793759016 -8.5414540971 -3.0000147820
55.9765574606 -8.5303886536 -3.0000147820
56.0083831163 -8.5578166262 -3.0000147820
56.0056129518 -8.5466653025 -3.0000147820
55.9912679911 -8.4910342849 -3.0000147820
55.9993694912 -8.4290679243 -3.0000147820
55.9930346237 -8.4068291014 -3.0000147820
55.9963482634 -8.3332405998 -3.0000147820
55.9929138150 -8.3221258600 -3.0000147820
55.9894465022 -8.3110213286 -3.0000147820
56.0228768274 -8.3373314836 -3.0000147820
56.0018462094 -8.2703266341 -3.0000147820
56.0138173248 -8.2293196958 -3.0000147820
56.0024924891 -8.1958552628 -3.0000147820
55.9986516031 -8.1847229484 -3.0000147820
56.0656665664 -8.3119335491 -3.0000147820
55.9976116274 -8.1098500492 -3.0000147820
56.0120339075 -8.0791710445 -3.0000147820
56.0154324211 -7.8304906297 -3.0000147820
56.2006787238 -8.2575898194 -3.0000147820
56.0068766942 -7.5326270335 -3.0000147820
56.0456413589 -7.5552134224 -3.0000147820
56.2611367934 -7.9861531894 -3.0000147820
56.2127750168 -7.7996917836 -3.0000147820
56.2597066675 -7.8495523239 -3.0000147820
55.6980612201 -6.8240704057 -3.0000147820
53.0697991909 -6.7251482816 -3.0000147820
55.9309694594 -8.0007255391 -3.0000147820
55.9803017420 -7.7684738134 -3.0000147820
55.9363380330 -7.5858277699 -3.0000147820
52.6734508154 -7.0143427871 -3.0000147820
51.8118927068 -7.0027751497 -3.0000147820
52.9430227514 -6.7105054654 -3.0000147820
49.0406352841 -8.2446101890 -3.0000147820
49.0370611740 -8.2561308311 -3.0000147820
49.0436831442 -8.1565957960 -3.0000147820
49.0325367619 -8.1142524163 -3.0000147820
49.0343000051 -8.0369514883 -3.0000147820
49.0301116307 -8.0484917799 -3.0000147820
49.0259574130 -8.0600444110 -3.0000147820
49.0375854620 -7.9592922640 -3.0000147820
49.0294965559 -7.7261347225 -3.0000147820
49.0065092705 -7.5463424339 -3.0000147820
48.8027622235 -7.9663591113 -3.0000147820
52.0511422579 -7.2451069416 -3.0000147820
53.1446999200 -6.8985861322 -3.0000147820
53.1645169062 -6.8492928693 -3.0000147820
53.0239988159 -6.8589973141 -3.0000147820
52.6878387423 -6.9150049029 -3.0000147820
51.9452170716 -7.1672977782 -3.0000147820
52.8818977309 -6.7058316750 -3.0000147820
52.8271568200 -6.7143705328 -3.0000147820
55.6835739660 -6.9609193753 -3.0000147820
49.0323217008 -8.7968262803 -3.0000147820
49.0306932999 -8.8093552831 -3.0000147820
49.0227961559 -8.6930615689 -3.0000147820
49.0208608419 -8.7056192040 -3.0000147820
49.0171016993 -8.7307513745 -3.0000147820
49.0152779035 -8.7433256899 -3.0000147820
49.0158233422 -8.5885363394 -3.0000147820
49.0092015574 -8.6262921408 -3.0000147820
49.0070687868 -8.6388902833 -3.0000147820
49.0049732932 -8.6514946798 -3.0000147820
48.9913500908 -8.7398912957 -3.0000147820
48.9843881509 -8.7905242228 -3.0000147820
48.9811319732 -8.8158706919 -3.0000147820
49.0063596525 -8.5085054427 -3.0000147820
48.9897754440 -8.5969040081 -3.0000147820
48.9877509906 -8.4784703909 -3.0000147820
48.9949740378 -8.3341042916 -3.0000147820
48.9747811520 -8.4227759950 -3.0000147820
48.9195666528 -8.7295881132 -3.0000147820
48.8938019752 -8.7390873636 -3.0000147820
48.9735471596 -8.2209707060 -3.0000147820
48.9710645759 -8.1383705556 -3.0000147820
48.9639502713 -8.1638072653 -3.0000147820
48.9431867885 -8.0611205196 -3.0000147820
48.7944136702 -8.7520830191 -3.0000147820
48.7741126375 -8.7222693818 -3.0000147820
48.7636159804 -8.8021071229 -3.0000147820
48.9459802262 -7.8930022940 -3.0000147820
48.7396221857 -8.7991689100 -3.0000147820
48.9230870007 -7.7405958183 -3.0000147820
48.9930487073 -7.4417747494 -3.0000147820
48.6572041851 -8.0052914680 -3.0000147820
52.3611271789 -7.1118820630 -3.0000147820
51.9595256953 -7.3414937275 -3.0000147820
53.1871627493 -6.7164011548 -3.0000147820
52.6954396247 -6.7430487245 -3.0000147820
49.0216746206 -9.4189325414 -3.0000147820
48.9922172744 -9.1353854745 -3.0000147820
48.9919611316 -9.1625122139 -3.0000147820
48.9951555489 -9.3659303535 -3.0000147820
48.9956893966 -9.3794838331 -3.0000147820
48.9962633356 -9.3930356742 -3.0000147820
48.9712010509 -9.0124103935 -3.0000147820
48.9706892275 -9.0260362816 -3.0000147820
48.9517821585 -8.9156368872 -3.0000147820
48.9509841465 -8.9293206433 -3.0000147820
48.9502266170 -8.9430067002 -3.0000147820
48.9333194414 -8.8317183081 -3.0000147820
48.9351222224 -8.5819257427 -3.0000147820
48.9120276011 -8.4095632446 -3.0000147820
48.9009617544 -8.4786471769 -3.0000147820
48.8469897840 -9.2315363483 -3.0000147820
48.8234510922 -9.1051615044 -3.0000147820
48.8834114798 -8.1743500212 -3.0000147820
48.8716958888 -8.2299592595 -3.0000147820
48.7315218128 -8.4674514420 -3.0000147820
48.6781109635 -9.2619272826 -3.0000147820
48.8315104658 -7.8800738461 -3.0000147820
48.8992725315 -7.5801129583 -3.0000147820
48.6364321840 -8.9261035501 -3.0000147820
48.9468988351 -7.3152706374 -3.0000147820
49.0065737444 -7.1151756354 -3.0000147820
49.1090617536 -6.8504800734 -3.0000147820
49.1021539460 -6.8637076039 -3.0000147820
55.6524620615 -3.6535365837 -3.0000147820
52.5655249266 -6.9436024425 -3.0000147820
52.3732335153 -7.0789326321 -3.0000147820
52.2849705568 -7.1511480903 -3.0000147820
52.2263174632 -7.2031818671 -3.0000147820
52.4100049670 -7.0207174856 -3.0000147820
52.6016624630 -6.8647723787 -3.0000147820
52.6723805520 -6.7969100559 -3.0000147820
52.2601314567 -7.0771245500 -3.0000147820
52.1555228436 -7.1369222479 -3.0000147820
51.9266575742 -7.3403654622 -3.0000147820
52.9810923209 -6.5530465618 -3.0000147820
51.8083385963 -7.4099254240 -3.0000147820
51.9324986462 -7.2240701079 -3.0000147820
51.7432027652 -7.4569961205 -3.0000147820
53.0604136054 -6.4751735664 -3.0000147820
53.2960572505 -6.3134514888 -3.0000147820
52.9243896234 -6.4193216724 -3.0000147820
52.0923031896 -6.3868612160 -3.0000147820
51.4178277352 -6.9690816325 -3.0000147820
48.9789051243 -9.8214948702 -3.0000147820
48.9892093723 -9.8791270843 -3.0000147820
49.0001948301 -9.9366333390 -3.0000147820
48.8902558265 -9.2559868704 -3.0000147820
48.9169968048 -9.5636479335 -3.0000147820
48.9223752604 -9.6074431431 -3.0000147820
48.9654392783 -9.8835222991 -3.0000147820
48.9852060542 -9.9845619769 -3.0000147820
48.9912375841 -10.0133531926 -3.0000147820
48.8584033694 -8.9914410734 -3.0000147820
48.8804903555 -9.4489163645 -3.0000147820
48.8342472619 -8.9617966286 -3.0000147820
48.8456388728 -9.3179670914 -3.0000147820
48.8102678909 -8.9318667736 -3.0000147820
48.8647014989 -9.7200801658 -3.0000147820
48.8786314806 -9.8085246361 -3.0000147820
48.7903361007 -8.7667645691 -3.0000147820
48.7622121399 -9.0519324908 -3.0000147820
48.8146895460 -9.7122721413 -3.0000147820
48.7381274338 -8.9009100844 -3.0000147820
48.7240458171 -9.3109402121 -3.0000147820
48.7274787119 -8.3516339898 -3.0000147820
48.7407488551 -9.7075819467 -3.0000147820
48.6733660175 -8.6850276531 -3.0000147820
48.7067416537 -9.8058913312 -3.0000147820
48.6343713262 -9.4098906122 -3.0000147820
48.6666131613 -9.8596292285 -3.0000147820
55.2061506126 -3.7939637811 -3.0000147820
55.1754476077 -3.7860581453 -3.0000147820
54.9282497123 -3.7293793208 -3.0000147820
54.8193115763 -3.7082735175 -3.0000147820
54.5688322712 -3.6685317724 -3.0000147820
55.0731020646 -3.7362762174 -3.0000147820
54.6980950389 -3.6630462572 -3.0000147820
55.7903481301 -3.9048761411 -3.0000147820
55.2399825399 -3.7278645157 -3.0000147820
55.5631578660 -3.7730354817 -3.0000147820
55.6636050596 -3.7303138971 -3.0000147820
54.8512749840 -3.3456070501 -3.0000147820
52.2553477210 -7.1982268652 -3.0000147820
52.6931068141 -6.7293833045 -3.0000147820
52.6232752777 -6.7802480940 -3.0000147820
52.5055714029 -6.8751076633 -3.0000147820
52.1125972980 -7.3041140016 -3.0000147820
51.9702298880 -7.4790146480 -3.0000147820
51.9414155059 -7.5295451901 -3.0000147820
52.3655467165 -6.9373228484 -3.0000147820
51.9708914486 -7.3848892921 -3.0000147820
51.7809680548 -7.6884922387 -3.0000147820
51.8524371669 -7.1276830001 -3.0000147820
51.5011550847 -7.4321031289 -3.0000147820
55.2646448988 -3.9898692662 -3.0000147820
54.8263859306 -3.9022682003 -3.0000147820
54.7407322943 -3.8899742078 -3.0000147820
54.5856292481 -3.8473415117 -3.0000147820
55.2479900850 -3.9360158226 -3.0000147820
54.6749311897 -3.8328870411 -3.0000147820
54.5735771925 -3.8218428059 -3.0000147820
54.4446952909 -3.7866196368 -3.0000147820
54.1083551562 -3.7739867320 -3.0000147820
53.9912689832 -3.7749596947 -3.0000147820
53.9620035991 -3.7756358610 -3.0000147820
55.2879233020 -3.8960210884 -3.0000147820
55.0726824335 -3.8476743587 -3.0000147820
54.3730350466 -3.7577929553 -3.0000147820
54.0790241149 -3.7497972354 -3.0000147820
55.0339513546 -3.8154152098 -3.0000147820
54.0346285377 -3.7259271309 -3.0000147820
53.9311971216 -3.7281638159 -3.0000147820
54.9069359189 -3.7681985064 -3.0000147820
53.5872437141 -3.7024722703 -3.0000147820
54.8555587694 -3.7110970636 -3.0000147820
54.6527547055 -3.6356817664 -3.0000147820
55.5613432214 -3.6945073296 -3.0000147820
55.6560257331 -3.5966626627 -3.0000147820
48.7998900435 -9.5711902211 -3.0000147820
48.8273280021 -9.7273143352 -3.0000147820
48.7416057167 -9.3226007998 -3.0000147820
48.7434064199 -9.3384224199 -3.0000147820
48.7686599777 -9.5278214230 -3.0000147820
48.8535930479 -9.9653928860 -3.0000147820
48.7890537602 -9.7834789143 -3.0000147820
48.8019872821 -9.8461387735 -3.0000147820
48.8377265030 -10.1012561601 -3.0000147820
48.8441674160 -10.2163545044 -3.0000147820
48.9417196692 -10.5239759749 -3.0000147820
48.6755089017 -9.5583232671 -3.0000147820
48.7310533165 -9.8612182321 -3.0000147820
48.7436140670 -10.0249751143 -3.0000147820
48.9291748959 -10.6318593038 -3.0000147820
48.6419212269 -10.0156541837 -3.0000147820
48.7765345858 -10.5641610404 -3.0000147820
48.8043652265 -10.6425613788 -3.0000147820
48.8167182611 -10.7447423805 -3.0000147820
48.8788596401 -10.8998553153 -3.0000147820
48.4109885032 -9.9820449011 -3.0000147820
48.6965644761 -10.9014230962 -3.0000147820
52.3161103170 -7.0291772225 -3.0000147820
52.0127066522 -7.5393857729 -3.0000147820
52.3365375906 -6.8815416757 -3.0000147820
52.6965320351 -6.4213480300 -3.0000147820
54.7664483915 -4.0136176030 -3.0000147820
54.7272631119 -4.0094649486 -3.0000147820
54.7141933530 -4.0081580286 -3.0000147820
54.5570918923 -3.9954940584 -3.0000147820
54.7953469834 -3.9925684052 -3.0000147820
54.7297038903 -3.9854154604 -3.0000147820
54.5717855068 -3.9722153370 -3.0000147820
54.7057166868 -3.9587627615 -3.0000147820
54.2549118437 -3.9384908500 -3.0000147820
54.2150799999 -3.9388807539 -3.0000147820
54.1885280375 -3.9393370650 -3.0000147820
54.5882763200 -3.9248688143 -3.0000147820
54.3081800475 -3.9143483491 -3.0000147820
54.0400279260 -3.8963749368 -3.0000147820
53.9730447139 -3.9004039748 -3.0000147820
53.9310422097 -3.8791941807 -3.0000147820
53.7536821018 -3.8719179526 -3.0000147820
54.3360765111 -3.8179156960 -3.0000147820
54.0770680099 -3.8219837085 -3.0000147820
53.7644610673 -3.8463621132 -3.0000147820
54.7876812553 -3.8214025579 -3.0000147820
54.0349363365 -3.7998169738 -3.0000147820
53.4184872844 -3.8493815306 -3.0000147820
54.2119851973 -3.7213455152 -3.0000147820
53.0316357154 -3.7889665689 -3.0000147820
54.8744613398 -3.5638130156 -3.0000147820
48.7461186015 -10.7776200246 -3.0000147820
48.5131324221 -10.3686906761 -3.0000147820
52.2469867790 -7.1042096988 -3.0000147820
52.4233990218 -6.6604291520 -3.0000147820
52.1111279507 -7.2415283739 -3.0000147820
51.9208570480 -7.8361667650 -3.0000147820
52.1328145160 -6.9516455502 -3.0000147820
51.8288892229 -6.5999606118 -3.0000147820
54.1968757326 -4.0078935609 -3.0000147820
54.1847597017 -4.0085504287 -3.0000147820
54.1605337343 -4.0099716738 -3.0000147820
54.1484240099 -4.0107360388 -3.0000147820
54.1363165995 -4.0115362231 -3.0000147820
54.1242116092 -4.0123722198 -3.0000147820
54.0758179670 -4.0160741799 -3.0000147820
54.0395533342 -4.0192262905 -3.0000147820
54.1468655591 -3.9866133003 -3.0000147820
54.0107081860 -3.9733879078 -3.0000147820
53.9130773789 -3.9840609634 -3.0000147820
53.8643635253 -3.9902631437 -3.0000147820
53.7793031722 -4.0025023210 -3.0000147820
53.7634120716 -3.9805158045 -3.0000147820
53.7024954247 -3.9905725565 -3.0000147820
54.1545853962 -3.9134627013 -3.0000147820
53.6739169652 -3.9710516835 -3.0000147820
53.6250659225 -3.9800846317 -3.0000147820
54.0764218283 -3.8705127111 -3.0000147820
53.7358906710 -3.8869853240 -3.0000147820
54.0093014347 -3.8278197815 -3.0000147820
54.1686279381 -3.7189230010 -3.0000147820
53.0852855344 -3.9175849700 -3.0000147820
52.9460721475 -3.9130512697 -3.0000147820
54.0065524588 -3.6581357468 -3.0000147820
53.9671140508 -3.6619166451 -3.0000147820
52.8759250701 -3.9125088124 -3.0000147820
53.5836817078 -3.6926884979 -3.0000147820
53.4406022791 -3.7220007581 -3.0000147820
52.9677568220 -3.8544274416 -3.0000147820
51.7198358501 -7.9004334039 -3.0000147820
51.6684081212 -8.8924965066 -3.0000147820
52.1923917284 -10.7747017120 -3.0000147820
53.6024930948 -4.0305356415 -3.0000147820
53.5914567170 -4.0331734549 -3.0000147820
53.5694076122 -4.0385469666 -3.0000147820
53.5583950782 -4.0412826179 -3.0000147820
53.4862164461 -4.0350359032 -3.0000147820
52.0497927426 -10.7546095310 -3.0000147820
51.9902586017 -10.7367190716 -3.0000147820
53.3957286586 -4.0101744833 -3.0000147820
53.3514041941 -4.0233694179 -3.0000147820
53.3403477160 -4.0267500291 -3.0000147820
53.4786217683 -3.9620004621 -3.0000147820
53.2888480734 -4.0175786287 -3.0000147820
53.2556599555 -4.0283738877 -3.0000147820
53.2147863521 -4.0165773019 -3.0000147820
53.2037103794 -4.0203620831 -3.0000147820
53.1736068767 -4.0052138783 -3.0000147820
53.0457331970 -4.0006146323 -3.0000147820
53.0235010143 -4.0092173974 -3.0000147820
52.9053291597 -4.0049988055 -3.0000147820
52.8736072986 -3.9922118754 -3.0000147820
53.2077210424 -3.7643534839 -3.0000147820
51.5887325933 -7.4241187157 -3.0000147820
51.6062177718 -7.0444530228 -3.0000147820
51.6035703882 -7.0586070576 -3.0000147820
51.5915920163 -7.1295985310 -3.0000147820
51.5678724677 -7.3514483596 -3.0000147820
51.5670372918 -7.6320819054 -3.0000147820
51.5726536399 -7.7110763236 -3.0000147820
51.5915788354 -7.8683081356 -3.0000147820
51.5997414848 -7.9180400997 -3.0000147820
51.5955461767 -6.9758187782 -3.0000147820
51.5676990332 -7.1259296565 -3.0000147820
51.6015509064 -6.8494261543 -3.0000147820
51.5833863620 -6.9205688779 -3.0000147820
51.5703561944 -8.0200554307 -3.0000147820
51.5633769911 -6.9005257933 -3.0000147820
51.5322483480 -7.0454851630 -3.0000147820
51.5210492112 -7.1112651964 -3.0000147820
51.4910116367 -7.4730020192 -3.0000147820
51.5363531098 -7.9742770760 -3.0000147820
51.5598579941 -8.0829697272 -3.0000147820
51.5801474600 -8.1619590277 -3.0000147820
51.6074234344 -8.2543985766 -3.0000147820
51.5670275783 -6.7935314217 -3.0000147820
51.5435211123 -6.8802258995 -3.0000147820
51.5329255534 -6.9238723725 -3.0000147820
51.5112268939 -7.0263948493 -3.0000147820
51.4709154389 -7.3530592318 -3.0000147820
51.5295460551 -8.0594423138 -3.0000147820
51.4543327668 -7.2537169104 -3.0000147820
51.4467773866 -7.6462363363 -3.0000147820
51.5682544914 -8.2905568269 -3.0000147820
51.5778368532 -6.6061796612 -3.0000147820
51.6139165539 -8.4840862437 -3.0000147820
51.6348460996 -6.4058398449 -3.0000147820
51.5247134352 -6.6850498987 -3.0000147820
51.4291808384 -7.9244005162 -3.0000147820
51.5722520213 -6.4881742558 -3.0000147820
51.4536095216 -6.8415221195 -3.0000147820
51.3459115244 -7.4793408018 -3.0000147820
51.3802144089 -7.9245617076 -3.0000147820
51.5070653899 -8.4094680260 -3.0000147820
51.3408504346 -7.1791641748 -3.0000147820
