5.8946910511 -26.4014260318 -2.4097619057
5.8812636014 -26.4027491479 -2.4097619057
5.7472269768 -26.4181625531 -2.4097619057
5.6937498422 -26.4254369513 -2.4097619057
5.6537005253 -26.4313077276 -2.4097619057
5.6403625255 -26.4333436065 -2.4097619057
5.4808141615 -26.4608456026 -2.4097619057
5.4675642966 -26.4633927813 -2.4097619057
5.3355023593 -26.4910158610 -2.4097619057
6.2985847682 -26.3560726968 -2.4097619057
6.2578960648 -26.3565786340 -2.4097619057
6.2172134536 -26.3574456406 -2.4097619057
6.0004746526 -26.3681636484 -2.4097619057
5.6232771431 -26.4115390920 -2.4097619057
5.3037532953 -26.4734551641 -2.4097619057
6.5573795593 -26.3371084456 -2.4097619057
5.7409940978 -26.3702199588 -2.4097619057
5.6734530137 -26.3795092192 -2.4097619057
5.5656945559 -26.3964468296 -2.4097619057
6.5448524253 -26.3123232073 -2.4097619057
6.3667325932 -26.3076870002 -2.4097619057
6.2570804583 -26.3082394582 -2.4097619057
6.0653314891 -26.3154484469 -2.4097619057
5.5211459001 -26.3796581637 -2.4097619057
6.7658583607 -26.3033545367 -2.4097619057
6.4357818668 -26.2844920722 -2.4097619057
6.3393400407 -26.2834088130 -2.4097619057
5.9265109034 -26.3013760005 -2.4097619057
5.9127873484 -26.3026054254 -2.4097619057
5.8853514493 -26.3051860383 -2.4097619057
5.8716393452 -26.3065372037 -2.4097619057
5.4491698458 -26.3684664483 -2.4097619057
6.0901728353 -26.2656527010 -2.4097619057
6.7841879285 -26.2565230721 -2.4097619057
6.6037457983 -26.2427264061 -2.4097619057
5.9777672541 -26.2486580519 -2.4097619057
6.4093659091 -26.2114686092 -2.4097619057
5.5179364488 -26.2820320063 -2.4097619057
5.3257362066 -26.3198660650 -2.4097619057
7.0817445825 -26.2456840099 -2.4097619057
5.7083509837 -26.2282260351 -2.4097619057
5.4722335896 -26.2656972162 -2.4097619057
5.6771495605 -26.2080747674 -2.4097619057
5.8713420465 -26.1608260480 -2.4097619057
5.7724606237 -26.1714564887 -2.4097619057
6.0540663604 -26.1223926132 -2.4097619057
5.6704914634 -26.1601893744 -2.4097619057
5.5434549068 -26.1795799162 -2.4097619057
6.5989999479 -26.0729893056 -2.4097619057
6.4837290593 -26.0681112767 -2.4097619057
5.4928762731 -26.1391752328 -2.4097619057
5.3179614828 -26.1484507256 -2.4097619057
7.6553416448 -26.1726827207 -2.4097619057
7.6412298275 -26.1687985147 -2.4097619057
5.9740010273 -26.0065359591 -2.4097619057
5.5814376267 -26.0510901715 -2.4097619057
5.2221837801 -26.1201538017 -2.4097619057
6.6629570489 -25.9799690613 -2.4097619057
5.6796649482 -26.0125682756 -2.4097619057
5.4182833243 -26.0544452581 -2.4097619057
5.7791656737 -25.9760276560 -2.4097619057
5.7204547578 -25.9829550928 -2.4097619057
7.8597202208 -26.1578669878 -2.4097619057
6.2208592022 -25.9221149840 -2.4097619057
5.6438590747 -25.9686478020 -2.4097619057
11.3195334620 -31.7184662671 -2.4097619057
11.3595328676 -31.3926721453 -2.4097619057
11.3667548655 -31.3034291542 -2.4097619057
11.3758772026 -31.1395409150 -2.4097619057
6.9647854260 -25.9360743759 -2.4097619057
6.8164716580 -25.9196440491 -2.4097619057
5.8628480277 -25.9188066391 -2.4097619057
11.1736355680 -32.4517197310 -2.4097619057
11.3387093500 -31.7518073602 -2.4097619057
11.3987636248 -31.1704529653 -2.4097619057
11.4000315327 -31.1404915048 -2.4097619057
7.1162730957 -25.9329999354 -2.4097619057
6.8933509244 -25.9032847291 -2.4097619057
6.6992471543 -25.8855522502 -2.4097619057
5.8904489815 -25.8920198788 -2.4097619057
5.5630235959 -25.9316359731 -2.4097619057
5.5333990383 -25.9362923984 -2.4097619057
5.4404508028 -25.9275151131 -2.4097619057
11.4509697570 -30.8245739668 -2.4097619057
11.4492320328 -30.7640505551 -2.4097619057
6.2186560362 -25.8254479753 -2.4097619057
11.0877522211 -32.9022590871 -2.4097619057
5.6121531821 -25.8510510987 -2.4097619057
5.3721327955 -25.8909636119 -2.4097619057
11.4889994708 -30.5945200290 -2.4097619057
11.4974955973 -30.4093506829 -2.4097619057
11.5062843557 -31.6071199540 -2.4097619057
8.3188919331 -26.0933949433 -2.4097619057
5.4260491377 -25.7582238366 -2.4097619057
11.4693767820 -32.2002473019 -2.4097619057
11.6062361496 -30.5396159533 -2.4097619057
11.2665149908 -32.9760244597 -2.4097619057
5.3514114015 -25.6980696354 -2.4097619057
5.3002517935 -25.6832892402 -2.4097619057
9.0649060973 -29.2623352160 -2.4097616673
7.7222864250 -28.0528626778 -2.4097616673
11.1154254990 -31.6936570086 -2.4097616673
11.0052938225 -32.3717063863 -2.4097616673
11.0334432305 -32.2651358030 -2.4097616673
11.0400859030 -32.2383914012 -2.4097616673
11.0465702304 -32.2116081672 -2.4097616673
11.0766089409 -32.0771423723 -2.4097616673
11.0927183560 -31.9960571061 -2.4097616673
11.1050418074 -31.9282763149 -2.4097616673
11.1096902529 -31.9011142075 -2.4097616673
11.1141779170 -31.8739250737 -2.4097616673
11.1286163698 -31.7785640211 -2.4097616673
11.1442734296 -31.6555534420 -2.4097616673
11.1554373991 -31.5458946795 -2.4097616673
11.0057097393 -32.4580427346 -2.4097616673
11.0285906097 -32.3781558040 -2.4097616673
11.0430552545 -32.3246776746 -2.4097616673
11.1030751024 -32.0684988600 -2.4097616673
11.1240222479 -31.9596993541 -2.4097616673
11.1506014117 -31.7956469347 -2.4097616673
11.1819110518 -31.5204622155 -2.4097616673
11.0328204788 -32.4515499236 -2.4097616673
11.0870406080 -32.2499064700 -2.4097616673
11.0903364373 -32.2363806976 -2.4097616673
11.1210887101 -32.1006095678 -2.4097616673
11.1526707337 -31.9365724891 -2.4097616673
11.1641078268 -31.8679114857 -2.4097616673
11.0788976071 -32.3775633228 -2.4097616673
11.2442799432 -30.9792629972 -2.4097616673
11.0712333204 -32.4921084381 -2.4097616673
11.2707139395 -31.1613115527 -2.4097616673
11.2674672331 -30.9503855639 -2.4097616673
11.2357274569 -31.8792977104 -2.4097616673
11.2400838414 -31.8513632800 -2.4097616673
11.2502510958 -31.7814187235 -2.4097616673
11.2842239732 -30.8083157464 -2.4097616673
11.1450745457 -32.4104028924 -2.4097616673
11.2097489873 -32.1483576793 -2.4097616673
11.2867548366 -31.6860637340 -2.4097616673
11.2993737304 -30.6933900335 -2.4097616673
11.3381358468 -30.9048618105 -2.4097616673
11.3247212047 -30.7054196490 -2.4097616673
11.1916681201 -32.4233017278 -2.4097616673
11.3517084630 -31.5203078830 -2.4097616673
11.2149649073 -32.4297511455 -2.4097616673
11.3279949256 -30.3435124254 -2.4097616673
11.2459128589 -32.4082413926 -2.4097616673
11.3431864390 -31.9697571857 -2.4097616673
6.0719853693 -26.2497089055 -2.4097616673
5.8272749237 -26.2782158169 -2.4097616673
5.6983885827 -26.2982789736 -2.4097616673
5.3577728791 -26.3684735395 -2.4097616673
5.2174749680 -26.4048247975 -2.4097616673
11.3427902185 -32.1027321530 -2.4097616673
11.3501200087 -30.1923428904 -2.4097616673
6.3459494318 -26.2082915658 -2.4097616673
5.4087448562 -26.3315443103 -2.4097616673
5.3379097079 -26.3484512901 -2.4097616673
5.3237731205 -26.3519583080 -2.4097616673
5.0017611832 -26.4440906861 -2.4097616673
4.9879089851 -26.4485916737 -2.4097616673
11.3664858178 -32.1075127234 -2.4097616673
11.3681977630 -30.1590222745 -2.4097616673
11.3769519060 -30.0822789806 -2.4097616673
6.6971968191 -26.1602845552 -2.4097616673
5.7443448890 -26.2172988809 -2.4097616673
5.6283340171 -26.2369428885 -2.4097616673
11.4196370467 -32.0880812798 -2.4097616673
11.4834393584 -31.8585302007 -2.4097616673
6.8917096993 -26.1226996676 -2.4097616673
11.3956723540 -29.7563587222 -2.4097616673
6.3709025149 -26.0623909914 -2.4097616673
11.5056581182 -32.1509598320 -2.4097616673
11.5218856586 -30.1897505475 -2.4097616673
11.6329239179 -31.0578176873 -2.4097616673
5.0219084017 -26.2097840063 -2.4097616673
11.4312942536 -29.5400351645 -2.4097616673
11.5565876577 -32.3650571578 -2.4097616673
11.7073307425 -31.8287713112 -2.4097616673
7.5522449102 -25.9945431955 -2.4097616673
11.6682814702 -32.2001593203 -2.4097616673
5.0520764668 -25.9239271897 -2.4097616673
8.7900293236 -28.8580155714 -2.4097619057
10.9920664609 -31.7933308417 -2.4097619057
11.0075083124 -31.6416521248 -2.4097619057
11.0140265443 -31.5529516282 -2.4097619057
11.0148077337 -31.5402697757 -2.4097619057
11.0257844948 -31.7072947238 -2.4097619057
11.0270222076 -31.6945774138 -2.4097619057
11.0346321172 -31.6054615195 -2.4097619057
11.0364672829 -31.5799727306 -2.4097619057
11.0381516163 -31.5544735304 -2.4097619057
11.0389372022 -31.5417203049 -2.4097619057
11.0396850583 -31.5289648113 -2.4097619057
11.0422990590 -31.4779223887 -2.4097619057
11.0443089191 -31.4268526092 -2.4097619057
11.0447169523 -31.4140817277 -2.4097619057
11.0463716620 -31.3374361766 -2.4097619057
11.0467189388 -31.2863280431 -2.4097619057
11.0415785925 -31.7863203672 -2.4097619057
11.0498403546 -31.7096718844 -2.4097619057
11.0510849942 -31.6968834025 -2.4097619057
11.0664473420 -31.4790158750 -2.4097619057
11.0698817536 -31.3762843761 -2.4097619057
11.0703604134 -31.3505910495 -2.4097619057
11.0685097063 -31.7634489497 -2.4097619057
11.0930405815 -31.4155541363 -2.4097619057
11.0950572158 -31.2734501011 -2.4097619057
11.0946439714 -31.2217703769 -2.4097619057
11.0928776408 -31.1442690033 -2.4097619057
11.0919832173 -31.1184436859 -2.4097619057
11.0909360182 -31.0926241123 -2.4097619057
11.0897360801 -31.0668111861 -2.4097619057
11.0876498809 -31.0281062373 -2.4097619057
11.0895983533 -31.7919278351 -2.4097619057
11.1186147021 -31.2084436973 -2.4097619057
11.1055446124 -30.9359703777 -2.4097619057
11.1245003061 -31.6907956842 -2.4097619057
11.1431477668 -31.2341602077 -2.4097619057
11.1343147436 -30.9992121196 -2.4097619057
11.1275035449 -30.9080237240 -2.4097619057
11.1159745415 -30.7910229211 -2.4097619057
11.1675840322 -31.2864342191 -2.4097619057
11.1614985119 -31.0501114917 -2.4097619057
11.1455360835 -30.8405791374 -2.4097619057
11.1428440071 -30.8144475901 -2.4097619057
11.1305311662 -30.7100943848 -2.4097619057
11.1772117493 -31.6426380361 -2.4097619057
11.1788602134 -30.9434146605 -2.4097619057
11.1610027815 -30.7594019896 -2.4097619057
11.1594358645 -30.7462888269 -2.4097619057
11.2138496546 -31.4192351577 -2.4097619057
11.1986157421 -30.8886451633 -2.4097619057
11.1529346530 -30.5331585644 -2.4097619057
11.2041465162 -30.7139856812 -2.4097619057
11.1745202171 -30.5159640215 -2.4097619057
11.1651384826 -30.4633970828 -2.4097619057
11.2381500621 -31.7687388504 -2.4097619057
11.2460688221 -31.6886043512 -2.4097619057
11.2837818886 -31.4888572521 -2.4097619057
11.2880094802 -31.2190800137 -2.4097619057
11.2650951178 -30.4726782658 -2.4097619057
11.4085037645 -31.3697416919 -2.4097619057
11.3978113044 -30.9545148573 -2.4097619057
11.4534321791 -31.4825320209 -2.4097619057
11.4811585224 -31.2023267694 -2.4097619057
11.4915565391 -31.6538942725 -2.4097619057
11.5082779393 -31.7406971876 -2.4097619057
11.5264661213 -31.4714024287 -2.4097619057
11.2563428866 -29.6839739785 -2.4097619057
11.5418914841 -31.6291731950 -2.4097619057
11.4842025104 -30.4625829397 -2.4097619057
11.5435692635 -30.5255209294 -2.4097619057
11.6152427779 -31.6199233117 -2.4097619057
11.6204609367 -31.5331195436 -2.4097619057
11.6265958205 -30.7924580161 -2.4097619057
11.6989906908 -31.3457321996 -2.4097619057
11.5548770084 -30.0925004851 -2.4097619057
11.5525470314 -29.9865279299 -2.4097619057
11.7258783807 -30.6025989150 -2.4097619057
5.7263385306 -26.1165423480 -2.4097619057
5.9838880416 -26.0488202023 -2.4097619057
5.5229545462 -26.1353116752 -2.4097619057
5.4469568883 -26.1536886480 -2.4097619057
5.5940568096 -26.0944446258 -2.4097619057
4.9220857086 -26.2626809063 -2.4097619057
6.5577431870 -25.9264407625 -2.4097619057
5.9266347225 -25.9839194998 -2.4097619057
5.3711765017 -26.0482520831 -2.4097619057
5.4473487788 -25.9544936415 -2.4097619057
7.5215983141 -28.2392751990 -2.4097616673
8.9441865188 -28.8147724995 -2.4097616673
8.8902853731 -28.7742806259 -2.4097616673
7.1668444716 -28.1481700242 -2.4097616673
8.8653054038 -28.7263595072 -2.4097616673
7.1167981562 -27.9760058489 -2.4097616673
10.9849627727 -31.1746256155 -2.4097616673
11.0090988132 -31.1732888930 -2.4097616673
10.9996638153 -31.0417336840 -2.4097616673
11.0325500175 -31.1599093115 -2.4097616673
11.0257895051 -31.0636501151 -2.4097616673
11.0237435894 -31.0396124201 -2.4097616673
11.0180069348 -30.9795748190 -2.4097616673
11.0154637377 -30.9555846398 -2.4097616673
11.0127786511 -30.9316099268 -2.4097616673
11.0113829284 -30.9196286324 -2.4097616673
11.0394944269 -30.9529652393 -2.4097616673
11.0339497820 -30.9047479599 -2.4097616673
11.0245640645 -30.8325534897 -2.4097616673
11.0228752634 -30.8205377654 -2.4097616673
11.0758995462 -31.0840271092 -2.4097616673
11.0468080109 -30.8171379301 -2.4097616673
11.0377783497 -30.7567835324 -2.4097616673
11.0937559022 -31.0087961778 -2.4097616673
11.0925881561 -30.9965750004 -2.4097616673
11.0474362932 -30.6682787011 -2.4097616673
11.1267559390 -31.1173047561 -2.4097616673
11.0527278671 -30.5669958995 -2.4097616673
11.0788705263 -30.5743621317 -2.4097616673
11.0636139864 -30.5014224396 -2.4097616673
11.0609454689 -30.4892926474 -2.4097616673
11.1682222341 -31.0268848369 -2.4097616673
11.1659563099 -31.0020051055 -2.4097616673
11.1313398972 -30.7294327992 -2.4097616673
11.0976044038 -30.5451398862 -2.4097616673
11.0617784449 -30.3867635920 -2.4097616673
11.1850214071 -30.9497397353 -2.4097616673
11.1867765627 -30.7717319768 -2.4097616673
11.1025987780 -30.3506758815 -2.4097616673
11.0866638602 -30.2895473401 -2.4097616673
11.0824832610 -30.1854302237 -2.4097616673
11.0715651242 -30.1489097833 -2.4097616673
11.2514479003 -30.8913030703 -2.4097616673
11.1092613191 -30.1908725669 -2.4097616673
11.0909621198 -30.1296629639 -2.4097616673
11.0833892818 -30.1052560321 -2.4097616673
11.1997522236 -30.4453798177 -2.4097616673
11.0947604862 -30.0612946545 -2.4097616673
11.1217177257 -30.0661583696 -2.4097616673
11.3234673919 -30.8828054016 -2.4097616673
11.3321445356 -30.7634090572 -2.4097616673
11.3937452042 -31.1256760913 -2.4097616673
11.3679177813 -30.6781551285 -2.4097616673
11.4076472659 -30.7792891206 -2.4097616673
11.3896163344 -30.6611591669 -2.4097616673
11.4334088476 -30.7891850689 -2.4097616673
11.3762443538 -30.4604577183 -2.4097616673
11.2797282068 -30.0856698522 -2.4097616673
11.3028574382 -30.0786431932 -2.4097616673
11.1464030233 -29.3518592349 -2.4097616673
11.3046484216 -29.5842395556 -2.4097616673
11.1991891193 -29.2949043664 -2.4097616673
11.5502656625 -30.0625752324 -2.4097616673
11.5173936669 -29.9543724591 -2.4097616673
11.4633082667 -29.7936024077 -2.4097616673
11.1442666065 -28.9876263707 -2.4097616673
11.6471168600 -30.0494191888 -2.4097616673
11.4552197436 -29.5057444387 -2.4097616673
5.2327171729 -25.9943544985 -2.4097616673
7.9313685386 -29.0934075963 -2.4097616673
7.9166551037 -29.0386325211 -2.4097616673
7.7058032494 -28.9872540177 -2.4097616673
7.6616741665 -28.9788931256 -2.4097616673
7.8504895375 -28.9954668613 -2.4097616673
7.7327311001 -28.9680609506 -2.4097616673
7.6251357045 -28.9235930107 -2.4097616673
7.6100673567 -28.9211974049 -2.4097616673
10.9738022902 -30.6009252677 -2.4097616673
10.9921198419 -30.5731112754 -2.4097616673
10.9894522810 -30.5619349634 -2.4097616673
10.9812513940 -30.5284540583 -2.4097616673
10.9961540285 -30.4889842330 -2.4097616673
10.9932375870 -30.4777963552 -2.4097616673
10.9902880625 -30.4666171537 -2.4097616673
11.0045493393 -30.4267241315 -2.4097616673
10.9919479006 -30.3819300908 -2.4097616673
10.9887147919 -30.3707551239 -2.4097616673
11.0053198726 -30.3415444342 -2.4097616673
11.0147977497 -30.2895838660 -2.4097616673
11.1069735036 -30.5337012194 -2.4097616673
11.0235737650 -30.2372421111 -2.4097616673
11.0087289552 -30.1922362295 -2.4097616673
11.0011071082 -30.1697999463 -2.4097616673
10.9972464402 -30.1585988130 -2.4097616673
11.0122205600 -30.1281853418 -2.4097616673
11.0082367398 -30.1169515150 -2.4097616673
11.0146429530 -30.0637535547 -2.4097616673
11.0203184880 -30.0102158232 -2.4097616673
11.0116195443 -29.9877141581 -2.4097616673
11.0247966198 -29.8908768870 -2.4097616673
11.0153915485 -29.8683508164 -2.4097616673
11.1220911181 -30.0763859804 -2.4097616673
11.0232295115 -29.8250902111 -2.4097616673
11.0355732451 -29.7928666015 -2.4097616673
11.0255881235 -29.7702784881 -2.4097616673
11.0154695378 -29.7477498454 -2.4097616673
11.0374911124 -29.7377806161 -2.4097616673
11.0279989017 -29.6598116127 -2.4097616673
4.2784716109 -28.4326524716 -2.4097616673
11.2307027877 -29.8195282149 -2.4097616673
11.0447473841 -29.4244218755 -2.4097616673
7.8366457412 -29.0651080686 -2.4097616673
7.7163679970 -29.0258090048 -2.4097616673
7.6651690491 -29.0212843494 -2.4097616673
7.8364785537 -29.0162079221 -2.4097616673
7.7408701930 -29.0040386840 -2.4097616673
7.7187451593 -29.0017531451 -2.4097616673
7.7113657483 -29.0010349431 -2.4097616673
7.6818278274 -28.9983805229 -2.4097616673
7.5634241535 -28.9912627460 -2.4097616673
7.7360168894 -28.9792136476 -2.4097616673
7.6763884412 -28.9736772829 -2.4097616673
7.5493400987 -28.9666054750 -2.4097616673
7.5268904085 -28.9660211324 -2.4097616673
7.5576297450 -28.9426849955 -2.4097616673
7.5425221834 -28.9422246709 -2.4097616673
7.4897940763 -28.9171450847 -2.4097616673
7.4745578361 -28.8929135271 -2.4097616673
7.3813353721 -28.8703137327 -2.4097616673
7.0742715701 -28.3621046852 -2.4097616673
7.0525502324 -28.3405522566 -2.4097616673
8.4190598549 -28.4315130352 -2.4097616673
8.1300876979 -28.3320749153 -2.4097616673
6.7628161278 -28.2937157864 -2.4097616673
8.7955630566 -28.4684612349 -2.4097616673
8.3762568129 -28.2677293864 -2.4097616673
6.6809144041 -28.1140366681 -2.4097616673
8.4118490628 -28.1019918443 -2.4097616673
8.0470858038 -27.9480814122 -2.4097616673
10.9364478676 -30.0254736291 -2.4097616673
10.9400588882 -29.9137078657 -2.4097616673
4.0967148691 -29.7254533805 -2.4097616673
10.9573253094 -29.8933570855 -2.4097616673
10.9477827429 -29.8727663819 -2.4097616673
10.9381185218 -29.8522324958 -2.4097616673
4.0966279973 -29.6741554496 -2.4097616673
8.6769990955 -27.8287295307 -2.4097616673
4.0930129097 -29.5808131071 -2.4097616673
4.0873623268 -29.5908179432 -2.4097616673
10.9630217109 -29.7380621134 -2.4097616673
10.9578062399 -29.7277435329 -2.4097616673
10.9472838396 -29.7071528826 -2.4097616673
10.9419770023 -29.6968809928 -2.4097616673
10.9366398021 -29.6866248466 -2.4097616673
4.0950225266 -29.5287954837 -2.4097616673
4.1037814603 -29.4665854960 -2.4097616673
4.0977929245 -29.4765589766 -2.4097616673
10.9575740071 -29.6228728214 -2.4097616673
10.9408141098 -29.5920164718 -2.4097616673
4.0891307712 -29.4440942235 -2.4097616673
4.0830757662 -29.4541111419 -2.4097616673
4.0993677722 -29.3814408359 -2.4097616673
4.0931273824 -29.3914277455 -2.4097616673
10.9543067569 -29.5170356622 -2.4097616673
10.9484374878 -29.5067438292 -2.4097616673
4.0915323322 -29.3485617900 -2.4097616673
10.9515206718 -29.4637813096 -2.4097616673
10.9394366923 -29.4432324665 -2.4097616673
4.0839685905 -29.3155164681 -2.4097616673
10.9499294876 -29.3669334619 -2.4097616673
10.9514021377 -29.3233511604 -2.4097616673
10.9449599276 -29.3130687672 -2.4097616673
4.0970277115 -29.1652275026 -2.4097616673
10.9523735269 -29.2795760527 -2.4097616673
10.9458018177 -29.2692909775 -2.4097616673
10.9394064385 -29.2150609601 -2.4097616673
4.0998930038 -28.9547440574 -2.4097616673
4.0957675858 -28.9201749297 -2.4097616673
10.9597625762 -28.9888066028 -2.4097616673
10.9448683426 -28.9682173106 -2.4097616673
10.9417158736 -28.9231005439 -2.4097616673
10.9495194406 -28.8529731946 -2.4097616673
4.1040889624 -28.7153153690 -2.4097616673
4.0937337100 -28.6899192066 -2.4097616673
10.9508623054 -28.7364714450 -2.4097616673
4.1160157651 -28.5889126894 -2.4097616673
10.9610909102 -28.5206378885 -2.4097616673
7.6693917416 -29.0243191057 -2.4097616673
7.6475879566 -29.0249774371 -2.4097616673
7.6761100353 -28.9999759134 -2.4097616673
7.5148446989 -29.0089076548 -2.4097616673
7.5570697520 -28.9813174688 -2.4097616673
7.5201100024 -28.9841881645 -2.4097616673
7.4831967544 -28.9876051952 -2.4097616673
7.4537050641 -28.9907316826 -2.4097616673
7.4463380833 -28.9915678133 -2.4097616673
7.3246977272 -28.9351140460 -2.4097616673
7.3741815163 -28.9032698491 -2.4097616673
7.2405029615 -28.9008048265 -2.4097616673
8.2871988594 -28.2979009211 -2.4097616673
8.6270974221 -28.2506214317 -2.4097616673
6.2692782410 -28.4653660820 -2.4097616673
6.4783011028 -28.3205472334 -2.4097616673
5.7499615636 -28.6888415025 -2.4097616673
10.8195383012 -29.1639250941 -2.4097616673
4.0304728008 -30.2288053443 -2.4097616673
4.0267832439 -30.2397625981 -2.4097616673
4.0231261167 -30.2507307183 -2.4097616673
4.0150976025 -30.1990405767 -2.4097616673
4.0238276998 -30.1030079552 -2.4097616673
4.0263724685 -30.0285772694 -2.4097616673
4.0220906186 -30.0395475288 -2.4097616673
4.0178412395 -30.0505304067 -2.4097616673
4.0094400420 -30.0725336334 -2.4097616673
10.8105974278 -28.9188826048 -2.4097616673
4.0169861586 -29.9867211884 -2.4097616673
4.0125805319 -29.9977193973 -2.4097616673
4.0126154438 -29.9335734209 -2.4097616673
4.0039738642 -29.7723021896 -2.4097616673
3.9989340043 -29.7833398294 -2.4097616673
4.0078387637 -29.7069434353 -2.4097616673
4.0026055439 -29.7179699280 -2.4097616673
3.9871019137 -29.7511416150 -2.4097616673
3.9966509949 -29.6195489188 -2.4097616673
4.0031257818 -29.5533940749 -2.4097616673
3.9974383558 -29.5644351813 -2.4097616673
3.9861825681 -29.4308616903 -2.4097616673
3.9958919454 -29.3637552851 -2.4097616673
3.9875271816 -29.3296413957 -2.4097616673
3.9859195032 -29.2842616383 -2.4097616673
7.4508643901 -29.0672853575 -2.4097616673
7.4595455006 -29.0405597222 -2.4097616673
7.4174547625 -29.0502774535 -2.4097616673
7.3067323074 -29.0293449973 -2.4097616673
7.2785305688 -29.0375494369 -2.4097616673
7.3789104554 -28.9850564454 -2.4097616673
7.8550380746 -28.1878865315 -2.4097616673
6.1465512075 -28.7598329081 -2.4097616673
6.1133167922 -28.6946567892 -2.4097616673
6.3524619045 -28.4616286303 -2.4097616673
4.0200402406 -30.8582389150 -2.4097616673
4.0152396374 -30.8934564979 -2.4097616673
4.0137089129 -30.9052049884 -2.4097616673
4.0085937607 -30.7723743598 -2.4097616673
4.0048508262 -30.7959172558 -2.4097616673
4.0030316085 -30.8076969050 -2.4097616673
4.0012472450 -30.8194818843 -2.4097616673
3.9928487778 -30.8784831200 -2.4097616673
3.9912738573 -30.8902979122 -2.4097616673
4.0011926305 -30.6740069493 -2.4097616673
3.9968678509 -30.6975953545 -2.4097616673
3.9947578141 -30.7093990490 -2.4097616673
3.9886373361 -30.7448468604 -2.4097616673
3.9866671138 -30.7566746955 -2.4097616673
3.9889188752 -30.6103708789 -2.4097616673
3.9819198077 -30.6458744072 -2.4097616673
3.9828817242 -30.5225109015 -2.4097616673
3.9802538171 -30.5343567355 -2.4097616673
3.9776609636 -30.5462102916 -2.4097616673
3.9702159106 -30.4696578588 -2.4097616673
3.8938338181 -30.8897666042 -2.4097616673
3.9798213472 -30.3331973267 -2.4097616673
3.9642328870 -30.3925686513 -2.4097616673
3.9469732600 -30.3626883225 -2.4097616673
3.9408075638 -30.3866029563 -2.4097616673
3.9602270642 -30.2249778308 -2.4097616673
3.9532463946 -30.2488164608 -2.4097616673
3.9589603587 -30.1464433605 -2.4097616673
3.9552200805 -30.1583616038 -2.4097616673
3.9435368269 -30.1152318509 -2.4097616673
3.8157602231 -30.6138834512 -2.4097616673
3.8021670539 -30.6880239201 -2.4097616673
3.9362998925 -30.0598105509 -2.4097616673
3.9425087837 -29.9680961479 -2.4097616673
3.9298117159 -30.0040368317 -2.4097616673
3.7969380107 -30.4679530011 -2.4097616673
3.9154604106 -29.9719780300 -2.4097616673
3.7790811050 -30.4377063873 -2.4097616673
3.7053727983 -30.8397295153 -2.4097616673
3.8969956545 -29.9517898241 -2.4097616673
3.8016625732 -30.1645609398 -2.4097616673
3.9212600269 -29.7535421323 -2.4097616673
3.7706231598 -30.1007297123 -2.4097616673
3.9070067791 -29.6625621251 -2.4097616673
3.9017918689 -29.4412489646 -2.4097616673
3.6975579376 -29.7938907026 -2.4097616673
3.7681718782 -29.4984158080 -2.4097616673
3.6187201341 -29.5995080033 -2.4097616673
3.6127847603 -29.5513380121 -2.4097616673
3.5101340561 -29.8131860715 -2.4097616673
3.8530694690 -28.8765937837 -2.4097616673
10.0298428132 -25.9179242199 -2.4097616673
10.3967171268 -25.9891416577 -2.4097616673
10.2279447665 -25.8911841822 -2.4097616673
4.0306307117 -31.5056027402 -2.4097616673
4.0020262171 -31.2819513307 -2.4097616673
4.0025296257 -31.3818786884 -2.4097616673
4.0064837595 -31.5067252290 -2.4097616673
3.9777573437 -31.3069126097 -2.4097616673
3.9591724959 -31.0922021502 -2.4097616673
3.9541454208 -30.8503435853 -2.4097616673
3.9478045131 -30.9135552396 -2.4097616673
3.9261728158 -30.8858822131 -2.4097616673
3.9329375486 -30.6413614454 -2.4097616673
3.9271670387 -30.6794736761 -2.4097616673
3.8922781220 -30.9987225091 -2.4097616673
3.8703702796 -30.7367859466 -2.4097616673
3.8098745836 -31.2022673226 -2.4097616673
3.8675913371 -30.3373244033 -2.4097616673
3.6460481897 -31.0625845165 -2.4097616673
3.5778709682 -30.9898996310 -2.4097616673
9.9349493232 -26.1556839526 -2.4097616673
7.1963214813 -29.1582494129 -2.4097616673
6.7873232328 -29.4122627522 -2.4097616673
6.7112109533 -29.4873475456 -2.4097616673
6.7602893419 -29.4045952881 -2.4097616673
7.0539719085 -29.1356182924 -2.4097616673
6.8077566873 -29.3279859793 -2.4097616673
6.7383438595 -29.3921420807 -2.4097616673
6.6968733995 -29.4329318495 -2.4097616673
6.8193085530 -29.2857290703 -2.4097616673
6.7644393548 -29.3345205541 -2.4097616673
6.8443901234 -29.1397087178 -2.4097616673
6.8324368547 -29.1491909854 -2.4097616673
6.8173578753 -29.1302976093 -2.4097616673
5.9566619833 -29.1747806478 -2.4097616673
7.2669685232 -28.1541209818 -2.4097616673
5.7841575962 -29.2832564135 -2.4097616673
5.8060979629 -29.0922981821 -2.4097616673
3.9732598012 -31.7995114801 -2.4097616673
3.9852282316 -31.8787079957 -2.4097616673
4.0082929062 -32.0101901394 -2.4097616673
3.9091240956 -31.3754869232 -2.4097616673
3.9127357288 -31.4424939373 -2.4097616673
3.9153782873 -31.4826699250 -2.4097616673
3.9241670283 -31.5896749193 -2.4097616673
3.9254436017 -31.6030350416 -2.4097616673
3.9456304809 -31.7763251575 -2.4097616673
3.9613595946 -31.8825320582 -2.4097616673
3.9679053299 -31.9222592082 -2.4097616673
3.9748033635 -31.9619267041 -2.4097616673
3.9820531523 -32.0015314218 -2.4097616673
4.0031011843 -32.1068133819 -2.4097616673
4.0059072015 -32.1199377400 -2.4097616673
3.8804985261 -31.2282661946 -2.4097616673
3.8823430038 -31.3091990315 -2.4097616673
3.8886080191 -31.4439734333 -2.4097616673
3.8922298446 -31.4978213968 -2.4097616673
3.8932348384 -31.5112763969 -2.4097616673
3.9001002257 -31.5919386101 -2.4097616673
3.9582947727 -32.0059895247 -2.4097616673
3.9739301695 -32.0854191196 -2.4097616673
3.9794549507 -32.1118324375 -2.4097616673
3.8572652398 -31.0522839063 -2.4097616673
3.8559900118 -31.1336568109 -2.4097616673
3.8581820904 -31.3099642419 -2.4097616673
3.8614800747 -31.3912802866 -2.4097616673
3.8977255946 -31.7828415208 -2.4097616673
3.9370576429 -32.0237752343 -2.4097616673
3.9530120488 -32.1035789481 -2.4097616673
3.8471804051 -31.5421347093 -2.4097616673
3.8106035977 -30.9962950987 -2.4097616673
3.8498207082 -31.7893578842 -2.4097616673
3.8870196339 -32.0193638333 -2.4097616673
3.8020594938 -30.7479238756 -2.4097616673
3.7964009380 -30.8165830618 -2.4097616673
3.8464562742 -31.9288493511 -2.4097616673
3.7846915537 -30.6768364326 -2.4097616673
3.7598582366 -31.2437959649 -2.4097616673
3.7920971481 -31.8955510254 -2.4097616673
3.7965017883 -31.9230434515 -2.4097616673
3.8375775491 -32.1419467708 -2.4097616673
3.7639536061 -31.8716451123 -2.4097616673
3.6924753881 -31.3996376015 -2.4097616673
3.7486782919 -30.2613770616 -2.4097616673
3.7343702406 -31.9904777327 -2.4097616673
3.7081266597 -31.9806569053 -2.4097616673
3.7094893940 -30.2102086285 -2.4097616673
3.6142150970 -31.1891300814 -2.4097616673
3.6381238279 -31.6452637904 -2.4097616673
3.6601467046 -31.8295692472 -2.4097616673
3.7253585266 -32.1949601411 -2.4097616673
3.6373861879 -30.4882856001 -2.4097616673
3.5690332431 -30.9875035137 -2.4097616673
3.6011055757 -31.7504179851 -2.4097616673
3.6391323738 -32.0071844151 -2.4097616673
3.6896253478 -29.9697193494 -2.4097616673
3.5106078570 -31.8058130457 -2.4097616673
9.7456106129 -26.3419364533 -2.4097616673
9.2547585230 -26.2353282483 -2.4097616673
9.2255797787 -26.2306007986 -2.4097616673
3.6632400487 -29.7041127469 -2.4097616673
3.5252784546 -32.0571671899 -2.4097616673
9.8091729916 -26.3344511350 -2.4097616673
9.6512962637 -26.2924997866 -2.4097616673
3.6107611020 -29.7967687808 -2.4097616673
9.9444789617 -26.3495064675 -2.4097616673
3.4216469304 -31.6669181364 -2.4097616673
3.4083946279 -30.5620231087 -2.4097616673
3.3855106763 -30.8008132637 -2.4097616673
9.9805335078 -26.2848150933 -2.4097616673
3.6137919783 -29.4674558124 -2.4097616673
3.3250833832 -31.2662705827 -2.4097616673
3.3525903869 -31.7042511776 -2.4097616673
9.2633688101 -26.0897716897 -2.4097616673
9.7750349781 -26.1746269464 -2.4097616673
10.1770160119 -26.2741824545 -2.4097616673
7.9093142204 -26.0025696397 -2.4097616673
3.7964420997 -28.8499675735 -2.4097616673
3.2546679170 -31.3444377696 -2.4097616673
3.3145002532 -31.9706197863 -2.4097616673
3.3084871624 -32.0808450850 -2.4097616673
9.3441020357 -25.9807838306 -2.4097616673
3.2636647444 -32.2317911792 -2.4097616673
10.7109674161 -26.3639291685 -2.4097616673
10.7029296692 -26.3067553911 -2.4097616673
10.1887291306 -26.0990098262 -2.4097616673
9.5164405149 -25.9150343096 -2.4097616673
9.2668518155 -25.8700368682 -2.4097616673
6.6345358575 -29.5889720619 -2.4097634081
6.6659893025 -29.5045160622 -2.4097634254
6.7297098757 -29.3484364660 -2.4097634599
6.7200679329 -29.3597022790 -2.4097634599
6.7152719984 -29.3653565282 -2.4097634599
6.6968141466 -29.3497474607 -2.4097634772
6.7280018008 -29.2771631196 -2.4097634945
6.6686306586 -29.3457082815 -2.4097634945
6.6210447840 -29.3655924187 -2.4097635118
5.7116798536 -29.5938697703 -2.4097639786
5.6276046274 -29.6612730271 -2.4097640132
9.7725845433 -26.4935045749 -2.4097649815
9.7592965215 -26.4901414687 -2.4097649815
9.6660099570 -26.4677023764 -2.4097649815
9.6392732337 -26.4616464697 -2.4097649815
9.5856946418 -26.4500097310 -2.4097649815
9.5454223885 -26.4416986665 -2.4097649815
9.5319821094 -26.4390077737 -2.4097649815
9.2480927427 -26.3917191972 -2.4097649815
9.0710847907 -26.3713144441 -2.4097649815
8.9754853602 -26.3631508126 -2.4097649815
9.9908204877 -26.5295203091 -2.4097649987
9.9380204001 -26.5137191484 -2.4097649987
9.8717634356 -26.4948480660 -2.4097649987
9.7518255828 -26.4633574711 -2.4097649987
9.6848441162 -26.4472457908 -2.4097649987
9.3875800726 -26.3881874057 -2.4097649987
9.0733907970 -26.3472516592 -2.4097649987
9.0596731920 -26.3459575344 -2.4097649987
9.0459518187 -26.3447039945 -2.4097649987
8.8122283961 -26.3296125449 -2.4097649987
8.7433715671 -26.3274124997 -2.4097649987
9.7710892167 -26.4432557196 -2.4097650160
9.3231100660 -26.3535653297 -2.4097650160
9.2957040710 -26.3495401315 -2.4097650160
9.2270890943 -26.3401871144 -2.4097650160
9.5187882989 -26.3625340578 -2.4097650333
9.5051139531 -26.3599222999 -2.4097650333
9.1749059458 -26.3094261545 -2.4097650333
9.1472414024 -26.3062785541 -2.4097650333
9.0641428203 -26.2978185320 -2.4097650333
8.8558540915 -26.2831314544 -2.4097650333
8.7028020594 -26.2782412874 -2.4097650333
8.4244388936 -26.2821140493 -2.4097650333
9.6330232647 -26.3612596609 -2.4097650506
9.3302768895 -26.3057534298 -2.4097650506
8.3954319949 -26.2592634155 -2.4097650506
8.2697459513 -26.2671570219 -2.4097650506
9.9921655269 -26.4289086402 -2.4097650679
9.9246482595 -26.4092460073 -2.4097650679
9.3616661209 -26.2860996079 -2.4097650679
9.2502987175 -26.2700791604 -2.4097650679
8.6051109024 -26.2293777617 -2.4097650679
8.2538874423 -26.2441429235 -2.4097650679
9.9040105938 -26.3783641493 -2.4097650852
9.8357553966 -26.3600108907 -2.4097650852
9.7672362136 -26.3426691604 -2.4097650852
9.5649553846 -26.2730403313 -2.4097651025
9.7231995697 -26.2824389705 -2.4097651198
7.9926039597 -26.1989419764 -2.4097651198
7.9077822173 -26.2109915732 -2.4097651198
9.8123636497 -26.2791555977 -2.4097651371
8.5185297999 -26.1338846706 -2.4097651371
8.0036447183 -26.1731088601 -2.4097651371
9.4087764329 -26.1712067911 -2.4097651544
9.0079381975 -26.1231965978 -2.4097651544
9.5695773378 -26.1753985331 -2.4097651716
8.8506957913 -26.0892948659 -2.4097651716
8.4884507123 -26.0862973416 -2.4097651716
8.3002618742 -26.0953243075 -2.4097651716
7.7397216502 -26.1656700548 -2.4097651716
3.7510989115 -31.4425847488 -2.4097651716
3.7524775105 -31.4570126318 -2.4097651716
3.8275025139 -31.9584809385 -2.4097651716
3.8651207003 -32.1282778264 -2.4097651716
3.8789965489 -32.1845668445 -2.4097651716
3.8898399948 -32.2266737054 -2.4097651716
3.9453633159 -32.4218247177 -2.4097651716
9.7592980647 -26.1915861259 -2.4097651889
8.0810522821 -26.0906981089 -2.4097651889
3.8555607655 -32.1904913142 -2.4097651889
3.9054847977 -32.3731254959 -2.4097651889
3.9486451173 -32.5122293541 -2.4097651889
9.8784845008 -26.1962835183 -2.4097652062
3.6865598197 -31.2135234828 -2.4097652062
3.8113583058 -32.1110879203 -2.4097652062
3.8822941194 -32.3799466193 -2.4097652062
3.6714145613 -31.3614461337 -2.4097652235
3.8508863197 -32.3585225242 -2.4097652235
3.6462105054 -31.3485437527 -2.4097652408
3.7609377162 -32.1077072407 -2.4097652408
3.7711037253 -32.1508648341 -2.4097652408
4.0243101736 -32.9223594412 -2.4097652408
9.6073495956 -26.0596536196 -2.4097652581
8.2921507856 -25.9747316365 -2.4097652581
3.6196204443 -30.6528713784 -2.4097652581
3.6719207782 -31.7779677765 -2.4097652581
8.0379500333 -25.9739934563 -2.4097652754
7.4361672078 -26.0823131627 -2.4097652754
3.9855623952 -32.9548633176 -2.4097652754
9.9379991727 -26.0869938183 -2.4097652927
9.6755269095 -26.0242694403 -2.4097652927
9.4988511468 -25.9902539838 -2.4097652927
3.5928503063 -30.4107634546 -2.4097652927
3.5604218057 -31.0093021806 -2.4097652927
3.5826312934 -31.4584305842 -2.4097652927
3.7880270522 -32.4858172812 -2.4097652927
8.9346671074 -25.9000725850 -2.4097653100
3.5558315910 -31.4306871750 -2.4097653100
3.6915102822 -32.2319626025 -2.4097653100
9.6410340817 -25.9677867370 -2.4097653272
3.5325492851 -30.5257698971 -2.4097653272
8.8474587846 -25.8229951178 -2.4097653618
8.7863788050 -25.8207722050 -2.4097653618
3.4781220088 -30.5975848108 -2.4097653618
3.5389755982 -29.9725072912 -2.4097653791
3.4396582341 -31.0252623663 -2.4097653791
9.8108691777 -25.9057376669 -2.4097653964
3.5152659636 -29.9677968233 -2.4097653964
9.7407643690 -25.8651914056 -2.4097654137
6.8419160086 -26.0601685602 -2.4097654137
3.4798387779 -30.0239471372 -2.4097654137
6.5668181503 -29.7086415204 -2.4097693949
6.5879810681 -29.6129416047 -2.4097694756
6.5845607781 -29.6194391339 -2.4097694756
6.5777779353 -29.6324644037 -2.4097694756
6.5631537239 -29.6082108967 -2.4097695563
6.5452335773 -29.5903585766 -2.4097696370
6.6142017139 -29.4218364359 -2.4097697177
6.6102159854 -29.4282572359 -2.4097697177
6.6062492684 -29.4346897984 -2.4097697177
6.5983730068 -29.4475899852 -2.4097697177
6.5650609402 -29.4093745312 -2.4097698790
6.6033431435 -29.3052263459 -2.4097699597
6.5904086054 -29.3246249326 -2.4097699597
6.4266015668 -28.6319642554 -2.4097718155
6.3972555177 -28.5923894162 -2.4097719769
5.5366576850 -29.8426735182 -2.4097724610
5.4391330539 -30.3015088597 -2.4097724610
5.2135844377 -30.6953436027 -2.4097731065
9.2906539254 -26.5317195205 -2.4097754464
9.2530002476 -26.5273789483 -2.4097754464
9.2153095323 -26.5233727023 -2.4097754464
9.2682884554 -26.5047706081 -2.4097755271
9.2430312179 -26.5019725556 -2.4097755271
9.2177578682 -26.4993239823 -2.4097755271
9.1165210485 -26.4902262575 -2.4097755271
9.0024090096 -26.4828580477 -2.4097755271
8.9516377560 -26.4805589650 -2.4097755271
8.9389409696 -26.4800780758 -2.4097755271
8.9135434069 -26.4792289858 -2.4097755271
8.8881412651 -26.4785301711 -2.4097755271
8.8246217132 -26.4774407367 -2.4097755271
9.2837145137 -26.4822157811 -2.4097756078
9.0164050645 -26.4593890481 -2.4097756078
8.9525883779 -26.4564046362 -2.4097756078
8.9270505164 -26.4554752179 -2.4097756078
8.9142796353 -26.4550671719 -2.4097756078
8.8887345313 -26.4543644243 -2.4097756078
8.7865259526 -26.4530650577 -2.4097756078
8.7098649919 -26.4536779820 -2.4097756078
8.6843152466 -26.4541846445 -2.4097756078
8.6715416098 -26.4544946590 -2.4097756078
9.1714935891 -26.4463236266 -2.4097756884
8.9663772056 -26.4327745895 -2.4097756884
8.8893277974 -26.4301986775 -2.4097756884
8.7993960827 -26.4289223440 -2.4097756884
8.7865472120 -26.4288920391 -2.4097756884
8.7094572208 -26.4295083936 -2.4097756884
8.9415784644 -26.4076069701 -2.4097757691
8.7994888501 -26.4047494940 -2.4097757691
8.6057310789 -26.4083051035 -2.4097757691
8.5928220660 -26.4088477850 -2.4097757691
8.5670091386 -26.4100476972 -2.4097757691
8.5541054501 -26.4107049176 -2.4097757691
8.5283041877 -26.4121338578 -2.4097757691
8.4896192745 -26.4145634210 -2.4097757691
8.4380758255 -26.4183366857 -2.4097757691
9.1758208068 -26.3981716140 -2.4097758498
8.8515465533 -26.3810835272 -2.4097758498
8.5398670461 -26.3872642655 -2.4097758498
8.5009609738 -26.3895921941 -2.4097758498
8.4232184650 -26.3952833745 -2.4097758498
8.3843881513 -26.3986461781 -2.4097758498
8.3326637289 -26.4036657006 -2.4097758498
8.3197421866 -26.4050161850 -2.4097758498
9.0477204197 -26.3643291815 -2.4097759305
8.2652651129 -26.3867936848 -2.4097759305
9.2585746578 -26.3577696720 -2.4097760112
9.1670640792 -26.3488633087 -2.4097760112
8.9310890174 -26.3346775665 -2.4097760112
8.8391705070 -26.3325570114 -2.4097760112
8.4847526406 -26.3422078171 -2.4097760112
8.3800031903 -26.3504993895 -2.4097760112
8.2754792771 -26.3612673550 -2.4097760112
8.1972695700 -26.3709648864 -2.4097760112
8.1192442952 -26.3820489702 -2.4097760112
9.2348962193 -26.3309829423 -2.4097760919
9.1428360759 -26.3225726031 -2.4097760919
8.1548325119 -26.3524010689 -2.4097760919
8.1025769662 -26.3601400379 -2.4097760919
8.5875668980 -26.2880969454 -2.4097761726
9.1467358011 -26.2743840851 -2.4097762532
8.5198555340 -26.2673419713 -2.4097762532
8.2406797430 -26.2923515654 -2.4097762532
8.7597536722 -26.2113909654 -2.4097764146
9.0443335574 -26.1946290040 -2.4097764953
7.8174286312 -26.2899203186 -2.4097764953
7.6984447276 -26.3172056126 -2.4097764953
9.3038138167 -26.1925357424 -2.4097765760
9.0048630307 -26.1683427196 -2.4097765760
8.6504442063 -26.1648856011 -2.4097765760
7.6398109179 -26.3069290810 -2.4097765760
9.0060279713 -26.1441977782 -2.4097766567
7.6205432289 -26.2869292489 -2.4097766567
9.2407731982 -26.1372179186 -2.4097767374
8.8976335232 -26.0918782226 -2.4097768181
8.8982267893 -26.0677124758 -2.4097768987
9.3621115954 -26.0533832255 -2.4097770601
9.2782663486 -26.0438435071 -2.4097770601
9.0976947086 -26.0041671778 -2.4097771408
8.4620416825 -26.0045483323 -2.4097771408
7.2456482183 -26.2477300994 -2.4097771408
9.0010840133 -25.9503712097 -2.4097773022
8.7439423162 -25.9214118169 -2.4097773829
9.2334552621 -25.9179635829 -2.4097774635
8.6428131948 -25.8990918149 -2.4097774635
7.5041556652 -26.0677253096 -2.4097774635
8.9029729184 -25.8743865016 -2.4097775442
8.5986626773 -25.8763694142 -2.4097775442
8.8161873999 -25.8488513829 -2.4097776249
8.3796858264 -25.8652615014 -2.4097776249
8.3216504779 -25.8703740042 -2.4097776249
7.2542695044 -26.0919867284 -2.4097776249
8.7871212146 -25.7762205358 -2.4097778670
7.4824016737 -25.8733308444 -2.4097781090
3.5383002867 -31.2031458130 -2.4097787545
3.5499616147 -31.3271255023 -2.4097787545
3.5606311701 -31.4199101888 -2.4097787545
3.6849642810 -32.0771497849 -2.4097787545
3.5021698651 -31.0178681796 -2.4097788352
3.5347405584 -31.4073630040 -2.4097788352
3.6116690221 -31.8699886340 -2.4097788352
3.4723337764 -30.7520222716 -2.4097789159
3.7116728653 -32.4284285001 -2.4097789966
3.5474048364 -31.9160397228 -2.4097790773
3.5214852565 -32.0199314090 -2.4097792386
3.8634665809 -33.0169222213 -2.4097792386
3.5543779645 -32.2432378478 -2.4097793193
3.5444259377 -32.2963310803 -2.4097794000
3.4428020931 -32.1055179750 -2.4097795614
3.6203783307 -32.6808443747 -2.4097795614
3.5128204768 -32.4417592194 -2.4097796421
3.6466396433 -32.8812205537 -2.4097797228
6.5324410960 -29.7844829719 -2.4097860460
6.5052108817 -29.8759665707 -2.4097860460
6.5049485060 -29.7912842702 -2.4097862881
6.4984141046 -29.8125455590 -2.4097862881
6.5076879381 -29.7058913592 -2.4097865301
6.4886615374 -29.7626733920 -2.4097865301
6.5475687517 -29.5358646592 -2.4097867722
6.5387659662 -29.5567577753 -2.4097867722
6.5027757410 -29.6481665724 -2.4097867722
5.7254808901 -30.0627604549 -2.4097933078
8.6508086989 -26.5165097009 -2.4098015377
8.6389128387 -26.5172568295 -2.4098015377
8.6151280092 -26.5188566404 -2.4098015377
8.6032392478 -26.5197093086 -2.4098015377
8.5417148343 -26.5004201998 -2.4098017798
8.5178320947 -26.5025953614 -2.4098017798
8.5035607420 -26.4796759226 -2.4098020219
8.4315910561 -26.4873055400 -2.4098020219
8.3717274562 -26.4946384895 -2.4098020219
8.3686110039 -26.4706671940 -2.4098022639
8.2965026857 -26.4806933425 -2.4098022639
8.2605180980 -26.4861859595 -2.4098022639
8.2447101418 -26.4642191401 -2.4098025060
8.2326613736 -26.4661678105 -2.4098025060
8.2206184226 -26.4681521148 -2.4098025060
8.1441009370 -26.4570338018 -2.4098027480
8.1320313535 -26.4592801238 -2.4098027480
8.0790821042 -26.4449181940 -2.4098029901
8.0256864802 -26.4312415227 -2.4098032322
7.9892736997 -26.4391394289 -2.4098032322
8.1432246118 -26.3834701960 -2.4098034742
7.9110187815 -26.4323988551 -2.4098034742
7.8867446430 -26.4383066168 -2.4098034742
8.3748378000 -26.3236738655 -2.4098037163
8.2752542363 -26.3372200922 -2.4098037163
7.8444062241 -26.4240191301 -2.4098037163
8.5100391274 -26.2848296066 -2.4098039583
7.7651440619 -26.4200482288 -2.4098039583
7.7407994061 -26.4268192505 -2.4098039583
8.4067369564 -26.2711726374 -2.4098042004
7.8570553251 -26.3709547360 -2.4098042004
7.7220271194 -26.4070084555 -2.4098042004
7.9203045613 -26.3060396395 -2.4098046845
8.2319965191 -26.2215203918 -2.4098049266
8.3183325676 -26.1847056560 -2.4098051686
8.0914146082 -26.0980582058 -2.4098063789
7.5184569112 -26.1399048129 -2.4098073472
7.2827686562 -25.9636687006 -2.4098097677
3.4259423004 -31.7334542625 -2.4098172716
3.5022995712 -32.2121941080 -2.4098177557
3.3892879120 -31.8960416217 -2.4098179977
3.5600865700 -32.7296786868 -2.4098189660
3.4995118839 -32.6433885934 -2.4098192080
5.9905002492 -29.0991749615 -2.4098374713
6.0081380972 -28.8223948995 -2.4098397997
5.6725998055 -31.1209279299 -2.4098421281
5.5097605841 -30.5922408790 -2.4098438743
6.1252454430 -28.1703461985 -2.4098456206
6.1121721260 -28.1474508792 -2.4098462027
5.3680454134 -30.8317340116 -2.4098479490
6.4444978523 -27.5956173189 -2.4098491132
5.5452473392 -31.7891175919 -2.4098502774
6.6870834165 -33.2795661103 -2.4098508594
8.0734720036 -26.5080176086 -2.4098537699
8.0622956947 -26.5106851829 -2.4098537699
8.0511273260 -26.5133858070 -2.4098537699
8.0229596580 -26.4954329098 -2.4098543520
7.9893449564 -26.5039835228 -2.4098543520
7.9781570821 -26.5068999778 -2.4098543520
7.9669778841 -26.5098495157 -2.4098543520
7.9446459085 -26.5158477370 -2.4098543520
7.9832819114 -26.4805832073 -2.4098549341
7.9720248413 -26.4835177002 -2.4098549341
7.9495369895 -26.4894865228 -2.4098549341
7.9270848448 -26.4955882867 -2.4098549341
7.9158724083 -26.4986889550 -2.4098549341
7.9046691932 -26.5018227782 -2.4098549341
7.8934752975 -26.5049897288 -2.4098549341
7.8711158562 -26.5114229011 -2.4098549341
7.8756069944 -26.4849591578 -2.4098555162
7.8531293582 -26.4914983955 -2.4098555162
7.8194864277 -26.5015563121 -2.4098555162
6.3526789831 -33.2551565453 -2.4098555162
7.7450388802 -26.4995649580 -2.4098560983
7.7338390039 -26.5032041338 -2.4098560983
7.7226499420 -26.5068764249 -2.4098560983
8.0455858912 -26.3904134132 -2.4098566804
7.7150779128 -26.4839199519 -2.4098566804
7.6589595351 -26.5028915071 -2.4098566804
8.0632202441 -26.3614611579 -2.4098572625
7.6961919814 -26.4647138529 -2.4098572625
7.6285460461 -26.4879174237 -2.4098572625
7.6173122240 -26.4919012574 -2.4098572625
7.6060902360 -26.4959183053 -2.4098572625
7.5948801802 -26.4999685322 -2.4098572625
7.8603999213 -26.3887382706 -2.4098578446
7.5866324679 -26.4772460649 -2.4098578446
7.5753672614 -26.4813539331 -2.4098578446
7.5416452423 -26.4938772320 -2.4098578446
7.5304294307 -26.4981181079 -2.4098578446
6.1999777220 -33.2470543638 -2.4098578446
7.5218465465 -26.4755201128 -2.4098584267
7.4679937607 -26.4704231215 -2.4098590088
7.4229341084 -26.4884585546 -2.4098590088
6.1229541213 -33.2405735474 -2.4098590088
7.3799675910 -26.4800275384 -2.4098595908
7.3687115169 -26.4847467466 -2.4098595908
6.0799286784 -33.2324485915 -2.4098595908
7.7867873834 -26.3094547248 -2.4098601729
7.3367303516 -26.4720616889 -2.4098601729
7.3254509022 -26.4769088355 -2.4098601729
7.2819258427 -26.4695410098 -2.4098607550
7.2593673780 -26.4795929345 -2.4098607550
6.2742074882 -33.4748275070 -2.4098607550
7.2268344228 -26.4677861713 -2.4098613371
7.4937302936 -26.3311309016 -2.4098619192
7.1158329090 -26.4665995557 -2.4098625013
7.3942956406 -26.3176019212 -2.4098630834
7.0599441216 -26.4671801937 -2.4098630834
7.0486514429 -26.4728461454 -2.4098630834
7.0377789821 -26.4512562200 -2.4098636655
7.0264392944 -26.4569878099 -2.4098636655
6.9587439757 -26.4647539840 -2.4098642476
6.8792866204 -26.4524645705 -2.4098654118
5.7591862821 -33.3896414168 -2.4098677402
6.5960337451 -26.1678821176 -2.4098747253
6.5962244289 -26.1398979054 -2.4098753074
5.4134958470 -29.8027814698 -2.4099776229
5.4613492855 -29.3209478156 -2.4099793231
5.3880982128 -29.8196911688 -2.4099793231
5.4029926884 -30.3980779885 -2.4099793231
5.4113300662 -30.4629583541 -2.4099793231
5.4001747475 -30.5500632293 -2.4099810232
5.4368270571 -29.2179822126 -2.4099827234
5.3428848466 -30.2810009662 -2.4099827234
5.3517697609 -30.3754607820 -2.4099827234
5.3621519071 -30.4602169432 -2.4099827234
5.3747866272 -30.5446666896 -2.4099827234
5.4088149785 -30.7216741960 -2.4099827234
5.4216213994 -30.7771424058 -2.4099827234
5.4612996842 -29.0466182311 -2.4099844236
5.4233119005 -29.1749371753 -2.4099844236
5.3153679402 -30.2352337362 -2.4099844236
5.3298670689 -30.3970804580 -2.4099844236
5.3408325042 -30.4824120185 -2.4099844236
5.3573133625 -30.5862625994 -2.4099844236
5.2970973195 -30.3136085348 -2.4099861237
5.3081094281 -30.4189713704 -2.4099861237
5.2623294375 -30.1414320311 -2.4099878239
5.2864992807 -30.4411325546 -2.4099878239
5.3047923942 -30.5659242235 -2.4099878239
5.4042968134 -28.9874182428 -2.4099895241
5.3482606896 -29.1746658451 -2.4099895241
5.3156713564 -29.3075551190 -2.4099895241
5.3041943326 -30.6947994193 -2.4099895241
5.3623149538 -30.9320806325 -2.4099895241
5.1999225779 -30.3122136594 -2.4099929244
5.3268953086 -30.9833997485 -2.4099929244
5.2448967398 -29.2917446429 -2.4099946246
5.2323503339 -29.3503473330 -2.4099946246
5.1972360523 -30.5028112600 -2.4099946246
5.5239651065 -28.4571884106 -2.4099963248
5.4488218197 -28.6107972428 -2.4099963248
5.2720811100 -30.9682129681 -2.4099963248
5.4886062430 -28.4730440952 -2.4099980250
5.1891123798 -29.3208071862 -2.4099980250
5.1865790526 -30.8336103005 -2.4099997251
5.5185198891 -28.3153711029 -2.4100014253
5.0809196947 -29.7170326238 -2.4100014253
5.5233275632 -28.2586372268 -2.4100031255
5.3846396425 -31.5359612369 -2.4100031255
5.1185694430 -30.9578095493 -2.4100065258
5.0886644035 -29.1162059676 -2.4100082260
5.0109308984 -29.3484048561 -2.4100099262
4.8494239581 -30.0246635158 -2.4100167269
5.0709009078 -31.2871998888 -2.4100167269
5.2840277809 -31.7654971608 -2.4100167269
7.0697666684 -26.5637270804 -2.4100218274
7.0397203242 -26.5502926297 -2.4100235275
7.0294394905 -26.5547467201 -2.4100235275
6.9991441300 -26.5416368789 -2.4100252277
6.9888378685 -26.5462110389 -2.4100252277
6.9785451833 -26.5508156666 -2.4100252277
6.9682661644 -26.5554507218 -2.4100252277
6.9580009019 -26.5601161639 -2.4100252277
6.7597750323 -33.3982080849 -2.4100252277
6.7797460529 -33.4086830591 -2.4100252277
6.7897547159 -33.4138761920 -2.4100252277
6.7997786974 -33.4190396947 -2.4100252277
6.9170594111 -26.5523923474 -2.4100269279
6.8965255340 -26.5620565876 -2.4100269279
6.8552808631 -26.5550319428 -2.4100286281
6.8450148561 -26.5600316177 -2.4100286281
