15.6529882720 -8.0648460694 -3.0000155806
15.7081108250 -8.2679380606 -3.0000155922
14.4202441271 -10.9391504159 -3.0000156930
14.4301551175 -10.9349223565 -3.0000156930
14.4595887679 -10.9485419532 -3.0000156959
14.4695273680 -10.9441974642 -3.0000156959
14.4893657957 -10.9354203808 -3.0000156959
14.5290664559 -10.9440238986 -3.0000156988
14.5389913869 -10.9394739017 -3.0000156988
14.5489028147 -10.9348945650 -3.0000156988
14.5889205890 -10.9428188266 -3.0000157017
14.5988416933 -10.9380917757 -3.0000157017
14.6490722088 -10.9405729241 -3.0000157045
14.6589864061 -10.9356679436 -3.0000157045
14.6688860502 -10.9307336566 -3.0000157045
14.7602900846 -10.9381567808 -3.0000157103
14.7815205122 -10.9542794320 -3.0000157132
14.8427718363 -10.9486882399 -3.0000157161
14.8725350731 -10.9321661269 -3.0000157161
14.9460840561 -10.9458553413 -3.0000157218
14.9560125802 -10.9400717230 -3.0000157218
14.9881397192 -10.9492134391 -3.0000157247
14.7897518833 -4.1142492429 -3.0000157247
14.7691764391 -4.1036971392 -3.0000157247
14.9371376967 -4.1111355029 -3.0000157334
14.9062177727 -4.0940451992 -3.0000157334
15.0660058096 -4.1016942324 -3.0000157420
15.1402438737 -4.1184226712 -3.0000157449
15.3715075766 -10.9305102766 -3.0000157478
15.1632670071 -4.1042581866 -3.0000157478
15.4053655997 -10.9360200544 -3.0000157506
16.1241358904 -10.9391006756 -3.0000158054
15.2658093071 -3.4365954790 -3.0000158227
15.0750210706 -7.6988672434 -3.0000157468
15.0743184850 -7.6928525181 -3.0000157468
15.0721040159 -7.6748211807 -3.0000157468
15.0705388415 -7.6628115139 -3.0000157468
15.0697296161 -7.6568102056 -3.0000157468
14.9890356755 -7.3030357759 -3.0000157468
15.0023857510 -7.2665161389 -3.0000157526
15.1287010579 -7.7488281022 -3.0000157584
15.4280274034 -7.6007629035 -3.0000158333
15.4260178461 -7.5866487705 -3.0000158333
15.4954783049 -8.0728316422 -3.0000158448
15.3822394938 -7.1834210369 -3.0000158448
15.5410374009 -7.7495879016 -3.0000158564
15.5221350913 -8.4330360846 -3.0000158621
15.2805331905 -6.7033593902 -3.0000158679
15.6047118763 -8.2165145827 -3.0000158736
15.5340672815 -7.1832914195 -3.0000158794
15.6679483133 -7.8726788766 -3.0000158852
15.6584413697 -7.7019935136 -3.0000158852
15.5811303353 -8.7751338185 -3.0000158967
15.2636099377 -10.8194776831 -3.0000161272
14.2669019787 -4.0442665993 -3.0000162310
14.2438713166 -4.0370843189 -3.0000162310
14.2323401514 -4.0335443067 -3.0000162310
14.3318943411 -4.0398717871 -3.0000162367
14.4088046777 -4.0405816407 -3.0000162425
14.3972831366 -4.0365537105 -3.0000162425
14.3857497305 -4.0325598808 -3.0000162425
14.3626477274 -4.0246746620 -3.0000162425
14.4630506588 -4.0343231098 -3.0000162483
14.4515103665 -4.0301347376 -3.0000162483
14.5407098837 -4.0376085525 -3.0000162540
14.4945085203 -4.0201410183 -3.0000162540
14.4829261372 -4.0158596501 -3.0000162540
14.4713311396 -4.0116125634 -3.0000162540
14.5956499089 -4.0331658457 -3.0000162598
14.5493921312 -4.0150485467 -3.0000162598
14.6277788762 -4.0200270767 -3.0000162655
14.3775251570 -3.9021986278 -3.0000162713
14.7738674237 -4.0295196037 -3.0000162771
14.8184446549 -4.0230406464 -3.0000162828
14.8068694319 -4.0178010038 -3.0000162828
15.3540355757 -4.1429524351 -3.0000163174
14.7645221156 -3.7887294652 -3.0000163289
14.8474848710 -3.7978114961 -3.0000163347
15.0009172448 -7.4000582792 -3.0000152588
14.9905307253 -7.3781758078 -3.0000152588
14.9798860094 -7.3564177665 -3.0000152588
15.1417574991 -7.7112485737 -3.0000152588
15.3812060988 -7.4323981965 -3.0000152588
15.4957600569 -7.7310172230 -3.0000152588
15.4087994535 -7.4373124840 -3.0000152588
15.5607826180 -7.9594932675 -3.0000152588
15.5598627344 -7.9523525208 -3.0000152588
15.5004626496 -7.6487275398 -3.0000152588
15.4491432918 -7.4070298036 -3.0000152588
15.5569031764 -7.5802508235 -3.0000152588
15.1853506462 -6.8092669718 -3.0000152588
15.4754800973 -7.2773749154 -3.0000152588
15.3963684263 -7.0567992941 -3.0000152588
15.2158536037 -6.7688808632 -3.0000152588
15.7366454740 -7.8274502043 -3.0000152588
15.8310426375 -7.9814358780 -3.0000152588
15.1641941100 -6.1599240352 -3.0000152588
15.5175330217 -10.7047244123 -3.0000152588
15.5488709077 -10.7078819388 -3.0000152588
15.5803285587 -10.7107533839 -3.0000152588
13.6781039940 -4.0291143316 -3.0000152588
13.9114567019 -4.0158356890 -3.0000152588
13.8484983607 -4.0049856443 -3.0000152588
13.8106487500 -3.9989230092 -3.0000152588
13.9788805330 -4.0038908024 -3.0000152588
13.7253566273 -3.9621274706 -3.0000152588
14.0341772348 -3.9903707354 -3.0000152588
13.8945739100 -3.9637524080 -3.0000152588
13.8859113390 -3.9377301832 -3.0000152588
13.8602856643 -3.9334309308 -3.0000152588
14.3044032646 -3.9803354188 -3.0000152588
14.2408768787 -3.9636774257 -3.0000152588
13.7152786817 -3.8388977289 -3.0000152588
13.7972829498 -3.8257736664 -3.0000152588
13.6920094787 -3.8116159314 -3.0000152588
13.7081957592 -3.7892643496 -3.0000152588
14.5942023712 -3.9416908297 -3.0000152588
13.7172232888 -3.7173093550 -3.0000152588
14.7722398626 -3.9278897457 -3.0000152588
14.1335711828 -3.7149304852 -3.0000152588
14.9947976653 -3.9652523770 -3.0000152588
14.8924893955 -3.9227184689 -3.0000152588
15.2425436302 -4.0263829903 -3.0000152588
14.2716472548 -3.6723843870 -3.0000152588
15.5259819804 -4.1507512935 -3.0000152588
15.4893599010 -4.1297961923 -3.0000152588
14.4811295445 -3.7036184523 -3.0000152588
15.2317988261 -7.0865854555 -3.0000152588
15.6693419687 -7.8127968069 -3.0000152588
15.7767591884 -7.9209428302 -3.0000152588
15.5504952141 -7.3537286559 -3.0000152588
15.2559593272 -6.9245204971 -3.0000152588
15.2510621660 -6.9187645856 -3.0000152588
15.3465599578 -6.9587208894 -3.0000152588
15.9336381063 -8.4931130078 -3.0000152588
15.9108957326 -8.2221735158 -3.0000152588
15.8911876057 -8.0994078188 -3.0000152588
15.8097153690 -7.7755349587 -3.0000152588
15.7874905517 -7.7092155229 -3.0000152588
15.0852096257 -6.6424264031 -3.0000152588
15.7228304199 -7.4828779845 -3.0000152588
13.1349735014 -4.0193077526 -3.0000152588
13.0810556503 -4.0216712512 -3.0000152588
13.2967841558 -3.9918740544 -3.0000152588
13.1205043076 -3.9956859496 -3.0000152588
13.4058029341 -3.9687308313 -3.0000152588
13.1058938553 -3.9721100784 -3.0000152588
13.6937240386 -3.9596181402 -3.0000152588
13.6663986943 -3.9574154286 -3.0000152588
13.2829615831 -3.9435812051 -3.0000152588
13.5857941482 -3.9276478795 -3.0000152588
13.5445218964 -3.9253635228 -3.0000152588
13.0624893046 -3.9258038341 -3.0000152588
14.0628108513 -3.9074733561 -3.0000152588
13.7714547423 -3.8696054475 -3.0000152588
14.1636892855 -3.9003304517 -3.0000152588
14.0944243913 -3.8881824085 -3.0000152588
14.0805502751 -3.8858758127 -3.0000152588
14.1402160174 -3.8715448983 -3.0000152588
14.0984240508 -3.8643425677 -3.0000152588
13.9586862858 -3.8430183947 -3.0000152588
13.1832470740 -3.8000990075 -3.0000152588
13.1534413229 -3.7525978964 -3.0000152588
13.3822485452 -3.7265296207 -3.0000152588
14.4954721629 -3.8486723678 -3.0000152588
14.6274355493 -3.8586860884 -3.0000152588
14.6134718456 -3.8548028784 -3.0000152588
14.5575039926 -3.8396836139 -3.0000152588
13.7014283091 -3.6934530088 -3.0000152588
13.2235684249 -3.6783348892 -3.0000152588
14.6619768264 -3.8433356281 -3.0000152588
14.4789767678 -3.7947698804 -3.0000152588
14.2370979872 -3.7419409160 -3.0000152588
13.9062255268 -3.6899459379 -3.0000152588
13.7033706103 -3.6693581390 -3.0000152588
14.6967457010 -3.8282295365 -3.0000152588
13.4568968307 -3.6315138151 -3.0000152588
13.2373725213 -3.6297661212 -3.0000152588
13.1635058890 -3.6071854038 -3.0000152588
15.2665995846 -3.9809333182 -3.0000152588
15.3305864051 -3.9823091001 -3.0000152588
15.3033666604 -3.9704217639 -3.0000152588
15.2897305335 -3.9645385385 -3.0000152588
15.1715931178 -7.6444580094 -3.0000152588
15.1461824035 -7.6105302992 -3.0000152588
14.9276005947 -7.3677831164 -3.0000152588
14.9143506214 -7.3553544718 -3.0000152588
15.2090170467 -7.6550106369 -3.0000152588
15.4555865938 -7.4186354961 -3.0000152588
15.5655460123 -7.4909015164 -3.0000152588
15.1664545799 -6.9644314348 -3.0000152588
15.8885264533 -7.9623588562 -3.0000152588
14.9823119440 -6.7889840860 -3.0000152588
15.9877928932 -8.1041821782 -3.0000152588
15.5116021051 -7.2156399184 -3.0000152588
14.7580149919 -6.5920256490 -3.0000152588
15.6558495230 -7.3659022844 -3.0000152588
14.7083769065 -6.5383749738 -3.0000152588
15.0508290603 -6.7190735610 -3.0000152588
14.6567517049 -6.4857786732 -3.0000152588
14.6032736915 -6.3551201264 -3.0000152588
13.0119227396 -3.9329589443 -3.0000152588
12.8375707345 -3.9541094889 -3.0000152588
12.5920970684 -3.9946344926 -3.0000152588
13.3321576422 -3.8861470164 -3.0000152588
13.2440065192 -3.8902724071 -3.0000152588
13.2146407972 -3.8919951429 -3.0000152588
13.0679933245 -3.9032130127 -3.0000152588
12.8925502893 -3.9223923090 -3.0000152588
12.6598950924 -3.9576264378 -3.0000152588
12.6020122100 -3.9681523792 -3.0000152588
13.4198812555 -3.8594186724 -3.0000152588
13.3755558878 -3.8605083456 -3.0000152588
13.5827485584 -3.8346181569 -3.0000152588
13.4490922712 -3.8347401959 -3.0000152588
12.4475527870 -3.9502279574 -3.0000152588
13.4039884111 -3.8114050305 -3.0000152588
12.4225773037 -3.9062251549 -3.0000152588
13.8094790367 -3.7699181720 -3.0000152588
13.9919831106 -3.7593072384 -3.0000152588
13.7957366016 -3.7449475438 -3.0000152588
14.2543852539 -3.7415935320 -3.0000152588
14.2241222144 -3.7373411300 -3.0000152588
14.2089813925 -3.7352820902 -3.0000152588
14.1635233085 -3.7293738307 -3.0000152588
13.7830777420 -3.6958721608 -3.0000152588
12.6113764564 -3.7698282938 -3.0000152588
13.0176255538 -3.6894434592 -3.0000152588
13.4771859067 -3.6410280067 -3.0000152588
12.9666959311 -3.6460345527 -3.0000152588
18.7500781561 -9.9079502739 -3.0000152588
18.8155549595 -9.5030113637 -3.0000152588
18.7100135224 -10.1908142590 -3.0000152588
18.7178282576 -10.1600879916 -3.0000152588
18.7329116898 -10.0984994436 -3.0000152588
18.8155413799 -9.6786561540 -3.0000152588
18.7600978531 -10.0886163609 -3.0000152588
18.8114856287 -9.9692681521 -3.0000152588
18.7292627321 -10.6324613242 -3.0000152588
18.8215860492 -10.4221345384 -3.0000152588
19.0947026863 -9.9088918587 -3.0000152588
18.6720543437 -9.3255039965 -3.0000152588
18.8369283679 -9.4084610369 -3.0000152588
18.8943722213 -9.1846368946 -3.0000152588
13.3993682028 -3.7213201705 -3.0000152588
12.7681271548 -3.8035867961 -3.0000152588
12.5966420006 -3.8392472323 -3.0000152588
12.5811117543 -3.8427654197 -3.0000152588
13.0794065869 -3.7291437982 -3.0000152588
12.1444810576 -3.8858150182 -3.0000152588
18.5104202648 -9.7690970989 -3.0000152588
18.5564371779 -9.4938274802 -3.0000152588
18.5599258001 -9.4009489095 -3.0000152588
18.5839547519 -9.7637174954 -3.0000152588
18.6055784114 -9.0802385664 -3.0000152588
18.6036367299 -9.0400226122 -3.0000152588
18.6320240007 -9.7688835812 -3.0000152588
18.6437974889 -8.6832392663 -3.0000152588
18.7036100415 -9.4459923168 -3.0000152588
18.7777064130 -9.7704667211 -3.0000152588
18.8238686813 -9.4644049329 -3.0000152588
18.8758866403 -8.7969696614 -3.0000152588
18.8557560372 -8.6268164079 -3.0000152588
18.8032221336 -8.3171567381 -3.0000152588
15.1818579189 -7.5226316542 -3.0000152588
15.1762628463 -7.5203152541 -3.0000152588
15.0801421296 -7.4834863197 -3.0000152588
15.0227767240 -7.4640955943 -3.0000152588
14.8401023126 -7.3650383532 -3.0000152588
15.2614939553 -7.1639817158 -3.0000152588
15.8277696923 -7.4148818431 -3.0000152588
15.7071258267 -7.3337190228 -3.0000152588
16.0363601670 -7.5178367715 -3.0000152588
15.7584479001 -7.2804012369 -3.0000152588
15.6103188260 -7.1927089468 -3.0000152588
14.5183224385 -6.8610811009 -3.0000152588
14.4805672789 -6.8595512238 -3.0000152588
14.6336215782 -6.8449480531 -3.0000152588
14.3897214885 -6.7856400338 -3.0000152588
15.8923826217 -6.8244398268 -3.0000152588
18.4921032905 -9.1968607416 -3.0000152588
18.4892607481 -9.1484090226 -3.0000152588
18.5125785682 -9.1346717778 -3.0000152588
18.5117376285 -9.1224954503 -3.0000152588
18.5108606727 -9.1103216637 -3.0000152588
18.5059359316 -9.0494945725 -3.0000152588
18.5025494335 -9.0130356231 -3.0000152588
18.5349686285 -9.1085491665 -3.0000152588
18.5254009433 -8.9984758603 -3.0000152588
18.5631482883 -9.1683834655 -3.0000152588
18.5540941375 -9.0452368337 -3.0000152588
18.5384273729 -8.8978949538 -3.0000152588
18.5353081737 -8.8733960534 -3.0000152588
18.5507980252 -8.8087551164 -3.0000152588
18.5471512283 -8.7841845872 -3.0000152588
18.6072924961 -9.1032316746 -3.0000152588
18.5591720363 -8.7065652099 -3.0000152588
18.5505233941 -8.6573542260 -3.0000152588
18.5551563288 -8.5543699267 -3.0000152588
18.6456620806 -8.9864076829 -3.0000152588
18.6501530883 -8.6652101632 -3.0000152588
18.6071920902 -8.4523084612 -3.0000152588
18.5801293400 -8.3405450932 -3.0000152588
18.5904919236 -8.2848339370 -3.0000152588
18.5733491896 -8.2229193638 -3.0000152588
18.5978259724 -8.1348987583 -3.0000152588
18.7960163882 -9.0369625002 -3.0000152588
18.6247357425 -8.1403685524 -3.0000152588
18.6204797288 -8.0456388899 -3.0000152588
18.8229519531 -8.8359082316 -3.0000152588
18.8776162814 -9.1632351792 -3.0000152588
18.8714868135 -9.0704934463 -3.0000152588
18.6281709788 -7.9175600904 -3.0000152588
18.6237290968 -7.9050471450 -3.0000152588
18.8497848187 -8.5483699453 -3.0000152588
18.7916326010 -7.9470259640 -3.0000152588
15.1237334405 -7.4784020587 -3.0000152588
14.8957929035 -7.4477477919 -3.0000152588
14.8232588070 -7.4434103949 -3.0000152588
15.1737423914 -7.1434397452 -3.0000152588
15.7476705347 -7.2479005598 -3.0000152588
15.6766545110 -7.1910798683 -3.0000152588
15.0317665478 -7.0240147313 -3.0000152588
15.2540323126 -7.0361537917 -3.0000152588
15.6252495214 -7.1190304955 -3.0000152588
16.1191638720 -7.3399307914 -3.0000152588
14.1638510446 -6.9743776791 -3.0000152588
14.6241330412 -6.7187291129 -3.0000152588
14.2370207569 -6.7373662707 -3.0000152588
15.7042314672 -6.7618979942 -3.0000152588
16.4460366125 -6.8316358348 -3.0000152588
12.8153258654 -6.6247377769 -3.0000152588
18.4849164287 -8.5636097543 -3.0000152588
18.4821635040 -8.5525278296 -3.0000152588
18.4793778089 -8.5414540971 -3.0000152588
18.4999756280 -8.5243874830 -3.0000152588
18.4971066107 -8.5132611821 -3.0000152588
18.4942046924 -8.5021434170 -3.0000152588
18.4912698985 -8.4910342849 -3.0000152588
18.4883022546 -8.4799338830 -3.0000152588
18.4853017866 -8.4688423086 -3.0000152588
18.4962204114 -8.4179438279 -3.0000152588
18.4898197852 -8.3957238419 -3.0000152588
18.4865702021 -8.3846281468 -3.0000152588
18.5097587239 -8.3777996959 -3.0000152588
18.5031203545 -8.3555003153 -3.0000152588
18.4963501708 -8.3332405998 -3.0000152588
18.4929157224 -8.3221258600 -3.0000152588
18.5125120863 -8.3037823992 -3.0000152588
18.4982275334 -8.2591959057 -3.0000152588
18.4945740392 -8.2480759363 -3.0000152588
18.5965473595 -8.5117947232 -3.0000152588
18.5024943965 -8.1958552628 -3.0000152588
18.4986535105 -8.1847229484 -3.0000152588
18.5253571956 -8.1880049317 -3.0000152588
18.5136652602 -8.1544397327 -3.0000152588
18.5057053500 -8.1321211489 -3.0000152588
18.6603484403 -8.5694122153 -3.0000152588
18.5596823644 -8.2140254410 -3.0000152588
18.4993785643 -8.0457283510 -3.0000152588
18.6668490899 -8.4939990988 -3.0000152588
18.5132939009 -8.0147060121 -3.0000152588
18.5045072855 -7.9923920710 -3.0000152588
18.5314091638 -7.9946857865 -3.0000152588
18.5172701515 -7.8959378142 -3.0000152588
18.6665788735 -8.2298412382 -3.0000152588
18.6030086993 -7.9134082385 -3.0000152588
18.7739444263 -8.1690600327 -3.0000152588
18.5224989781 -7.5102873098 -3.0000152588
15.2269984866 -7.4618142441 -3.0000152588
15.1907300079 -7.4596454989 -3.0000152588
15.0817736497 -7.4570052278 -3.0000152588
15.0636072634 -7.4571293663 -3.0000152588
14.8341380970 -7.4726365948 -3.0000152588
14.9286910353 -7.4388604794 -3.0000152588
15.1656292262 -7.1198837999 -3.0000152588
15.1165453277 -7.0945890322 -3.0000152588
15.0238859806 -7.0952222123 -3.0000152588
15.6305957213 -7.1317868814 -3.0000152588
15.5884062867 -7.1225070032 -3.0000152588
15.7340088717 -7.1077797284 -3.0000152588
14.6932306172 -7.0532656246 -3.0000152588
16.0076082097 -7.1730356999 -3.0000152588
15.9605379383 -7.1292102432 -3.0000152588
14.6560315237 -7.0104518246 -3.0000152588
15.8328078709 -7.0607514773 -3.0000152588
15.4944569732 -6.9821202264 -3.0000152588
16.2786527978 -7.1628093446 -3.0000152588
15.9894062434 -6.9340896734 -3.0000152588
14.3025937821 -6.8702131228 -3.0000152588
16.4934141526 -7.0872242858 -3.0000152588
15.6436206138 -6.7389944579 -3.0000152588
12.7460594604 -6.7447713237 -3.0000152588
18.4571405881 -8.0603176961 -3.0000152588
18.4398214502 -8.0205378945 -3.0000152588
18.4309856718 -8.0007255391 -3.0000152588
18.4574952619 -8.0007794116 -3.0000152588
18.4530334984 -7.9908145036 -3.0000152588
18.4440216352 -7.9709245015 -3.0000152588
18.4394716145 -7.9609995815 -3.0000152588
18.4521824204 -7.9309542905 -3.0000152588
18.4380893442 -7.9011492784 -3.0000152588
18.4551091178 -7.8807477647 -3.0000152588
18.4356653672 -7.8410045714 -3.0000152588
18.4473539710 -7.8103406646 -3.0000152588
18.4423288996 -7.8004065896 -3.0000152588
18.4372744634 -7.7904874231 -3.0000152588
18.4329199640 -7.7297943362 -3.0000152588
18.4363542455 -7.5858277699 -3.0000152588
18.4400684310 -7.5439783868 -3.0000152588
11.6142463515 -7.7102555293 -3.0000152588
11.6089248887 -7.6682255486 -3.0000152588
11.6035093362 -7.6785214054 -3.0000152588
11.5981242643 -7.6888332373 -3.0000152588
11.6152501106 -7.6053893643 -3.0000152588
11.5985370572 -7.6362711115 -3.0000152588
18.3987488911 -7.2954803332 -3.0000152588
18.4384483575 -7.3117280008 -3.0000152588
11.6192959151 -7.4995791065 -3.0000152588
11.6103601451 -7.4668781049 -3.0000152588
11.5014083232 -7.6653804864 -3.0000152588
11.6139989068 -7.4134195045 -3.0000152588
11.6057931799 -7.3803204461 -3.0000152588
11.6236253903 -7.3059212156 -3.0000152588
11.6990364535 -7.1066917951 -3.0000152588
11.8278472845 -6.8954716612 -3.0000152588
11.6094737422 -7.1945646126 -3.0000152588
11.6183295433 -7.0954848961 -3.0000152588
11.6046041048 -6.2667933436 -3.0000152588
14.9075833134 -7.4801789852 -3.0000152588
14.8667316457 -7.4914898280 -3.0000152588
14.8492971453 -7.4965958243 -3.0000152588
14.8434957996 -7.4983321812 -3.0000152588
14.8319086444 -7.5018563410 -3.0000152588
14.8072604188 -7.4842287922 -3.0000152588
15.2779454693 -7.3446918005 -3.0000152588
14.5954678771 -7.1735145405 -3.0000152588
15.5074520465 -7.0016806404 -3.0000152588
16.2672951620 -6.9672187980 -3.0000152588
14.3177462871 -7.0533101182 -3.0000152588
16.4657614475 -6.9117848386 -3.0000152588
15.6055182273 -6.7158851281 -3.0000152588
15.9785756685 -6.6665300867 -3.0000152588
14.3484550302 -6.7505114123 -3.0000152588
18.3400802552 -7.5573464376 -3.0000152588
18.3344433471 -7.5487561608 -3.0000152588
18.3432050969 -7.5182147902 -3.0000152588
18.3399936825 -7.4702719617 -3.0000152588
18.3251962222 -7.3652518770 -3.0000152588
18.2919841125 -7.0482273901 -3.0000152588
18.2960614858 -7.0156655464 -3.0000152588
11.5479066470 -8.2215999217 -3.0000152588
11.5370821549 -8.2561298774 -3.0000152588
11.5325577427 -8.1142514626 -3.0000152588
11.5285980462 -8.1257966319 -3.0000152588
11.5343209859 -8.0369505347 -3.0000152588
11.5259783938 -8.0600434573 -3.0000152588
11.5331883241 -7.9708222227 -3.0000152588
11.5288043352 -7.9823661542 -3.0000152588
11.5201389001 -8.0054926705 -3.0000152588
11.5158575298 -8.0170750529 -3.0000152588
11.5195244309 -7.9390245679 -3.0000152588
11.5150464386 -7.9506090588 -3.0000152588
11.5247348357 -7.8606528941 -3.0000152588
11.5265586701 -7.7935401068 -3.0000152588
11.6507995165 -7.2268474161 -3.0000152588
11.5159392574 -7.4201686023 -3.0000152588
11.2935273270 -7.9213456377 -3.0000152588
11.2756278805 -7.9704377118 -3.0000152588
11.3333691628 -7.7540385004 -3.0000152588
11.2754566891 -7.9006242790 -3.0000152588
11.4705280520 -7.1519839081 -3.0000152588
10.8816667695 -7.5186939518 -3.0000152588
15.1538575359 -7.4004329930 -3.0000152588
15.1480825054 -7.4022549618 -3.0000152588
15.0997931278 -7.0632378046 -3.0000152588
15.4289555525 -6.6994161232 -3.0000152588
16.2578915385 -6.6251285782 -3.0000152588
16.8654559177 -6.5728871973 -3.0000152588
11.5323264692 -8.7968262803 -3.0000152588
11.5291067376 -8.8218890482 -3.0000152588
11.5228009242 -8.6930615689 -3.0000152588
11.5208656103 -8.7056192040 -3.0000152588
11.5189674525 -8.7181825092 -3.0000152588
11.5152826719 -8.7433256899 -3.0000152588
11.4895582136 -8.7525417490 -3.0000152588
11.4990327794 -8.5463483805 -3.0000152588
11.4803678894 -8.3973988321 -3.0000152588
11.4838958513 -8.2777395935 -3.0000152588
11.4702202993 -8.2336760942 -3.0000152588
11.4437771890 -7.9772534322 -3.0000152588
11.4416832967 -7.9057906651 -3.0000152588
11.2281489199 -8.7021129597 -3.0000152588
11.4375770029 -7.7021106759 -3.0000152588
11.4278822245 -7.7277531728 -3.0000152588
11.4248891029 -7.6677770263 -3.0000152588
11.4818174916 -7.4670935852 -3.0000152588
14.9922828346 -7.4562516557 -3.0000152588
14.8866017149 -7.5269483601 -3.0000152588
15.2056055270 -7.3132678598 -3.0000152588
15.1504113727 -7.3398668405 -3.0000152588
14.8135019081 -7.5510960528 -3.0000152588
14.7454147039 -7.5744118893 -3.0000152588
14.8249301785 -7.1618136569 -3.0000152588
14.8243980050 -7.1337911618 -3.0000152588
15.4598535980 -6.8129915671 -3.0000152588
15.4112388142 -6.8010344654 -3.0000152588
15.0795454139 -6.9193310854 -3.0000152588
15.8370794991 -6.6488362593 -3.0000152588
15.1551793335 -6.8096858822 -3.0000152588
14.1554654861 -7.5088477284 -3.0000152588
15.4516803028 -6.6903505642 -3.0000152588
15.3121218117 -6.7294353421 -3.0000152588
15.2757796171 -6.7410191803 -3.0000152588
14.6022500937 -7.0767244399 -3.0000152588
15.6721211423 -6.6208864586 -3.0000152588
15.5811168796 -6.6368797099 -3.0000152588
15.1145294886 -6.7477057010 -3.0000152588
15.6502076534 -6.4285821245 -3.0000152588
15.7011334670 -6.3724133283 -3.0000152588
11.4918951530 -9.1760760331 -3.0000152588
11.4919322429 -9.2167678650 -3.0000152588
11.4956913039 -9.3794838331 -3.0000152588
11.4975333745 -9.4201339664 -3.0000152588
11.4702196214 -9.0396636242 -3.0000152588
11.4470483342 -9.0114673043 -3.0000152588
11.4444602729 -9.2855553185 -3.0000152588
11.4322751711 -8.8454570475 -3.0000152588
11.4303047635 -8.8729435099 -3.0000152588
11.4251039140 -9.4237382412 -3.0000152588
11.4076095426 -8.6063907200 -3.0000152588
11.3978262807 -8.3501371461 -3.0000152588
11.3982334228 -8.2209573319 -3.0000152588
11.3834133872 -8.1743500212 -3.0000152588
11.3116695826 -8.5943537520 -3.0000152588
11.3264537681 -8.3372926152 -3.0000152588
11.3584704557 -8.0661590152 -3.0000152588
11.3451876004 -8.0185084310 -3.0000152588
11.2689905112 -8.3855650066 -3.0000152588
11.2643020856 -8.4140255648 -3.0000152588
11.3360155063 -7.9565034450 -3.0000152588
11.2629723298 -8.2816894710 -3.0000152588
11.2475699504 -8.3672750425 -3.0000152588
11.2294008583 -8.4817887291 -3.0000152588
11.1801212940 -9.3488645564 -3.0000152588
11.3163184031 -7.9363178025 -3.0000152588
11.1556818724 -9.0438192881 -3.0000152588
11.1292720301 -9.1894341812 -3.0000152588
11.3812333695 -7.5583383818 -3.0000152588
11.4358769822 -7.3426973509 -3.0000152588
11.3535666246 -7.5643605986 -3.0000152588
11.5634880040 -6.9942417603 -3.0000152588
11.4357383670 -7.2786958918 -3.0000152588
11.3533033836 -7.4222308140 -3.0000152588
11.3078588102 -7.5486082388 -3.0000152588
18.3009768328 -3.6593390159 -3.0000152588
15.4310532270 -6.5716528803 -3.0000152588
15.5329688098 -6.3064815581 -3.0000152588
11.4764509313 -9.8070680808 -3.0000152588
11.4074221546 -9.4759229487 -3.0000152588
11.4443932143 -9.9024467952 -3.0000152588
11.3953641940 -9.7605724218 -3.0000152588
11.2940516848 -8.6918858275 -3.0000152588
17.1125167801 -3.6990073718 -3.0000152588
14.9145046011 -7.5053830954 -3.0000152588
14.6660159450 -7.2722406766 -3.0000152588
15.1235797669 -6.7197612983 -3.0000152588
14.5039302305 -7.2907003451 -3.0000152588
14.2319540815 -7.8059172029 -3.0000152588
15.1175183877 -6.6347911895 -3.0000152588
15.4643791086 -6.3483587837 -3.0000152588
17.3975957497 -3.9136750619 -3.0000152588
17.9663467953 -4.0193229447 -3.0000152588
17.6576138470 -3.9398289012 -3.0000152588
17.3586825365 -3.8828313019 -3.0000152588
17.0735848218 -3.8218447133 -3.0000152588
16.8993777542 -3.8078019045 -3.0000152588
16.6519714238 -3.7985093452 -3.0000152588
18.0220077004 -3.9854344786 -3.0000152588
17.6681394120 -3.8926425302 -3.0000152588
16.6083627856 -3.7739886393 -3.0000152588
16.4312047510 -3.7281657232 -3.0000152588
17.8139791612 -3.8526956004 -3.0000152588
17.3407405079 -3.7088589649 -3.0000152588
16.5338190543 -3.6534145579 -3.0000152588
17.9045665212 -3.8012523720 -3.0000152588
17.6555601667 -3.7414393104 -3.0000152588
11.2686676070 -9.5278233304 -3.0000152588
11.3035919680 -9.7318520692 -3.0000152588
11.2208666128 -9.5350625347 -3.0000152588
11.2622275165 -9.7724685101 -3.0000152588
11.2992313460 -9.9452779117 -3.0000152588
11.3531091991 -10.2473718243 -3.0000152588
11.4259367057 -10.4782106210 -3.0000152588
11.2475001410 -10.0407896275 -3.0000152588
11.5064350746 -10.8289023667 -3.0000152588
11.3565633935 -10.9091777588 -3.0000152588
10.8964818785 -9.9147509558 -3.0000152588
15.0670292838 -7.3044971818 -3.0000152588
14.9005193198 -7.6132558555 -3.0000152588
14.8933719853 -7.6299576102 -3.0000152588
14.8687291849 -7.6261931387 -3.0000152588
14.7425198393 -7.1845239880 -3.0000152588
14.9477050321 -6.8607140088 -3.0000152588
14.6155969347 -7.3655804593 -3.0000152588
15.0261118733 -6.7384054934 -3.0000152588
15.0860912643 -6.6447896591 -3.0000152588
14.7767142909 -7.0011317275 -3.0000152588
14.5408767805 -7.3534568075 -3.0000152588
14.9668951185 -6.6605702619 -3.0000152588
14.3301904966 -7.7887351512 -3.0000152588
14.6220304375 -7.0578963523 -3.0000152588
14.2284080998 -8.0454826040 -3.0000152588
14.5568005637 -7.0712124329 -3.0000152588
15.2446913983 -6.2942597078 -3.0000152588
15.1946539742 -6.3311616596 -3.0000152588
14.1751743420 -7.9265237174 -3.0000152588
15.1529010200 -6.3021774895 -3.0000152588
14.1113693931 -8.2198845030 -3.0000152588
14.6174844876 -6.8093095224 -3.0000152588
14.7513694806 -6.6079672989 -3.0000152588
14.7140443872 -6.5411408833 -3.0000152588
17.3186199128 -4.0196941474 -3.0000152588
17.1880272641 -4.0056592514 -3.0000152588
17.1225895412 -4.0000919489 -3.0000152588
17.0963925980 -3.9981361352 -3.0000152588
17.3084472453 -3.9941145068 -3.0000152588
17.2822116848 -3.9910592011 -3.0000152588
17.2690872407 -3.9895897687 -3.0000152588
17.1112922195 -3.9749887281 -3.0000152588
17.1924817772 -3.9575188479 -3.0000152588
16.7814523920 -3.9384263489 -3.0000152588
16.7283416186 -3.9387105557 -3.0000152588
16.7017884225 -3.9390883193 -3.0000152588
16.6486910587 -3.9403151009 -3.0000152588
17.2370109666 -3.9132660420 -3.0000152588
17.0229394997 -3.8966469398 -3.0000152588
16.3927392209 -3.9065449263 -3.0000152588
16.2966669628 -3.8914726158 -3.0000152588
16.4427091825 -3.8540760494 -3.0000152588
16.1863532243 -3.8801838776 -3.0000152588
16.1291876097 -3.8635819727 -3.0000152588
16.0617643287 -3.8736908590 -3.0000152588
16.0580033929 -3.8498121940 -3.0000152588
17.3204976381 -3.7764706337 -3.0000152588
15.9821568398 -3.8133345738 -3.0000152588
15.8275905805 -3.8180249411 -3.0000152588
15.7867261939 -3.8266489093 -3.0000152588
17.2426135937 -3.7194778360 -3.0000152588
16.7815890211 -3.6966961076 -3.0000152588
17.0205958683 -3.6786689015 -3.0000152588
17.2192088557 -3.6686764274 -3.0000152588
17.0077058149 -3.6538294366 -3.0000152588
15.6199956257 -3.7910103070 -3.0000152588
16.5685837687 -3.6287840634 -3.0000152588
15.4085962491 -3.8238129162 -3.0000152588
15.1708842292 -3.8757232770 -3.0000152588
14.9792450576 -3.8959805597 -3.0000152588
14.8497473018 -3.9232741711 -3.0000152588
11.2076084277 -10.3399658545 -3.0000152588
11.2502002597 -10.5288016532 -3.0000152588
11.3474378853 -10.9462096698 -3.0000152588
14.9794753539 -7.4312792248 -3.0000152588
16.6499748312 -4.0348587773 -3.0000152588
16.6968681032 -4.0078935609 -3.0000152588
16.6847520723 -4.0085504287 -3.0000152588
16.6726380375 -4.0092431350 -3.0000152588
16.6242039798 -4.0123722198 -3.0000152588
16.4442553720 -3.9317438584 -3.0000152588
16.6232705430 -3.8185920408 -3.0000152588
16.5852514981 -3.8213307453 -3.0000152588
16.5197451795 -3.8025719643 -3.0000152588
16.2117048885 -3.8174384158 -3.0000152588
15.6049067345 -3.9367397440 -3.0000152588
16.6752286293 -3.5975222294 -3.0000152588
14.5758526468 -6.9231193595 -3.0000152588
14.6243043571 -10.7524330506 -3.0000152588
16.0914605317 -4.0331734549 -3.0000152588
16.0473944996 -4.0440508342 -3.0000152588
15.9972515896 -4.0320867618 -3.0000152588
15.9751977044 -4.0380176643 -3.0000152588
15.8182688176 -4.0336092984 -3.0000152588
15.7999357222 -4.0140457124 -3.0000152588
15.7258772871 -4.0128253020 -3.0000152588
15.6926494660 -4.0241796124 -3.0000152588
15.6847316069 -4.0013401118 -3.0000152588
15.5765427546 -4.0147641798 -3.0000152588
15.7003496724 -3.7413330161 -3.0000152588
14.9991075314 -3.9833615519 -3.0000152588
14.0997240155 -7.0798663814 -3.0000152588
14.0984946450 -7.0869603998 -3.0000152588
14.1002512337 -6.9545252343 -3.0000152588
14.0943858579 -6.7860415580 -3.0000152588
14.0705739499 -8.1261363277 -3.0000152588
14.0943604167 -8.2118642555 -3.0000152588
14.1141888888 -8.2755766182 -3.0000152588
14.0398707783 -6.8947532663 -3.0000152588
14.1030653638 -8.3185663934 -3.0000152588
14.0093319677 -8.0795247767 -3.0000152588
14.0978454076 -8.3762641641 -3.0000152588
14.1139192848 -6.5138207436 -3.0000152588
13.9840687588 -8.0775860479 -3.0000152588
14.1257070183 -8.5122173730 -3.0000152588
14.1252055525 -6.4268473193 -3.0000152588
14.0915796486 -6.5045862465 -3.0000152588
14.1465518296 -6.3256479600 -3.0000152588
13.9595119754 -6.8189742559 -3.0000152588
13.9852177325 -8.2685639505 -3.0000152588
14.1430495169 -8.6653007980 -3.0000152588
14.1145083426 -6.3359513273 -3.0000152588
13.9361382458 -8.1851827679 -3.0000152588
14.1146203031 -6.2293845483 -3.0000152588
14.0643047170 -8.7768847038 -3.0000152588
14.0816729287 -6.0900015133 -3.0000152588
14.1629927847 -9.0824396712 -3.0000152588
14.0792758929 -5.9103437881 -3.0000152588
13.6822462755 -6.6456006283 -3.0000152588
14.9068024480 -4.0882060361 -3.0000152588
14.8866509051 -4.0976750905 -3.0000152588
14.9066807303 -10.9097287679 -3.0000152588
14.8459910252 -4.0903469033 -3.0000152588
14.8359148501 -4.0952464094 -3.0000152588
14.8458693840 -10.9075857305 -3.0000152588
14.8761837350 -10.9221061888 -3.0000152588
14.8151861997 -4.0784835340 -3.0000152588
14.8150641351 -10.9194480006 -3.0000152588
14.8251898115 -10.9244091137 -3.0000152588
14.8454849702 -10.9342413710 -3.0000152588
14.7436929434 -4.0873756572 -3.0000152588
14.7234179676 -10.9001185273 -3.0000152588
14.7637858079 -10.9208687090 -3.0000152588
14.7739159113 -10.9259815065 -3.0000152588
14.7326426140 -4.0658762269 -3.0000152588
14.7022450899 -4.0816709262 -3.0000152588
14.6819368936 -10.9055764587 -3.0000152588
14.7325200996 -10.9320523620 -3.0000152588
14.6302577836 -4.0928688310 -3.0000152588
14.6301362325 -10.9050561041 -3.0000152588
14.6503203061 -10.9160427026 -3.0000152588
14.6186390443 -4.0716711854 -3.0000152588
14.5881757287 -10.9094460635 -3.0000152588
14.5982728103 -10.9150783974 -3.0000152588
14.6286634045 -10.9317958412 -3.0000152588
14.5764910375 -4.0673836731 -3.0000152588
14.5461130401 -4.0845640707 -3.0000152588
14.5259462629 -4.0961671486 -3.0000152588
14.5662258550 -10.9248421451 -3.0000152588
14.5138291713 -4.0752503760 -3.0000152588
14.5037097913 -4.0811325429 -3.0000152588
14.5238435190 -10.9285229722 -3.0000152588
14.4610929333 -4.0781863586 -3.0000152588
14.4609708583 -10.9197325396 -3.0000152588
14.4081502093 -4.0818938831 -3.0000152588
14.4486063768 -10.9405040316 -3.0000152588
14.3853813316 -4.0675018418 -3.0000152588
14.3752395921 -4.0737640146 -3.0000152588
14.3548901261 -10.9115368865 -3.0000152588
14.3751173594 -10.9241518199 -3.0000152588
14.3320138233 -4.0722947119 -3.0000152588
14.2514127249 -10.8734216561 -3.0000152588
14.1092980232 -4.1937295395 -3.0000152588
14.0896673053 -10.7899905966 -3.0000152588
14.2581425694 -10.9068520437 -3.0000152588
14.1028644577 -10.9183396457 -3.0000152588
13.8699529152 -4.1010569365 -3.0000152588
13.8798945930 -10.9045982468 -3.0000152588
13.8402581335 -10.9350867527 -3.0000152588
13.7545011357 -10.8981484971 -3.0000152588
13.5607864984 -10.9256716854 -3.0000152588
13.4421458153 -10.9182136179 -3.0000152588
14.8209581454 -7.3636095522 -3.0000152588
14.8227530302 -7.3782342446 -3.0000152588
14.8702953753 -7.6139397519 -3.0000152588
14.8716195547 -7.6186693684 -3.0000152588
14.8743098574 -7.6281167464 -3.0000152588
14.8812797330 -7.6516641104 -3.0000152588
14.7918344891 -7.3168830637 -3.0000152588
14.0361272134 -7.1383029385 -3.0000152588
14.0069243258 -6.8594787439 -3.0000152588
13.9683542588 -7.0114577332 -3.0000152588
14.0455829247 -8.4629971549 -3.0000152588
14.5247085265 -4.1751102343 -3.0000152588
14.4848690913 -4.1723371904 -3.0000152588
14.3780453558 -4.1866587758 -3.0000152588
13.9661746932 -4.1989661660 -3.0000152588
15.2842887614 -10.9689755812 -3.0000152588
15.2955359321 -10.9724658507 -3.0000152588
15.3067933784 -10.9759228337 -3.0000152588
15.2094200300 -10.9702815885 -3.0000152588
15.1116666164 -10.9621513194 -3.0000152588
15.1453850930 -10.9740544316 -3.0000152588
15.1679221892 -10.9818233959 -3.0000152588
15.0809645647 -10.9767597458 -3.0000152588
15.1035187940 -10.9849097963 -3.0000152588
14.9936619791 -10.9697202917 -3.0000152588
15.0500424077 -10.9911368745 -3.0000152588
14.9849112017 -10.9922538040 -3.0000152588
14.9081341526 -10.9876724823 -3.0000152588
15.1404947875 -11.1001553486 -3.0000152588
14.5434200108 -11.0076285499 -3.0000152588
14.9369386244 -11.2585460459 -3.0000152588
14.0608329596 -11.0132007081 -3.0000152588
14.8098436335 -7.4383597326 -3.0000152588
14.8832956856 -7.6257241860 -3.0000152588
14.8551369956 -7.6223054742 -3.0000152588
13.8844132244 -7.0072229363 -3.0000152588
14.3000852668 -8.3114447361 -3.0000152588
14.3723113166 -8.4147250880 -3.0000152588
13.7139612043 -6.9414082957 -3.0000152588
13.9220214640 -4.3138472898 -3.0000152588
13.6737725450 -4.3568887346 -3.0000152588
13.6004533034 -4.3646267968 -3.0000152588
15.8817711034 -10.9730470889 -3.0000152588
15.8937417546 -10.9745313281 -3.0000152588
15.8186222569 -10.9890328551 -3.0000152588
15.6706115738 -10.9900164397 -3.0000152588
15.6826333474 -10.9921252527 -3.0000152588
15.7066953461 -10.9962361452 -3.0000152588
15.5578673631 -10.9931222644 -3.0000152588
15.5698988175 -10.9955645816 -3.0000152588
15.5819374441 -10.9979712969 -3.0000152588
15.4805716386 -11.0013149641 -3.0000152588
15.8819859633 -11.0705061471 -3.0000152588
15.4027247794 -11.0080373813 -3.0000152588
15.2697068112 -11.0237008367 -3.0000152588
15.6743069181 -11.1133374083 -3.0000152588
15.3923535173 -11.1049889505 -3.0000152588
15.7414217054 -11.1731639019 -3.0000152588
15.1645589601 -11.0691782226 -3.0000152588
15.8263256071 -11.2096391932 -3.0000152588
15.1823678445 -11.0995736147 -3.0000152588
15.7432550587 -11.2467833404 -3.0000152588
14.9093721845 -11.0621022066 -3.0000152588
15.4662239334 -11.2456087818 -3.0000152588
15.5812989931 -11.3423613665 -3.0000152588
14.6353215176 -11.1112246182 -3.0000152588
15.5417119872 -11.4087578665 -3.0000152588
13.9982863278 -11.1202350037 -3.0000152588
14.8192246331 -7.4988415130 -3.0000152588
14.8564834201 -7.5623907764 -3.0000152588
14.9076620367 -7.6404085066 -3.0000152588
14.9305077359 -7.6723750104 -3.0000152588
14.7374103521 -7.3905696909 -3.0000152588
14.7479237331 -7.4131576184 -3.0000152588
14.7885113648 -7.4931310748 -3.0000152588
13.8165347800 -7.3116885909 -3.0000152588
13.7234488512 -7.0994729080 -3.0000152588
13.7683361266 -7.4112380068 -3.0000152588
16.2667334536 -10.9862415415 -3.0000152588
16.3556689917 -10.9853839308 -3.0000152588
16.3810740492 -10.9848006656 -3.0000152588
16.4064752113 -10.9840671057 -3.0000152588
16.4191740537 -10.9836439731 -3.0000152588
16.4318715888 -10.9831832769 -3.0000152588
16.4445677056 -10.9826850211 -3.0000152588
16.1900563802 -11.0096797218 -3.0000152588
16.2539389017 -11.0103865811 -3.0000152588
16.2922709732 -11.0103571342 -3.0000152588
16.3306012739 -11.0099875129 -3.0000152588
16.3561523332 -11.0095521261 -3.0000152588
16.3944729744 -11.0086156252 -3.0000152588
16.0483636110 -11.0289411624 -3.0000152588
16.3052454243 -11.0344439459 -3.0000152588
16.3694816184 -11.0334444059 -3.0000152588
15.9310913650 -11.0456097080 -3.0000152588
16.1116714229 -11.0558987888 -3.0000152588
15.7869414129 -11.0563117799 -3.0000152588
15.9810507073 -11.0734331975 -3.0000152588
15.6935046579 -11.0693445304 -3.0000152588
15.5733657231 -11.0763258354 -3.0000152588
16.2534954396 -11.1312509075 -3.0000152588
16.4242185273 -11.1285943903 -3.0000152588
15.6314256499 -11.1340011203 -3.0000152588
16.0664056691 -11.1992145178 -3.0000152588
16.4958240579 -11.2465415205 -3.0000152588
15.5104577937 -11.2130083610 -3.0000152588
16.0224953862 -11.2696456401 -3.0000152588
16.1309085431 -11.2742152998 -3.0000152588
15.0538769693 -11.1372292330 -3.0000152588
15.1210561366 -11.2049617663 -3.0000152588
15.4305939145 -11.2726152978 -3.0000152588
16.4317852378 -11.3460200161 -3.0000152588
16.0034518381 -11.3654296124 -3.0000152588
16.1002952194 -11.3699421690 -3.0000152588
16.4343074746 -11.4184952247 -3.0000152588
11.1402751453 -5.1403940958 -3.0000152588
11.1264422494 -5.1029415375 -3.0000152588
11.2228413049 -4.5568709114 -3.0000152588
11.2442219611 -4.3883898519 -3.0000152588
11.2141012988 -4.3382989631 -3.0000152588
14.7533039018 -7.4427460891 -3.0000152588
14.8371582855 -7.5516949796 -3.0000152588
14.8758029002 -7.5961910874 -3.0000152588
14.9228499197 -7.6463304864 -3.0000152588
14.9612476144 -7.6843332637 -3.0000152588
14.9719325075 -7.6944790165 -3.0000152588
14.9755140951 -7.6978398129 -3.0000152588
14.8478846525 -7.6012081436 -3.0000152588
13.7894812076 -7.3670522417 -3.0000152588
13.9375982434 -7.6865455058 -3.0000152588
16.6746458143 -11.0357426912 -3.0000152588
16.5963484148 -11.0690885332 -3.0000152588
16.2023031411 -11.1180869440 -3.0000152588
16.2845099394 -11.1157158967 -3.0000152588
15.9823513880 -11.1414383213 -3.0000152588
15.8848103489 -11.1619458121 -3.0000152588
16.0786242510 -11.1672520253 -3.0000152588
15.7169607457 -11.1751023948 -3.0000152588
16.2037505203 -11.1905915827 -3.0000152588
15.6870614695 -11.1967723031 -3.0000152588
15.7847044562 -11.2045158716 -3.0000152588
15.7129248510 -11.2232796995 -3.0000152588
17.0562939563 -11.1447156201 -3.0000152588
17.1799913597 -11.1178688740 -3.0000152588
15.5421530947 -11.2302104997 -3.0000152588
15.5561915206 -11.2318690101 -3.0000152588
15.7249953473 -11.2485275829 -3.0000152588
16.3605856667 -11.2574640673 -3.0000152588
17.1302651595 -11.1538227462 -3.0000152588
15.4547340176 -11.2433351423 -3.0000152588
15.9925848397 -11.2867899837 -3.0000152588
15.3384667787 -11.2503636888 -3.0000152588
15.3666712732 -11.2548438982 -3.0000152588
16.2061628190 -11.3114326472 -3.0000152588
16.6193116516 -11.2854305023 -3.0000152588
15.2779948143 -11.2647180735 -3.0000152588
16.6931566241 -11.3013675586 -3.0000152588
16.2647964640 -11.3582764870 -3.0000152588
17.1368191157 -11.2513434190 -3.0000152588
16.5860463933 -11.3860016801 -3.0000152588
16.6150315330 -11.3830984156 -3.0000152588
11.2973408354 -5.3360285136 -3.0000152588
11.2776992121 -5.4216223557 -3.0000152588
11.2510927582 -5.5506330154 -3.0000152588
11.2483487420 -5.5650101090 -3.0000152588
11.2273550676 -5.5460660334 -3.0000152588
11.2040792108 -5.6763727790 -3.0000152588
11.2716817501 -5.2387330476 -3.0000152588
11.1802283571 -5.6724393252 -3.0000152588
11.3541220092 -4.8769189030 -3.0000152588
11.2916033762 -5.0751972634 -3.0000152588
11.2020133628 -4.9539001610 -3.0000152588
11.2225012977 -4.6696099405 -3.0000152588
11.0915986140 -4.9843693634 -3.0000152588
10.9063253225 -4.9289503639 -3.0000152588
14.9140261508 -7.6299249537 -3.0000152588
14.9656416958 -7.6675025566 -3.0000152588
11.4256223589 -5.5116372119 -3.0000152588
11.4904262810 -5.1104047215 -3.0000152588
11.4115928607 -5.4540553896 -3.0000152588
11.4018194177 -5.5074235115 -3.0000152588
11.3883449578 -5.5876831823 -3.0000152588
11.3593975867 -5.8027474360 -3.0000152588
11.4775215485 -4.9791432029 -3.0000152588
11.2614650317 -6.4550846447 -3.0000152588
11.2655356040 -6.5514466171 -3.0000152588
11.2662799723 -6.5652050095 -3.0000152588
11.2696643407 -6.6202147539 -3.0000152588
11.3207426117 -5.2951957032 -3.0000152588
11.2183660039 -6.0391485093 -3.0000152588
11.2289936225 -6.7206238517 -3.0000152588
11.2328516023 -6.7622097498 -3.0000152588
11.1927236946 -6.0657196141 -3.0000152588
11.1628821997 -6.3738011916 -3.0000152588
11.1620620895 -6.7832966638 -3.0000152588
16.8878263598 -11.1583265683 -3.0000152588
16.9308436247 -11.1495187497 -3.0000152588
16.6898812062 -11.2182461820 -3.0000152588
17.3067111644 -11.0804997900 -3.0000152588
16.1793952452 -11.2959767159 -3.0000152588
16.9552128420 -11.1937884470 -3.0000152588
17.3418246641 -11.0953624234 -3.0000152588
17.4621818950 -11.0833016053 -3.0000152588
16.9115449657 -11.2768415875 -3.0000152588
16.9995993271 -11.2584049135 -3.0000152588
17.1221908067 -11.2548835204 -3.0000152588
17.9077964660 -10.9942920280 -3.0000152588
16.6825109456 -11.3661390650 -3.0000152588
17.9732087612 -11.2290381618 -3.0000152588
14.9287226766 -8.5270049882 -3.0000152588
11.5028537261 -5.6654333932 -3.0000152588
11.5013904731 -5.6778387587 -3.0000152588
11.4972209860 -5.7150800667 -3.0000152588
11.4898742938 -5.7896663527 -3.0000152588
11.4887786012 -5.8021095702 -3.0000152588
11.4866976674 -5.8270054566 -3.0000152588
11.4705755136 -5.7374868172 -3.0000152588
11.4657976028 -5.7875103772 -3.0000152588
11.4548489485 -5.6596990704 -3.0000152588
11.4406126742 -5.7979400845 -3.0000152588
11.4058360042 -6.3797777457 -3.0000152588
11.4078995946 -6.4178394046 -3.0000152588
11.3776212845 -6.0616429697 -3.0000152588
11.3690578209 -6.5488094712 -3.0000152588
11.3734574666 -6.7947363144 -3.0000152588
11.3476856251 -6.7853550296 -3.0000152588
11.3533507763 -6.8239167694 -3.0000152588
11.2897107842 -6.4640305413 -3.0000152588
11.2626410755 -5.9143553962 -3.0000152588
11.3343580777 -6.9994520034 -3.0000152588
11.2100605147 -6.0044563341 -3.0000152588
11.3081550313 -7.2218305986 -3.0000152588
11.1489600651 -6.5276340313 -3.0000152588
11.2971966576 -7.4615340554 -3.0000152588
11.1098330881 -5.7008761504 -3.0000152588
11.3019167554 -7.5596379491 -3.0000152588
11.0667814937 -5.9581401176 -3.0000152588
11.0622015225 -6.1362614046 -3.0000152588
11.3865440833 -7.9970592540 -3.0000152588
11.4253756684 -8.0858911833 -3.0000152588
16.9894633595 -11.3416239865 -3.0000152588
17.0047672986 -11.3377741327 -3.0000152588
17.3383196490 -11.2416916991 -3.0000152588
17.1485248289 -11.3243608383 -3.0000152588
17.5256698980 -11.2029159612 -3.0000152588
17.1090394236 -11.3603757301 -3.0000152588
17.5936607303 -11.2035308145 -3.0000152588
17.3068327989 -11.3531126588 -3.0000152588
17.5738494040 -11.2882618922 -3.0000152588
17.9910007685 -11.3542292297 -3.0000152588
17.7691419951 -11.5246500566 -3.0000152588
17.7619387205 -11.5533300258 -3.0000152588
14.7935760081 -7.5889624310 -3.0000152588
14.7160624458 -7.5799225841 -3.0000152588
15.2152662024 -8.5604599268 -3.0000152588
13.6594909809 -7.8842425363 -3.0000152588
15.2031485727 -8.6078575646 -3.0000152588
11.5042707208 -6.3089626109 -3.0000152588
11.5057805545 -6.3323233935 -3.0000152588
11.5065872938 -6.3440003328 -3.0000152588
11.4801435163 -6.3104503220 -3.0000152588
11.4816625740 -6.3339538231 -3.0000152588
11.4891284805 -6.4278656197 -3.0000152588
11.4913420494 -6.4513139079 -3.0000152588
11.4974825553 -6.5098737425 -3.0000152588
11.4639946785 -6.4182661297 -3.0000152588
11.4790298510 -6.5596349268 -3.0000152588
11.4867738134 -6.6183650151 -3.0000152588
11.4612042081 -6.6098946004 -3.0000152588
11.4714959812 -6.6806650580 -3.0000152588
11.4771124955 -6.7159790002 -3.0000152588
11.4552100396 -6.7317123954 -3.0000152588
11.3887297153 -6.3885945698 -3.0000152588
11.4374721685 -6.7713536331 -3.0000152588
11.4625643295 -6.9016390011 -3.0000152588
11.4517850805 -6.9658817386 -3.0000152588
11.3469868225 -6.4653723085 -3.0000152588
11.2871234150 -6.5834965666 -3.0000152588
11.2243293770 -6.4520731374 -3.0000152588
11.2775220123 -7.0702083863 -3.0000152588
11.1448915164 -6.3695268504 -3.0000152588
11.2157866191 -6.9011261515 -3.0000152588
11.0650880325 -6.5584495399 -3.0000152588
11.0780967674 -6.8211853237 -3.0000152588
11.4479334464 -7.9813650680 -3.0000152588
11.2303136397 -7.5858634118 -3.0000152588
14.7692998255 -7.6127297787 -3.0000152588
14.9665265831 -7.6527578746 -3.0000152588
14.9762580008 -7.6540958538 -3.0000152588
15.0641483538 -7.6635408134 -3.0000152588
15.0690445440 -7.6639281698 -3.0000152588
15.1180612158 -7.6670045341 -3.0000152588
15.1278742695 -7.6674457342 -3.0000152588
14.8016981226 -7.6459102775 -3.0000152588
14.8600568064 -7.6589275226 -3.0000152588
15.1268599750 -7.6915974730 -3.0000152588
14.9898676642 -7.7045866074 -3.0000152588
15.0804259558 -7.7132356704 -3.0000152588
15.1965877274 -7.7172537531 -3.0000152588
15.2117510852 -7.7171949222 -3.0000152588
14.2103150394 -8.2332316586 -3.0000152588
13.8604458398 -8.1570398539 -3.0000152588
14.0695037438 -8.2738040822 -3.0000152588
14.2261151750 -8.3452535048 -3.0000152588
15.5542553496 -8.5138687655 -3.0000152588
15.5690711023 -8.5117144730 -3.0000152588
14.1098128154 -8.3468654594 -3.0000152588
14.0261515979 -8.4141247772 -3.0000152588
13.3769275961 -8.0020908841 -3.0000152588
15.8659840303 -8.6492304537 -3.0000152588
14.0859658004 -8.5746240045 -3.0000152588
13.1353110678 -7.9329350517 -3.0000152588
15.6116598538 -8.7986473552 -3.0000152588
11.5099041518 -6.8727420459 -3.0000152588
11.5124765675 -6.8836469595 -3.0000152588
11.5150812307 -6.8945442158 -3.0000152588
11.5203872079 -6.9163153748 -3.0000152588
11.5258218977 -6.9380547608 -3.0000152588
11.4889575180 -6.8892317236 -3.0000152588
11.5108345411 -6.9767423391 -3.0000152588
11.5137146044 -6.9876440454 -3.0000152588
11.4789541454 -6.9499187787 -3.0000152588
11.5053302979 -7.0485758887 -3.0000152588
11.5084228819 -7.0594935633 -3.0000152588
11.5115477489 -7.0704020417 -3.0000152588
11.5147048714 -7.0813012284 -3.0000152588
11.5178942219 -7.0921910281 -3.0000152588
11.5045283908 -7.1318372521 -3.0000152588
11.5078672805 -7.1427569346 -3.0000152588
11.5180775580 -7.1754560512 -3.0000152588
18.2810803495 -8.3306218994 -3.0000152588
11.4985250178 -7.1937108489 -3.0000152588
11.5020469671 -7.2046480197 -3.0000152588
11.5056012551 -7.2155747241 -3.0000152588
11.5091878506 -7.2264908664 -3.0000152588
11.5128067225 -7.2373963512 -3.0000152588
11.4972552906 -7.2669577619 -3.0000152588
11.5124037756 -7.3106531605 -3.0000152588
18.2916629246 -8.3964828029 -3.0000152588
11.3713622701 -6.9171555436 -3.0000152588
11.4819254723 -7.2967459271 -3.0000152588
11.4974274979 -7.3406206299 -3.0000152588
11.4440121555 -7.2603381274 -3.0000152588
11.4559443944 -7.3680704000 -3.0000152588
11.4891615517 -7.4562281323 -3.0000152588
11.5021544469 -7.4890809078 -3.0000152588
18.2607677842 -8.5511072346 -3.0000152588
11.4930798197 -7.5310056674 -3.0000152588
18.2565467288 -8.5937946686 -3.0000152588
11.4810695909 -7.6266822898 -3.0000152588
18.4564230888 -8.5390533512 -3.0000152588
11.2078522996 -7.3917626448 -3.0000152588
18.2297678975 -8.9819963348 -3.0000152588
11.5689309116 -8.2612832050 -3.0000152588
11.1975791092 -7.6386317643 -3.0000152588
14.8070427509 -7.6522412265 -3.0000152588
14.8315396964 -7.6539608712 -3.0000152588
14.8756879354 -7.6561425108 -3.0000152588
14.8904149905 -7.6566084381 -3.0000152588
14.9051456004 -7.6569436527 -3.0000152588
15.0180741713 -7.6551700759 -3.0000152588
15.1013268452 -7.6489254671 -3.0000152588
14.9196504014 -7.6813200790 -3.0000152588
14.2037582995 -8.3434708742 -3.0000152588
14.0783793207 -8.3264044200 -3.0000152588
14.3308447406 -8.4043193424 -3.0000152588
15.5161407153 -8.4102497711 -3.0000152588
