3.4075766197 -30.0021876481 -2.9900162290
3.4134962611 -29.9918422368 -2.9900162290
3.4104901088 -30.0453401396 -2.9900162347
3.4097981345 -30.1863814833 -2.9900162520
-0.1472107996 -29.8239392659 -2.9900133314
-0.3100182788 -29.8667719345 -2.9900133055
-0.2938241445 -29.8656054345 -2.9900133055
-0.2399302245 -29.8606801001 -2.9900133055
-0.1666501277 -29.8758196017 -2.9900132795
-0.2956762356 -29.9142261621 -2.9900132536
-0.2939038378 -29.9383341252 -2.9900132277
0.2564393474 -29.8398762269 -2.9900132017
0.2935300060 -29.8252077260 -2.9900132017
0.0452370208 -29.9321666528 -2.9900131758
0.2409208799 -29.8972755030 -2.9900131499
-0.2573478908 -30.0323804171 -2.9900131239
0.3300187185 -29.9147506675 -2.9900130980
-0.3255738754 -30.0856520377 -2.9900130721
0.0867665188 -30.0462941543 -2.9900130461
-0.1073544906 -30.1113220408 -2.9900130202
0.0433664298 -30.1315043819 -2.9900129683
0.8602071516 -30.3003032006 -2.9900124756
-0.7059660423 -30.7273655627 -2.9900123718
-1.8181077033 -30.6091289763 -2.9900121384
1.2913546287 -30.4539728027 -2.9900120865
-3.3400864209 -29.9426421862 -2.9900115419
-3.3400001032 -30.0297166624 -2.9900114900
-3.3375371151 -30.1175910608 -2.9900114382
-3.3390556818 -30.1976178151 -2.9900113863
-3.3325794518 -30.2464820435 -2.9900113604
-3.2884742311 -30.5667768192 -2.9900111788
3.4714249823 -29.2972983385 -2.9900108676
3.4751230182 -29.2857417727 -2.9900108676
3.4824164500 -29.2625960758 -2.9900108676
3.4753230137 -29.3626551251 -2.9900108417
3.4830714872 -29.3395068989 -2.9900108417
3.4868943327 -29.3279156960 -2.9900108417
3.4740169131 -29.4399651283 -2.9900108157
3.4781369718 -29.4284002709 -2.9900108157
3.4902916313 -29.3936332805 -2.9900108157
3.4798562470 -29.4945159322 -2.9900107898
3.4883847741 -29.4713385780 -2.9900107898
3.4938016957 -29.5261911163 -2.9900107639
3.4799697737 -29.6277862884 -2.9900107379
3.5075085266 -29.5580818764 -2.9900107379
3.4956734801 -29.7159459959 -2.9900106860
3.5042319060 -29.8168127861 -2.9900106342
3.4934635507 -29.9536671623 -2.9900105823
3.4979770974 -29.9992160774 -2.9900105564
3.7698853914 -29.5458636942 -2.9900104786
3.3753075079 -30.5066659495 -2.9900104008
3.7507381616 -29.7954748503 -2.9900104008
3.2763056540 -30.8178348524 -2.9900102970
3.6318793307 -30.2649144300 -2.9900102970
-0.3329131765 -29.7990493262 -2.9900108219
-0.2089920567 -29.7869875792 -2.9900107557
-0.1834599536 -29.8293371847 -2.9900106231
-0.4124052919 -29.9166279762 -2.9900105568
-0.3290482418 -29.8978740324 -2.9900105568
-0.2671638823 -29.8812315469 -2.9900105568
-0.2500805413 -29.9014332168 -2.9900104906
-0.2432521398 -29.9246217531 -2.9900104243
-0.3655444493 -29.9809013358 -2.9900103580
-0.0685308153 -29.8896060174 -2.9900103580
-0.4278619730 -30.0425665754 -2.9900102254
0.1569516842 -29.8641345491 -2.9900101592
0.1620289312 -29.8613941641 -2.9900101592
0.4609212651 -30.2758252934 -2.9900087673
-0.3589497402 -30.5948653136 -2.9900087010
0.6297901692 -30.2275691318 -2.9900086348
-0.5142182216 -30.6643161026 -2.9900085685
-0.8979738549 -30.7219735564 -2.9900084359
-0.6768133298 -30.7237342103 -2.9900084359
-1.6933317197 -30.8872102759 -2.9900075743
-3.2078809723 -30.5488669090 -2.9900061162
3.4932721612 -28.6937169989 -2.9900037302
3.5010787674 -28.8106478780 -2.9900036639
3.5104360030 -28.7474504229 -2.9900036639
3.5204293455 -28.6714411360 -2.9900036639
3.5102139421 -28.9030881638 -2.9900035976
3.5146157464 -28.8777701807 -2.9900035976
3.5167604580 -28.8651015340 -2.9900035976
3.5188676840 -28.8524265982 -2.9900035976
3.5209374061 -28.8397454844 -2.9900035976
3.5325671637 -28.7635352793 -2.9900035976
3.5270956743 -28.9454373372 -2.9900035314
3.5294405030 -28.9327314765 -2.9900035314
3.5362493295 -28.8945730545 -2.9900035314
3.5564949750 -28.7669696830 -2.9900035314
3.5285280074 -29.1714990467 -2.9900033988
3.5315415611 -29.1587879598 -2.9900033988
3.5374557981 -29.1333393202 -2.9900033988
3.5395428997 -29.2281415703 -2.9900033325
3.6464033221 -28.8198992562 -2.9900032663
3.5451624028 -29.4771910560 -2.9900031337
3.5643732477 -29.4132686779 -2.9900031337
3.7330320625 -28.7245182638 -2.9900030674
3.7289765246 -29.1632624843 -2.9900028686
3.5769020434 -29.7593963802 -2.9900028023
3.8028385611 -28.9130973625 -2.9900028023
3.7791512029 -29.1604840543 -2.9900027360
3.8493198627 -28.7672407663 -2.9900027360
3.8434616608 -28.9620430052 -2.9900026698
3.5678747205 -29.9787262094 -2.9900026035
3.8809919928 -29.0255224802 -2.9900025372
3.8313083301 -29.4471596784 -2.9900024046
3.3743309689 -30.6730765928 -2.9900022058
3.7348854817 -30.0180065213 -2.9900021395
3.6188672600 -30.3305082234 -2.9900020733
-0.2520221829 -29.7485406499 -2.9900134870
-0.3234472004 -29.8142336742 -2.9900134611
-0.3056746221 -29.8052106327 -2.9900134611
-0.3425397514 -29.9038329235 -2.9900133833
-0.3190135120 -29.8927938975 -2.9900133833
-0.3143280015 -29.8905444031 -2.9900133833
0.8974957952 -29.9665489435 -2.9900125015
-0.5283035239 -30.8523013315 -2.9900124756
3.5062110615 -28.1747356404 -2.9900103489
3.5053438503 -28.1476215566 -2.9900103489
3.5043162382 -28.1205130780 -2.9900103489
3.5037422929 -28.1069612372 -2.9900103489
3.5031282612 -28.0934111536 -2.9900103489
3.5024741487 -28.0798629456 -2.9900103489
3.5017799610 -28.0663167320 -2.9900103489
3.5321085513 -28.3512764858 -2.9900103230
3.5322853617 -28.3240060939 -2.9900103230
3.5295021320 -28.1467773384 -2.9900103230
3.5278921314 -28.1059026611 -2.9900103230
3.5482236924 -28.5843600035 -2.9900102970
3.5534738807 -28.4748322380 -2.9900102970
3.5559405803 -28.3789165907 -2.9900102970
3.5500589474 -28.0637710304 -2.9900102970
3.5907869559 -28.6701496258 -2.9900102452
3.5964835301 -28.5872460376 -2.9900102452
3.6005525365 -28.8244783707 -2.9900102192
3.6020606267 -28.8106387654 -2.9900102192
3.6207983942 -29.0388967818 -2.9900101674
3.6271018580 -28.9971767709 -2.9900101674
3.6291207052 -28.9832578723 -2.9900101674
3.6960446181 -28.5365560495 -2.9900101414
3.6254430918 -29.2839528403 -2.9900101155
3.6311362953 -29.2561139266 -2.9900101155
3.6996964018 -28.8068425868 -2.9900101155
3.6461885452 -29.3028428447 -2.9900100895
3.7428834925 -28.5673920383 -2.9900100895
3.6638425121 -29.3358931518 -2.9900100636
3.6616819521 -29.4534722320 -2.9900100377
3.7981870173 -28.3249434886 -2.9900100377
3.6982171871 -29.5072592171 -2.9900099858
3.8256184034 -28.7614228797 -2.9900099858
3.8118823306 -29.0686354316 -2.9900099599
3.6908213919 -29.7176513221 -2.9900099339
3.9165289560 -28.1480412078 -2.9900099080
-0.2805815065 -29.7866444033 -2.9900186330
-0.3190638073 -29.8490916366 -2.9900186820
-0.1799203914 -29.7944046957 -2.9900187800
-0.1867597470 -29.8972497720 -2.9900189270
-0.1465472925 -29.8944597888 -2.9900189759
3.5757238208 -27.8779669758 -2.9900253444
3.5545620894 -27.7324214400 -2.9900253444
3.5345388427 -27.6164754223 -2.9900253444
3.5263235689 -27.5731227126 -2.9900253444
3.5177238877 -27.5298446159 -2.9900253444
3.5977624879 -27.8601902206 -2.9900253934
3.6553188611 -28.1968493857 -2.9900254424
3.7140940439 -28.5083831829 -2.9900255403
3.7025755645 -28.1787710734 -2.9900255403
3.7315165697 -29.0823452142 -2.9900256383
3.7533291509 -28.8259665576 -2.9900256383
3.7605631261 -28.6596221827 -2.9900256383
3.7475489592 -28.1302175492 -2.9900256383
3.7183280847 -27.4263951684 -2.9900257853
3.7606639031 -27.5119264515 -2.9900258343
-2.7555307659 -33.7680148650 -2.9900262752
-2.3481861047 -33.8601452829 -2.9900262752
-2.9015804167 -33.7520423219 -2.9900263242
-2.9394965566 -33.7659380987 -2.9900263731
-0.2765341246 -29.7925930836 -2.9900196226
-0.1244736299 -29.7459621545 -2.9900198762
0.0098347928 -30.9220890257 -2.9900222853
-2.3443593447 -33.6194136544 -2.9900281178
-2.0279201788 -33.6581640165 -2.9900281178
-1.7554939311 -33.7474860094 -2.9900283079
-2.4612833289 -33.6979888960 -2.9900283713
-2.4030091725 -33.7079429766 -2.9900283713
-1.2688198434 -33.7639895078 -2.9900283713
-2.7492514185 -33.7624213950 -2.9900286883
-1.7149018675 -33.8937463833 -2.9900286883
3.7239769592 -27.9249733094 -2.9900293857
3.7992057899 -28.3498335910 -2.9900294491
3.7478443945 -27.9211417542 -2.9900294491
3.6971335437 -27.5390706291 -2.9900295125
3.8388772727 -27.7409300098 -2.9900297661
3.6146744680 -26.5847310449 -2.9900300830
3.6369506778 -26.5753445780 -2.9900301464
-0.2516898670 -29.8392315704 -2.9900156757
-0.2255133838 -29.8408942910 -2.9900156815
-0.1868477512 -29.7571303790 -2.9900156815
-0.1808394587 -29.7429747022 -2.9900156815
-0.1749570266 -29.7287662626 -2.9900156815
-0.2086972714 -29.9138489148 -2.9900156930
-0.2337659913 -30.3024098222 -2.9900157391
-0.1671445429 -30.2136680948 -2.9900157391
-0.0341232659 -30.8043692557 -2.9900158544
-0.0856118125 -30.9535417083 -2.9900158717
0.1245446003 -30.7404948072 -2.9900158717
-0.2918945538 -31.5828957871 -2.9900159639
-2.2822166185 -33.5089482608 -2.9900163327
-2.2165526553 -33.5159070120 -2.9900163327
-2.1771074018 -33.5196158122 -2.9900163327
-2.1639518616 -33.5207742702 -2.9900163327
-2.0454142018 -33.5294478192 -2.9900163327
-2.1660366798 -33.5448572272 -2.9900163385
-2.1395730870 -33.5470692818 -2.9900163385
-2.3274395191 -33.5522946813 -2.9900163442
-1.8615632093 -33.5849982029 -2.9900163442
-1.7681215555 -33.5857421084 -2.9900163442
-1.6613390991 -33.5842229849 -2.9900163442
-1.6479946958 -33.5838554244 -2.9900163442
-2.3037253197 -33.5794722758 -2.9900163500
-1.8217469818 -33.6097259011 -2.9900163500
-1.6741261855 -33.6087176476 -2.9900163500
-2.2797086388 -33.6065252166 -2.9900163558
-1.4427141619 -33.6459316919 -2.9900163615
-1.4118351498 -33.6920566615 -2.9900163731
-2.3313900703 -33.6979119848 -2.9900163788
-1.3550063692 -33.7114625016 -2.9900163788
-1.7815667109 -33.7549654726 -2.9900163846
-1.6707761111 -33.7537171206 -2.9900163846
-1.2121763222 -33.7448890515 -2.9900163903
-1.6836491880 -33.8023527959 -2.9900163961
-0.8227090776 -33.7056569876 -2.9900163961
-0.7679606515 -33.6940183574 -2.9900163961
-0.7269918033 -33.6848647024 -2.9900163961
-0.7902911778 -33.7235633089 -2.9900164019
-0.6531724605 -33.6922874778 -2.9900164019
-1.5969802150 -33.8723840429 -2.9900164134
-1.0597639112 -33.8216842109 -2.9900164134
-0.5316254576 -33.7110424294 -2.9900164134
-0.3334296963 -33.6784878244 -2.9900164192
-2.2401832548 -33.9021982845 -2.9900164249
-2.2116042146 -33.9048427611 -2.9900164249
-0.2851725162 -33.6884771069 -2.9900164249
-0.0464620494 -33.6301498494 -2.9900164307
-2.3773893844 -33.9601891622 -2.9900164422
3.8091460637 -27.2095611901 -2.9900166728
3.7742797040 -27.0367732915 -2.9900166785
3.9575306621 -27.0462538238 -2.9900167189
3.8499282475 -26.7012219026 -2.9900167246
-0.2207968357 -29.8692791912 -2.9900133833
-0.2087984059 -29.8240678762 -2.9900133833
-0.2254821035 -29.9664044986 -2.9900133573
-0.2060322190 -29.9842537244 -2.9900133314
-0.1893808348 -29.9335126109 -2.9900133314
-1.6726373565 -33.4907730934 -2.9900108676
-1.5859888438 -33.5090182742 -2.9900108417
-1.5616607584 -33.5070124111 -2.9900108417
-1.5495012725 -33.5059555131 -2.9900108417
-1.5373449663 -33.5048626499 -2.9900108417
-1.5130423184 -33.5025690659 -2.9900108417
-1.5008961894 -33.5013683653 -2.9900108417
-1.4887536655 -33.5001317395 -2.9900108417
-1.5106998780 -33.5266283314 -2.9900108157
-1.4740589921 -33.5228967295 -2.9900108157
-1.3887029695 -33.5129262463 -2.9900108157
-1.6807184552 -33.5638726562 -2.9900107898
-1.3856499401 -33.5369057020 -2.9900107898
-1.3579655231 -33.5576750517 -2.9900107639
-1.2558818692 -33.5672577778 -2.9900107379
-1.6739968951 -33.6845507514 -2.9900106601
-0.7787844736 -33.5638323881 -2.9900106342
-1.3868691207 -33.7319291708 -2.9900105823
-0.6153791363 -33.6171541398 -2.9900105304
-0.5706630522 -33.6285156768 -2.9900105045
0.1021635996 -33.5147848088 -2.9900103489
-0.2321505623 -29.6967781348 -2.9900142211
-0.2141457120 -29.8909792454 -2.9900142067
-0.2128523061 -29.8752252061 -2.9900142067
-0.2078075436 -29.7699807705 -2.9900142067
-0.2077188375 -29.7647124871 -2.9900142067
-0.1854062315 -29.8237976749 -2.9900141923
-0.1835184258 -29.7116802511 -2.9900141923
-0.1603523913 -29.8033260551 -2.9900141778
-0.1354842456 -29.6945448098 -2.9900141634
-0.2169416540 -30.3597053043 -2.9900141490
-0.1647200337 -30.1840596304 -2.9900141490
-0.1110939111 -29.7050943395 -2.9900141490
-0.2302270941 -30.4623326814 -2.9900141346
-0.1007467693 -29.9685532328 -2.9900141346
-0.1399282328 -30.2780995849 -2.9900141202
-0.0981780233 -30.1065276186 -2.9900141202
-0.0626186968 -29.7612422299 -2.9900141202
-0.0629845081 -29.6928698161 -2.9900141202
-0.0838344606 -30.1563526877 -2.9900141058
-0.0778457559 -30.1281334654 -2.9900141058
-0.0385855326 -29.7038483079 -2.9900141058
-0.0247712568 -30.1088136290 -2.9900140770
0.0367590592 -30.0341943006 -2.9900140482
-0.0714625285 -30.5211605343 -2.9900140338
0.0940716750 -29.9674311961 -2.9900140194
0.1791848158 -29.7193480816 -2.9900139761
0.3144359846 -30.6630590690 -2.9900137888
0.2743503843 -30.8146453742 -2.9900137744
0.5854568814 -29.1019528607 -2.9900136880
0.3342426343 -26.7458000529 -2.9900130108
0.4172955506 -26.7498453071 -2.9900129820
-1.1080268938 -33.4956101566 -2.9900129676
-1.0747092108 -33.4876468660 -2.9900129676
-1.0636191830 -33.4849267681 -2.9900129676
-1.0303980578 -33.4765698046 -2.9900129676
-1.0021528729 -33.4942152119 -2.9900129531
-0.9910437322 -33.4912804505 -2.9900129531
-0.9799433216 -33.4883128390 -2.9900129531
-0.9179532897 -33.4962311775 -2.9900129387
-0.8846375803 -33.4865810658 -2.9900129387
-0.8555097973 -33.5031313035 -2.9900129243
-0.7814775130 -33.5054469235 -2.9900129099
-0.7703361124 -33.5018593153 -2.9900129099
-0.7480853933 -33.4945853029 -2.9900129099
-0.7070083819 -33.5063137183 -2.9900128955
-0.6958647430 -33.5025058131 -2.9900128955
-0.6847324173 -33.4986649598 -2.9900128955
-0.6321306385 -33.5057169533 -2.9900128811
-0.4924015570 -33.5045192983 -2.9900128523
-0.9647078841 -33.6843044801 -2.9900128379
-0.9530365888 -33.6812581179 -2.9900128379
-0.7951376272 -33.6616519202 -2.9900128235
-0.2871260960 -33.5226304961 -2.9900127947
-0.0998469540 -33.5410144145 -2.9900127370
-0.6375644861 -33.7890096130 -2.9900127226
-0.5458411985 -33.7829333849 -2.9900127082
-0.2026197132 -30.2050978458 -2.9900154835
-0.2072275972 -29.9117281773 -2.9900154835
-0.2145684877 -29.8480669049 -2.9900154835
-0.2015974656 -30.4000504886 -2.9900154864
-0.1923561080 -30.3412422630 -2.9900154864
-0.1872295668 -29.8717203852 -2.9900154864
-0.2060468600 -29.7486980842 -2.9900154864
-0.1676632554 -30.3391745173 -2.9900154893
-0.1822898843 -29.7442325062 -2.9900154893
-0.1854005806 -29.7280786718 -2.9900154893
-0.1897709396 -29.7065843771 -2.9900154893
-0.2018067685 -29.6530880287 -2.9900154893
-0.2044035386 -29.6424327942 -2.9900154893
-0.1270654584 -30.1432740734 -2.9900154922
-0.1264022431 -30.0599575696 -2.9900154922
-0.1398791852 -29.8605245489 -2.9900154922
-0.1606176146 -29.7288541540 -2.9900154922
-0.1732348501 -29.6690679959 -2.9900154922
-0.1796116364 -29.6420348442 -2.9900154922
-0.1221412909 -30.3624720019 -2.9900154951
-0.1123360899 -30.2843182821 -2.9900154951
-0.1086492256 -30.2451059144 -2.9900154951
-0.1021853515 -30.1102513323 -2.9900154951
-0.1031996553 -30.0202402727 -2.9900154951
-0.1534938568 -29.6472521652 -2.9900154951
-0.1044155783 -30.4053794771 -2.9900154979
-0.1007774690 -30.3828795151 -2.9900154979
-0.0805386139 -29.9852407505 -2.9900154979
-0.1059630739 -29.7588737228 -2.9900154979
-0.0681543331 -30.3237384757 -2.9900155008
-0.0536987198 -30.0820033505 -2.9900155008
-0.0537210638 -30.0762338057 -2.9900155008
-0.0774437732 -29.7832224335 -2.9900155008
-0.0363821631 -30.2511465450 -2.9900155037
-0.0468416793 -29.8257029479 -2.9900155037
-0.0603443183 -29.7391404487 -2.9900155037
-0.0870605249 -29.6134673115 -2.9900155037
-0.0338829576 -30.4232080343 -2.9900155066
-0.0315608137 -29.7640248286 -2.9900155066
-0.0008531573 -30.3681509597 -2.9900155095
0.0045456304 -30.3266122741 -2.9900155095
0.0204770655 -30.3894932337 -2.9900155124
0.0667518383 -30.0449540716 -2.9900155152
0.0906335999 -30.0320732396 -2.9900155181
0.1143567234 -30.1568272807 -2.9900155210
0.0717592458 -29.6582013847 -2.9900155210
0.1470009029 -30.3565467608 -2.9900155268
0.1533796938 -30.4749306315 -2.9900155296
0.3669738545 -30.7347206508 -2.9900155613
0.4191265948 -29.3574948653 -2.9900155700
0.4112248625 -30.9190523165 -2.9900155729
0.4392450561 -30.8328070819 -2.9900155729
0.4678605966 -29.1968099162 -2.9900155815
0.5581970137 -28.9074315062 -2.9900156046
-0.5404119474 -33.4485367080 -2.9900157054
-0.5304733472 -33.4441922190 -2.9900157054
-0.5205476423 -33.4398183487 -2.9900157054
-0.4908242832 -33.4530304686 -2.9900157083
-0.4808726066 -33.4485392706 -2.9900157083
-0.4610093284 -33.4394686565 -2.9900157083
-0.4510979005 -33.4348893198 -2.9900157083
-0.3813589808 -33.4285444870 -2.9900157112
-0.3807575493 -33.4551063532 -2.9900157141
-0.3708002134 -33.4502895488 -2.9900157141
-0.3608571702 -33.4454433099 -2.9900157141
-0.3509285064 -33.4405676789 -2.9900157141
-0.3410143091 -33.4356626984 -2.9900157141
-0.3311146651 -33.4307284114 -2.9900157141
-0.3202993392 -33.4523470147 -2.9900157170
-0.3103504305 -33.4473513760 -2.9900157170
-0.2904971647 -33.4372719163 -2.9900157170
-0.2397106306 -33.4381515355 -2.9900157198
-0.2284499926 -33.4595415639 -2.9900157227
-0.2085260389 -33.4489773403 -2.9900157227
0.0079980313 -33.4373627379 -2.9900157342
-0.2205287503 -26.6089527293 -2.9900157342
-0.1682188385 -26.6089226362 -2.9900157371
-0.1785146823 -26.6035070588 -2.9900157371
-0.1888265012 -26.5981219621 -2.9900157371
0.0927703860 -33.4421234239 -2.9900157400
-0.1362643764 -26.5985348817 -2.9900157400
-0.0628630186 -26.6111302577 -2.9900157429
-0.0731527927 -26.6054030091 -2.9900157429
-0.0098383225 -26.6133795595 -2.9900157458
-0.0201216748 -26.6074954444 -2.9900157458
0.0228361242 -26.6043471719 -2.9900157487
0.0968508453 -26.6201970189 -2.9900157515
0.0865871934 -26.6139972682 -2.9900157515
0.0660050944 -26.6016889872 -2.9900157515
0.1940854590 -26.6236240107 -2.9900157573
0.1735584337 -26.6106795654 -2.9900157573
0.4492834913 -33.4339974829 -2.9900157631
0.2715745424 -26.6160845573 -2.9900157631
-0.2221742916 -30.1651400715 -2.9900156872
-0.2308674724 -30.1138989063 -2.9900156872
-0.1602480838 -30.2743756720 -2.9900156988
-0.2278304066 -29.7695286067 -2.9900157103
-0.1315152556 -29.9995313519 -2.9900157160
-0.1950597490 -29.7208035937 -2.9900157218
-0.0831688755 -29.9939080209 -2.9900157276
-0.1047245008 -29.7535895569 -2.9900157391
0.0948270202 -30.0158549611 -2.9900157679
0.0816331607 -29.8587222708 -2.9900157737
0.4896418579 -30.6526002055 -2.9900158544
-0.0573438788 -33.3400837218 -2.9900160964
-0.0096128825 -33.3374558745 -2.9900161022
0.2464959551 -33.3325758070 -2.9900161368
-0.6565935280 -26.5437077014 -2.9900162463
-0.6681055397 -26.5398732176 -2.9900162463
-0.5911952031 -26.5405830712 -2.9900162520
-0.6027167442 -26.5365551410 -2.9900162520
-0.5254213701 -26.5385470325 -2.9900162578
-0.5484895143 -26.5301361681 -2.9900162578
-0.5600421461 -26.5259819525 -2.9900162578
-0.4939216930 -26.5244580610 -2.9900162636
-0.4158942678 -26.5285866565 -2.9900162693
-0.3398824852 -26.5071341739 -2.9900162808
-0.2840613460 -26.5043245265 -2.9900162866
-0.4753356111 -26.4024313210 -2.9900162924
-0.1251501396 -26.5224550890 -2.9900162981
0.2289385213 -26.5972096668 -2.9900163212
-0.2159425137 -30.2793840133 -2.9900152683
-0.2310782645 -30.2311602942 -2.9900152683
-0.1726013896 -30.2556359300 -2.9900152683
-0.2245286380 -30.1086650598 -2.9900152683
-0.1837341804 -30.0806617852 -2.9900152683
-0.2540958946 -29.6090717007 -2.9900152683
-0.1241443269 -29.4595875244 -2.9900152683
0.5745123758 -30.3844628821 -2.9900152683
0.6979790695 -30.6399128666 -2.9900152683
-1.3344351391 -26.5275667616 -2.9900152683
-1.1805173872 -26.5247876378 -2.9900152683
-1.1930692424 -26.5228151854 -2.9900152683
-1.2056268777 -26.5208798723 -2.9900152683
-1.2684979052 -26.5117609773 -2.9900152683
-1.1137080368 -26.5113906104 -2.9900152683
-1.1262998152 -26.5092205824 -2.9900152683
-1.2842298445 -26.4364736367 -2.9900152683
-0.8031056547 -26.4776201114 -2.9900152683
-1.2003106957 -26.3994463399 -2.9900152683
-1.1670483023 -26.3556166821 -2.9900152683
-1.2978233091 -26.3372410217 -2.9900152683
-1.2520907079 -26.2944327036 -2.9900152683
-1.1293861542 -26.2881663145 -2.9900152683
-0.2746115145 -26.4363496768 -2.9900152683
-1.0286037781 -26.1827704753 -2.9900152683
-1.2737498969 -26.1453610361 -2.9900152683
-1.0106949244 -26.1614528543 -2.9900152683
-1.1815142973 -26.0845963043 -2.9900152683
-0.7226032917 -26.1489119051 -2.9900152683
0.4531424031 -29.9798997884 -2.9900152683
0.7762902091 -30.6432681069 -2.9900152683
0.6116535728 -30.0902214979 -2.9900152683
0.7553149060 -30.4343832887 -2.9900152683
0.9543418565 -30.6842933295 -2.9900152683
-1.9054617265 -26.5210148448 -2.9900152683
-1.9189385084 -26.5216655291 -2.9900152683
-1.7303375632 -26.4920134858 -2.9900152683
-1.8523813741 -26.4946525749 -2.9900152683
-1.8794898512 -26.4956802276 -2.9900152683
-1.8930416911 -26.4962541932 -2.9900152683
-1.9336861934 -26.4982165860 -2.9900152683
-1.3199311633 -26.4584908540 -2.9900152683
-1.4156429915 -26.4517720785 -2.9900152683
-1.2493624572 -26.4404391340 -2.9900152683
-1.0787808342 -26.4111447142 -2.9900152683
-0.9472122823 -26.3813800757 -2.9900152683
-1.4775679962 -26.3032952995 -2.9900152683
-1.7894562512 -26.2511040135 -2.9900152683
-0.6921770320 -26.3301523473 -2.9900152683
-1.3024504522 -26.2416370262 -2.9900152683
-0.8997982863 -26.2666122500 -2.9900152683
-0.4284814920 -26.3433956051 -2.9900152683
-0.4986329992 -26.3252219235 -2.9900152683
-1.3692542611 -26.1640379295 -2.9900152683
0.3073167138 -26.4984922381 -2.9900152683
0.2937636241 -26.4925972221 -2.9900152683
0.2120842839 -26.4580713910 -2.9900152683
-0.1484576262 -26.3254042179 -2.9900152683
-0.0627301296 -26.3030028654 -2.9900152683
-0.2486862347 -29.0883947945 -2.9900152683
1.1055092128 -30.7649873653 -2.9900152683
-2.0608171755 -26.4410394312 -2.9900152683
-2.1769255224 -26.4561711979 -2.9900152683
-1.9027074974 -26.4006424920 -2.9900152683
-2.3879267977 -26.4417066336 -2.9900152683
-1.9068226286 -26.3524718908 -2.9900152683
-1.2826989632 -26.3139195628 -2.9900152683
-2.4699838178 -26.4082750659 -2.9900152683
-1.2368160537 -26.2917192404 -2.9900152683
-1.1153510744 -26.2747684320 -2.9900152683
-0.8244010773 -26.2552944384 -2.9900152683
-1.1574174172 -26.2234857701 -2.9900152683
-1.8867959937 -26.2295459832 -2.9900152683
-0.7607458629 -26.2394649772 -2.9900152683
-1.0796903339 -26.2047102296 -2.9900152683
3.8155522177 -32.0030313909 -2.9900152683
3.7917250253 -32.3193407969 -2.9900152683
3.8080169888 -32.2256342169 -2.9900152683
3.7190820785 -32.8418054825 -2.9900152683
3.6119351275 -33.3140630782 -2.9900152683
3.6402948478 -33.3076086326 -2.9900152683
-0.1703614298 -29.9769793687 -2.9900152683
0.1546175078 -29.5836525145 -2.9900152683
0.7227009825 -30.0095226392 -2.9900152683
0.4615948659 -29.6692613428 -2.9900152683
-0.2284178638 -29.0545853342 -2.9900152683
1.0780258006 -30.0866379203 -2.9900152683
1.1139993575 -29.5001165521 -2.9900152683
3.6077446221 -32.4158646978 -2.9900152683
3.6395844631 -32.2008228842 -2.9900152683
3.6413674308 -32.1864393739 -2.9900152683
3.6539696971 -32.2760214669 -2.9900152683
3.7000486654 -31.7247611242 -2.9900152683
3.7004230919 -31.7102008328 -2.9900152683
3.7012879183 -31.6665142048 -2.9900152683
3.6857109343 -32.2213613102 -2.9900152683
3.6608433885 -32.5293753947 -2.9900152683
3.6887909888 -32.3700253703 -2.9900152683
3.7609388772 -31.2245708015 -2.9900152683
3.7827813479 -31.1931826331 -2.9900152683
3.8194535301 -31.7727923442 -2.9900152683
3.8196559627 -31.4147239742 -2.9900152683
3.8044259816 -31.1615232540 -2.9900152683
3.7349207096 -32.6504860597 -2.9900152683
3.8424409422 -31.8036293685 -2.9900152683
3.7485599272 -32.9969181802 -2.9900152683
3.8507515610 -32.5658766834 -2.9900152683
3.7646198670 -33.1136521443 -2.9900152683
-1.9490152973 -26.2573051281 -2.9900152683
-2.2631145508 -26.3096370374 -2.9900152683
-1.4905476955 -26.1904664316 -2.9900152683
-1.9997975203 -26.2400473292 -2.9900152683
-2.5486512392 -26.3491095380 -2.9900152683
-2.1183700539 -26.2096149568 -2.9900152683
-2.0583236071 -26.1754933088 -2.9900152683
-3.2294717713 -26.4923070163 -2.9900152683
-2.3343743580 -26.2007162189 -2.9900152683
-2.9545279436 -26.2906098779 -2.9900152683
-2.3858545683 -25.8658119287 -2.9900152683
0.5565188723 -29.8800437807 -2.9900152683
3.5118424147 -32.2559740887 -2.9900152683
3.5145870997 -32.2297042156 -2.9900152683
3.5159011470 -32.2165633045 -2.9900152683
3.5608235768 -31.8611311895 -2.9900152683
3.5554556035 -32.3009397720 -2.9900152683
3.5569801996 -32.2876776528 -2.9900152683
3.5845455284 -31.6746952216 -2.9900152683
3.6004843383 -31.4864368770 -2.9900152683
3.6107850435 -32.2394674187 -2.9900152683
3.6487298199 -31.4833200461 -2.9900152683
3.6770748078 -32.3013036259 -2.9900152683
3.6695106206 -31.1937157402 -2.9900152683
3.6740691731 -31.0542581899 -2.9900152683
3.7680631923 -32.1015333067 -2.9900152683
3.7911994782 -32.1171490703 -2.9900152683
3.8015582677 -31.9075264225 -2.9900152683
3.7294649361 -30.9463816076 -2.9900152683
3.6922825495 -30.6531832155 -2.9900152683
3.8757570188 -31.7532309159 -2.9900152683
3.8996277603 -31.8387743909 -2.9900152683
3.7034124278 -30.4154065871 -2.9900152683
3.5710031323 -29.8364486171 -2.9900152683
0.5585707885 -29.8021752953 -2.9900152683
0.3864616429 -29.7161483186 -2.9900152683
0.2701777892 -29.6414178864 -2.9900152683
0.5241605950 -29.7290222163 -2.9900152683
0.0220568637 -29.5109121528 -2.9900152683
-0.0564200718 -29.4918158593 -2.9900152683
0.0353254459 -29.4894011940 -2.9900152683
-0.0077871477 -29.4784363168 -2.9900152683
1.0351377077 -29.9849338784 -2.9900152683
0.2426675938 -29.5025213629 -2.9900152683
0.5632797091 -29.5861880085 -2.9900152683
0.9467832838 -29.7622653255 -2.9900152683
-0.7279395613 -29.2643547121 -2.9900152683
-0.3449910716 -29.2012772902 -2.9900152683
-1.0180883547 -29.1228079860 -2.9900152683
0.9076719989 -29.3333343374 -2.9900152683
0.8923842310 -29.3244360121 -2.9900152683
1.6877933794 -29.4331145324 -2.9900152683
3.4914480159 -31.6847408969 -2.9900152683
3.4907552934 -31.6726268630 -2.9900152683
3.4900267384 -31.6605149314 -2.9900152683
3.4884621569 -31.6362977986 -2.9900152683
3.5155836331 -31.6833965511 -2.9900152683
3.5125801776 -31.6346679631 -2.9900152683
3.5117392378 -31.6224916356 -2.9900152683
3.5108622820 -31.6103178490 -2.9900152683
3.5090003530 -31.5859783248 -2.9900152683
3.5048446607 -31.5373344531 -2.9900152683
3.5037158247 -31.5251814345 -2.9900152683
3.5390183629 -31.6697953882 -2.9900152683
3.5266103050 -31.5106893344 -2.9900152683
3.5241586646 -31.4862583831 -2.9900152683
3.5228786519 -31.4740484537 -2.9900152683
3.5202102971 -31.4496402215 -2.9900152683
3.5188219785 -31.4374421323 -2.9900152683
3.5097348742 -31.3643446962 -2.9900152683
3.5551650461 -31.5575349828 -2.9900152683
3.5482036469 -31.4837736074 -2.9900152683
3.5442322815 -31.4469421579 -2.9900152683
3.5213852629 -31.2755940328 -2.9900152683
3.5311139660 -31.1861273017 -2.9900152683
3.6081916128 -31.6156869403 -2.9900152683
3.6671038117 -31.4587130880 -2.9900152683
3.6657416895 -31.4460804215 -2.9900152683
3.5629505334 -30.8711772057 -2.9900152683
3.5704500006 -30.8034518217 -2.9900152683
3.5938120823 -30.7972430844 -2.9900152683
3.5904935329 -30.7848301223 -2.9900152683
3.6054541733 -30.5779594873 -2.9900152683
3.8201032927 -31.5349010558 -2.9900152683
3.8177897604 -31.5087332777 -2.9900152683
3.8084741100 -31.4172634578 -2.9900152683
3.7937174743 -31.2999771242 -2.9900152683
3.8541972257 -31.6777627913 -2.9900152683
3.7734864681 -31.0362704453 -2.9900152683
3.8579805747 -31.4250644977 -2.9900152683
3.9001898383 -31.6352339481 -2.9900152683
3.6328785917 -30.3592620615 -2.9900152683
3.8445938722 -31.0220312523 -2.9900152683
3.8222683973 -30.9170127589 -2.9900152683
3.6367944426 -30.3006482852 -2.9900152683
3.7713229587 -30.6244348639 -2.9900152683
3.8664385818 -30.8931720824 -2.9900152683
3.5025102227 -29.7665020355 -2.9900152683
0.1781679638 -29.6196794039 -2.9900152683
0.0655888138 -29.6014761839 -2.9900152683
0.2390861768 -29.6071200026 -2.9900152683
0.3432176063 -29.6065079076 -2.9900152683
0.2227044576 -29.5790641043 -2.9900152683
-0.0632064855 -29.5145224456 -2.9900152683
0.7675457039 -29.7038320100 -2.9900152683
0.6375651401 -29.6495681823 -2.9900152683
0.5258856472 -29.6095958967 -2.9900152683
-0.0834428115 -29.4887388154 -2.9900152683
0.8047049271 -29.6942640976 -2.9900152683
0.7569682294 -29.6726556611 -2.9900152683
0.1898328472 -29.4743677347 -2.9900152683
-0.6899532620 -29.4699683334 -2.9900152683
0.4025374869 -29.4970681503 -2.9900152683
0.1414627159 -29.4416634640 -2.9900152683
0.0810786813 -29.4328141763 -2.9900152683
0.4162093451 -29.4757102540 -2.9900152683
0.2059722038 -29.4281610705 -2.9900152683
-0.0980640106 -29.3666191959 -2.9900152683
-0.1368633888 -29.3644718036 -2.9900152683
-0.9148766284 -29.4437078728 -2.9900152683
0.7157051336 -29.4465280403 -2.9900152683
-0.5442776666 -29.1821704725 -2.9900152683
0.7851629056 -29.2660479140 -2.9900152683
-1.1924994569 -29.1725815217 -2.9900152683
-3.2622202006 -29.7159311635 -2.9900152683
-3.2663752369 -29.6420511551 -2.9900152683
3.4746404415 -31.1245890163 -2.9900152683
3.4981921519 -31.1191436315 -2.9900152683
3.4849199156 -31.0636145227 -2.9900152683
3.4793812958 -31.0414588655 -2.9900152683
3.4912733854 -30.9910390532 -2.9900152683
3.4853052735 -30.9688470769 -2.9900152683
3.4822720078 -30.9577644270 -2.9900152683
3.5400199918 -31.0857392207 -2.9900152683
3.5116493535 -30.9736608289 -2.9900152683
3.4898232721 -30.8957286103 -2.9900152683
3.5064595175 -30.8666498646 -2.9900152683
3.4997552116 -30.8443702191 -2.9900152683
3.4929192092 -30.8221306284 -2.9900152683
3.5054392445 -30.7814727926 -2.9900152683
3.5018516036 -30.7703314025 -2.9900152683
3.4982310203 -30.7592006741 -2.9900152683
3.4908911529 -30.7369715916 -2.9900152683
3.5175316134 -30.7405014464 -2.9900152683
3.5024978833 -30.6958600312 -2.9900152683
3.4986569974 -30.6847277168 -2.9900152683
3.6285538223 -31.0403624722 -2.9900152683
3.6199847565 -31.0058676167 -2.9900152683
3.6080837899 -30.9599953511 -2.9900152683
3.5175991506 -30.6656213554 -2.9900152683
3.5097052976 -30.6432793224 -2.9900152683
3.4976170217 -30.6098548176 -2.9900152683
-3.2985730417 -29.3764310104 -2.9900152683
3.6157133644 -30.8963047152 -2.9900152683
-3.2231255113 -29.2199519102 -2.9900152683
3.5180048780 -30.4610792606 -2.9900152683
-3.2159458461 -29.1771207042 -2.9900152683
3.6128543793 -30.6451380716 -2.9900152683
3.5251821028 -30.3528768208 -2.9900152683
3.5375727389 -30.3207804384 -2.9900152683
3.5326221462 -30.3095460074 -2.9900152683
3.5226213689 -30.2871213252 -2.9900152683
3.5497154009 -30.2884805231 -2.9900152683
3.5297631361 -30.0773715231 -2.9900152683
3.7655693304 -30.4980676197 -2.9900152683
3.8698280367 -30.6512382583 -2.9900152683
3.6880876683 -30.0703189797 -2.9900152683
3.5485251759 -29.8061639500 -2.9900152683
3.7763538673 -30.1442608312 -2.9900152683
2.9887975544 -28.5530379526 -2.9900152683
0.1949178795 -29.5968334006 -2.9900152683
0.2463241106 -29.5754697536 -2.9900152683
0.2103867070 -29.5733741458 -2.9900152683
-0.1348412694 -29.5803297546 -2.9900152683
-0.3646558412 -29.5632592896 -2.9900152683
-0.3070422507 -29.5043522899 -2.9900152683
0.2057763572 -29.3553471242 -2.9900152683
0.7166586197 -29.3291629267 -2.9900152683
0.6731178834 -29.2203892111 -2.9900152683
1.6298769905 -29.5568819812 -2.9900152683
0.4346280721 -28.9372318452 -2.9900152683
3.4391459114 -30.5797439810 -2.9900152683
3.4349178281 -30.5698330008 -2.9900152683
3.4398189468 -30.5205350335 -2.9900152683
3.4354157098 -30.5106223213 -2.9900152683
3.4309831684 -30.5007226781 -2.9900152683
3.4485397730 -30.4808599768 -2.9900152683
3.4333304383 -30.3912393515 -2.9900152683
3.4454435232 -30.3608445478 -2.9900152683
3.4405678682 -30.3509158958 -2.9900152683
3.4423263962 -30.3004037285 -2.9900152683
3.4372719600 -30.2904845620 -2.9900152683
3.4433561250 -30.2496200163 -2.9900152683
3.4381514569 -30.2396980259 -2.9900152683
3.4542740570 -30.2184675594 -2.9900152683
3.4363517421 -30.0858249089 -2.9900152683
-3.3963082060 -30.2308281378 -2.9900152683
-3.4125567524 -30.2095016045 -2.9900152683
-3.3903538538 -30.1156639239 -2.9900152683
-3.3773246078 -30.0423383378 -2.9900152683
-3.3983588077 -30.0304262551 -2.9900152683
-3.3815835680 -29.8597606677 -2.9900152683
-3.3828644917 -29.8161723099 -2.9900152683
-3.3967859249 -29.7929639853 -2.9900152683
3.4238067939 -29.2238455079 -2.9900152683
-0.1557024447 -29.5721974973 -2.9900152683
3.3432061698 -30.0182195585 -2.9900152683
3.3316753960 -30.0010379149 -2.9900152683
3.3198002816 -29.7766741571 -2.9900152683
-3.4593426622 -30.7446140037 -2.9900152683
-3.4562948021 -30.6565996107 -2.9900152683
-3.4553574228 -30.5796917106 -2.9900152683
-3.4594194203 -30.5912012853 -2.9900152683
-3.4634473525 -30.6027228256 -2.9900152683
-3.4674411844 -30.6142562310 -2.9900152683
-3.5931658136 -30.4634239225 -2.9900152683
-0.0175996657 -29.5241018447 -2.9900152683
-0.0470684404 -29.4830582508 -2.9900152683
-0.3611207025 -29.6153897351 -2.9900152683
-0.3875249352 -29.6288934833 -2.9900152683
-0.7699075195 -29.7826050873 -2.9900152683
-3.4692962693 -31.3093629125 -2.9900152683
-3.4791287273 -31.2056268334 -2.9900152683
-3.4847116657 -31.2433333193 -2.9900152683
-3.4864982564 -31.2559129748 -2.9900152683
-3.4882476264 -31.2684978603 -2.9900152683
-3.4948725979 -31.3188874994 -2.9900152683
-3.4970744743 -31.1641128495 -2.9900152683
-3.5030251194 -31.2019802285 -2.9900152683
-3.5086394784 -31.2398989251 -2.9900152683
-3.4961111091 -31.0211201368 -2.9900152683
-3.5043041140 -30.9405376781 -2.9900152683
-3.5148085387 -30.9911402643 -2.9900152683
-3.5325009572 -30.6510912785 -2.9900152683
-3.5521268596 -30.4644785719 -2.9900152683
-3.8506815362 -30.5325950397 -2.9900152683
-3.6375901389 -29.4950831949 -2.9900152683
-4.1185095213 -30.5027621387 -2.9900152683
-3.5065844436 -31.8117033760 -2.9900152683
-3.5057974571 -31.8388199070 -2.9900152683
-3.5048500540 -31.8659313072 -2.9900152683
-3.5297878887 -31.5396645779 -2.9900152683
-3.5319594980 -31.6350866819 -2.9900152683
-3.5290057331 -31.8668469751 -2.9900152683
-3.5906444807 -31.0925810150 -2.9900152683
-3.6726327993 -31.1675569526 -2.9900152683
-0.0608442332 -29.4995660350 -2.9900152683
-0.3319895328 -29.7247811939 -2.9900152683
-0.3526340625 -29.7448604744 -2.9900152683
0.2678772097 -29.2747543647 -2.9900152683
-0.0984624881 -29.4969557331 -2.9900152683
-0.6326562416 -29.9921845887 -2.9900152683
-0.6501156817 -30.0158027775 -2.9900152683
-0.0482250293 -29.4024919399 -2.9900152683
-0.7040449994 -30.0498622784 -2.9900152683
0.4344103985 -29.1221953731 -2.9900152683
-0.8017032911 -30.1551145888 -2.9900152683
0.2728174303 -29.1651301575 -2.9900152683
0.0007527058 -29.3130141619 -2.9900152683
-0.1495200363 -29.4145091300 -2.9900152683
-0.3604935823 -29.5860852161 -2.9900152683
0.6637217001 -28.9697982790 -2.9900152683
-0.7790629510 -29.9883906288 -2.9900152683
0.0506333102 -29.1709021009 -2.9900152683
1.0155856056 -28.7523948357 -2.9900152683
0.3628768020 -28.9165866254 -2.9900152683
-0.0321623319 -29.1069626819 -2.9900152683
-0.1284230185 -29.1372509829 -2.9900152683
0.9686148280 -28.7098238798 -2.9900152683
-0.4033847349 -29.3047375384 -2.9900152683
-1.3403870639 -30.5685231749 -2.9900152683
-1.3102424749 -30.3530651454 -2.9900152683
-1.5200600729 -30.5736652626 -2.9900152683
-3.5554506544 -32.0898680465 -2.9900152683
-3.4969308485 -32.4509892777 -2.9900152683
-3.4820314094 -32.5226389399 -2.9900152683
-3.6079997808 -31.7853525947 -2.9900152683
-3.5895477959 -32.0051833523 -2.9900152683
-3.5879710849 -32.0198067178 -2.9900152683
-3.5863511223 -32.0344253551 -2.9900152683
-3.5812318680 -32.0782516189 -2.9900152683
-3.5522094547 -32.2820949958 -2.9900152683
-3.6871708715 -31.3125153610 -2.9900152683
-3.6899039198 -31.4617114060 -2.9900152683
-3.6868580005 -31.6556700088 -2.9900152683
-3.6352768050 -32.2200801658 -2.9900152683
-3.7104704664 -31.6714984391 -2.9900152683
-3.6427051357 -32.3272839069 -2.9900152683
-3.7193039899 -31.0402486093 -2.9900152683
-3.7331393689 -31.2506986001 -2.9900152683
-3.7377661640 -31.5519324908 -2.9900152683
-3.6206115338 -32.5679393765 -2.9900152683
-3.7504167972 -31.1287131415 -2.9900152683
-3.7558384572 -31.2193730398 -2.9900152683
-3.7337730170 -32.0205181420 -2.9900152683
-3.7252145057 -32.0957178780 -2.9900152683
-3.7503321135 -30.8696708867 -2.9900152683
-3.7986491219 -31.1253989325 -2.9900152683
-3.8107265136 -31.5071257033 -2.9900152683
-3.8097528575 -31.5835197681 -2.9900152683
-3.8397187559 -31.0298243020 -2.9900152683
-3.8643109520 -31.9253310277 -2.9900152683
-3.8975267461 -31.8031968381 -2.9900152683
-3.8810691873 -32.2091335944 -2.9900152683
-3.8430098372 -32.5683525181 -2.9900152683
2.2839189578 -26.2264614512 -2.9900152683
2.0030238982 -26.1844459040 -2.9900152683
2.5367491765 -26.2527362524 -2.9900152683
2.5058052208 -26.2458337023 -2.9900152683
2.7584419848 -26.2828259797 -2.9900152683
2.6041230835 -26.2435772138 -2.9900152683
3.2603127916 -26.3935122555 -2.9900152683
2.7865549639 -26.2403660563 -2.9900152683
3.2989853663 -26.3822905760 -2.9900152683
3.2857580883 -26.3256038288 -2.9900152683
3.0861789425 -26.2551670634 -2.9900152683
2.8750412419 -26.1647136330 -2.9900152683
-0.0161679769 -29.3940003311 -2.9900152683
-0.5725407707 -30.0550673980 -2.9900152683
-0.2615862443 -29.5696885884 -2.9900152683
-0.1190016075 -29.3893126825 -2.9900152683
0.3594569647 -29.0111207686 -2.9900152683
-0.6664950210 -29.9256700500 -2.9900152683
-0.6128046649 -29.6622445030 -2.9900152683
3.0218851903 -26.5359295666 -2.9900152683
2.8266503372 -26.4807017753 -2.9900152683
2.7845271072 -26.4699220931 -2.9900152683
2.4444372504 -26.3972225475 -2.9900152683
2.3729865548 -26.3851264836 -2.9900152683
2.4343021667 -26.3709030468 -2.9900152683
2.3480747735 -26.3566986872 -2.9900152683
2.2471765972 -26.3420642787 -2.9900152683
2.0010527147 -26.3152449117 -2.9900152683
1.9865364489 -26.3140531445 -2.9900152683
1.6668991572 -26.2745441385 -2.9900152683
2.4570704021 -26.3258123170 -2.9900152683
1.7260891939 -26.2516253582 -2.9900152683
1.3437964180 -26.2559331367 -2.9900152683
1.2061587866 -26.1919638135 -2.9900152683
1.5787931846 -26.1531101688 -2.9900152683
2.2729519014 -26.1504054888 -2.9900152683
2.2217117227 -26.0707090592 -2.9900152683
2.9059088306 -26.1766117328 -2.9900152683
-3.7751088355 -31.6482512375 -2.9900152683
-3.7528513271 -31.8700541020 -2.9900152683
-3.7489225010 -31.9016583246 -2.9900152683
-3.7748986696 -31.8888411946 -2.9900152683
-3.6946630821 -32.3617842517 -2.9900152683
-3.6547763461 -32.5331436061 -2.9900152683
-3.5914439936 -32.7645427441 -2.9900152683
-3.6558321072 -32.7163592728 -2.9900152683
-3.5740704468 -32.9782134820 -2.9900152683
-3.7621111787 -32.3929138495 -2.9900152683
-3.6833777811 -32.8772176630 -2.9900152683
-3.5382347785 -33.3474142607 -2.9900152683
-3.8130988466 -32.6922534471 -2.9900152683
-4.0999713792 -32.4315938073 -2.9900152683
-0.3459480601 -29.7401531420 -2.9900152683
-0.0984514930 -29.3403613047 -2.9900152683
-0.2005792467 -29.2740273949 -2.9900152683
-0.4021236539 -29.5060732797 -2.9900152683
-0.4679685176 -29.5193397001 -2.9900152683
2.3186233699 -26.5196865180 -2.9900152683
2.2272513102 -26.5094563655 -2.9900152683
2.1749498788 -26.5044607402 -2.9900152683
1.8345662673 -26.4387629639 -2.9900152683
2.0349718361 -26.4215150845 -2.9900152683
1.5679549218 -26.4191788172 -2.9900152683
2.2662940463 -26.3920130304 -2.9900152683
1.1156945670 -26.3655163224 -2.9900152683
1.5827820633 -26.1281752291 -2.9900152683
-3.7534442273 -33.0865656399 -2.9900152683
-3.7549782651 -33.3362688734 -2.9900152683
-0.3999115510 -29.9275127419 -2.9900152683
-0.2049488628 -29.4046055680 -2.9900152683
-0.4190293545 -29.9069183045 -2.9900152683
0.0241394973 -28.8480198789 -2.9900152683
-0.2639705543 -29.1766306911 -2.9900152683
-0.1037485753 -28.9200428895 -2.9900152683
-0.2292795905 -28.9608431787 -2.9900152683
-0.8781872200 -31.1542879057 -2.9900152683
1.6499738776 -26.5348444722 -2.9900152683
1.6259041679 -26.5364710107 -2.9900152683
1.6242030261 -26.5123579147 -2.9900152683
1.5395447511 -26.5192119854 -2.9900152683
1.5130420450 -26.4974328680 -2.9900152683
1.4523485132 -26.5037955173 -2.9900152683
1.5351446344 -26.4710665795 -2.9900152683
1.3887026954 -26.4870756959 -2.9900152683
1.3765264722 -26.4886442609 -2.9900152683
1.3521882123 -26.4918894148 -2.9900152683
1.3400263886 -26.4935659752 -2.9900152683
1.3122397443 -26.4731054970 -2.9900152683
1.2634034885 -26.4805014994 -2.9900152683
1.2929247478 -26.4270781163 -2.9900152683
1.1082554954 -26.4586886923 -2.9900152683
0.9384470712 -26.4456170876 -2.9900152683
0.7541459400 -26.4429521110 -2.9900152683
1.0073809966 -26.2817671718 -2.9900152683
1.5218261137 -26.1810180436 -2.9900152683
1.3390390334 -26.2010004316 -2.9900152683
0.3302569312 -26.4036784571 -2.9900152683
0.3178386350 -26.4083784610 -2.9900152683
1.5819686538 -26.1033944269 -2.9900152683
1.4888515104 -26.1112106717 -2.9900152683
0.6699469773 -26.2406463239 -2.9900152683
-0.3493028939 -29.5863066521 -2.9900152683
-0.4552623666 -29.9999849956 -2.9900152683
-0.2525239485 -29.1957443893 -2.9900152683
-0.2831464564 -29.1480049293 -2.9900152683
-0.5402094530 -30.1713973244 -2.9900152683
-0.4181152271 -29.3363766818 -2.9900152683
-0.5846462236 -30.0934674758 -2.9900152683
-0.4595132030 -29.3781966035 -2.9900152683
-0.1692356481 -28.7640668465 -2.9900152683
-0.5435323142 -29.5624809622 -2.9900152683
-0.5167851233 -29.3238451432 -2.9900152683
-0.6326401034 -29.7265688112 -2.9900152683
-0.6323867351 -29.5211923130 -2.9900152683
-0.8328795237 -31.1758093814 -2.9900152683
1.0694128574 -26.5385417214 -2.9900152683
1.0584003234 -26.5412773727 -2.9900152683
-0.3995785823 -33.2643366436 -2.9900152683
1.0414641270 -26.5206116607 -2.9900152683
1.0082930247 -26.5291650208 -2.9900152683
0.9972530201 -26.5320815166 -2.9900152683
0.9751991349 -26.5380124191 -2.9900152683
0.9356315398 -26.5238854428 -2.9900152683
0.9024936580 -26.5333778788 -2.9900152683
0.8914665787 -26.5366073298 -2.9900152683
0.8846381988 -26.5134187872 -2.9900152683
0.8403529612 -26.5267447839 -2.9900152683
0.8293065319 -26.5301580873 -2.9900152683
0.7999371527 -26.5140404672 -2.9900152683
0.7369768885 -26.5091008710 -2.9900152683
0.7258787176 -26.5128200568 -2.9900152683
0.8415795148 -26.4505730699 -2.9900152683
0.7181638581 -26.4899111890 -2.9900152683
-0.6946928382 -33.2358960848 -2.9900152683
0.4590296719 -26.5089074691 -2.9900152683
0.7835347255 -26.3418958019 -2.9900152683
0.3513336601 -26.5018278970 -2.9900152683
0.3081773592 -26.4944294282 -2.9900152683
0.4591710965 -26.2749113080 -2.9900152683
-1.4273469255 -33.2483034837 -2.9900152683
-0.9330040738 -30.1320079956 -2.9900152683
-0.9136616556 -30.3326131978 -2.9900152683
-0.9090435202 -29.4970791395 -2.9900152683
-0.9265587811 -29.5899627314 -2.9900152683
-0.9289499845 -30.3934484752 -2.9900152683
-0.9539634828 -29.6076781375 -2.9900152683
-0.9837955873 -30.0759647949 -2.9900152683
-0.9401833715 -30.5828958174 -2.9900152683
-0.9583245615 -29.2939793235 -2.9900152683
-0.8621098360 -28.9576268174 -2.9900152683
-1.0764665515 -29.8349676576 -2.9900152683
-1.0482480921 -30.4128480518 -2.9900152683
-0.9571232927 -30.7907159248 -2.9900152683
-0.8861248117 -30.9840123339 -2.9900152683
-0.9893845455 -29.2289870064 -2.9900152683
-1.0923168101 -30.2640760442 -2.9900152683
-1.0151679138 -30.6800322976 -2.9900152683
-1.0464318440 -29.3414482098 -2.9900152683
-1.0793493848 -29.4853771414 -2.9900152683
-1.0280539753 -30.7237860889 -2.9900152683
-1.0101942204 -30.7833388135 -2.9900152683
-0.9678214058 -29.0223955752 -2.9900152683
-0.8786199410 -31.1759585009 -2.9900152683
-1.0045979774 -29.0503912579 -2.9900152683
-1.0392163667 -29.1472788867 -2.9900152683
-1.0183859870 -30.9102574011 -2.9900152683
-1.0671714685 -29.1547414223 -2.9900152683
-1.0850478932 -29.1318901794 -2.9900152683
-0.8345825646 -28.5446828617 -2.9900152683
-1.2418105955 -30.2221844846 -2.9900152683
-0.8331383228 -28.4972601257 -2.9900152683
-0.9721865064 -31.2589212776 -2.9900152683
-0.1032892669 -26.5928522274 -2.9900152683
-0.1034220648 -26.5662242174 -2.9900152683
-0.1440491058 -33.4123823352 -2.9900152683
-0.1949338753 -26.5834007853 -2.9900152683
-0.2050302020 -26.5884213582 -2.9900152683
-0.2151116328 -26.5934717759 -2.9900152683
-0.2051519093 -33.4093625894 -2.9900152683
-0.2361010175 -26.5769875627 -2.9900152683
-0.2462161356 -26.5821299436 -2.9900152683
-0.2665220758 -33.4052773980 -2.9900152683
-0.2463380674 -33.4156525343 -2.9900152683
-0.2159478457 -33.4309908820 -2.9900152683
-0.2057876705 -33.4360436569 -2.9900152683
-0.2977638508 -26.5815974932 -2.9900152683
-0.3078650621 -26.5869222637 -2.9900152683
-0.3280200088 -26.5976613315 -2.9900152683
-0.3079868228 -33.4108580141 -2.9900152683
-0.2776367221 -33.4267436487 -2.9900152683
-0.3495666915 -26.5818095199 -2.9900152683
-0.3596670489 -26.5872875316 -2.9900152683
-0.3798189280 -26.5983330710 -2.9900152683
-0.3597887965 -33.4104908975 -2.9900152683
-0.3496886346 -33.4159692697 -2.9900152683
-0.3395723109 -33.4214177398 -2.9900152683
-0.3712230309 -26.5660556085 -2.9900152683
-0.4117115042 -26.5884039413 -2.9900152683
-0.4118332120 -33.4093726306 -2.9900152683
-0.3916224316 -33.4206074046 -2.9900152683
-0.4538959005 -26.5844906378 -2.9900152683
-0.4740626778 -26.5960937157 -2.9900152683
-0.4236403637 -33.4304659103 -2.9900152683
-0.4760430331 -26.5693247369 -2.9900152683
-0.4863019491 -33.4225969713 -2.9900152683
-0.5490264715 -26.5841510831 -2.9900152683
-0.5591190294 -26.5902191227 -2.9900152683
-0.5716054470 -26.5695207011 -2.9900152683
-0.5919806740 -33.4159496929 -2.9900152683
-0.5818633480 -33.4221149068 -2.9900152683
-0.6578488422 -26.5658312430 -2.9900152683
-0.6882307372 -26.5850912545 -2.9900152683
-0.9103416354 -33.2899171637 -2.9900152683
-0.9244959527 -26.6883313112 -2.9900152683
-0.8971444830 -33.4182662128 -2.9900152683
-1.0853033785 -33.4006966873 -2.9900152683
-1.2707862456 -33.4087144606 -2.9900152683
-1.4953866373 -26.5889565463 -2.9900152683
-0.4603344618 -30.2743204525 -2.9900152683
-0.9640273913 -29.6815235153 -2.9900152683
-0.9480622497 -29.9473024602 -2.9900152683
-0.9138546121 -30.1604973588 -2.9900152683
-0.9819289334 -29.4927487125 -2.9900152683
-0.9842630764 -29.5290296964 -2.9900152683
-0.8754913812 -30.4045869625 -2.9900152683
-0.8478965153 -30.4873588715 -2.9900152683
-0.8148507362 -30.6391161702 -2.9900152683
-0.9995028983 -29.2391795493 -2.9900152683
-1.0322901601 -29.8152791667 -2.9900152683
-0.8596408417 -30.5937039762 -2.9900152683
-0.8428567143 -30.6349012737 -2.9900152683
-1.0539565460 -29.8540402465 -2.9900152683
-1.0495777706 -29.9062565578 -2.9900152683
-1.0441187526 -29.9583710084 -2.9900152683
-1.0395593593 -29.9955208724 -2.9900152683
-0.9137715572 -30.5185666831 -2.9900152683
-1.0236012549 -29.1123012380 -2.9900152683
-1.0484178379 -29.2383418757 -2.9900152683
-1.0509198815 -29.2532479179 -2.9900152683
-1.0796248604 -29.8331926903 -2.9900152683
-1.0721806123 -29.9235694291 -2.9900152683
-1.0178013210 -28.9885791763 -2.9900152683
-1.0884745937 -29.9941985389 -2.9900152683
-1.0358151113 -30.2791150391 -2.9900152683
-0.9008542648 -30.6839355201 -2.9900152683
-0.7293479978 -31.0157127564 -2.9900152683
-1.1283550452 -29.8286206292 -2.9900152683
-0.7698282917 -30.9953593947 -2.9900152683
-1.0752504454 -30.3207181647 -2.9900152683
-0.9360226750 -30.7243598700 -2.9900152683
-0.9265595082 -30.7456684578 -2.9900152683
-0.7500334283 -31.0739508037 -2.9900152683
-0.7332503936 -31.1001183034 -2.9900152683
-1.0290972993 -28.7823962335 -2.9900152683
-1.1753669487 -29.4867301420 -2.9900152683
-1.1204027926 -30.2351466556 -2.9900152683
-0.8311609433 -30.9861115745 -2.9900152683
-0.7098201842 -31.1784165366 -2.9900152683
-1.0923692231 -30.4394576233 -2.9900152683
-0.8978584100 -30.9148783154 -2.9900152683
-1.1485716302 -29.0107780484 -2.9900152683
-0.7404296656 -31.2190485227 -2.9900152683
