16.5391919369 -31.2031776934 -2.1200015205
16.6706842155 -29.5412629215 -2.1200015205
14.6192431660 -33.4551063532 -2.1200015234
14.6589864061 -33.4356626984 -2.1200015234
16.4357394891 -31.5526843029 -2.1200015234
16.6153060856 -29.0556740636 -2.1200015263
16.5996613287 -29.0022548059 -2.1200015263
14.7503680817 -33.4433561797 -2.1200015292
16.6049753262 -31.2356537478 -2.1200015292
14.7914746763 -33.4489773403 -2.1200015320
14.8113357798 -33.4382954248 -2.1200015320
14.8228487263 -33.4595507146 -2.1200015349
14.8626303005 -33.4376975931 -2.1200015349
14.9141632059 -33.4363521914 -2.1200015378
16.5441537014 -28.5667796057 -2.1200015378
14.9560125802 -33.4400664778 -2.1200015407
15.0079987465 -33.4373627379 -2.1200015436
16.7351997755 -28.9493954333 -2.1200015436
14.8111742140 -26.5981219621 -2.1200015465
14.7801438090 -26.5821500259 -2.1200015465
15.1026879594 -33.4359058950 -2.1200015493
15.1125863815 -33.4296590575 -2.1200015493
16.8676807048 -30.9023494279 -2.1200015493
14.8740467064 -26.6040754648 -2.1200015493
14.8534096265 -26.5930248227 -2.1200015493
14.9695783268 -26.6016417751 -2.1200015551
14.9282036645 -26.5785325760 -2.1200015551
16.8359159411 -31.3846751947 -2.1200015609
15.0349970250 -26.5834554231 -2.1200015609
15.3180096207 -33.4385094407 -2.1200015637
15.1632670071 -26.6042529414 -2.1200015666
15.1529558992 -26.5978567915 -2.1200015666
15.3954470951 -33.4431277127 -2.1200015695
15.2173356128 -26.6097713489 -2.1200015695
15.2070405928 -26.6032152301 -2.1200015695
15.1967262236 -26.5966895946 -2.1200015695
15.2406861306 -26.5960261128 -2.1200015724
15.2744936736 -26.5891138911 -2.1200015753
15.4631351567 -26.6003766188 -2.1200015868
15.5779013574 -26.5938943565 -2.1200015954
15.6689096093 -26.6019092169 -2.1200016012
15.8981327555 -33.4471186838 -2.1200016070
15.8678210738 -26.6057403717 -2.1200016156
15.9865803746 -26.6109808823 -2.1200016243
15.0579653808 -30.2731054405 -2.1200015599
15.0564637427 -30.2552160675 -2.1200015599
15.0510071699 -30.2016377627 -2.1200015599
15.0805428478 -30.2530872226 -2.1200015657
15.1810376678 -29.7687612358 -2.1200016118
14.9426560020 -33.3400837218 -2.1200019057
14.9817876500 -33.3432085563 -2.1200019115
14.9989692915 -33.3316777794 -2.1200019115
16.5870664184 -30.4668348144 -2.1200019230
16.4276275653 -29.3815464238 -2.1200019230
16.4213453786 -29.3615309081 -2.1200019230
16.6064443208 -30.2453769059 -2.1200019288
16.6354949499 -30.4566593288 -2.1200019346
16.6355189514 -30.4141309673 -2.1200019346
16.6274599573 -30.9156341940 -2.1200019403
16.4348600430 -29.1776486472 -2.1200019403
16.6421824259 -31.1254468847 -2.1200019519
16.7194360318 -30.7408023645 -2.1200019576
15.3768717991 -33.3224838911 -2.1200019634
16.5100434069 -29.1029567186 -2.1200019634
16.5573045736 -29.0248310645 -2.1200019807
16.5360872056 -28.9729838855 -2.1200019807
15.5498545290 -33.3033605433 -2.1200019864
15.6328535294 -33.2942197742 -2.1200019980
16.6718341446 -31.7448951456 -2.1200019980
16.7331723073 -31.5607437212 -2.1200019980
16.5896503447 -28.9134738581 -2.1200019980
16.9352571236 -30.7704443550 -2.1200020095
15.7413221081 -33.2926762320 -2.1200020152
17.0264037846 -31.2975514008 -2.1200020498
16.7896328439 -28.8278108096 -2.1200020498
15.9954443851 -33.2791295037 -2.1200020556
14.3203710366 -26.5360728052 -2.1200020556
14.2972909529 -26.5285743273 -2.1200020556
14.2857343757 -26.5248763275 -2.1200020556
14.2741669097 -26.5212125302 -2.1200020556
14.2625886561 -26.5175829677 -2.1200020556
14.3857497305 -26.5325613113 -2.1200020614
14.3742045605 -26.5286016169 -2.1200020614
14.3626477274 -26.5246760925 -2.1200020614
14.3394994771 -26.5169276910 -2.1200020614
14.3279082623 -26.5131048817 -2.1200020614
14.4283928645 -26.5218619298 -2.1200020671
14.4052268139 -26.5137246072 -2.1200020671
14.4829261372 -26.5158610806 -2.1200020729
14.4364714759 -26.4990787931 -2.1200020729
14.5725478172 -26.5240402070 -2.1200020786
14.5377944434 -26.5106062756 -2.1200020786
14.5261836611 -26.5061969015 -2.1200020786
14.5813633853 -26.5015319631 -2.1200020844
14.6252105418 -26.4929237774 -2.1200020902
14.7275540257 -26.5092952380 -2.1200020959
14.7159385348 -26.5043245265 -2.1200020959
14.6926636946 -26.4944862941 -2.1200020959
14.7952787599 -26.5125970563 -2.1200021017
14.7836727401 -26.5074259883 -2.1200021017
14.7604150637 -26.4971869633 -2.1200021017
14.8516793862 -26.5116763672 -2.1200021075
14.8284456662 -26.5010349177 -2.1200021075
14.8618104243 -26.4897287626 -2.1200021132
14.9420350589 -26.5008941550 -2.1200021190
14.9187359663 -26.4897183197 -2.1200021190
14.9992086092 -26.5020200274 -2.1200021248
14.9875704083 -26.4962457444 -2.1200021248
15.0333371052 -26.4920975312 -2.1200021305
15.0909906936 -26.4944990061 -2.1200021363
15.0676511582 -26.4824420112 -2.1200021363
15.1719719726 -26.4826911262 -2.1200021478
15.2302940447 -26.4870382858 -2.1200021536
15.2771414309 -26.4855845171 -2.1200021593
15.3241860710 -26.4846530918 -2.1200021651
15.3954394890 -26.4703742133 -2.1200021766
15.4547568179 -26.4778699795 -2.1200021824
15.5153101750 -26.4583968415 -2.1200021939
15.6484428012 -26.4574053107 -2.1200022112
15.5820438570 -25.8528665239 -2.1200023265
16.6201749146 -30.1881310284 -2.1200010777
16.6093558162 -30.1265695430 -2.1200010777
16.1738895203 -28.8750121841 -2.1200010777
16.7643844939 -30.7154188213 -2.1200010777
16.1207290118 -28.7063601105 -2.1200010777
16.8117415344 -30.8665705357 -2.1200010777
16.8306881251 -30.9872090550 -2.1200010777
16.7834329593 -30.1387933670 -2.1200010777
13.6781039940 -26.5291210073 -2.1200010777
13.6655655762 -26.5275667616 -2.1200010777
13.7943738376 -26.5208798723 -2.1200010777
13.7440876957 -26.5135103465 -2.1200010777
13.7315028100 -26.5117609773 -2.1200010777
13.7063177892 -26.5083739621 -2.1200010777
13.6937178745 -26.5067363456 -2.1200010777
13.6685037876 -26.5035729667 -2.1200010777
13.8737009000 -26.5092205824 -2.1200010777
13.8232712466 -26.5009132382 -2.1200010777
13.8106487500 -26.4989296849 -2.1200010777
13.9410160719 -26.4966778176 -2.1200010777
13.9030890315 -26.4897944671 -2.1200010777
13.8651023986 -26.4832479689 -2.1200010777
13.8016670441 -26.4730870876 -2.1200010777
14.1152702931 -26.4832293928 -2.1200010777
14.0899097533 -26.4775723796 -2.1200010777
14.0645161885 -26.4720655069 -2.1200010777
14.0390904877 -26.4667089674 -2.1200010777
14.1714999058 -26.4714802768 -2.1200010777
14.1587888175 -26.4684667289 -2.1200010777
14.4064835179 -26.4588359033 -2.1200010777
14.3937339971 -26.4551272867 -2.1200010777
14.4388725169 -26.4432057759 -2.1200010777
13.9367774235 -26.2993671836 -2.1200010777
13.9103322170 -26.2947694121 -2.1200010777
14.5942023712 -26.4416975054 -2.1200010777
14.5685877327 -26.4332076961 -2.1200010777
13.9940763245 -26.2852797781 -2.1200010777
14.6275748098 -26.4274615834 -2.1200010777
14.2561356986 -26.2930499858 -2.1200010777
14.2163891664 -26.2833781440 -2.1200010777
13.8148087516 -26.2061925989 -2.1200010777
14.7593972168 -26.4231059668 -2.1200010777
14.7336696933 -26.4136391346 -2.1200010777
14.0210179838 -26.2165913071 -2.1200010777
14.1066230157 -26.2091765690 -2.1200010777
13.9713969371 -26.1827704753 -2.1200010777
14.3406820860 -26.2398321144 -2.1200010777
14.1251545568 -26.1883979745 -2.1200010777
15.0234272729 -26.3986305070 -2.1200010777
14.4270414201 -26.1881517994 -2.1200010777
15.2055948031 -26.3744606537 -2.1200010777
14.5841180814 -26.1083746263 -2.1200010777
16.0812891737 -26.4869134617 -2.1200010777
16.2537631159 -26.4307067637 -2.1200010777
19.0883477430 -33.0738534644 -2.1200010777
13.1349735014 -26.5193020306 -2.1200008392
13.3781653424 -26.4923958539 -2.1200008392
13.3510394788 -26.4920595197 -2.1200008392
13.3239121001 -26.4918836771 -2.1200008392
13.2154064251 -26.4927852617 -2.1200008392
13.1611691845 -26.4941988969 -2.1200008392
13.5148246373 -26.4723356664 -2.1200008392
13.4603244665 -26.4702078777 -2.1200008392
13.4330658934 -26.4693858509 -2.1200008392
13.4194349024 -26.4690353178 -2.1200008392
13.2012872628 -26.4689119235 -2.1200008392
13.6663986943 -26.4574097065 -2.1200008392
13.6527312548 -26.4563689853 -2.1200008392
13.6253874388 -26.4544088575 -2.1200008392
13.5843511673 -26.4517720785 -2.1200008392
13.5432931118 -26.4494995773 -2.1200008392
13.7643458362 -26.4417695321 -2.1200008392
13.5169965016 -26.4240384187 -2.1200008392
13.8493387620 -26.4265925570 -2.1200008392
13.8218153377 -26.4234697543 -2.1200008392
13.8080468176 -26.4219694310 -2.1200008392
13.7667154715 -26.4177129299 -2.1200008392
13.8935972477 -26.4075969478 -2.1200008392
13.7967858403 -26.3964676824 -2.1200008392
13.6336727566 -26.3338280316 -2.1200008392
14.2978505967 -26.3774599514 -2.1200008392
14.2561049661 -26.3688584693 -2.1200008392
14.2048209364 -26.3342148379 -2.1200008392
14.0923376335 -26.3143153863 -2.1200008392
13.4960650753 -26.2537995275 -2.1200008392
14.4756597969 -26.3686358914 -2.1200008392
14.4338288559 -26.3584567998 -2.1200008392
14.3639151700 -26.3423178676 -2.1200008392
13.3965970915 -26.2267654887 -2.1200008392
14.2750942296 -26.2000959045 -2.1200008392
14.2261638546 -26.1414611133 -2.1200008392
13.4010240753 -25.9850757495 -2.1200008392
13.3106489535 -25.9600494116 -2.1200008392
13.2495567592 -25.9120304003 -2.1200008392
13.5275787918 -25.8437982686 -2.1200008392
13.8752056210 -25.7970691622 -2.1200008392
16.4875404407 -29.5489547279 -2.1200010777
16.4958728584 -29.4707169714 -2.1200010777
16.4212431547 -29.3577160432 -2.1200010777
16.5907889616 -29.4861206211 -2.1200010777
15.6509581093 -28.4001330854 -2.1200010777
13.0993528100 -26.4247277927 -2.1200010777
13.0410496539 -26.4300561707 -2.1200010777
12.9101254154 -26.4445647019 -2.1200010777
12.8665755666 -26.4501748201 -2.1200010777
12.7218005955 -26.4716621568 -2.1200010777
12.5777245076 -26.4974221798 -2.1200010777
13.3468560148 -26.3856316200 -2.1200010777
13.2293223842 -26.3911320848 -2.1200010777
13.1852857813 -26.3939116131 -2.1200010777
13.1119518237 -26.3994122397 -2.1200010777
13.0972952444 -26.4006424920 -2.1200010777
13.0826423686 -26.4019160958 -2.1200010777
13.0679933245 -26.4032330398 -2.1200010777
12.9071433652 -26.4205763160 -2.1200010777
12.8633807504 -26.4262138429 -2.1200010777
12.5010314747 -26.4882381239 -2.1200010777
13.5381114961 -26.3584563558 -2.1200010777
13.4937727549 -26.3584968407 -2.1200010777
13.4642145481 -26.3587424320 -2.1200010777
13.3607831296 -26.3609790067 -2.1200010777
13.2131537448 -26.3678879249 -2.1200010777
12.7577849316 -26.4169870178 -2.1200010777
13.6421428222 -26.3357261190 -2.1200010777
13.5975982662 -26.3348442792 -2.1200010777
12.3895972276 -26.4632869767 -2.1200010777
13.7023916479 -26.3133594486 -2.1200010777
13.6874779255 -26.3128434497 -2.1200010777
13.5681265095 -26.3103040671 -2.1200010777
13.4935140874 -26.3101514767 -2.1200010777
13.3890702721 -26.3117917979 -2.1200010777
13.2101796399 -26.3196334346 -2.1200010777
12.9574740666 -26.3415981854 -2.1200010777
12.8094478969 -26.3604444718 -2.1200010777
13.2685760655 -26.2921708599 -2.1200010777
13.1339006153 -26.3006713844 -2.1200010777
12.6686662419 -26.3334780412 -2.1200010777
14.0973839894 -26.2701819947 -2.1200010777
13.9769082842 -26.2579548391 -2.1200010777
13.4931260861 -26.2376334307 -2.1200010777
12.9493800676 -26.2695322107 -2.1200010777
12.7692666133 -26.2930054134 -2.1200010777
14.1454209445 -26.2515079071 -2.1200010777
13.3257476971 -26.2170772998 -2.1200010777
13.2953557455 -26.2183194589 -2.1200010777
12.6455891968 -26.2883790396 -2.1200010777
13.7983370091 -26.1966915001 -2.1200010777
14.3185505138 -26.2267696275 -2.1200010777
12.9870756223 -26.1925290828 -2.1200010777
12.8498474166 -26.2085586078 -2.1200010777
13.3846615241 -26.1426380460 -2.1200010777
13.0129407338 -26.1413449495 -2.1200010777
14.4413998166 -26.1491795586 -2.1200010777
14.7531925644 -26.1892263642 -2.1200010777
12.8809867568 -26.0828240392 -2.1200010777
12.8937443724 -26.0569496889 -2.1200010777
13.0643741950 -26.0152776821 -2.1200010777
12.9066494984 -26.0311048948 -2.1200010777
18.8709104713 -31.9456407488 -2.1200010777
18.8243046353 -32.4066047923 -2.1200010777
13.0443238739 -25.9684921412 -2.1200010777
18.6860180832 -33.0328394638 -2.1200010777
18.8989640597 -32.1103612574 -2.1200010777
15.0143495897 -26.1327869990 -2.1200010777
18.9596084157 -31.7768692409 -2.1200010777
18.9933752503 -31.0822557234 -2.1200010777
12.7962896103 -25.9230333202 -2.1200010777
19.0138967563 -31.0160301821 -2.1200010777
15.2056507952 -26.1151162348 -2.1200010777
14.1163704724 -25.8102000942 -2.1200010777
19.1173712063 -31.5565428197 -2.1200010777
12.8296100611 -25.7968782821 -2.1200010777
12.4859080792 -25.8504908690 -2.1200010777
19.0829840600 -32.3386704938 -2.1200010777
19.0831019655 -30.2407187643 -2.1200010777
16.0861041198 -26.2407238102 -2.1200010777
16.7715881693 -29.6455962491 -2.1200010777
16.6485023741 -29.2706583286 -2.1200010777
14.9755582906 -28.0486206303 -2.1200010777
16.9215521016 -29.5215859664 -2.1200010777
16.5297015330 -29.0234171119 -2.1200010777
17.0632653479 -29.6576927654 -2.1200010777
18.5335675115 -32.7704511405 -2.1200010777
18.5976229626 -32.4729523104 -2.1200010777
18.6339580845 -32.2439408883 -2.1200010777
18.6540756028 -32.0711942629 -2.1200010777
18.5960883317 -32.6059190123 -2.1200010777
18.6736559527 -32.1170291938 -2.1200010777
18.6859266703 -31.9865226738 -2.1200010777
18.6961996498 -31.8266432329 -2.1200010777
18.5585938605 -32.8671349865 -2.1200010777
18.6737262569 -32.3083613132 -2.1200010777
18.7210241029 -31.8131797408 -2.1200010777
18.7496891306 -31.5201807093 -2.1200010777
18.5734575233 -32.9934698386 -2.1200010777
18.8075780493 -31.9813579893 -2.1200010777
18.7422462989 -32.7290841955 -2.1200010777
18.8748360302 -32.0473089436 -2.1200010777
18.8348357822 -32.9569206840 -2.1200010777
18.9883511020 -31.0525067827 -2.1200010777
18.9343286584 -30.6690134629 -2.1200010777
18.9570738306 -32.5229135200 -2.1200010777
19.0326513953 -31.8739383785 -2.1200010777
18.9252505630 -30.4967234252 -2.1200010777
12.7415393704 -26.3333534518 -2.1200010777
18.9463784753 -30.0856127279 -2.1200010777
19.0588355149 -30.2209227433 -2.1200010777
13.8458176973 -26.1358565944 -2.1200010777
18.9764096827 -29.8574360811 -2.1200010777
14.0579552217 -26.0942066523 -2.1200010777
14.0918422433 -26.0718240014 -2.1200010777
18.9852725073 -29.6640657970 -2.1200010777
12.7202484201 -26.1404687298 -2.1200010777
13.4077667043 -25.8573137447 -2.1200010777
14.2077435974 -25.8372008185 -2.1200010777
16.1128449504 -28.9677229661 -2.1200010777
15.7035643995 -28.7121589110 -2.1200010777
16.5103122863 -29.2035843348 -2.1200010777
15.8902487587 -28.6780186156 -2.1200010777
16.2899437476 -28.8887578962 -2.1200010777
15.3207790523 -28.3568083115 -2.1200010777
18.5043096312 -32.3215737067 -2.1200010777
18.5171847791 -32.2034185638 -2.1200010777
18.5184210574 -32.1902701083 -2.1200010777
18.5240187302 -32.1244761394 -2.1200010777
18.5250214525 -32.1113078133 -2.1200010777
18.5302193711 -32.0322408108 -2.1200010777
18.5340131757 -31.9530940085 -2.1200010777
18.5399662119 -32.2189329519 -2.1200010777
18.5412482848 -32.2057170370 -2.1200010777
18.5481192393 -32.1263471672 -2.1200010777
18.5557818293 -32.0070949758 -2.1200010777
18.5595451878 -31.9142271314 -2.1200010777
18.5605692293 -31.8744065445 -2.1200010777
18.5615569826 -31.7947459482 -2.1200010777
18.5615841392 -31.7814680199 -2.1200010777
18.5805824832 -31.9949905778 -2.1200010777
18.5854110152 -31.8348781488 -2.1200010777
18.5857298605 -31.7948311418 -2.1200010777
18.5857571633 -31.7814817053 -2.1200010777
18.5857449759 -31.7681322466 -2.1200010777
18.5856021315 -31.7414337292 -2.1200010777
18.5848425884 -31.6880415661 -2.1200010777
18.5825188793 -31.6079795165 -2.1200010777
18.6074448790 -31.9290987082 -2.1200010777
18.6085990112 -31.8888524528 -2.1200010777
18.6097287364 -31.8217576872 -2.1200010777
18.6098659805 -31.7546535517 -2.1200010777
18.6083907382 -31.6607199713 -2.1200010777
18.6066745571 -31.6070638133 -2.1200010777
18.6061463186 -31.5936532402 -2.1200010777
18.6291174409 -31.5657070401 -2.1200010777
18.6218267936 -31.4444973189 -2.1200010777
18.6208175876 -31.4310426341 -2.1200010777
18.6151747921 -31.3638172280 -2.1200010777
18.6353642982 -31.3211110657 -2.1200010777
18.6249067382 -31.2267424683 -2.1200010777
18.6545815338 -32.2850276031 -2.1200010777
18.6807462658 -31.9042405270 -2.1200010777
18.6551516497 -31.2780140595 -2.1200010777
18.6521078868 -31.2509134868 -2.1200010777
18.6455396245 -31.1967687361 -2.1200010777
18.6401932390 -31.1562132493 -2.1200010777
18.6677678126 -31.1801210703 -2.1200010777
18.6622728130 -31.1393689763 -2.1200010777
18.6719138044 -31.0406506450 -2.1200010777
18.6628562280 -30.9862862612 -2.1200010777
18.7202537523 -32.3480178824 -2.1200010777
18.7021849956 -31.0778726112 -2.1200010777
18.6769261098 -30.9276376133 -2.1200010777
18.7786659913 -31.7119857688 -2.1200010777
18.7321558512 -31.1155739976 -2.1200010777
18.7128459119 -30.9917808624 -2.1200010777
18.7943561934 -31.4879348015 -2.1200010777
18.8273882685 -31.8097474483 -2.1200010777
18.8515607886 -31.8099041493 -2.1200010777
18.8965426907 -31.5960753746 -2.1200010777
18.9325898272 -32.1706607672 -2.1200010777
18.9473644645 -31.6807389707 -2.1200010777
18.9408088947 -31.5078071450 -2.1200010777
18.9936956172 -31.6069680127 -2.1200010777
19.0208015748 -31.7524549328 -2.1200010777
19.0033523442 -31.1363862165 -2.1200010777
19.0574656283 -32.1214182140 -2.1200010777
19.0682050898 -31.6783047722 -2.1200010777
19.0614869994 -31.5010857535 -2.1200010777
19.0885751599 -31.5590722825 -2.1200010777
19.0776125840 -31.3812054303 -2.1200010777
19.1879296871 -31.6304729090 -2.1200010777
19.2155792674 -31.2936019518 -2.1200010777
18.8188694688 -29.6792441150 -2.1200010777
19.2795425046 -31.5043878379 -2.1200010777
18.8351502931 -29.4839758330 -2.1200010777
13.9553737739 -25.9378726224 -2.1200010777
13.4038005284 -25.9751450130 -2.1200010777
13.0277732922 -26.0309544970 -2.1200010777
14.0416487636 -25.9125985982 -2.1200010777
13.7427672913 -25.8491858735 -2.1200010777
16.9902609700 -28.8615247524 -2.1200010777
18.4876245348 -31.6241928095 -2.1200010777
18.5080137869 -31.5738128001 -2.1200010777
18.5059359316 -31.5494907578 -2.1200010777
18.5013487159 -31.5008856811 -2.1200010777
18.4975310555 -31.4644693547 -2.1200010777
18.5482020376 -31.4837736074 -2.1200010777
18.5320440854 -31.3489122214 -2.1200010777
18.5268765371 -31.3122294753 -2.1200010777
18.5373988242 -31.2228526040 -2.1200010777
18.5459808635 -31.1327841567 -2.1200010777
18.6610797093 -31.6879463303 -2.1200010777
18.6555084078 -31.5996828654 -2.1200010777
18.5683216172 -31.0000469727 -2.1200010777
18.5656031099 -30.9877085240 -2.1200010777
18.5543644487 -30.9384367657 -2.1200010777
18.6306694904 -31.1944316140 -2.1200010777
18.5769389343 -30.8281685983 -2.1200010777
18.5733491896 -30.7229155491 -2.1200010777
18.6682276632 -31.0046416299 -2.1200010777
18.5858131682 -30.6790624464 -2.1200010777
18.6690591598 -30.8982167432 -2.1200010777
18.5940271503 -30.6224708132 -2.1200010777
18.5901915919 -30.6100579749 -2.1200010777
18.6040064074 -30.4957449391 -2.1200010777
18.6826225542 -30.4267854603 -2.1200010777
18.9457733158 -31.5918705066 -2.1200010777
18.6299504026 -30.2166464410 -2.1200010777
18.6198409612 -30.1916267334 -2.1200010777
18.9784680000 -30.9528483475 -2.1200010777
18.9969131614 -29.7290284378 -2.1200010777
12.9625278886 -25.8758780759 -2.1200010777
15.6530690290 -28.6382895224 -2.1200008392
16.0119318918 -28.7058035923 -2.1200008392
16.2143401081 -28.7385739873 -2.1200008392
14.0530715411 -28.2880601145 -2.1200008392
11.7117560638 -29.7102729652 -2.1200008392
16.7352074604 -28.7141575474 -2.1200008392
14.8302816013 -28.1539335775 -2.1200008392
18.4981886651 -31.1191436315 -2.1200008392
18.4912698985 -30.9910390532 -2.1200008392
18.5086267257 -30.9625002273 -2.1200008392
18.4962204114 -30.9179485963 -2.1200008392
18.4930365311 -30.9068338697 -2.1200008392
18.4865702021 -30.8846329152 -2.1200008392
18.4894484096 -30.8110260969 -2.1200008392
18.4945740392 -30.7480807047 -2.1200008392
18.5100772905 -30.7181585025 -2.1200008392
18.5136652602 -30.6544445011 -2.1200008392
18.5057053500 -30.6321259172 -2.1200008392
13.5153890456 -28.1745613313 -2.1200008392
18.5036306183 -30.5568681868 -2.1200008392
18.5089170954 -30.5035473118 -2.1200008392
18.5125419908 -30.3847678711 -2.1200008392
18.5276348548 -30.2983262703 -2.1200008392
18.5344734223 -30.2547149224 -2.1200008392
18.5465721498 -30.1111022751 -2.1200008392
18.5341375722 -30.0327209018 -2.1200008392
18.6941265818 -30.1391976925 -2.1200008392
15.4475897916 -28.5495900070 -2.1200010777
15.2529612286 -28.5347704992 -2.1200010777
15.0269862753 -28.5313008159 -2.1200010777
15.6653540282 -28.5548197245 -2.1200010777
15.6347210770 -28.5498201305 -2.1200010777
15.2851142795 -28.5122486924 -2.1200010777
15.6282175943 -28.5243285247 -2.1200010777
15.1511603615 -28.4830321718 -2.1200010777
14.8700248755 -28.4891124603 -2.1200010777
14.5181870648 -28.5286300558 -2.1200010777
15.5800551624 -28.4927617024 -2.1200010777
15.2773841926 -28.4634008809 -2.1200010777
14.9418641422 -28.4612271769 -2.1200010777
16.0989861503 -28.5806288041 -2.1200010777
15.8535879167 -28.5174432191 -2.1200010777
16.2577235434 -28.6060487452 -2.1200010777
15.3118266794 -28.4169816093 -2.1200010777
14.3913881492 -28.4778161551 -2.1200010777
16.3662648804 -28.6195610488 -2.1200010777
18.4391484148 -30.5797439810 -2.1200010777
18.4349203315 -30.5698330008 -2.1200010777
14.9809892632 -28.3631102860 -2.1200010777
18.4398214502 -30.5205350335 -2.1200010777
18.4354182131 -30.5106223213 -2.1200010777
16.4742037295 -28.6100729049 -2.1200010777
16.4641576004 -28.6059832045 -2.1200010777
16.3222862995 -28.5518655050 -2.1200010777
15.4029001004 -28.3510648964 -2.1200010777
13.9989971782 -28.5024429780 -2.1200010777
18.4440216352 -30.4709216404 -2.1200010777
18.4348922539 -30.4510853036 -2.1200010777
16.4934513269 -28.5918440469 -2.1200010777
18.4475141249 -30.4210025433 -2.1200010777
18.4380893442 -30.4011464174 -2.1200010777
18.4333329417 -30.3912393515 -2.1200010777
16.5734770350 -28.5995512762 -2.1200010777
16.5128188342 -28.5736995599 -2.1200010777
16.1611720690 -28.4478386936 -2.1200010777
16.0978861888 -28.4293285361 -2.1200010777
15.9276209336 -28.3854883275 -2.1200010777
14.4111844093 -28.3509856599 -2.1200010777
13.9427537495 -28.4695610256 -2.1200010777
13.8180319720 -28.5123865185 -2.1200010777
18.4551091178 -30.3807449036 -2.1200010777
18.4502922894 -30.3707875794 -2.1200010777
18.4454460266 -30.3608445478 -2.1200010777
16.6135022690 -28.5908138792 -2.1200010777
16.5932815759 -28.5818404147 -2.1200010777
15.6507403617 -28.3076741588 -2.1200010777
18.4423288996 -30.3004037285 -2.1200010777
18.4372744634 -30.2904845620 -2.1200010777
18.4536797979 -30.2695099690 -2.1200010777
18.4485339227 -30.2595573597 -2.1200010777
18.4433586284 -30.2496200163 -2.1200010777
16.4574923857 -28.4733102377 -2.1200010777
16.2249704718 -28.3916350114 -2.1200010777
14.6639300221 -28.2402051268 -2.1200010777
18.4382977266 -30.1886523304 -2.1200010777
18.4486852207 -30.1572162488 -2.1200010777
18.4432071823 -30.1472789057 -2.1200010777
18.4321630361 -30.1274530518 -2.1200010777
15.8329624962 -28.2414888302 -2.1200010777
18.4476446044 -30.1056762880 -2.1200010777
13.3800876892 -28.5417674839 -2.1200010777
17.1390565367 -28.7063529101 -2.1200010777
13.9344609163 -28.2946781380 -2.1200010777
13.7818698460 -28.3455637816 -2.1200010777
13.6421762247 -28.3984346082 -2.1200010777
18.4433020045 -30.0019101050 -2.1200010777
18.4399889212 -29.9497052081 -2.1200010777
17.1050177556 -28.6289535027 -2.1200010777
15.8060778810 -28.1378613970 -2.1200010777
13.9534939692 -28.2383035058 -2.1200010777
11.5874457510 -30.2095016045 -2.1200010777
11.5712930891 -30.1880635181 -2.1200010777
18.4437695388 -29.8645300902 -2.1200010777
18.4374257033 -29.8546085691 -2.1200010777
13.0879657031 -28.5612749674 -2.1200010777
11.6111322564 -30.0628668623 -2.1200010777
11.5940420272 -30.0937868275 -2.1200010777
18.4449190455 -29.8216498737 -2.1200010777
18.4384483575 -29.8117251398 -2.1200010777
11.5958205482 -30.0407442539 -2.1200010777
18.4521389761 -29.7885277347 -2.1200010777
11.6103601451 -29.9668752439 -2.1200010777
11.5924180746 -29.9978058412 -2.1200010777
18.4524166364 -29.7452778926 -2.1200010777
17.4125372971 -28.6548511129 -2.1200010777
12.8719566890 -28.5515905864 -2.1200010777
12.8312603892 -28.5780378983 -2.1200010777
11.6042543953 -29.8367375685 -2.1200010777
18.4360156797 -29.5946225159 -2.1200010777
15.2232316724 -27.8803763942 -2.1200010777
11.6032165785 -29.7929639853 -2.1200010777
18.4556386851 -29.5805061090 -2.1200010777
18.4412411031 -29.5606166256 -2.1200010777
11.6093691780 -29.7387058874 -2.1200010777
11.6026830351 -29.7490023092 -2.1200010777
11.6031417001 -29.6605367890 -2.1200010777
18.4476490162 -29.4477801800 -2.1200010777
11.6041402282 -29.6160441067 -2.1200010777
18.4439406660 -29.4032501662 -2.1200010777
11.6056556680 -29.5713856535 -2.1200010777
18.4475163043 -29.3685162453 -2.1200010777
16.6088876889 -28.0135496400 -2.1200010777
18.4507977971 -29.3336494999 -2.1200010777
18.4457658525 -29.2887035298 -2.1200010777
18.4401996354 -29.2436377529 -2.1200010777
11.6169458614 -29.3912084215 -2.1200010777
11.6092317251 -29.4014839505 -2.1200010777
11.5938948114 -29.4221032431 -2.1200010777
11.6054232916 -29.3663572873 -2.1200010777
11.6177846615 -29.3105246895 -2.1200010777
11.5940175555 -29.3414152445 -2.1200010777
18.4581595328 -28.9681951136 -2.1200010777
11.6042373065 -29.0961456511 -2.1200010777
11.6046041048 -28.7667904826 -2.1200010777
19.5066452677 -29.7270592967 -2.1200010777
18.3344433471 -30.0487628365 -2.1200010777
15.1684414137 -28.4954213623 -2.1200010777
18.3316743231 -30.0010398222 -2.1200010777
14.9096622992 -28.5005613918 -2.1200010777
18.3340991927 -29.9616889977 -2.1200010777
18.3281793191 -29.9531168326 -2.1200010777
14.9782518353 -28.4664887836 -2.1200010777
14.2896981098 -28.6278353745 -2.1200010777
18.3420637924 -29.9307376336 -2.1200010777
18.3300154549 -29.9135642734 -2.1200010777
15.6136023613 -28.4173681201 -2.1200010777
15.0793249734 -28.4305033180 -2.1200010777
14.5734273836 -28.5186410782 -2.1200010777
15.3297864590 -28.3901140453 -2.1200010777
14.3642919261 -28.5524434280 -2.1200010777
14.2540414335 -28.5890280446 -2.1200010777
14.1253642267 -28.6368606402 -2.1200010777
15.4139984415 -28.3403169463 -2.1200010777
14.1575907155 -28.5726369475 -2.1200010777
18.4698398822 -29.9467289317 -2.1200010777
16.0147808198 -28.3627947022 -2.1200010777
15.2415550037 -28.3211457581 -2.1200010777
15.6630627192 -28.2991209606 -2.1200010777
15.9144738372 -28.2992374397 -2.1200010777
13.6851257913 -28.7080527904 -2.1200010777
18.3155591840 -29.6146009993 -2.1200010777
14.9641598073 -28.2733221217 -2.1200010777
14.3276439627 -28.3613291742 -2.1200010777
13.9325069179 -28.4547985189 -2.1200010777
16.0008001629 -28.1649102129 -2.1200010777
14.4043425454 -28.2633082176 -2.1200010777
13.0546094418 -28.8879624888 -2.1200010777
13.3621383381 -28.6441332573 -2.1200010777
13.3230651948 -28.6688729811 -2.1200010777
15.4117991659 -27.9293813556 -2.1200010777
11.5442644395 -30.7331058923 -2.1200010777
11.5370821549 -30.7561365531 -2.1200010777
11.5335421406 -30.7676677177 -2.1200010777
11.5323029148 -30.6911713286 -2.1200010777
11.5212089412 -30.7258409571 -2.1200010777
11.5139840783 -30.7490081492 -2.1200010777
11.5207811977 -30.6489285341 -2.1200010777
11.5301326116 -30.5484975020 -2.1200010777
11.5177725733 -30.5831920090 -2.1200010777
11.5137210422 -30.5947810515 -2.1200010777
11.5244545145 -30.4939296796 -2.1200010777
11.5201389001 -30.5054993462 -2.1200010777
11.5158575298 -30.5170817286 -2.1200010777
11.5116104410 -30.5286767254 -2.1200010777
11.5106027349 -30.4622134214 -2.1200010777
11.5061933587 -30.4738242029 -2.1200010777
11.5247348357 -30.3606595698 -2.1200010777
11.5153493754 -30.3838122928 -2.1200010777
11.5061010586 -30.4070201382 -2.1200010777
11.5167761160 -30.3166898896 -2.1200010777
11.5023594412 -30.3515120564 -2.1200010777
11.5043210183 -30.2840693289 -2.1200010777
11.4847824190 -30.3306768047 -2.1200010777
11.5116728840 -30.1483284788 -2.1200010777
11.5063349747 -30.1599374680 -2.1200010777
11.5010314302 -30.1715621969 -2.1200010777
11.4957622970 -30.1832025637 -2.1200010777
11.4843574985 -30.1498713952 -2.1200010777
11.5008906883 -30.0579728042 -2.1200010777
11.4962422860 -30.0124374539 -2.1200010777
11.4847971254 -30.0357648428 -2.1200010777
11.4920940812 -29.9666707563 -2.1200010777
11.4862188812 -29.9783384579 -2.1200010777
11.4944955667 -29.9090171683 -2.1200010777
11.4884498064 -29.9206780182 -2.1200010777
11.4853131392 -29.8744645944 -2.1200010777
11.4826877016 -29.8280358871 -2.1200010777
11.4870348718 -29.7697138159 -2.1200010777
11.4789847229 -29.7345544643 -2.1200010777
11.4779141437 -29.6875127851 -2.1200010777
11.4705280520 -29.6519905838 -2.1200010777
11.4773517785 -29.5928554208 -2.1200010777
11.4778666067 -29.5452510409 -2.1200010777
11.4730994009 -29.4612237230 -2.1200010777
11.4657290803 -29.4729498259 -2.1200010777
11.4750862567 -29.4131020115 -2.1200010777
11.4600955966 -29.4365650560 -2.1200010777
11.4699614004 -29.3765330699 -2.1200010777
14.6035268758 -28.5296447078 -2.1200010777
11.5152817182 -31.2433333193 -2.1200010777
11.5063634672 -31.0085130721 -2.1200010777
11.4966626117 -31.0589845974 -2.1200010777
11.4920363079 -31.0842625218 -2.1200010777
11.4801573524 -31.0164872823 -2.1200010777
11.4589412397 -30.9991070384 -2.1200010777
11.4399281117 -31.1012861398 -2.1200010777
11.4702193457 -30.7336837236 -2.1200010777
11.4636689155 -30.7591237885 -2.1200010777
11.4514412252 -30.6190271051 -2.1200010777
11.3141645409 -31.1200694870 -2.1200010777
11.4397237772 -30.4900555952 -2.1200010777
11.4089929769 -30.3517193984 -2.1200010777
11.1746307412 -31.2359810834 -2.1200010777
11.3944023376 -29.8665253410 -2.1200010777
11.3117957855 -28.8755234774 -2.1200010777
14.4864804116 -28.6045936923 -2.1200008392
14.0599789889 -28.8350818940 -2.1200008392
15.7526688466 -27.8943733511 -2.1200008392
11.5169646502 -31.7840977667 -2.1200008392
11.5179593598 -31.8245628672 -2.1200008392
11.5183707268 -31.8380490756 -2.1200008392
11.4918673915 -31.6896428549 -2.1200008392
11.4690469813 -31.5805560470 -2.1200008392
11.4687367460 -31.5941880147 -2.1200008392
11.4676943674 -31.6896291341 -2.1200008392
11.4563811069 -31.3472596697 -2.1200008392
11.4517840659 -31.4156397482 -2.1200008392
11.4509860539 -31.4293235043 -2.1200008392
11.4431528612 -31.2219349233 -2.1200008392
11.4315945325 -31.1094028231 -2.1200008392
11.4298907047 -31.1231476434 -2.1200008392
11.4150914011 -31.2608498850 -2.1200008392
11.4207411709 -31.0098333953 -2.1200008392
11.4093630295 -31.0925829223 -2.1200008392
11.4076095426 -31.1063935811 -2.1200008392
11.3994553337 -31.1755213567 -2.1200008392
11.3710688319 -31.7174172016 -2.1200008392
11.4052673724 -30.9509968845 -2.1200008392
11.3802227961 -31.1311628717 -2.1200008392
11.3729060927 -31.0028229440 -2.1200008392
11.3240513976 -31.5770416678 -2.1200008392
11.3843795308 -30.7902688051 -2.1200008392
11.3715522553 -30.8597747405 -2.1200008392
11.2752833924 -31.7889658096 -2.1200008392
11.2772359364 -30.9888020414 -2.1200008392
11.1588268419 -31.9224086175 -2.1200008392
11.1297717051 -31.7626177617 -2.1200008392
11.2928381202 -30.3388633266 -2.1200008392
11.0916871327 -31.3644931615 -2.1200008392
11.0380938325 -31.9280586169 -2.1200008392
10.9590726839 -30.8335716852 -2.1200008392
10.8388638914 -31.1918964797 -2.1200008392
16.6418156243 -25.7802229284 -2.1200008392
14.4276385775 -28.5897601549 -2.1200010777
14.5807550416 -28.4652421115 -2.1200010777
14.2127004059 -28.7146215834 -2.1200010777
14.1882480408 -28.7337384733 -2.1200010777
13.8547982350 -28.9989840166 -2.1200010777
14.6450335538 -28.3454640175 -2.1200010777
14.2356836224 -28.6063477965 -2.1200010777
14.3839526798 -28.3874000030 -2.1200010777
13.4047254786 -29.1038416876 -2.1200010777
13.2352845103 -28.9673832100 -2.1200010777
11.4360485342 -32.0171798233 -2.1200010777
11.4625275809 -32.2203596862 -2.1200010777
11.4839834488 -32.3503262182 -2.1200010777
11.4973961288 -32.4222690247 -2.1200010777
11.5179583386 -32.5226389399 -2.1200010777
11.3861419972 -31.6678357420 -2.1200010777
11.3948996929 -31.8293807864 -2.1200010777
11.4153018259 -32.0490391363 -2.1200010777
11.4261881723 -32.1366126870 -2.1200010777
11.3584315838 -31.4618818511 -2.1200010777
11.3584720096 -31.5062205924 -2.1200010777
11.3791349330 -31.9342000766 -2.1200010777
11.4147265693 -32.2275987759 -2.1200010777
11.4416806284 -32.3879175140 -2.1200010777
11.3342993274 -31.5063498940 -2.1200010777
11.3363405305 -31.6251387323 -2.1200010777
11.3578529221 -31.9659709226 -2.1200010777
11.3886240515 -32.2165313388 -2.1200010777
11.3131317475 -31.6556700088 -2.1200010777
11.3383293416 -32.0128507471 -2.1200010777
11.3604187295 -32.1905454529 -2.1200010777
11.3861960343 -32.3526506735 -2.1200010777
11.2967995259 -31.1469877361 -2.1200010777
11.2867316822 -31.3866605378 -2.1200010777
11.3083035132 -31.9557299527 -2.1200010777
11.3209857982 -32.0750081042 -2.1200010777
11.2234614035 -31.1574078429 -2.1200010777
11.2185531351 -31.2485266538 -2.1200010777
11.2144050161 -31.5830329574 -2.1200010777
11.2147337876 -31.5982380826 -2.1200010777
11.2204946272 -31.7502102363 -2.1200010777
11.2019948886 -31.8429894065 -2.1200010777
11.2365478123 -30.6208235670 -2.1200010777
11.2152824164 -30.6016170431 -2.1200010777
11.1430377003 -31.6307488932 -2.1200010777
11.1480761468 -31.7540287741 -2.1200010777
11.1361880389 -31.0277394405 -2.1200010777
11.1319277735 -31.8789986176 -2.1200010777
11.1626173756 -32.1717553142 -2.1200010777
11.1296457611 -30.8553344883 -2.1200010777
11.0978100251 -31.2430967879 -2.1200010777
11.0925725057 -31.5076429095 -2.1200010777
11.1456289134 -30.4463049779 -2.1200010777
11.0756004669 -32.0565832404 -2.1200010777
11.1158688613 -30.4725782781 -2.1200010777
11.0291337954 -31.7919056218 -2.1200010777
17.0688437153 -26.1685317724 -2.1200010777
18.0178829106 -26.3599643460 -2.1200010777
16.7871126668 -26.1139496893 -2.1200010777
16.6441257427 -26.1043370336 -2.1200010777
17.9948981016 -26.3271794240 -2.1200010777
11.1263256428 -30.1002517914 -2.1200010777
10.9957048284 -30.7587920863 -2.1200010777
10.9927999724 -32.1782607356 -2.1200010777
16.2291420324 -26.0496470916 -2.1200010777
18.2082027357 -26.3485840373 -2.1200010777
11.0444037815 -30.2288362650 -2.1200010777
10.9280086630 -32.0402489808 -2.1200010777
16.3414827925 -25.9998678974 -2.1200010777
11.1044848926 -29.9101146300 -2.1200010777
18.0242307820 -26.2350438805 -2.1200010777
15.6370756705 -25.9738902697 -2.1200010777
10.9085178887 -30.3992742413 -2.1200010777
10.8497479077 -30.5893812461 -2.1200010777
10.8362709513 -32.2818337034 -2.1200010777
11.1321597325 -29.3263936212 -2.1200010777
10.7356487255 -32.0601264185 -2.1200010777
16.0558668955 -25.8143380326 -2.1200010777
15.8215698885 -25.8315633886 -2.1200010777
15.6214562235 -25.8540386326 -2.1200010777
11.1490148063 -29.2244353273 -2.1200010777
16.3578160105 -25.7822959013 -2.1200010777
11.1168275759 -29.1178818211 -2.1200010777
13.7472836842 -28.9455248154 -2.1200010777
17.3406492759 -26.4044696876 -2.1200010777
17.1262232265 -26.3759553482 -2.1200010777
17.3443665546 -26.3805841874 -2.1200010777
16.8110307312 -26.3272530304 -2.1200010777
17.2616179204 -26.3440269441 -2.1200010777
18.0360143575 -26.4896914471 -2.1200010777
17.0322394485 -26.2936805595 -2.1200010777
16.9301041438 -26.2855994772 -2.1200010777
16.7254411037 -26.2757894521 -2.1200010777
16.7408003318 -26.2520469485 -2.1200010777
17.2568513961 -26.2701922325 -2.1200010777
17.2422007372 -26.2682439904 -2.1200010777
17.2665171352 -26.1983201863 -2.1200010777
17.0878044405 -26.1775079510 -2.1200010777
16.9550751043 -26.1419574514 -2.1200010777
17.2429449638 -26.1464591392 -2.1200010777
17.3738013304 -26.0916198714 -2.1200010777
15.2878025279 -26.0737356422 -2.1200010777
15.4146966279 -25.9937030013 -2.1200010777
16.1944618076 -25.8292282364 -2.1200010777
11.1709342943 -31.5719557824 -2.1200010777
16.1426487219 -25.7847764868 -2.1200010777
11.1370635205 -31.0896224861 -2.1200010777
11.4915290723 -33.1604165556 -2.1200010777
11.0675546433 -31.4475515708 -2.1200010777
14.5109186372 -26.0739777051 -2.1200010777
10.8872413641 -30.3514109423 -2.1200010777
13.4928423920 -29.5948846078 -2.1200008392
13.4659650212 -29.6632109759 -2.1200008392
17.2272459458 -26.5094563655 -2.1200008392
17.2011026191 -26.5068811940 -2.1200008392
17.1507861066 -26.4781060695 -2.1200008392
17.1112903121 -26.4749810987 -2.1200008392
16.7681725341 -26.4384308539 -2.1200008392
16.6221468423 -26.4411564465 -2.1200008392
16.8348605913 -26.4145917937 -2.1200008392
16.5146260748 -26.4219906131 -2.1200008392
16.4328688039 -26.4032882081 -2.1200008392
16.5791680894 -26.3702747983 -2.1200008392
16.2941092060 -26.3674274550 -2.1200008392
16.8087895949 -26.3176496851 -2.1200008392
16.4953524077 -26.3262831585 -2.1200008392
15.9958064021 -26.3109901751 -2.1200008392
15.9003967098 -26.3281946589 -2.1200008392
15.8685279835 -26.3097563316 -2.1200008392
16.1537346664 -26.2381832001 -2.1200008392
16.1644837337 -26.2123840027 -2.1200008392
16.5555189220 -26.1535662263 -2.1200008392
16.0843860409 -26.1502228717 -2.1200008392
16.9681650007 -26.0795155014 -2.1200008392
16.4775075475 -26.0367562313 -2.1200008392
15.5345221723 -26.1881383128 -2.1200008392
17.3274757087 -25.9609907653 -2.1200008392
15.9677390260 -25.7767166037 -2.1200008392
10.9916648121 -31.5250031250 -2.1200008392
10.9181295078 -31.1838786610 -2.1200008392
11.2248578624 -32.8156863026 -2.1200008392
11.3266815639 -33.2815529127 -2.1200008392
16.6363089701 -26.5115219180 -2.1200010777
16.6000016831 -26.5141373159 -2.1200010777
16.5516307899 -26.5181255241 -2.1200010777
16.5130429987 -26.4974328680 -2.1200010777
16.3278705315 -26.4952785051 -2.1200010777
12.8493626270 -29.7604424424 -2.1200010777
16.2634044422 -26.4805014994 -2.1200010777
16.1372609799 -26.4777579079 -2.1200010777
16.1450751757 -26.4517115148 -2.1200010777
16.0959974790 -26.4610869950 -2.1200010777
16.0715010908 -26.4659923405 -2.1200010777
15.9806953567 -26.4607169932 -2.1200010777
15.8219562647 -26.4496497853 -2.1200010777
15.7541468937 -26.4429521110 -2.1200010777
16.5926043985 -26.2480421762 -2.1200010777
15.6722453306 -26.3909794911 -2.1200010777
15.5728995887 -26.4215162126 -2.1200010777
15.4505505770 -26.3858767649 -2.1200010777
15.3925549252 -26.3807305908 -2.1200010777
16.4999446543 -26.0859033330 -2.1200010777
15.7087189213 -26.2297879904 -2.1200010777
15.7492649530 -26.1188630742 -2.1200010777
15.4666565345 -25.9480894998 -2.1200010777
13.5506297636 -29.7691672047 -2.1200010777
13.5483661467 -29.6329978235 -2.1200010777
13.5377330327 -29.6941562699 -2.1200010777
13.4987558453 -30.0332096751 -2.1200010777
13.7408935210 -28.9011101977 -2.1200010777
13.4671234773 -30.2398106790 -2.1200010777
13.6864757218 -28.8437118470 -2.1200010777
13.8193201030 -28.5169554062 -2.1200010777
13.4184752044 -29.6745105972 -2.1200010777
13.4117661200 -29.7167960677 -2.1200010777
13.4634288517 -29.2541445663 -2.1200010777
13.3491987575 -29.8169546351 -2.1200010777
16.1135410421 -26.5279252420 -2.1200010777
16.1024969095 -26.5305303963 -2.1200010777
16.0525364376 -26.5178259996 -2.1200010777
15.9688509262 -26.5146874606 -2.1200010777
15.9466946289 -26.5207866954 -2.1200010777
15.9245748046 -26.5270169075 -2.1200010777
15.7999357222 -26.5140404672 -2.1200010777
15.7814767035 -26.4945529158 -2.1200010777
15.7592045629 -26.5017610717 -2.1200010777
15.7369754579 -26.5091008710 -2.1200010777
13.0343488199 -30.4008286155 -2.1200010777
15.6958639330 -26.4974940147 -2.1200010777
15.6847316069 -26.5013348666 -2.1200010777
15.6321298289 -26.4942828660 -2.1200010777
15.9653148674 -26.3655024723 -2.1200010777
15.5035512333 -26.4910707268 -2.1200010777
15.4387423285 -26.4910902324 -2.1200010777
15.3959465297 -26.4827173411 -2.1200010777
15.8348946864 -26.3012914711 -2.1200010777
15.7997853748 -26.3116866429 -2.1200010777
12.9439586640 -29.4479353198 -2.1200010777
13.8995380975 -27.4912196431 -2.1200010777
15.4531839201 -26.3290665783 -2.1200010777
15.1442345602 -26.4641178737 -2.1200010777
15.1217935084 -26.4750967008 -2.1200010777
14.9315027531 -26.4646517821 -2.1200010777
14.8974301213 -26.4557023693 -2.1200010777
14.7602335462 -26.4501131349 -2.1200010777
14.6790772051 -26.4421161338 -2.1200010777
14.6325743813 -26.4421879953 -2.1200010777
14.9457922000 -26.2388006166 -2.1200010777
14.5972022669 -26.4356947942 -2.1200010777
14.5390355545 -26.4439132019 -2.1200010777
14.5373510665 -26.4162983508 -2.1200010777
14.2631024969 -26.4261467871 -2.1200010777
14.6610304034 -29.7447075438 -2.1200010777
13.0271153357 -30.1477966333 -2.1200010777
13.0082022064 -29.7559220348 -2.1200010777
13.0055711652 -29.7972225570 -2.1200010777
13.0273468602 -30.4374131282 -2.1200010777
12.9880801994 -30.2954105668 -2.1200010777
12.9522754540 -30.0775211727 -2.1200010777
13.0330039558 -30.8614908146 -2.1200010777
12.9876656214 -30.7741803971 -2.1200010777
12.9122645615 -29.2290903975 -2.1200010777
13.0610118895 -31.2783817284 -2.1200010777
12.9821902680 -31.3433685420 -2.1200010777
12.9884383906 -28.5727565392 -2.1200010777
12.9968858434 -31.4456973298 -2.1200010777
14.8761837350 -33.4220327558 -2.1200010777
14.8354525370 -26.5685185733 -2.1200010777
14.8151861997 -26.5784101011 -2.1200010777
14.8150641351 -33.4193745676 -2.1200010777
14.8147092560 -26.5517257221 -2.1200010777
14.7740382091 -26.5718751267 -2.1200010777
14.7022450899 -26.5815974932 -2.1200010777
14.7325200996 -33.4319789291 -2.1200010777
14.6808399316 -26.5655550911 -2.1200010777
14.6706913577 -26.5709432521 -2.1200010777
14.6504422492 -26.5818095199 -2.1200010777
14.5461130401 -26.5844906378 -2.1200010777
12.6547173166 -30.8358150323 -2.1200010777
14.5138291713 -26.5751769431 -2.1200010777
14.4712212151 -26.5721047033 -2.1200010777
12.5210274072 -30.1930829872 -2.1200010777
14.4081502093 -26.5818204501 -2.1200010777
14.4282811121 -33.4282501648 -2.1200010777
14.3651164215 -26.5799827281 -2.1200010777
14.3320138233 -26.5722212790 -2.1200010777
14.3087909980 -33.4395224564 -2.1200010777
14.0586953389 -26.5811972340 -2.1200010777
13.5665675120 -26.5991521666 -2.1200010777
13.0403524982 -30.3551420356 -2.1200010777
12.9106313828 -29.0170116223 -2.1200010777
14.2650308258 -26.6786465643 -2.1200010777
13.9661766005 -26.6989890542 -2.1200010777
15.2432087161 -33.4813397620 -2.1200010777
15.1566498029 -33.4779784692 -2.1200010777
15.2244644735 -33.5006841672 -2.1200010777
15.1261227543 -33.4929491539 -2.1200010777
15.0387429863 -33.4869431973 -2.1200010777
14.9736087611 -33.4878674520 -2.1200010777
15.0075606874 -33.5009947554 -2.1200010777
14.8423431366 -33.4864171718 -2.1200010777
14.8536437686 -33.4912147258 -2.1200010777
14.7988508607 -33.4939761138 -2.1200010777
14.7437676806 -33.4959729289 -2.1200010777
14.3849279861 -33.5066704318 -2.1200010777
14.3392234980 -33.5091554946 -2.1200010777
13.9058418099 -33.5282740684 -2.1200010777
13.2342987034 -30.9360782993 -2.1200008392
12.8865099297 -29.7890094599 -2.1200008392
13.6382294909 -32.4038510376 -2.1200008392
15.8667240440 -33.4954609033 -2.1200008392
15.7066953461 -33.4961937067 -2.1200008392
15.7548902014 -33.5039880603 -2.1200008392
15.7790213710 -33.5076712486 -2.1200008392
15.8031739092 -33.5112116044 -2.1200008392
15.6378819363 -33.5332056264 -2.1200008392
15.6621880146 -33.5375805635 -2.1200008392
15.7840832330 -33.5572941705 -2.1200008392
15.3606585494 -33.5225217502 -2.1200008392
15.3727779612 -33.5255473180 -2.1200008392
15.3970433702 -33.5314908333 -2.1200008392
15.2633329371 -33.5469759669 -2.1200008392
15.8200220815 -33.7575301115 -2.1200008392
14.9093721845 -33.5620597681 -2.1200008392
14.9338617238 -33.5707443086 -2.1200008392
14.9012255016 -33.5848186530 -2.1200008392
14.7612698959 -33.5839961835 -2.1200008392
13.3405036168 -31.0573783195 -2.1200010777
13.4601738681 -31.3142926013 -2.1200010777
12.8566413230 -30.1519060404 -2.1200010777
13.7227810876 -31.7269753950 -2.1200010777
13.3572620464 -31.3785560487 -2.1200010777
12.6661296501 -29.8679314372 -2.1200010777
13.1774079944 -31.1612882614 -2.1200010777
16.2794393398 -33.4862556226 -2.1200010777
16.4191740537 -33.4836678150 -2.1200010777
16.4318715888 -33.4832071188 -2.1200010777
16.4572622929 -33.4821730519 -2.1200010777
16.1772815218 -33.5094488108 -2.1200010777
16.2028319363 -33.5099205250 -2.1200010777
16.2794936637 -33.5104285895 -2.1200010777
16.3689267851 -33.5093015880 -2.1200010777
16.0098762214 -33.5268291783 -2.1200010777
16.0227032265 -33.5275790703 -2.1200010777
16.0355323938 -33.5282910143 -2.1200010777
16.3437889711 -33.5339820769 -2.1200010777
15.9568601693 -33.5475611744 -2.1200010777
15.9697487354 -33.5484678067 -2.1200010777
15.8127760571 -33.5591158985 -2.1200010777
15.8515577348 -33.5629996065 -2.1200010777
15.8644924313 -33.5642176748 -2.1200010777
16.0199530282 -33.5758468394 -2.1200010777
15.7323820173 -33.5743101432 -2.1200010777
15.7453506938 -33.5758807054 -2.1200010777
15.6643151801 -33.5898294985 -2.1200010777
15.6903501314 -33.5933346870 -2.1200010777
15.7033752699 -33.5950295040 -2.1200010777
15.7164053650 -33.5966857827 -2.1200010777
15.8183665893 -33.6325961043 -2.1200010777
16.2666131634 -33.6554765365 -2.1200010777
15.4872161907 -33.6109043349 -2.1200010777
15.5526723900 -33.6219954026 -2.1200010777
16.4524369865 -33.6759329103 -2.1200010777
15.4042596775 -33.6200432078 -2.1200010777
15.9198442682 -33.6902349778 -2.1200010777
16.4934281264 -33.6982787116 -2.1200010777
15.3469982602 -33.6331595617 -2.1200010777
15.4127989604 -33.6463220724 -2.1200010777
15.8511078536 -33.7086369369 -2.1200010777
15.9447368816 -33.7163375197 -2.1200010777
16.3202444800 -33.7277161544 -2.1200010777
15.3024872683 -33.6484185697 -2.1200010777
15.3288751849 -33.6540634283 -2.1200010777
15.3420815516 -33.6568272878 -2.1200010777
15.7252556184 -33.7438944453 -2.1200010777
16.0224953862 -33.7696694820 -2.1200010777
15.1329795910 -33.6581329416 -2.1200010777
16.0756704473 -33.7964266047 -2.1200010777
16.0609584713 -33.8199806889 -2.1200010777
16.5131070987 -33.8182957991 -2.1200010777
15.0013012740 -33.6728061275 -2.1200010777
14.9415024695 -33.6806628734 -2.1200010777
15.3039416823 -33.7723288185 -2.1200010777
14.8946490054 -33.6918163312 -2.1200010777
16.0020767390 -33.8895873388 -2.1200010777
16.0994201268 -33.8941231940 -2.1200010777
15.8611358931 -33.9036961474 -2.1200010777
15.2340034055 -33.8313570279 -2.1200010777
15.9572124117 -33.9352680040 -2.1200010777
16.5054077840 -33.9397119654 -2.1200010777
16.4368297114 -33.9909942752 -2.1200010777
16.4936125836 -33.9886817247 -2.1200010777
15.9809465105 -34.0094234020 -2.1200010777
15.9938261440 -34.0343906462 -2.1200010777
16.5101996470 -34.0362852669 -2.1200010777
16.2663038457 -34.0905909304 -2.1200010777
15.8734579338 -34.0987880844 -2.1200010777
15.5190204848 -34.1061021016 -2.1200010777
15.3315686818 -34.1476141806 -2.1200010777
15.3755919009 -34.1557451598 -2.1200010777
14.4457349380 -34.1011491763 -2.1200010777
15.0324439691 -34.3056428048 -2.1200010777
10.9807995744 -28.4949468917 -2.1200010777
10.9470713642 -28.5704494955 -2.1200010777
11.1035157069 -27.6792111503 -2.1200010777
11.1177057675 -27.5500471436 -2.1200010777
11.0336537617 -27.8420615018 -2.1200010777
10.8389164065 -29.1229746792 -2.1200010777
11.0789460099 -27.4356332355 -2.1200010777
10.7383815364 -28.7114473063 -2.1200010777
10.9971302576 -27.3030352320 -2.1200010777
10.8390240180 -27.6366308725 -2.1200010777
10.6882494062 -28.3216171388 -2.1200010777
10.8436061447 -27.3022193160 -2.1200010777
13.5428796834 -31.4664387508 -2.1200010777
13.9584014227 -31.8946384343 -2.1200010777
13.8028119982 -31.8663783857 -2.1200010777
16.6072830319 -33.5435836457 -2.1200010777
16.7821631309 -33.5210877262 -2.1200010777
16.8223882783 -33.5149424779 -2.1200010777
16.9427143528 -33.4943684077 -2.1200010777
17.1154542737 -33.4590125716 -2.1200010777
16.4333640690 -33.5834527363 -2.1200010777
