11.4691900008 0.9439722458 -3.5001822695
11.4427900035 0.9507619120 -3.5001822810
11.4221193039 0.9329408985 -3.5001822925
11.4562182724 0.7974058574 -3.5001822925
11.4137091178 0.5976754672 -3.5001823386
11.6664174494 -0.0862442937 -3.5001823502
15.2556295931 -0.0100841591 -3.4999265662
14.9515938240 -0.0102113772 -3.4999265835
15.1717976373 -0.0322283288 -3.4999265835
15.1837553113 -0.0327304707 -3.4999265835
15.2375929735 -0.0341143280 -3.4999265835
14.9001005793 -0.0260819721 -3.4999266007
14.9718327014 -0.0376798520 -3.4999266007
14.9898265277 -0.0401808949 -3.4999266007
15.0499531580 -0.0473626999 -3.4999266007
15.2917925325 -0.0582350864 -3.4999266007
15.3523210479 -0.0564775817 -3.4999266007
14.7106842043 -0.0077148285 -3.4999266180
14.7878456795 -0.0274601890 -3.4999266180
15.1314031449 -0.1026742580 -3.4999266353
15.3358573933 -0.1055093739 -3.4999266353
14.5462251466 -0.0318806526 -3.4999266699
14.4780281107 -0.0323409009 -3.4999266872
11.5105643182 0.8109372636 -3.4999279494
11.5044681895 0.2858185712 -3.4999280877
14.8942249862 -0.0187186462 -3.5000157411
14.9660281178 -0.0181220339 -3.5000157411
15.0258171688 -0.0156783608 -3.5000157411
14.7911235944 -0.0393313213 -3.5000157468
14.8455638937 -0.0418601266 -3.5000157468
14.9303300462 -0.0429111525 -3.5000157468
14.9424405065 -0.0427746982 -3.5000157468
14.9666579454 -0.0422868555 -3.5000157468
15.0029690424 -0.0410179027 -3.5000157468
15.0211147152 -0.0401417974 -3.5000157468
15.1838725229 -0.0250243933 -3.5000157468
15.2138543445 -0.0208008866 -3.5000157468
15.2258290309 -0.0189873944 -3.5000157468
15.0346228817 -0.0635998172 -3.5000157526
15.2052764755 -0.0464751815 -3.5000157526
15.2295193002 -0.0428770824 -3.5000157526
15.3139983303 -0.0280304248 -3.5000157526
14.6217491424 -0.0709429372 -3.5000157584
15.1779688649 -0.0745484685 -3.5000157584
15.2699131554 -0.0607631559 -3.5000157584
15.2821232909 -0.0586173015 -3.5000157584
15.3429717970 -0.0468065944 -3.5000157584
15.3490368460 -0.0455266376 -3.5000157584
15.3550980821 -0.0442287448 -3.5000157584
15.3732583829 -0.0402275654 -3.5000157584
14.4763676272 -0.0699729376 -3.5000157641
14.5997699352 -0.0921807562 -3.5000157641
15.3968974321 -0.0596008940 -3.5000157641
14.4775917248 -0.0949248907 -3.5000157699
15.2781405283 -0.1084040151 -3.5000157699
11.5807940085 0.0562076310 -3.5000161791
18.3896325306 -0.0331155583 -3.5000162194
14.6313052441 -0.0632960638 -3.5000130885
14.8221238262 -0.0481316748 -3.5000130885
14.8990864811 -0.0368253972 -3.5000130885
14.8949382339 -0.0864922331 -3.5000130366
14.9492625336 -0.0770279872 -3.5000130366
15.0986214392 -0.0431928879 -3.5000130366
15.1882143897 -0.0425359320 -3.5000130106
15.3224967242 -0.0475226963 -3.5000129588
15.4535579127 -0.0461060910 -3.5000129069
18.4714274857 0.7026905751 -3.5000108581
18.4434191916 0.3468162552 -3.5000107543
14.7482183522 0.1232701803 -3.5000105473
14.9292200007 0.1878238807 -3.5000105473
14.8555928527 0.0051882005 -3.5000101496
14.7684450049 -0.0470329691 -3.5000100833
14.9718650736 -0.0555571696 -3.5000098845
15.1109060404 0.0042447893 -3.5000098845
18.5079633848 1.0842614102 -3.5000035881
18.5271021712 1.0545613515 -3.5000035218
18.5363306473 0.7591226655 -3.5000033230
18.5325070930 0.6510901570 -3.5000032567
10.9513926071 -1.2086691797 -3.5000031904
14.8171625835 0.1518349461 -3.5000133478
14.6873545637 0.0567395879 -3.5000133219
14.9200322461 0.1872563588 -3.5000133219
14.9684679608 0.2204943345 -3.5000133219
14.5628833324 -0.0216857198 -3.5000132959
14.6581540838 0.0169728949 -3.5000132959
14.2922336918 -0.1242817986 -3.5000132700
14.5661994824 -0.0462420975 -3.5000132700
14.9513018524 0.1499892420 -3.5000132700
14.2861562453 -0.1501515810 -3.5000132441
14.6469463054 -0.0404205946 -3.5000132441
14.8138966003 0.0118086170 -3.5000132181
15.2490385469 0.3287614218 -3.5000132181
14.7539879847 -0.0454477156 -3.5000131922
14.7795981493 -0.0329654042 -3.5000131922
14.7592092737 -0.0697365813 -3.5000131663
14.7696190819 -0.0647578076 -3.5000131663
14.8568693059 -0.0199732964 -3.5000131663
14.9444063698 0.0024548354 -3.5000131403
14.4895178243 -0.2748507069 -3.5000130625
15.0077179744 -0.0437504613 -3.5000130625
15.0786625645 0.0026528834 -3.5000130625
15.4344346603 0.3117514142 -3.5000130625
15.6608578014 0.6105817134 -3.5000130625
15.2905543729 0.1367458750 -3.5000130366
15.2406916869 0.0320963516 -3.5000129847
11.9460435430 -1.0153001136 -3.5000116620
18.5078423852 1.7438943919 -3.5000103394
18.5057898786 1.8388184665 -3.5000103394
18.5037346635 1.8930351865 -3.5000103394
18.5297804497 1.5396631486 -3.5000103134
18.5322094948 1.6623550031 -3.5000103134
18.5322777323 1.6759903298 -3.5000103134
18.5294945027 1.8532190853 -3.5000103134
18.5289981415 1.8668455455 -3.5000103134
18.5543736851 1.5525631445 -3.5000102875
18.5547666098 1.5662645172 -3.5000102875
18.5644645752 1.3042499549 -3.5000102616
18.5677249905 1.3454565896 -3.5000102616
18.5696953853 1.3729430530 -3.5000102616
18.5804448230 1.6482634758 -3.5000102616
18.5741908113 1.9374982440 -3.5000102616
18.5701095606 1.1231443256 -3.5000102356
18.5822749385 1.2332720650 -3.5000102356
18.5849087999 1.2608465741 -3.5000102356
18.5907793265 1.3298467979 -3.5000102356
18.5956286710 1.3989263015 -3.5000102356
18.6047270546 1.6618848279 -3.5000102356
18.5870077644 1.0649741584 -3.5000102097
18.6277431107 1.8009335788 -3.5000102097
18.5832586284 0.8819763189 -3.5000101838
18.6473254369 1.9273420953 -3.5000101838
18.5918823762 0.7948282123 -3.5000101578
18.5742528256 0.5967469986 -3.5000101319
18.5959387047 0.6932920907 -3.5000101319
14.6291602333 -0.0342743153 -3.5000189174
14.6425553825 -0.0254845122 -3.5000189174
14.6558719997 -0.0165761808 -3.5000189174
14.7761848015 0.0721526422 -3.5000189174
14.7844913440 0.0788672908 -3.5000189174
14.8334832194 0.1201763990 -3.5000189174
14.9455838368 0.2269716155 -3.5000189174
14.3905758389 -0.1913886636 -3.5000189664
14.2629394937 -0.2683076799 -3.5000190154
14.6090897577 -0.1040082336 -3.5000190154
14.6555043795 -0.0748122863 -3.5000190154
15.1679717035 0.4221511791 -3.5000190154
14.5592598669 -0.1610054199 -3.5000190644
14.9184083928 0.0989721157 -3.5000190644
14.9306096645 0.1103235870 -3.5000190644
15.2204094648 0.4131359285 -3.5000191134
15.3434956335 0.5702135771 -3.5000191624
15.3593285272 0.5486460839 -3.5000192113
14.9623392121 0.0082493241 -3.5000192603
15.3749649148 0.5268598210 -3.5000192603
14.7251010529 -0.2596928272 -3.5000194073
14.6705428870 -0.3480393236 -3.5000195053
15.7349485226 0.9017392579 -3.5000196522
15.3486313091 0.0994963848 -3.5000197012
15.3549635499 0.0690518822 -3.5000197502
18.5185690070 2.3359194236 -3.5000252859
18.6080079829 1.7853577686 -3.5000253349
18.6029413843 1.8587229908 -3.5000253349
18.5879791777 2.0198118823 -3.5000253349
18.5846960013 2.0490442993 -3.5000253349
18.5738096141 2.1366178449 -3.5000253349
18.5698356224 2.1657643857 -3.5000253349
18.5291128443 2.4124373671 -3.5000253349
18.5056689602 2.5277404188 -3.5000253349
18.6405842757 1.5801172820 -3.5000253838
18.6330225951 1.7720918331 -3.5000253838
18.6312042254 1.8015950776 -3.5000253838
18.6208629478 1.9342052565 -3.5000253838
18.6034354916 2.0958372546 -3.5000253838
18.6562624757 1.7883318316 -3.5000254328
18.6360389176 2.0250656937 -3.5000254328
18.6740890415 1.8791316290 -3.5000254818
18.6163628688 2.3379546414 -3.5000254818
18.6714974386 2.3016106661 -3.5000255798
18.6628561339 2.4842185978 -3.5000256288
12.0580193693 -3.6640743769 -3.5000261677
11.9138318370 -3.7448308826 -3.5000264126
12.0238212466 -3.8305809959 -3.5000265106
14.1502358892 -0.6604367153 -3.5000205641
15.5617036143 0.9646505257 -3.5000209444
15.4332447686 0.2062828886 -3.5000211980
12.9742289514 -3.6340913847 -3.5000280448
12.4083150998 -3.5990920769 -3.5000281716
12.7239559696 -3.6539696235 -3.5000281716
12.0763677326 -3.5431805544 -3.5000282350
11.9216256064 -3.6490245621 -3.5000286154
18.5310551071 3.0999384752 -3.5000295663
18.5810892716 3.0319622939 -3.5000296297
18.4873101805 3.3439330303 -3.5000296931
18.8366165374 2.8725456171 -3.5000301369
18.8789776490 2.8149685687 -3.5000302003
14.6357364492 -0.2331521569 -3.5000156950
14.8706484228 0.1357274052 -3.5000156950
14.5263917566 -0.4230420135 -3.5000157065
14.2693101106 -0.7177796341 -3.5000157238
12.7571729227 -3.5132344630 -3.5000163232
12.7965955433 -3.5171765696 -3.5000163232
12.8604303701 -3.5470636790 -3.5000163289
12.9796593772 -3.5550789336 -3.5000163289
13.1123330691 -3.5602587496 -3.5000163289
13.1919903955 -3.5614821012 -3.5000163289
13.4063609202 -3.6061377437 -3.5000163405
13.5938853338 -3.5945798246 -3.5000163405
13.7435625802 -3.6040712985 -3.5000163462
13.6923973027 -3.6339812879 -3.5000163520
13.7328546558 -3.6296190479 -3.5000163520
12.6519963463 -3.7202456294 -3.5000163750
13.5747384049 -3.5173983231 -3.5000108062
13.5530444129 -3.5442329925 -3.5000107803
13.7403543229 -3.5433617099 -3.5000107543
13.8016237337 -3.5332467242 -3.5000107543
13.6328422477 -3.5832512355 -3.5000107284
13.8057374439 -3.5570671497 -3.5000107284
13.8303430495 -3.5527428441 -3.5000107284
13.9333131863 -3.5576805486 -3.5000107024
13.5463850324 -3.7151795666 -3.5000105987
14.7849156790 0.0985288193 -3.5000141971
14.7721895655 -0.1356154601 -3.5000141827
14.7800583455 -0.0990698778 -3.5000141827
14.7917815562 -0.0360681904 -3.5000141827
14.7975849284 0.0008617182 -3.5000141827
14.8404245942 0.2237269348 -3.5000141683
14.7452258559 -0.3929033731 -3.5000141539
14.8429220884 -0.1516132019 -3.5000141395
14.8693375610 -0.0096538536 -3.5000141395
14.8813911927 0.4335511696 -3.5000141395
14.8741474345 0.4998136885 -3.5000141395
14.6902124510 -0.6816051634 -3.5000141107
14.8048724143 -0.4398206608 -3.5000141107
14.8286734989 -0.3757236316 -3.5000141107
14.8766869671 -0.2176614036 -3.5000141107
14.9615537844 0.2384621719 -3.5000140963
14.7656200621 -0.6436145028 -3.5000140819
15.0579326192 0.2190990924 -3.5000140386
15.0753704801 0.0901119497 -3.5000140242
14.6355032062 -1.0612969046 -3.5000140098
15.1970588146 -0.1040626046 -3.5000139378
15.5088090700 1.3499760974 -3.5000136352
13.8864594552 -3.4720705288 -3.5000129724
14.0089575791 -3.4912763377 -3.5000129436
14.1556263885 -3.4997585937 -3.5000129148
14.1778659992 -3.4929226564 -3.5000129148
14.2296651989 -3.5018552026 -3.5000129004
14.2594951090 -3.5175352997 -3.5000128860
14.3041365683 -3.5025017004 -3.5000128860
14.3901417962 -3.4976210907 -3.5000128716
14.0871425030 -3.6454176222 -3.5000128428
14.8033966007 -3.3731233351 -3.5000128428
14.1978297847 -3.6385207769 -3.5000128283
15.7432809743 3.2897365196 -3.5000128283
14.7240652850 -3.5175763192 -3.5000127851
14.7352403668 -3.5124931748 -3.5000127851
14.7789106668 -3.5189445746 -3.5000127707
14.7885249018 -0.3008122235 -3.5000154740
14.8168323831 0.0906094024 -3.5000154769
14.7924226543 -0.5435841646 -3.5000154798
14.8124467473 0.2826700745 -3.5000154798
14.8730944838 -0.1377261578 -3.5000154826
14.8737490615 -0.0988469055 -3.5000154826
14.8903809673 -0.2563219810 -3.5000154855
14.9778086848 -0.4919767546 -3.5000154999
14.9903289808 0.2516779461 -3.5000154999
15.0088765114 0.2855342091 -3.5000155028
15.0542309523 0.1445022665 -3.5000155057
15.0520983155 0.1627594656 -3.5000155057
15.0842594044 0.0855078713 -3.5000155086
15.0618264497 0.2638076408 -3.5000155086
15.1102636720 0.0624868298 -3.5000155115
15.1313623644 0.1021178206 -3.5000155143
15.1636454543 -0.0558358418 -3.5000155172
15.1627566449 -0.0173676247 -3.5000155172
15.2121121593 -0.1075961533 -3.5000155230
15.2593161391 -0.1616326991 -3.5000155288
15.3490428854 -0.2833681072 -3.5000155403
15.4761434927 0.6198251551 -3.5000155662
15.4519332516 1.3488797449 -3.5000155979
14.4400535573 -3.4306646171 -3.5000156930
14.4992115133 -3.4574970733 -3.5000156988
15.0475048207 -3.4133252539 -3.5000157247
14.7794719650 3.3910424054 -3.5000157247
14.7691764391 3.3963032408 -3.5000157247
14.8843406387 3.3903486111 -3.5000157305
14.8637363389 3.4014602531 -3.5000157305
14.9901623928 3.3866155753 -3.5000157362
14.9934025937 3.4404217021 -3.5000157420
15.1093806212 3.4004707528 -3.5000157449
15.4424658832 3.4141543385 -3.5000157679
15.5922708752 3.4255392000 -3.5000157795
14.8706325972 -0.4668665793 -3.5000156950
14.8861846261 -0.6150748991 -3.5000157007
14.8853033314 -0.9904852816 -3.5000157180
14.9806379126 -0.6417709700 -3.5000157238
15.0129857162 0.2763716404 -3.5000157584
14.9795624944 0.3631280560 -3.5000157584
15.0580312823 0.2192958082 -3.5000157641
15.0521598845 0.2371663760 -3.5000157641
15.0750914594 0.2448134771 -3.5000157699
14.9914845101 0.4571371940 -3.5000157699
15.0701346382 0.3310234713 -3.5000157757
15.0609480326 0.3549746200 -3.5000157757
15.0538724467 0.3728657295 -3.5000157757
15.1786431105 0.0541241733 -3.5000157814
15.1742327688 0.0730716077 -3.5000157814
15.1727253098 0.0793786293 -3.5000157814
15.1386782146 0.2045037008 -3.5000157814
15.1816641525 0.1422110979 -3.5000157872
15.2895719882 -0.1606381667 -3.5000157987
15.3127437613 -0.1510068385 -3.5000158045
15.4594657622 0.5939568169 -3.5000158852
14.9294239763 -3.3198506944 -3.5000160811
15.1403031994 -3.3509993500 -3.5000161157
15.3531743126 -3.3105328799 -3.5000161388
14.3626477274 3.4753270367 -3.5000162425
14.4283928645 3.4781411994 -3.5000162483
14.5176350382 3.4711952497 -3.5000162540
14.3150667815 3.5672624327 -3.5000162598
14.7507406406 3.4806634952 -3.5000162771
14.9768587039 3.4820872517 -3.5000163001
15.0682352200 3.4900732747 -3.5000163117
14.8705151500 -0.2313499695 -3.5000152588
15.0130208558 0.2874276042 -3.5000152588
15.0557403004 0.2600022974 -3.5000152588
15.0465520833 0.2769059178 -3.5000152588
15.2425889023 -0.0471350969 -3.5000152588
15.0189332095 0.4187184915 -3.5000152588
15.2611099127 -0.0267606941 -3.5000152588
15.2008347101 0.1859942655 -3.5000152588
15.3685363140 -0.2183689548 -3.5000152588
13.7474512905 3.5104359851 -3.5000152588
16.1921805915 -4.0309390461 -3.5000152588
14.7850682811 3.5672836180 -3.5000152588
14.9477479933 -0.3223251376 -3.5000152588
14.9027580204 -0.2313888560 -3.5000152588
15.0687529099 -0.5811015698 -3.5000152588
15.0139865826 -0.4168715586 -3.5000152588
14.8953759262 -0.1679315757 -3.5000152588
14.8650456559 -0.0716114000 -3.5000152588
14.9945695352 -0.2518598030 -3.5000152588
14.9455471699 -0.1584045505 -3.5000152588
14.6769282099 0.2080960063 -3.5000152588
14.6185714699 0.2675650787 -3.5000152588
15.1857449297 -0.7756187855 -3.5000152588
14.8688409410 0.2471045367 -3.5000152588
14.9528096612 0.2208119124 -3.5000152588
15.2505057491 -0.0616835949 -3.5000152588
15.3183018474 -0.1445675744 -3.5000152588
15.2809622900 -0.0679576783 -3.5000152588
15.1941561025 0.0862597436 -3.5000152588
15.1106995332 0.2118165428 -3.5000152588
15.3231794666 -0.0984721610 -3.5000152588
15.3202756872 -0.0925144514 -3.5000152588
15.3024840740 -0.0569509487 -3.5000152588
15.2902735416 -0.0334197986 -3.5000152588
15.1791121191 0.1548376595 -3.5000152588
15.1265018481 0.2312606789 -3.5000152588
15.0459572850 0.3365125527 -3.5000152588
15.0205944319 0.3671398266 -3.5000152588
14.9990461950 0.3923154146 -3.5000152588
14.9682581354 0.4270199637 -3.5000152588
14.9138296186 0.4850049213 -3.5000152588
15.3478418221 -0.0939440627 -3.5000152588
15.3360658341 -0.0698736289 -3.5000152588
15.0347488208 0.3878373803 -3.5000152588
14.9451065403 0.4873900153 -3.5000152588
14.9170817722 0.5162036072 -3.5000152588
14.9028787146 0.5304227417 -3.5000152588
15.3754607237 -0.0956657586 -3.5000152588
15.1538132672 0.2759293718 -3.5000152588
15.0221523086 0.4392974671 -3.5000152588
14.9294892743 0.5380152427 -3.5000152588
13.0810556503 3.4783304178 -3.5000152588
13.2832202683 3.5080750999 -3.5000152588
13.2289680522 3.5074638092 -3.5000152588
13.1882857139 3.5065840897 -3.5000152588
13.4739518100 3.5293165826 -3.5000152588
13.1058938553 3.5278915905 -3.5000152588
13.5980325045 3.5473854077 -3.5000152588
13.1596236122 3.5541183945 -3.5000152588
13.9350133710 3.5870160951 -3.5000152588
13.8383045419 3.5990040691 -3.5000152588
14.2143342352 3.5654910779 -3.5000152588
14.1317938830 3.5808499562 -3.5000152588
14.0766211557 3.5902742881 -3.5000152588
14.0628108513 3.5925283129 -3.5000152588
13.8966064426 3.6163839950 -3.5000152588
13.7157209864 3.6355533846 -3.5000152588
13.5621821308 3.6463314996 -3.5000152588
14.3565866063 3.5602230072 -3.5000152588
14.1775202784 3.5971187445 -3.5000152588
14.0944243913 3.6118192605 -3.5000152588
17.1443702905 -3.9662630622 -3.5000152588
15.1129990647 -0.5041674731 -3.5000152588
14.8549803407 -0.0334044667 -3.5000152588
14.2357669880 0.5892330659 -3.5000152588
15.3037847537 -0.0797349806 -3.5000152588
15.1762319727 0.1186626290 -3.5000152588
15.0605270600 0.2726682024 -3.5000152588
14.9873957985 0.3707417551 -3.5000152588
15.0082054790 0.3847649769 -3.5000152588
14.8706001251 0.5531566542 -3.5000152588
12.8956032884 3.5536231055 -3.5000152588
13.1852857813 3.6061032881 -3.5000152588
12.9509542866 3.5846875214 -3.5000152588
12.7467141430 3.6546969505 -3.5000152588
12.5057582489 3.6361648318 -3.5000152588
18.6177120131 -3.2989782214 -3.5000152588
14.8538632904 -0.1712487878 -3.5000152588
15.1520338844 -0.3464579555 -3.5000152588
14.9280112373 -0.1369441557 -3.5000152588
15.5594538164 -0.7965315978 -3.5000152588
14.1165148761 0.5014918861 -3.5000152588
14.0979325345 0.5044120039 -3.5000152588
14.0606937689 0.5097569539 -3.5000152588
15.2590147255 -0.0075436661 -3.5000152588
15.1726449823 0.0690253385 -3.5000152588
15.0916780453 0.1640923972 -3.5000152588
14.7437489363 0.3770787503 -3.5000152588
15.0754254211 0.2653391311 -3.5000152588
18.5838944240 -2.4118106337 -3.5000152588
18.5932711054 -2.3548897450 -3.5000152588
18.4926745017 -2.9245559195 -3.5000152588
18.6358686277 -2.2295898605 -3.5000152588
18.6554750422 -2.0567844797 -3.5000152588
18.6670879300 -2.1749339772 -3.5000152588
18.6008764946 -2.6966865789 -3.5000152588
18.6814392309 -2.7763963261 -3.5000152588
12.1670564879 3.5959120115 -3.5000152588
12.0830061332 3.5944919101 -3.5000152588
11.9303759538 3.5420841046 -3.5000152588
15.1886820883 -0.3595540289 -3.5000152588
14.9626850582 -0.2079993237 -3.5000152588
14.7857629323 -0.1202191747 -3.5000152588
14.9698839947 -0.1843051506 -3.5000152588
14.9556973801 -0.1764089062 -3.5000152588
14.6383416333 -0.0389303477 -3.5000152588
15.4094778467 -0.4943625779 -3.5000152588
15.4018545932 -0.4864782109 -3.5000152588
14.9189440017 -0.1294937082 -3.5000152588
14.8499279414 -0.0958850343 -3.5000152588
14.6770103568 -0.0263836729 -3.5000152588
15.2378590120 -0.3059787105 -3.5000152588
15.2159462519 -0.2889116182 -3.5000152588
14.9447699391 -0.1156550632 -3.5000152588
15.1486956093 -0.2102590116 -3.5000152588
14.8701900958 -0.0519898611 -3.5000152588
15.0023471681 -0.0917143857 -3.5000152588
14.7435561596 0.0268169734 -3.5000152588
15.4010437209 -0.3504998063 -3.5000152588
15.3840490400 -0.3348861797 -3.5000152588
15.6375653697 -0.5742986188 -3.5000152588
15.4591628852 -0.3055633684 -3.5000152588
14.7072044488 0.1928553317 -3.5000152588
15.2485334997 0.0138263950 -3.5000152588
15.1801986227 0.0849878199 -3.5000152588
15.0851041584 0.1382862943 -3.5000152588
15.1423294815 0.1899035729 -3.5000152588
14.6895262150 0.4252961636 -3.5000152588
13.9930978660 0.5084893712 -3.5000152588
13.9580735045 0.5312000271 -3.5000152588
14.9317982325 0.3947410179 -3.5000152588
14.9051648723 0.4825113383 -3.5000152588
18.5104193112 -2.2690943570 -3.5000152588
18.5171838255 -2.2034100999 -3.5000152588
18.5309482639 -2.0190460818 -3.5000152588
18.5340122220 -1.9530855447 -3.5000152588
18.5345079213 -1.9398884031 -3.5000152588
18.5344461893 -2.2717484874 -3.5000152588
18.5459845089 -2.1528087227 -3.5000152588
18.5615710634 -1.7681816055 -3.5000152588
18.5967140218 -1.4328779080 -3.5000152588
18.5956705784 -1.4194975593 -3.5000152588
18.6227952400 -1.4579464664 -3.5000152588
18.6492694493 -2.0661699481 -3.5000152588
18.6578121256 -1.7136965270 -3.5000152588
18.6538771326 -1.5781186240 -3.5000152588
18.6392465446 -1.3616087410 -3.5000152588
18.6249057845 -1.2267340045 -3.5000152588
18.6162408633 -1.1594704654 -3.5000152588
18.6799232717 -1.9314906358 -3.5000152588
18.6700417615 -1.4409439953 -3.5000152588
18.6957222095 -2.0965536160 -3.5000152588
15.2368263456 -0.3426364784 -3.5000152588
15.1758344157 -0.3114707522 -3.5000152588
15.3589887942 -0.3857897432 -3.5000152588
15.5094966032 -0.4612106436 -3.5000152588
15.3614777708 -0.3304430024 -3.5000152588
14.6756473462 -0.0803835075 -3.5000152588
14.8648350963 -0.0695081872 -3.5000152588
14.4083378304 -0.0108642233 -3.5000152588
14.9258003697 -0.0609405375 -3.5000152588
15.9988477098 -0.6787411118 -3.5000152588
14.4538053872 0.4719361144 -3.5000152588
13.8154187146 0.5004715373 -3.5000152588
13.7027531946 0.5208604009 -3.5000152588
18.4921032905 -1.6968616953 -3.5000152588
18.5125785682 -1.6346727315 -3.5000152588
18.5013487159 -1.5008904495 -3.5000152588
18.5340503154 -1.5963076731 -3.5000152588
18.5254009433 -1.4984768140 -3.5000152588
18.5188203691 -1.4374469007 -3.5000152588
18.5232507369 -1.2878051812 -3.5000152588
18.5559954983 -1.3456512429 -3.5000152588
18.5414086298 -1.2473712764 -3.5000152588
18.5652760577 -1.2435396752 -3.5000152588
18.5549205030 -1.1819478794 -3.5000152588
18.5388947511 -1.0959910088 -3.5000152588
18.5808848957 -1.1901401338 -3.5000152588
18.5601626463 -1.0789927925 -3.5000152588
18.5420040014 -0.9929494514 -3.5000152588
18.5392645994 -0.9806888859 -3.5000152588
18.5336770487 -0.9561923341 -3.5000152588
18.5934948041 -1.1238577116 -3.5000152588
18.6657400801 -1.4460851898 -3.5000152588
18.5778999484 -0.9329265059 -3.5000152588
18.5660121637 -0.8835130812 -3.5000152588
18.5404867892 -0.7851254930 -3.5000152588
18.5233538230 -0.7239504832 -3.5000152588
18.5198187550 -0.7117462653 -3.5000152588
18.4975464186 -0.5585666858 -3.5000152588
18.5821450540 -0.6666784273 -3.5000152588
18.5269602601 -0.4944295927 -3.5000152588
18.4456135044 -0.2765819566 -3.5000152588
18.4017573818 -0.1121860467 -3.5000152588
18.3371898485 0.1322647182 -3.5000152588
18.2425924244 0.3050752506 -3.5000152588
15.1771631840 -0.2377276505 -3.5000152588
15.0571057813 -0.2118779641 -3.5000152588
15.3792810298 -0.2754780858 -3.5000152588
15.2249153462 -0.2253264852 -3.5000152588
14.9005271275 -0.1664540658 -3.5000152588
15.5192164203 -0.3079492041 -3.5000152588
14.9952839248 -0.1530223703 -3.5000152588
14.8972207038 -0.1418963766 -3.5000152588
14.7712958430 -0.1353005230 -3.5000152588
15.5041428586 -0.2745030224 -3.5000152588
14.6884199645 -0.1114543308 -3.5000152588
15.4345031639 -0.1930566844 -3.5000152588
16.0454663787 -0.4774710634 -3.5000152588
14.8976638607 0.0763542724 -3.5000152588
16.3946494519 0.3531745014 -3.5000152588
11.7117560638 0.2897333529 -3.5000152588
18.4903238713 -1.0857962424 -3.5000152588
18.5111221885 -1.0689745460 -3.5000152588
18.4942046924 -1.0021418672 -3.5000152588
18.4898197852 -0.8957222922 -3.5000152588
18.5064560306 -0.8666435465 -3.5000152588
18.4908876661 -0.7369652735 -3.5000152588
11.6483683866 0.4839697211 -3.5000152588
18.4908730287 -0.6624910994 -3.5000152588
11.6666315907 0.5447702025 -3.5000152588
18.5078497141 -0.5680094657 -3.5000152588
18.4993785643 -0.5457268013 -3.5000152588
18.4907757311 -0.5234946450 -3.5000152588
18.4457970131 -0.4131186594 -3.5000152588
18.4364105633 -0.3912058304 -3.5000152588
18.4220882187 -0.3584416703 -3.5000152588
18.4819645307 -0.4368365135 -3.5000152588
18.6514086288 -0.6834353815 -3.5000152588
11.7072846218 0.8117113047 -3.5000152588
15.2192837479 -0.2278472382 -3.5000152588
15.1034875912 -0.2229836358 -3.5000152588
15.1517667100 -0.1999049629 -3.5000152588
15.5481065466 -0.2337031531 -3.5000152588
15.5060845535 -0.2232800078 -3.5000152588
15.3358850201 -0.1916103692 -3.5000152588
14.8663500225 -0.1878739124 -3.5000152588
14.8448753141 -0.1906080977 -3.5000152588
15.6490086445 -0.2377365377 -3.5000152588
15.5648076116 -0.2131090161 -3.5000152588
15.4419411601 -0.1847468767 -3.5000152588
14.7012222620 -0.1909041741 -3.5000152588
15.7351543322 -0.2417331125 -3.5000152588
15.6085057920 -0.2001720415 -3.5000152588
15.5225728183 -0.1775029118 -3.5000152588
15.2375590540 -0.1322833505 -3.5000152588
14.8495024408 -0.1412503464 -3.5000152588
14.6961957097 -0.1672595330 -3.5000152588
14.6582466649 -0.1757386097 -3.5000152588
14.9472096360 -0.1071595051 -3.5000152588
14.5063614008 -0.1927298794 -3.5000152588
14.4477377799 -0.2125690084 -3.5000152588
15.7891370668 -0.2105216130 -3.5000152588
14.6416706816 -0.1299758399 -3.5000152588
15.3351908509 -0.0695901821 -3.5000152588
14.9494192593 -0.0585290446 -3.5000152588
14.5745868977 -0.1221210653 -3.5000152588
15.9981166419 -0.2524616830 -3.5000152588
14.8488830157 -0.0438913654 -3.5000152588
16.1124998930 -0.2886725278 -3.5000152588
16.0716206169 -0.2648785968 -3.5000152588
14.3930279181 -0.1295721845 -3.5000152588
14.1713303650 -0.2272662694 -3.5000152588
15.3087802309 0.0065964057 -3.5000152588
14.9486556785 0.0383405580 -3.5000152588
14.0536652225 -0.2367625319 -3.5000152588
15.7673228482 -0.0478570421 -3.5000152588
14.4372546038 -0.0372726499 -3.5000152588
14.9500225811 0.1111081246 -3.5000152588
14.2867980158 -0.0412035389 -3.5000152588
15.6468033040 0.4388964036 -3.5000152588
16.3511590025 0.4085635544 -3.5000152588
18.4528559048 -0.5503552457 -3.5000152588
18.4309866255 -0.5007272081 -3.5000152588
18.4265248186 -0.4908407204 -3.5000152588
18.4530344521 -0.4908161725 -3.5000152588
18.4209794891 -0.4214374692 -3.5000152588
18.4333338954 -0.3912438814 -3.5000152588
18.4285482067 -0.3813509292 -3.5000152588
18.4140158444 -0.3517576193 -3.5000152588
18.4207756418 -0.3113513499 -3.5000152588
18.4170434182 -0.2001698580 -3.5000152588
18.4254027305 0.0277946734 -3.5000152588
11.6089258424 -0.1682272176 -3.5000152588
11.5981252180 -0.1888349063 -3.5000152588
11.6208829033 -0.0951302278 -3.5000152588
11.6152510643 -0.1053910333 -3.5000152588
11.6192968688 0.0004192245 -3.5000152588
11.5924190282 0.0021896289 -3.5000152588
18.4322395366 0.2844976672 -3.5000152588
11.6078305234 0.0762968647 -3.5000152588
18.4445032013 0.3516901346 -3.5000152588
18.4305069373 0.3715149177 -3.5000152588
11.6093701316 0.2612895827 -3.5000152588
18.4592701873 0.5768370948 -3.5000152588
18.4552989984 0.6215257270 -3.5000152588
11.5219552434 0.3483956052 -3.5000152588
11.5861571759 0.6482366525 -3.5000152588
11.5747947091 0.6732356270 -3.5000152588
11.5467358550 1.0601222748 -3.5000152588
15.6368880012 -0.1160944092 -3.5000152588
15.5549584272 -0.1088798908 -3.5000152588
15.3905429015 -0.1053819419 -3.5000152588
15.8081164818 -0.0691753887 -3.5000152588
14.4319814034 -0.3131230091 -3.5000152588
14.8273183761 -0.1047427912 -3.5000152588
14.9715064939 -0.0387965505 -3.5000152588
16.0114578959 -0.0452769932 -3.5000152588
16.2024023336 -0.0614510345 -3.5000152588
14.3723247024 -0.1797387439 -3.5000152588
16.2152739761 0.4481254494 -3.5000152588
16.2728827619 0.4542498673 -3.5000152588
17.1249665314 0.4773097870 -3.5000152588
18.3254208649 -0.0791233263 -3.5000152588
18.3116404347 -0.0145607833 -3.5000152588
18.3322298496 0.5902566549 -3.5000152588
11.5479047396 -0.7215977760 -3.5000152588
11.5406543576 -0.7446070896 -3.5000152588
11.5370802475 -0.7561277316 -3.5000152588
11.5335402332 -0.7676588962 -3.5000152588
11.5437022177 -0.6565926966 -3.5000152588
11.5360673173 -0.6796280114 -3.5000152588
11.5285688352 -0.7027080937 -3.5000152588
11.5343190786 -0.5369483889 -3.5000152588
11.5285812169 -0.4158934337 -3.5000152588
11.4289850409 -0.6967723951 -3.5000152588
11.4179449203 -0.7323586740 -3.5000152588
11.3904961575 -0.6583008214 -3.5000152588
11.5224497027 -0.1251493043 -3.5000152588
11.5170432041 -0.1367265095 -3.5000152588
11.5115391325 -0.0916531003 -3.5000152588
11.5190208514 0.1374546798 -3.5000152588
11.4980962726 0.3947468657 -3.5000152588
15.1805843509 -0.1460797005 -3.5000152588
15.6273331468 -0.0293838130 -3.5000152588
15.5411811284 -0.0380290092 -3.5000152588
14.8765557620 -0.2553034599 -3.5000152588
15.4406193616 -0.0288185475 -3.5000152588
15.3119991501 -0.0565591341 -3.5000152588
15.4487394173 0.0216699337 -3.5000152588
15.4169187976 0.4572298760 -3.5000152588
17.8913953339 0.6452598908 -3.5000152588
11.5152826719 -1.2433332001 -3.5000152588
11.5083596942 -1.2936827617 -3.5000152588
11.5158281105 -1.0885438495 -3.5000152588
11.5029198632 -1.1641127302 -3.5000152588
11.4950603777 -1.2146141203 -3.5000152588
11.4943317192 -1.0716200190 -3.5000152588
11.5011667879 -0.9152837621 -3.5000152588
11.4930079943 -0.9531764973 -3.5000152588
11.4705536397 -1.0672682132 -3.5000152588
11.4949788061 -0.8341118018 -3.5000152588
11.4714660399 -0.8285006427 -3.5000152588
11.4684524912 -0.8412117308 -3.5000152588
11.4837721172 -0.6829219630 -3.5000152588
11.5088912170 -0.5118503090 -3.5000152588
11.7360584335 0.2287170185 -3.5000152588
15.5009305608 0.0186918320 -3.5000152588
15.0576096044 -0.1731093326 -3.5000152588
15.5482219896 0.0843993793 -3.5000152588
15.4132739245 0.0385091427 -3.5000152588
15.1103732624 -0.0823344209 -3.5000152588
14.6830401772 -0.4340873929 -3.5000152588
14.6719296782 -0.4465084936 -3.5000152588
15.3979561666 0.1102682292 -3.5000152588
14.7549531466 -0.2583989015 -3.5000152588
14.9526577825 -0.0691310726 -3.5000152588
14.3218631160 -0.5926105527 -3.5000152588
16.0264778576 0.4992875845 -3.5000152588
16.1766736591 0.5218076746 -3.5000152588
16.1439161524 0.5230381309 -3.5000152588
11.5188200793 -1.8515281669 -3.5000152588
11.5216746206 -1.9189295612 -3.5000152588
11.4922172744 -1.6353824943 -3.5000152588
11.4920691415 -1.6489456745 -3.5000152588
11.4918932456 -1.6760730529 -3.5000152588
11.4918654842 -1.6896370137 -3.5000152588
11.4919303355 -1.7167648848 -3.5000152588
11.4942081457 -1.8388159730 -3.5000152588
11.4717531800 -1.4987830989 -3.5000152588
11.4693956337 -1.5669192154 -3.5000152588
11.4687348386 -1.5941821735 -3.5000152588
11.4684649305 -1.6078149993 -3.5000152588
11.4721134966 -1.8940912589 -3.5000152588
11.4502266170 -1.4430037200 -3.5000152588
11.4431509538 -1.2219290821 -3.5000152588
11.4250213742 -1.1644056624 -3.5000152588
11.4093611221 -1.0925770811 -3.5000152588
11.4058950104 -1.1202035252 -3.5000152588
11.3873556689 -1.3002202000 -3.5000152588
11.4074786537 -0.9371741359 -3.5000152588
11.4030931589 -0.9648144372 -3.5000152588
11.4009617544 -0.9786441967 -3.5000152588
11.3988712701 -0.9924802008 -3.5000152588
11.3644529003 -1.2842639163 -3.5000152588
11.3476200652 -1.6056012700 -3.5000152588
11.4429074887 -0.6296849965 -3.5000152588
11.4367021648 -0.6571210704 -3.5000152588
11.4190616112 -0.7396428403 -3.5000152588
11.3226831014 -1.6754764501 -3.5000152588
18.9517345654 2.1250603666 -3.5000152588
11.4040598536 -0.6932895552 -3.5000152588
11.4634735466 -0.3575976461 -3.5000152588
15.3532982899 -0.0064110357 -3.5000152588
15.2064143152 -0.1177844372 -3.5000152588
15.2532004491 -0.0490404415 -3.5000152588
15.4642699734 0.1187705105 -3.5000152588
15.1960655628 -0.0635337421 -3.5000152588
15.6958773147 0.2532057910 -3.5000152588
15.0387683782 -0.1738248628 -3.5000152588
15.6510855475 0.2616078072 -3.5000152588
14.7721342767 -0.4684551904 -3.5000152588
15.6368159357 0.2819048371 -3.5000152588
15.5187262430 0.2290311987 -3.5000152588
14.7164290904 -0.5129709912 -3.5000152588
15.2113178548 0.0707313752 -3.5000152588
14.8508234715 -0.2757658932 -3.5000152588
14.7017690540 -0.4440378783 -3.5000152588
15.8192701256 0.4211065901 -3.5000152588
15.4090344939 0.2539356720 -3.5000152588
14.8809384409 -0.1652598181 -3.5000152588
14.5717347374 -0.6307928358 -3.5000152588
14.6607989933 -0.4183708711 -3.5000152588
14.7980225527 -0.1875110211 -3.5000152588
15.5652898334 0.4092890454 -3.5000152588
14.9961518732 0.0840597421 -3.5000152588
14.4626039270 -0.5788423951 -3.5000152588
14.7810678993 -0.0593898844 -3.5000152588
14.6881613459 -0.1696525613 -3.5000152588
14.7759316663 -0.0291273633 -3.5000152588
14.7366119812 -0.0365456731 -3.5000152588
15.2316409565 0.4031443133 -3.5000152588
14.7142622202 -0.0253024213 -3.5000152588
11.4410176763 -2.0608108711 -3.5000152588
11.4427588010 -2.0753435560 -3.5000152588
11.4603611917 -2.2058878380 -3.5000152588
11.4625313956 -2.2203626664 -3.5000152588
11.4789203831 -2.3214978504 -3.5000152588
11.4946323027 -2.4078994404 -3.5000152588
11.4973999435 -2.4222720049 -3.5000152588
11.5179621533 -2.5226419201 -3.5000152588
11.3949035076 -1.8293837666 -3.5000152588
11.4074221546 -1.9759259289 -3.5000152588
11.4912528429 -2.5133561728 -3.5000152588
11.3678665348 -1.7868425953 -3.5000152588
11.3965661285 -2.0958350632 -3.5000152588
11.4002993534 -2.1251575961 -3.5000152588
11.4363959004 -2.3588382106 -3.5000152588
11.4206362262 -2.4069152873 -3.5000152588
11.3669293724 -2.2348408459 -3.5000152588
11.3623251629 -2.6026641462 -3.5000152588
18.3591553125 3.5943426664 -3.5000152588
18.3140488770 3.6119322799 -3.5000152588
18.3981538161 3.6048232671 -3.5000152588
15.1882194304 -0.0852785244 -3.5000152588
15.5357660591 0.2727819299 -3.5000152588
14.9125205568 -0.4349601219 -3.5000152588
15.6518866365 0.4876453075 -3.5000152588
14.5106279435 -0.8155673706 -3.5000152588
17.7366344278 3.5169896642 -3.5000152588
17.6858849888 3.5537760752 -3.5000152588
17.5014693619 3.5923429194 -3.5000152588
17.0134858329 3.6594398104 -3.5000152588
17.1025642192 3.6752135101 -3.5000152588
17.7394447085 3.5908964324 -3.5000152588
18.0713108111 3.6259062359 -3.5000152588
11.4177793480 -2.7951739875 -3.5000152588
11.4465187799 -2.8867401498 -3.5000152588
11.3858185319 -2.8554986104 -3.5000152588
11.4747125578 -3.1841474124 -3.5000152588
15.1559690747 -0.0824795389 -3.5000152588
15.2115886539 0.1073616139 -3.5000152588
15.0930366037 -0.0998251320 -3.5000152588
14.9473168596 -0.5127177362 -3.5000152588
14.9001618344 -0.5020526189 -3.5000152588
14.5693179860 -0.3300689182 -3.5000152588
14.5641078050 -0.3497013780 -3.5000152588
14.4936552171 -1.0542574010 -3.5000152588
14.4707520428 -1.0760912458 -3.5000152588
17.2533773940 3.4878081133 -3.5000152588
17.1749483291 3.4955335377 -3.5000152588
17.0322271194 3.5302110242 -3.5000152588
16.8210593686 3.5372043403 -3.5000152588
16.9407547451 3.5586577522 -3.5000152588
16.7283435259 3.5612913516 -3.5000152588
17.0616215753 3.5768854451 -3.5000152588
16.7013749634 3.5850830471 -3.5000152588
16.5812891497 3.5814198067 -3.5000152588
16.4462559945 3.5977099396 -3.5000152588
16.4328726186 3.5967060698 -3.5000152588
17.0511830503 3.6259618724 -3.5000152588
16.7545104331 3.6340300567 -3.5000152588
17.3362511364 3.6242705238 -3.5000152588
16.4697717814 3.6478349335 -3.5000152588
16.2806271974 3.6311127342 -3.5000152588
16.1998079556 3.6215510417 -3.5000152588
16.1729074932 3.6180452295 -3.5000152588
17.1628712770 3.6664223256 -3.5000152588
17.2217924910 3.7096846539 -3.5000152588
16.5516307899 3.4818589190 -3.5000152588
16.5395457048 3.4807724578 -3.5000152588
16.5008968698 3.5013508737 -3.5000152588
16.4280995200 3.4933926259 -3.5000152588
16.3917566801 3.4889292918 -3.5000152588
16.5473731152 3.5300171305 -3.5000152588
16.3489234509 3.5320464457 -3.5000152588
16.2878116307 3.5232531786 -3.5000152588
16.3333542356 3.5543017717 -3.5000152588
16.1573616654 3.5505260094 -3.5000152588
15.7728767929 3.5371357402 -3.5000152588
15.2395240715 0.0735536284 -3.5000152588
15.2784009232 0.3154714670 -3.5000152588
15.1838644703 -0.2189017132 -3.5000152588
15.2871417468 0.4095948783 -3.5000152588
15.1890532371 0.0667213047 -3.5000152588
15.1610084997 -0.1804550065 -3.5000152588
15.3244998559 0.5538583295 -3.5000152588
15.3173193880 0.5390575295 -3.5000152588
15.3885287213 0.7201530901 -3.5000152588
15.3465086335 0.6482059436 -3.5000152588
15.2504643509 0.4479762891 -3.5000152588
15.1283191474 -0.0068454372 -3.5000152588
15.1254226554 -0.0288759746 -3.5000152588
15.2456140271 0.4985835932 -3.5000152588
15.1832284822 0.3357634952 -3.5000152588
15.1539388008 0.2388254208 -3.5000152588
15.0927922714 -0.1098144439 -3.5000152588
15.2100573072 0.4768072523 -3.5000152588
15.2036256299 0.5232164702 -3.5000152588
15.0661425068 0.0657551494 -3.5000152588
15.0388688819 -0.2153875271 -3.5000152588
15.3939512569 0.9017067995 -3.5000152588
15.2108766791 0.5965932728 -3.5000152588
15.0102769901 -0.7884203050 -3.5000152588
15.2640427327 0.9274893579 -3.5000152588
15.0243147097 0.4667812288 -3.5000152588
15.0339059748 0.5568315859 -3.5000152588
14.5413055426 -1.2179906417 -3.5000152588
14.5169487361 -1.2869696443 -3.5000152588
14.5295644779 -1.3768194769 -3.5000152588
16.1135410421 3.4720706751 -3.5000152588
16.1024969095 3.4694655208 -3.5000152588
16.0914605317 3.4668277074 -3.5000152588
16.0694114269 3.4614541957 -3.5000152588
16.0303972444 3.4765658493 -3.5000152588
16.0193401780 3.4737147209 -3.5000152588
15.9972515896 3.4679144005 -3.5000152588
15.9862202608 3.4649652591 -3.5000152588
14.5675407073 -3.2689852459 -3.5000152588
15.7888518881 3.4824225336 -3.5000152588
15.7556637702 3.4716272746 -3.5000152588
15.7037141941 3.4796390792 -3.5000152588
15.7516933105 3.5212112761 -3.5000152588
15.6403173813 3.4829688371 -3.5000152588
15.6292430805 3.4789637539 -3.5000152588
15.5740519543 3.4584479152 -3.5000152588
14.4917305422 -3.3631191979 -3.5000152588
15.9485537546 3.6050270471 -3.5000152588
15.6321298289 3.5057130511 -3.5000152588
15.5680197021 3.5078576115 -3.5000152588
15.4461011573 3.4596414673 -3.5000152588
15.6336837523 3.6088671753 -3.5000152588
14.7739704140 3.1898447554 -3.5000152588
14.6923058176 -0.0390166008 -3.5000152588
14.6958575511 -0.1190393537 -3.5000152588
14.7001961873 -0.1722662777 -3.5000152588
14.6678508578 -0.0233188972 -3.5000152588
14.6537317390 0.1953435198 -3.5000152588
14.6515550985 -0.1714472872 -3.5000152588
14.7216434008 -0.5314859846 -3.5000152588
14.7452792504 0.6771095875 -3.5000152588
14.6877054376 -0.5010703482 -3.5000152588
14.7304023527 -0.7662565218 -3.5000152588
14.5225393194 0.3102027213 -3.5000152588
14.4764294115 -0.0916832675 -3.5000152588
14.4279674113 -0.3292056996 -3.5000152588
14.4596880832 -1.4166653321 -3.5000152588
14.8865295254 -3.4002612522 -3.5000152588
14.8257319223 -3.3977584720 -3.5000152588
14.8458693840 -3.4075879884 -3.5000152588
14.8660646480 -3.4172981928 -3.5000152588
14.7747095155 -3.3993069252 -3.5000152588
14.8150641351 -3.4194502584 -3.5000152588
14.7943439296 3.4381840412 -3.5000152588
14.7639079232 3.4229367465 -3.5000152588
14.7336084264 3.4074199497 -3.5000152588
14.7235393424 3.4021880054 -3.5000152588
14.6434329596 -3.3571947985 -3.5000152588
14.2481926896 3.4023000205 -3.5000152588
14.1978407636 -3.4539186931 -3.5000152588
14.0343752946 -3.4290429494 -3.5000152588
13.9102204705 -3.4276935649 -3.5000152588
13.9612151769 -3.4655810334 -3.5000152588
14.9380202070 0.1777435848 -3.5000152588
14.9100344862 0.2214172719 -3.5000152588
14.7021971988 0.1117387422 -3.5000152588
14.7119466054 0.0439429675 -3.5000152588
14.6795567263 0.0981629596 -3.5000152588
14.6964758720 -0.0072835378 -3.5000152588
14.7132415579 -0.0856108483 -3.5000152588
14.7364208942 -0.1733813322 -3.5000152588
14.6453518813 0.4676838753 -3.5000152588
14.6429196579 0.4298783692 -3.5000152588
14.6473588209 0.1703561753 -3.5000152588
14.6935417539 -0.1069739166 -3.5000152588
14.6357033465 0.6002665811 -3.5000152588
14.6369668238 0.0539095666 -3.5000152588
14.7027638064 -0.2288674042 -3.5000152588
14.7293523683 -0.3066976859 -3.5000152588
14.7370236252 -0.3272465682 -3.5000152588
14.7657761987 -0.3984227514 -3.5000152588
14.7679423892 -0.4034603097 -3.5000152588
14.7835216353 -0.4385407161 -3.5000152588
14.6329320942 -0.0590023871 -3.5000152588
14.6466036092 -0.1185563039 -3.5000152588
14.7902877223 -0.5087158770 -3.5000152588
14.8106361916 -0.5482229352 -3.5000152588
14.5968541756 0.6628223303 -3.5000152588
14.5661255486 0.0374239061 -3.5000152588
14.6285419100 -0.2344654044 -3.5000152588
14.5375991024 0.5971583956 -3.5000152588
14.5576352339 0.8238407528 -3.5000152588
14.5084985717 0.5598921662 -3.5000152588
14.5014188221 0.1750567954 -3.5000152588
14.5149173006 0.0531585547 -3.5000152588
14.6118837361 -0.3373183018 -3.5000152588
14.4921997536 0.6213091328 -3.5000152588
14.6743259742 -0.5468846778 -3.5000152588
14.4733835061 0.0049407125 -3.5000152588
14.7385390545 -0.7150621698 -3.5000152588
14.4739290408 -0.1237436188 -3.5000152588
14.4088668349 0.1246871489 -3.5000152588
14.4218597217 0.0213505050 -3.5000152588
14.5272054620 -0.3873288497 -3.5000152588
14.5539349587 -0.4558195585 -3.5000152588
14.5682071620 -0.4896983343 -3.5000152588
14.3848144089 0.1222754927 -3.5000152588
14.6126441284 -0.6391516751 -3.5000152588
14.5078762162 1.1335796015 -3.5000152588
14.3957499696 0.7684475782 -3.5000152588
14.3682945329 0.6077930513 -3.5000152588
14.3456439992 0.0418826159 -3.5000152588
14.7985125644 -1.0112804689 -3.5000152588
14.5349926159 1.3093653816 -3.5000152588
14.5656047050 1.4173627227 -3.5000152588
14.9833804872 -1.3450576017 -3.5000152588
14.3761730695 1.1946726145 -3.5000152588
14.4626750532 -0.7175207081 -3.5000152588
14.2282125475 0.9016249094 -3.5000152588
14.1843051474 0.8200769793 -3.5000152588
14.5247085265 3.3248903320 -3.5000152588
14.5158615383 3.3191233608 -3.5000152588
14.4983675733 3.3654303777 -3.5000152588
14.3868758441 3.3195164721 -3.5000152588
14.3005629119 3.3472552073 -3.5000152588
14.2329165331 3.3276510930 -3.5000152588
14.2064139311 3.3076821938 -3.5000152588
14.2532674418 3.4323223558 -3.5000152588
13.9926277600 3.3231355497 -3.5000152588
13.9917310943 3.4159817885 -3.5000152588
13.8838155252 3.3260906141 -3.5000152588
13.8769415847 3.3520698934 -3.5000152588
15.2955359321 -3.4724652844 -3.5000152588
15.3067933784 -3.4759222674 -3.5000152588
15.1869504927 -3.4627577751 -3.5000152588
15.2657851600 -3.4885063987 -3.5000152588
15.1453850930 -3.4740538654 -3.5000152588
15.1566478956 -3.4779550148 -3.5000152588
15.1905048548 -3.4894583210 -3.5000152588
15.0922356520 -3.4808508847 -3.5000152588
13.6969688398 3.3210448155 -3.5000152588
14.9285213776 -3.4698732170 -3.5000152588
14.9510375351 -3.4789252931 -3.5000152588
14.9623155987 -3.4834013364 -3.5000152588
14.6740555550 -3.3833552766 -3.5000152588
14.8855669979 -3.4783658561 -3.5000152588
14.8968436930 -3.4830355756 -3.5000152588
15.2527542701 -3.6110502748 -3.5000152588
14.8536418613 -3.4911912714 -3.5000152588
14.3696154124 -3.2761768745 -3.5000152588
14.7664394403 -3.5060941704 -3.5000152588
14.6101493294 -3.4866882840 -3.5000152588
14.9386203121 -3.6816504245 -3.5000152588
14.4643657243 -3.4942436020 -3.5000152588
14.4304177542 -3.5036548480 -3.5000152588
14.3735817768 -3.5004628097 -3.5000152588
14.2358347382 -3.5059752651 -3.5000152588
14.0836206398 -3.5273849957 -3.5000152588
14.6808516522 0.0697364736 -3.5000152588
14.5467784653 0.3714408904 -3.5000152588
14.7305926523 -0.3576426337 -3.5000152588
14.4725701455 0.7617100919 -3.5000152588
14.5356437309 -0.8897289833 -3.5000152588
15.7466215452 -3.4782587151 -3.5000152588
15.7946009163 -3.4855819017 -3.5000152588
15.6706115738 -3.4900140555 -3.5000152588
15.6946613065 -3.4941961097 -3.5000152588
15.2213131730 -3.5101618066 -3.5000152588
15.2333965131 -3.5135996374 -3.5000152588
15.1661592353 -3.5192137050 -3.5000152588
15.8451580855 -3.6633322368 -3.5000152588
15.0742904687 -3.5160181183 -3.5000152588
15.0106539980 -3.5460151317 -3.5000152588
14.9418736150 -3.5479776779 -3.5000152588
14.8849344545 -3.5532705456 -3.5000152588
14.9649194241 0.0873391136 -3.5000152588
16.2540275941 -3.4862138350 -3.5000152588
16.4953357670 -3.4803166133 -3.5000152588
16.2156080783 -3.5100759704 -3.5000152588
15.8386266982 -3.5617195576 -3.5000152588
15.2086516450 -3.5772667902 -3.5000152588
14.9268849456 0.0294237151 -3.5000152588
14.4734866899 0.1963298598 -3.5000152588
14.7829458200 -0.3142405022 -3.5000152588
14.7189441594 -0.2827998956 -3.5000152588
14.1467752949 0.3538939697 -3.5000152588
15.2842150299 -0.9376096814 -3.5000152588
17.0093125321 -3.4815694126 -3.5000152588
16.3380884123 -3.5891791397 -3.5000152588
16.3517061660 -3.5884837466 -3.5000152588
16.5420782848 -3.5745221758 -3.5000152588
16.8799728385 -3.5300402044 -3.5000152588
16.9336929825 -3.5206092855 -3.5000152588
17.0941312998 -3.4885123659 -3.5000152588
16.4077088667 -3.6094224558 -3.5000152588
16.5170444874 -3.6010787192 -3.5000152588
16.5852673227 -3.5945508813 -3.5000152588
16.9016319975 -3.5753844307 -3.5000152588
16.9152064783 -3.5730220341 -3.5000152588
16.2309608005 -3.6657863285 -3.5000152588
16.7414931369 -3.6245466868 -3.5000152588
16.9330241334 -3.5944159391 -3.5000152588
16.4262623908 -3.6808759846 -3.5000152588
16.7895854537 -3.6666025438 -3.5000152588
11.3630012620 2.5732744119 -3.5000152588
11.3538625805 2.5451633393 -3.5000152588
11.3493556479 2.5310876506 -3.5000152588
11.3960296055 2.8778816628 -3.5000152588
11.3850881871 2.8499606658 -3.5000152588
11.2988005279 2.6101375551 -3.5000152588
11.4075231046 2.9705332396 -3.5000152588
11.2873059586 2.7255772004 -3.5000152588
11.3301220005 3.0359821928 -3.5000152588
11.0284832355 2.7164885457 -3.5000152588
10.9856904296 2.6636500455 -3.5000152588
10.9481820682 2.6253122233 -3.5000152588
14.4411262936 0.1119470828 -3.5000152588
11.4939844943 2.4026857900 -3.5000152588
11.4904262810 2.3895968283 -3.5000152588
11.3454146092 1.5487134583 -3.5000152588
11.3368896769 1.7134615510 -3.5000152588
11.4401980681 2.3889727830 -3.5000152588
11.4230033626 2.3226304133 -3.5000152588
11.4504337912 2.5145773551 -3.5000152588
11.4426948738 2.4881293441 -3.5000152588
17.0273812506 -3.6778947115 -3.5000152588
17.0849418127 -3.6644135128 -3.5000152588
17.4687964718 -3.5557305620 -3.5000152588
17.4696226164 -3.6062994239 -3.5000152588
17.8753703106 -3.5341066984 -3.5000152588
17.5571544294 -3.6792292969 -3.5000152588
17.8838460455 -3.6351580670 -3.5000152588
15.1181418912 -0.0671616381 -3.5000152588
14.9850976575 -0.0319048651 -3.5000152588
15.0299035107 -0.0543005553 -3.5000152588
15.0670893199 -0.0715322435 -3.5000152588
15.0795849090 -0.0770553863 -3.5000152588
15.0028147398 -0.0679956425 -3.5000152588
15.0152814745 -0.0740893254 -3.5000152588
15.0194490096 -0.0760959376 -3.5000152588
15.0236224624 -0.0780902127 -3.5000152588
15.0826516146 -0.1047050923 -3.5000152588
14.9132540356 -0.0478934471 -3.5000152588
14.9794990230 -0.0833658048 -3.5000152588
15.0516385174 -0.1175757398 -3.5000152588
14.8724692577 -0.0521793041 -3.5000152588
14.9431763810 -0.0918088334 -3.5000152588
14.8559666247 -0.0704844318 -3.5000152588
14.9924525206 -0.1435688524 -3.5000152588
15.0143791338 -0.1538084174 -3.5000152588
15.0187824963 -0.1558173500 -3.5000152588
15.0542193958 -0.1714181081 -3.5000152588
14.7648577395 -0.0411115009 -3.5000152588
14.7935243318 -0.0600903978 -3.5000152588
14.8393485966 -0.0887038702 -3.5000152588
14.7513053901 -0.0611282216 -3.5000152588
14.6517632150 -0.0189451501 -3.5000152588
14.6678416724 -0.0312026838 -3.5000152588
14.7931776946 -0.1455191019 -3.5000152588
14.6429154032 -0.0729434688 -3.5000152588
14.6883873699 -0.1352612727 -3.5000152588
14.7599704544 -0.2102004162 -3.5000152588
14.4303010124 0.0123880894 -3.5000152588
15.2016865375 -0.4529308585 -3.5000152588
15.1685293542 -0.4686299196 -3.5000152588
14.4211534805 -0.1743977196 -3.5000152588
15.1232598092 -0.5812817267 -3.5000152588
15.1630342298 -0.5927238099 -3.5000152588
15.6526668806 -0.6887220389 -3.5000152588
11.4946231013 1.7600748559 -3.5000152588
11.4526118622 1.5119375861 -3.5000152588
11.4501171781 1.4366026014 -3.5000152588
11.4417190044 1.7146479824 -3.5000152588
11.4256638521 1.4245570931 -3.5000152588
11.4255643782 1.2476883536 -3.5000152588
11.4011591033 1.2599051004 -3.5000152588
11.4041083635 1.1583031117 -3.5000152588
11.4120873448 1.0187723879 -3.5000152588
11.3766260514 1.2850418482 -3.5000152588
11.3845333630 1.0679928755 -3.5000152588
11.3899286123 0.9915195477 -3.5000152588
11.3738850561 0.9000249460 -3.5000152588
11.3837916352 0.8106314226 -3.5000152588
11.3902829350 0.7596476555 -3.5000152588
11.3347654458 1.0908150411 -3.5000152588
11.3438579635 0.9619359012 -3.5000152588
11.3613695205 0.7948961992 -3.5000152588
11.3629824266 0.7820768525 -3.5000152588
11.3580998224 0.5050862675 -3.5000152588
11.2868303197 1.8603734438 -3.5000152588
17.8882071341 -3.6617798419 -3.5000152588
