51.8678744875 -3.5057131088 -3.0000123947
51.9096521977 -3.5161967652 -3.0000123803
51.9964530836 -3.5089252310 -3.0000123659
53.2800682065 3.2231171023 -3.0000123659
52.0277305675 -3.5225120122 -3.0000123515
51.5296180880 -3.7107287362 -3.0000123371
51.8667053779 -3.7620823320 -3.0000122507
51.9460436895 -3.7601612067 -3.0000122362
52.1204246312 -3.7197231449 -3.0000122218
52.5346084334 -3.5261255205 -3.0000122218
52.0548013677 -3.7973777082 -3.0000121930
52.4406449749 0.0620863158 -3.0000150145
52.9497412118 0.0572778719 -3.0000150750
52.8677527219 -0.8186518555 -3.0000150779
53.0522529177 0.6170335607 -3.0000150980
53.1443017929 0.5504557953 -3.0000151067
51.9202632006 -3.4391506394 -3.0000152162
51.9596078413 -3.4485421768 -3.0000152191
51.9695464415 -3.4441976877 -3.0000152191
52.0290855294 -3.4440241221 -3.0000152219
52.0988607667 -3.4380919992 -3.0000152248
52.1689051237 -3.4307338801 -3.0000152277
52.3527282661 -3.4432104489 -3.0000152392
52.3943308731 -3.4476479712 -3.0000152421
52.4141822794 -3.4363576601 -3.0000152421
52.4659430253 -3.4342589831 -3.0000152450
52.2794910385 3.3910418020 -3.0000152479
52.3318009502 3.3910718951 -3.0000152508
52.3946371193 3.3847465218 -3.0000152536
52.3843597122 3.3903480076 -3.0000152536
52.4901814663 3.3866149718 -3.0000152594
52.5866069821 3.3859972631 -3.0000152652
52.9147910278 3.3745256208 -3.0000152853
52.4228344009 -0.1541215379 -3.0000152354
52.4090644151 0.1286417413 -3.0000152470
52.6172425127 -0.0048929447 -3.0000152873
52.9194068134 -0.2443763719 -3.0000153507
52.9508339016 -0.3990836440 -3.0000153565
52.9372566731 -0.0049950723 -3.0000153622
52.9025903957 0.1568974046 -3.0000153622
52.9966050477 -0.5510462349 -3.0000153680
52.8993158627 0.2609791355 -3.0000153680
52.9204197823 0.2748482040 -3.0000153738
53.0569558102 -0.1583619265 -3.0000153853
53.0487436351 -0.0914942040 -3.0000153853
53.0350308106 -0.0027223343 -3.0000153853
52.8555680982 0.5904866019 -3.0000153853
53.0472991649 -0.9303969561 -3.0000153910
52.8837486158 0.5864267503 -3.0000153910
53.1322114502 -0.1811189533 -3.0000154026
52.8762401982 0.7174829836 -3.0000154026
53.1137949347 -0.9673554792 -3.0000154083
52.7358152332 1.0112462380 -3.0000154083
53.2365201076 -0.2752510164 -3.0000154256
52.8051304826 1.0377544801 -3.0000154256
53.3203323306 -0.9165068455 -3.0000154544
52.4426416969 -3.3400807416 -3.0000156100
52.7147705959 -3.3262414993 -3.0000156446
51.7668876736 3.4557349504 -3.0000157541
51.7553776542 3.4593431229 -3.0000157541
51.7323258463 3.4664572430 -3.0000157541
51.8318800360 3.4601297626 -3.0000157599
51.8972688315 3.4634478392 -3.0000157657
51.8741902554 3.4714013633 -3.0000157657
51.9745642056 3.4614559478 -3.0000157714
51.9630363537 3.4656784399 -3.0000157714
51.9514960613 3.4698668121 -3.0000157714
52.0406955786 3.4623929973 -3.0000157772
52.0291646654 3.4668111139 -3.0000157772
52.0060638827 3.4755449192 -3.0000157772
52.1508894306 3.4705205680 -3.0000157887
51.9725273203 3.5650575840 -3.0000157945
52.2622972567 3.4755897494 -3.0000158002
52.3632582300 3.4829543877 -3.0000158118
52.0336286883 3.6972162344 -3.0000158291
52.3499564675 3.6747053455 -3.0000158521
52.9664330284 3.5149766153 -3.0000158867
52.4660452712 -0.0001572241 -3.0000147820
53.0004240214 -0.2518865957 -3.0000147820
52.9891216506 -0.1070443984 -3.0000147820
52.9529911534 0.0098836775 -3.0000147820
52.9827701226 -0.0031050538 -3.0000147820
53.0724771698 -0.1374820588 -3.0000147820
52.8177110967 0.4850702598 -3.0000147820
52.7758302121 0.5550485673 -3.0000147820
52.9841706814 0.2019178214 -3.0000147820
52.7592564293 0.6692560050 -3.0000147820
53.2233482453 -0.8674897862 -3.0000147820
53.1751108358 -0.2605222745 -3.0000147820
52.5859742522 0.9692204704 -3.0000147820
53.1866624181 -3.1709263003 -3.0000147820
53.1393320587 -3.4226709900 -3.0000147820
51.1781049476 3.4708863836 -3.0000147820
51.2566683050 3.4847104546 -3.0000147820
51.2440886494 3.4864970445 -3.0000147820
51.2189137582 3.4899585468 -3.0000147820
51.1685047412 3.4964344243 -3.0000147820
51.3988789361 3.4864095134 -3.0000147820
51.3862936321 3.4886167806 -3.0000147820
51.3737018537 3.4907868086 -3.0000147820
51.3611037110 3.4929195782 -3.0000147820
51.3484993144 3.4950150710 -3.0000147820
51.3358887740 3.4970732685 -3.0000147820
51.2980213945 3.5030239111 -3.0000147820
51.2853873834 3.5049327507 -3.0000147820
51.4283814846 3.5056614187 -3.0000147820
51.3651033523 3.5167594220 -3.0000147820
51.3270601188 3.5229685523 -3.0000147820
51.1998790588 3.5412230285 -3.0000147820
51.4708297871 3.5222923233 -3.0000147820
51.6532481932 3.5080113995 -3.0000147820
51.6405978739 3.5109710425 -3.0000147820
51.6152712468 3.5167779982 -3.0000147820
51.2318014039 3.5857879426 -3.0000147820
51.4157231321 3.5816231552 -3.0000147820
51.8044042182 3.5196652964 -3.0000147820
51.8616234363 3.5289238225 -3.0000147820
51.4890803872 3.6172464181 -3.0000147820
52.0737971364 3.5396282108 -3.0000147820
52.1069916963 3.5540081885 -3.0000147820
52.2509834597 3.5542402697 -3.0000147820
52.2381937717 3.5589679194 -3.0000147820
51.3860496217 3.8072934356 -3.0000147820
52.4599047308 3.5233430289 -3.0000147820
52.3706832881 3.5599727087 -3.0000147820
52.3322169626 3.5751040952 -3.0000147820
52.4309736311 3.5616158816 -3.0000147820
52.6922222557 3.4981230542 -3.0000147820
51.2907735788 3.9193052501 -3.0000147820
53.4439941588 3.1370265488 -3.0000147820
52.8633726038 3.4936379279 -3.0000147820
52.3049748774 3.7404555002 -3.0000147820
52.9562492204 3.6087109694 -3.0000147820
52.9967354074 -0.0696693724 -3.0000147820
52.8772510398 0.1572965187 -3.0000147820
52.7597034349 0.3358554134 -3.0000147820
53.0853055949 -0.2189627399 -3.0000147820
52.9409438037 0.0947097158 -3.0000147820
53.1253780210 -0.2582521712 -3.0000147820
53.1104798952 -0.2172477551 -3.0000147820
53.3598118795 -0.7060406429 -3.0000147820
53.2571631985 -0.0620283677 -3.0000147820
53.4821226959 -1.1577505902 -3.0000147820
53.6465566055 -3.0360862984 -3.0000147820
50.5945438763 3.4789811021 -3.0000147820
50.5810670944 3.4783304178 -3.0000147820
50.6747383112 3.5062106238 -3.0000147820
51.0012134587 3.5282526836 -3.0000147820
50.9739632541 3.5293165826 -3.0000147820
51.1545424128 3.5677329010 -3.0000147820
51.3218267818 3.5765261926 -3.0000147820
50.8104142769 3.6048321010 -3.0000147820
51.5177056002 3.5751487412 -3.0000147820
51.4074193539 3.5906455393 -3.0000147820
51.5628222954 3.5925283129 -3.0000147820
50.9088995340 3.6762761891 -3.0000147820
51.7513432557 3.6074403833 -3.0000147820
51.7374814065 3.6102111587 -3.0000147820
51.6958475297 3.6182772819 -3.0000147820
51.9477939639 3.6381873694 -3.0000147820
51.7937818745 3.6727811957 -3.0000147820
51.0686945495 3.7670216789 -3.0000147820
52.0715241108 3.6566003418 -3.0000147820
52.0777592199 3.6799553990 -3.0000147820
50.9124988825 3.8454490992 -3.0000147820
52.3921825670 3.6101920946 -3.0000147820
52.2947886564 3.6419938327 -3.0000147820
52.6620086388 3.5362133589 -3.0000147820
52.4277625721 3.6235900411 -3.0000147820
52.8478761252 3.4835784688 -3.0000147820
54.8181728067 -4.0971363639 -3.0000147820
52.9792653320 0.0899759451 -3.0000147820
52.6401665293 0.4943199888 -3.0000147820
53.0765154666 0.0787940145 -3.0000147820
52.9290431440 0.3436256273 -3.0000147820
53.5153423484 -0.6119011528 -3.0000147820
52.3166190369 0.9028234342 -3.0000147820
53.5430663061 -0.5381862024 -3.0000147820
53.8332003272 -0.9286269665 -3.0000147820
50.3375554757 3.5458850274 -3.0000147820
50.0203027636 3.4910969264 -3.0000147820
50.0154162803 3.5147709113 -3.0000147820
50.5952224200 3.6234573521 -3.0000147820
50.6820109800 3.6543389804 -3.0000147820
49.9185404626 3.5433327848 -3.0000147820
51.3679506571 3.7021849352 -3.0000147820
51.5047400824 3.7152067575 -3.0000147820
51.4597293756 3.7193045748 -3.0000147820
50.9480454695 3.7377660675 -3.0000147820
50.0205109962 3.6391444390 -3.0000147820
51.5371670486 3.7363025202 -3.0000147820
51.3863648137 3.7493572687 -3.0000147820
51.6604988461 3.7466356909 -3.0000147820
51.6000939220 3.7538514708 -3.0000147820
50.2055811683 3.7216332356 -3.0000147820
51.1155309913 3.8341030582 -3.0000147820
50.6074463908 3.8427597173 -3.0000147820
50.1443918015 3.8095314751 -3.0000147820
51.2568809535 3.9021800377 -3.0000147820
56.2405089692 -2.4543238146 -3.0000147820
56.2707524526 -2.2994473267 -3.0000147820
49.9421190309 3.8698806855 -3.0000147820
56.3394116174 -2.1823789418 -3.0000147820
56.2011084241 -2.9031988495 -3.0000147820
53.0204291443 0.0737652436 -3.0000147820
56.1594487015 -2.0134827761 -3.0000147820
56.1598668726 -2.2327407796 -3.0000147820
56.1653704035 -2.1893935705 -3.0000147820
56.1847663685 -2.0010549132 -3.0000147820
56.0471112877 -2.9095241778 -3.0000147820
56.1073656225 -2.6681344269 -3.0000147820
56.2254672752 -1.6669013719 -3.0000147820
56.2259467156 -1.6229942780 -3.0000147820
56.2260199368 -1.6083578480 -3.0000147820
56.0924997824 -3.0145195842 -3.0000147820
56.2815920861 -1.1783959034 -3.0000147820
56.2694279162 -2.3223979732 -3.0000147820
56.1942019421 -2.8257521714 -3.0000147820
56.3116571343 -2.5121346226 -3.0000147820
50.4092683094 3.7214297628 -3.0000147820
50.6906079488 3.7841775597 -3.0000147820
49.7354707702 3.5914443715 -3.0000147820
49.5523886101 3.5843720460 -3.0000147820
49.4000711641 3.5310621463 -3.0000147820
49.9492825021 3.7251307345 -3.0000147820
49.8082373108 3.6878699477 -3.0000147820
49.5140174097 3.5969568484 -3.0000147820
49.9118530747 3.7405915654 -3.0000147820
49.3513712475 3.6161664530 -3.0000147820
53.2407532219 -0.0062594115 -3.0000147820
53.4611848490 -0.1676558291 -3.0000147820
53.2251515833 0.0735894266 -3.0000147820
52.9291664661 0.3575563077 -3.0000147820
51.9771543278 0.7681023362 -3.0000147820
52.7015715457 0.6470048857 -3.0000147820
51.9600452369 0.9173675918 -3.0000147820
56.0043143996 -2.3215654813 -3.0000147820
56.0089555886 -2.2822190382 -3.0000147820
56.0104250332 -2.2690945955 -3.0000147820
56.0159143792 -2.2165550791 -3.0000147820
56.0196232030 -2.1771098279 -3.0000147820
56.0278006025 -2.0717776190 -3.0000147820
56.0294552889 -2.0454166337 -3.0000147820
56.0539050146 -2.3141890977 -3.0000147820
56.0854762440 -1.7280766788 -3.0000147820
56.0834561061 -1.6346539026 -3.0000147820
56.0810123535 -2.2903946220 -3.0000147820
56.0880841823 -2.2236640212 -3.0000147820
56.0992632742 -2.0899255519 -3.0000147820
56.1335708810 -1.8489605268 -3.0000147820
56.1340434309 -1.7545159957 -3.0000147820
56.1334582191 -2.2553926207 -3.0000147820
56.1536525546 -1.9849050997 -3.0000147820
56.1700474836 -1.4409442337 -3.0000147820
56.1657265952 -1.3865739659 -3.0000147820
56.1986749562 -1.5075570503 -3.0000147820
56.2151588993 -1.0055014801 -3.0000147820
56.2081124558 -0.9643357352 -3.0000147820
56.1791568601 -0.8139681464 -3.0000147820
56.1999268695 -0.7953201839 -3.0000147820
56.1910157848 -0.7542978913 -3.0000147820
56.2998877716 -1.0773658927 -3.0000147820
56.1993718606 -0.4017068094 -3.0000147820
56.1430017870 -0.2248568071 -3.0000147820
56.1840466731 -0.2715282563 -3.0000147820
56.1176827982 -0.0819124083 -3.0000147820
56.4289268143 -2.2137629367 -3.0000147820
56.1403285399 -0.0734563060 -3.0000147820
56.4474910788 -2.2736304043 -3.0000147820
49.8400183503 3.8003640034 -3.0000147820
49.5203657886 3.7682332521 -3.0000147820
52.8664199839 0.3454987125 -3.0000147820
52.6139568844 0.4632379137 -3.0000147820
52.1539593627 0.5558911815 -3.0000147820
52.1924473770 0.7705639503 -3.0000147820
52.7357685746 0.7798497096 -3.0000147820
51.3457083778 0.8781866064 -3.0000147820
53.3650853632 0.6633682053 -3.0000147820
55.9900422953 -1.6605195805 -3.0000147820
55.9892779142 -1.6484098571 -3.0000147820
56.0090159098 -1.5859829739 -3.0000147820
56.0070100127 -1.5616548914 -3.0000147820
56.0037313815 -1.5251860837 -3.0000147820
56.0025665996 -1.5130364576 -3.0000147820
56.0266258618 -1.5106939835 -3.0000147820
56.0215780823 -1.4618470134 -3.0000147820
56.0202258539 -1.4496448707 -3.0000147820
56.0113550249 -1.3765208731 -3.0000147820
56.0541113036 -1.5452376682 -3.0000147820
56.0384445390 -1.3978957882 -3.0000147820
56.0337113998 -1.3611544653 -3.0000147820
56.0320612515 -1.3489168706 -3.0000147820
56.0303749095 -1.3366842109 -3.0000147820
56.0268937033 -1.3122341245 -3.0000147820
56.1216270193 -1.4888221529 -3.0000147820
56.1545805166 -1.5870885278 -3.0000147820
56.1535981933 -1.5744923918 -3.0000147820
56.0656202760 -0.9877131731 -3.0000147820
56.3011119195 -1.6020821988 -3.0000147820
56.3783522709 -1.6764944981 -3.0000147820
56.2897366121 -0.8832911340 -3.0000147820
56.4226020849 -1.6069654088 -3.0000147820
56.3634346570 -0.6830487510 -3.0000147820
52.6571216099 0.3841455862 -3.0000147820
53.3590307895 0.1984814955 -3.0000147820
52.8572953718 0.3898722368 -3.0000147820
52.4514226099 0.4842606304 -3.0000147820
52.9532975722 0.5139806799 -3.0000147820
51.2413318485 0.8303598744 -3.0000147820
53.9985207202 0.6629391682 -3.0000147820
55.9821615966 -1.0525262799 -3.0000147820
56.0083831163 -1.0578150765 -3.0000147820
55.9942027851 -1.0021418672 -3.0000147820
55.9883003472 -0.9799323333 -3.0000147820
55.9852998793 -0.9688407589 -3.0000147820
55.9822666136 -0.9577581089 -3.0000147820
49.2632689851 0.5097271638 -3.0000147820
55.9993694912 -0.9290663746 -3.0000147820
55.9962185041 -0.9179422782 -3.0000147820
55.9930346237 -0.9068275516 -3.0000147820
55.9898178779 -0.8957222922 -3.0000147820
56.0097568165 -0.8777981462 -3.0000147820
56.0031184472 -0.8554987656 -3.0000147820
55.9929138150 -0.8221243103 -3.0000147820
55.9894465022 -0.8110197788 -3.0000147820
55.9945721318 -0.7480743866 -3.0000147820
56.0138173248 -0.7293181461 -3.0000147820
56.0063004269 -0.7069973408 -3.0000147820
56.0175937564 -0.6656150373 -3.0000147820
56.0136633528 -0.6544381830 -3.0000147820
56.0284476315 -0.6239319771 -3.0000147820
56.1687151084 -0.9064315384 -3.0000147820
56.0358497024 -0.4407735094 -3.0000147820
56.0172682442 -0.3959362645 -3.0000147820
56.0302479696 -0.1883719787 -3.0000147820
56.2700211802 -0.6571232876 -3.0000147820
56.0409993444 -0.0998358112 -3.0000147820
56.2740946188 -0.3853114757 -3.0000147820
53.0694479969 0.3567351489 -3.0000147820
52.5381224382 0.4051054615 -3.0000147820
53.0883900742 0.3774913279 -3.0000147820
52.8467242611 0.4158334131 -3.0000147820
52.8180725768 0.4187411789 -3.0000147820
52.4225606820 0.4242288566 -3.0000147820
52.1512027907 0.3904946833 -3.0000147820
52.7986470678 0.4447823723 -3.0000147820
52.2329840345 0.4283623904 -3.0000147820
52.1325776994 0.4116334147 -3.0000147820
52.0897748006 0.4031937385 -3.0000147820
53.3675844621 0.3520701958 -3.0000147820
53.3606111422 0.3543699957 -3.0000147820
53.0190638629 0.4401607771 -3.0000147820
52.8956504851 0.4588066366 -3.0000147820
53.2116208039 0.4231198530 -3.0000147820
52.8986595962 0.4827916430 -3.0000147820
52.1747487199 0.4682063798 -3.0000147820
53.1667712867 0.4590690444 -3.0000147820
53.6160120599 0.3340801977 -3.0000147820
53.5743519317 0.3519809959 -3.0000147820
53.4830385663 0.3882126642 -3.0000147820
53.1059087170 0.4973073947 -3.0000147820
52.6258833689 0.5503314792 -3.0000147820
52.7101256921 0.5718485066 -3.0000147820
51.9404282905 0.5174859747 -3.0000147820
51.8439598189 0.4907759295 -3.0000147820
53.5754565954 0.4560481703 -3.0000147820
52.4783762746 0.6451124974 -3.0000147820
51.5426698042 0.4331364932 -3.0000147820
51.9916554239 0.6044985781 -3.0000147820
51.7402520607 0.5850026537 -3.0000147820
51.4478410256 0.4703581586 -3.0000147820
52.3608398699 0.7347226782 -3.0000147820
53.2919590515 0.7019591979 -3.0000147820
51.8059089809 0.7063253272 -3.0000147820
53.1895631027 0.7760879528 -3.0000147820
51.4897750098 0.6207361668 -3.0000147820
51.1221398548 0.4347709017 -3.0000147820
54.3394950828 0.2671561324 -3.0000147820
51.9073490719 0.7832978473 -3.0000147820
53.8925180712 0.7391359183 -3.0000147820
53.8599677096 0.7543953691 -3.0000147820
51.4069228508 0.7956893344 -3.0000147820
54.0113701576 0.7339493187 -3.0000147820
54.0550790021 0.7382100240 -3.0000147820
51.1099426205 0.7611822374 -3.0000147820
51.0211442394 0.7675590644 -3.0000147820
55.9391322023 -0.5797485110 -3.0000147820
55.9528387387 -0.5503552457 -3.0000147820
55.9441791318 -0.5304652578 -3.0000147820
55.9398052377 -0.5205395635 -3.0000147820
55.9309694594 -0.5007272081 -3.0000147820
55.9485260639 -0.4808645068 -3.0000147820
55.9394554020 -0.4610012504 -3.0000147820
55.9302673811 -0.4411920067 -3.0000147820
55.9474979124 -0.4210070732 -3.0000147820
55.9380731318 -0.4011509473 -3.0000147820
55.9333167292 -0.3912438814 -3.0000147820
55.9550929054 -0.3807494336 -3.0000147820
55.9356491548 -0.3410062403 -3.0000147820
55.9307148439 -0.3311066081 -3.0000147820
55.9536635854 -0.2695144989 -3.0000147820
55.9436371840 -0.1985794994 -3.0000147820
55.9382815142 -0.1886568603 -3.0000147820
55.9486690083 -0.1572207788 -3.0000147820
55.9376835589 -0.1373623410 -3.0000147820
55.9363380330 -0.0858294389 -3.0000147820
55.9400522185 -0.0439800557 -3.0000147820
55.9550724975 -0.0218085879 -3.0000147820
55.9373483534 0.0080061042 -3.0000147820
49.1142301390 -0.2102571982 -3.0000147820
55.9399727088 0.0502902619 -3.0000147820
49.1198310337 -0.1476837896 -3.0000147820
49.1089086763 -0.1682272176 -3.0000147820
49.0981080519 -0.1888349063 -3.0000147820
55.9544557974 0.0728898234 -3.0000147820
55.8590103944 0.2202347637 -3.0000147820
49.0985208448 -0.1362727804 -3.0000147820
55.8113702667 0.3302239957 -3.0000147820
49.1168736817 -0.0525985915 -3.0000147820
55.7958617283 0.3921257949 -3.0000147820
49.1074811277 -0.0201300573 -3.0000147820
49.1016274832 -0.0304307850 -3.0000147820
55.9189859062 0.2610018523 -3.0000147820
49.1163855344 0.0433948910 -3.0000147820
49.1016744630 0.0659966979 -3.0000147820
49.1247611537 0.1504851591 -3.0000147820
49.1184027229 0.1402348023 -3.0000147820
49.0995097532 0.1093715043 -3.0000147820
49.1042381828 0.1632579015 -3.0000147820
55.9239786832 0.6612009904 -3.0000147820
49.1179384436 0.8063723412 -3.0000147820
52.3213235052 0.3720750380 -3.0000147820
52.7118305183 0.4651640214 -3.0000147820
52.2250614607 0.3951811835 -3.0000147820
52.1972602839 0.3866357020 -3.0000147820
52.0057538299 0.3176960745 -3.0000147820
52.7865553625 0.5434822692 -3.0000147820
52.1969435938 0.4371617843 -3.0000147820
52.0973938268 0.4298941871 -3.0000147820
51.9507253962 0.3733896764 -3.0000147820
51.6953400822 0.2484470689 -3.0000147820
52.8743311020 0.5954487088 -3.0000147820
52.8290110905 0.5939990851 -3.0000147820
52.2116858008 0.4920845375 -3.0000147820
53.5973193313 0.5583697768 -3.0000147820
52.4600395809 0.6010854458 -3.0000147820
53.7966947329 0.5227413451 -3.0000147820
52.3263843520 0.5975765826 -3.0000147820
53.6815444037 0.8110991042 -3.0000147820
51.0977449704 0.3398710611 -3.0000147820
55.8456707462 -0.0659513252 -3.0000147820
55.8400592744 -0.0573444110 -3.0000147820
55.8344223663 -0.0487541342 -3.0000147820
55.8374314358 -0.0096134142 -3.0000147820
55.8316533423 -0.0010311199 -3.0000147820
55.8399727017 0.0297300649 -3.0000147820
55.8420428116 0.0692710686 -3.0000147820
55.8385093266 0.1575277655 -3.0000147820
55.8016199590 0.4024187201 -3.0000147820
55.7809622713 0.5752249330 -3.0000147820
55.7766283805 0.7581910890 -3.0000147820
49.0442434586 -0.7330971900 -3.0000147820
49.0406352841 -0.7446072088 -3.0000147820
49.0335211598 -0.7676590154 -3.0000147820
49.0398486583 -0.6681048268 -3.0000147820
49.0360482438 -0.6796281306 -3.0000147820
49.0322819340 -0.6911626263 -3.0000147820
49.0405585260 -0.5911944903 -3.0000147820
49.0365305937 -0.6027160307 -3.0000147820
49.0385224993 -0.5254206570 -3.0000147820
55.7846377101 1.0901760318 -3.0000147820
49.0331673432 -0.4708201961 -3.0000147820
49.0195034500 -0.4390225413 -3.0000147820
48.9888789152 -0.5203875381 -3.0000147820
48.9289659674 -0.6967725143 -3.0000147820
49.0153283945 -0.3838035906 -3.0000147820
49.0226340457 -0.0684830783 -3.0000147820
49.0115200590 -0.0916532195 -3.0000147820
48.8116629956 -0.4419443504 -3.0000147820
49.1366139404 0.2966794615 -3.0000147820
49.1233375346 0.2741772726 -3.0000147820
48.8214415114 -0.3481111984 -3.0000147820
48.9826125963 0.5986048516 -3.0000147820
48.9600932875 1.0704725595 -3.0000147820
53.0381930171 0.5695045741 -3.0000147820
52.3550788264 0.4030241938 -3.0000147820
52.6778068809 0.5328158702 -3.0000147820
52.0516872929 0.2830537864 -3.0000147820
52.9606603158 0.6096574441 -3.0000147820
52.7557644006 0.6988116762 -3.0000147820
52.9446595244 0.8025292916 -3.0000147820
51.5963030566 0.6840783056 -3.0000147820
49.0291019693 -1.3218964391 -3.0000147820
49.0208608419 -1.2056265950 -3.0000147820
49.0189626842 -1.2181899001 -3.0000147820
49.0134913128 -1.2559127364 -3.0000147820
49.0117419428 -1.2684976219 -3.0000147820
49.0100298088 -1.2810876274 -3.0000147820
49.0083549259 -1.2936826425 -3.0000147820
49.0035539279 -1.3314966438 -3.0000147820
49.0113715861 -1.1137077535 -3.0000147820
48.9875558231 -1.1095671361 -3.0000147820
48.9803230982 -0.6955971653 -3.0000147820
48.9735471596 -0.7209780970 -3.0000147820
48.9551082963 -0.6062664311 -3.0000147820
48.9548267539 -0.5228085207 -3.0000147820
48.9274426085 -0.3724256165 -3.0000147820
48.9410205041 -0.2618076092 -3.0000147820
48.7428095357 -0.7456036656 -3.0000147820
48.7363001137 -0.6727154133 -3.0000147820
48.9956335146 0.2892742184 -3.0000147820
52.8482669756 0.6299115233 -3.0000147820
52.2134189367 0.3528044322 -3.0000147820
53.0704554207 0.7623794873 -3.0000147820
51.9769722932 0.2992703688 -3.0000147820
49.0175821673 -1.8110697788 -3.0000147820
48.9920653268 -1.6489457937 -3.0000147820
48.9942043310 -1.8388160923 -3.0000147820
48.9962595209 -1.8930328131 -3.0000147820
48.9767423753 -1.4034670932 -3.0000147820
48.9681541436 -1.7577987133 -3.0000147820
48.9700436572 -1.8395888310 -3.0000147820
48.9563753849 -1.3472539477 -3.0000147820
48.9439835607 -1.7581425224 -3.0000147820
48.9417761510 -1.2356393376 -3.0000147820
48.9234764860 -1.1781698002 -3.0000147820
48.8956423949 -1.7588301404 -3.0000147820
48.8988674554 -0.9924803200 -3.0000147820
48.9003321328 -0.8362958069 -3.0000147820
48.8881839536 -0.9055606773 -3.0000147820
48.8688660540 -0.7438800644 -3.0000147820
48.8660812351 -0.7578120293 -3.0000147820
48.7820417624 -1.4197162932 -3.0000147820
48.8557844474 -0.4765586475 -3.0000147820
48.7828524491 -0.6822012048 -3.0000147820
48.7232811524 -1.0248345296 -3.0000147820
48.6650212604 -1.3547124286 -3.0000147820
48.6571871231 -1.5001473723 -3.0000147820
48.6588211198 -1.9224028954 -3.0000147820
48.8575752245 -0.1279680501 -3.0000147820
48.9943612958 0.3577500669 -3.0000147820
52.6018689991 0.5789521446 -3.0000147820
52.3519321593 0.4961802485 -3.0000147820
52.1949186411 0.4307702455 -3.0000147820
51.8047512838 0.0452083116 -3.0000147820
48.9329496841 -1.9880736871 -3.0000147820
48.9410100469 -2.0608108711 -3.0000147820
49.0088876751 -2.4796785054 -3.0000147820
48.9104381374 -2.0051863325 -3.0000147820
48.8669715464 -1.7720896278 -3.0000147820
48.8360794799 -1.3430072458 -3.0000147820
48.8342244994 -1.4766507157 -3.0000147820
48.8342955127 -1.5063528742 -3.0000147820
48.9566516812 -2.5814407369 -3.0000147820
48.7967957112 -1.1469907164 -3.0000147820
48.7864754174 -1.4016555472 -3.0000147820
48.8082996985 -1.9557329329 -3.0000147820
48.7758397678 -1.1003190576 -3.0000147820
48.7620277703 -1.5368710318 -3.0000147820
48.7801868015 -1.9129888068 -3.0000147820
48.7718829346 -0.8875740937 -3.0000147820
48.7398570352 -1.3252474633 -3.0000147820
48.8046404518 -2.3055105362 -3.0000147820
48.8071060390 -2.3204455564 -3.0000147820
48.7142209480 -1.3853352998 -3.0000147820
48.7144012014 -1.5830359376 -3.0000147820
48.8134351888 -2.4889626816 -3.0000147820
48.6920161558 -1.3085175440 -3.0000147820
48.6934941488 -1.6904324645 -3.0000147820
48.6681782412 -1.6607382695 -3.0000147820
48.6693412843 -1.6914195916 -3.0000147820
48.6904582766 -2.6092722076 -3.0000147820
54.6749372857 3.7916518110 -3.0000147820
54.7412502607 3.8054157831 -3.0000147820
54.6943146910 3.8130763723 -3.0000147820
54.6629873410 3.8179518963 -3.0000147820
55.7150884277 3.6231966706 -3.0000147820
55.6090340770 3.6606260593 -3.0000147820
55.0681074314 4.0374669747 -3.0000147820
52.7393609669 0.8312777312 -3.0000147820
52.3487477863 0.5800534791 -3.0000147820
52.8594603026 0.9888820924 -3.0000147820
51.8582799995 0.0689066541 -3.0000147820
54.9118116941 3.5839176402 -3.0000147820
54.8833651169 3.5886901610 -3.0000147820
55.4663429806 3.4806770553 -3.0000147820
55.0441543771 3.5840732875 -3.0000147820
54.7583194293 3.6320282040 -3.0000147820
54.7439580220 3.6339812336 -3.0000147820
54.2538951733 3.6991712664 -3.0000147820
54.1956566045 3.7007550826 -3.0000147820
53.7983245241 3.7658125957 -3.0000147820
53.7393293169 3.7620012230 -3.0000147820
55.3571377110 3.6362587944 -3.0000147820
54.9187270420 3.8033542989 -3.0000147820
54.9757116783 3.8672574448 -3.0000147820
48.8214749377 -2.1961574467 -3.0000147820
48.7398556394 -1.8067758294 -3.0000147820
48.7594990823 -1.9647914112 -3.0000147820
48.7663027022 -2.0120755862 -3.0000147820
48.7892273690 -2.1535397981 -3.0000147820
48.9095761262 -2.6811683539 -3.0000147820
48.8570710172 -2.5796417521 -3.0000147820
48.8863084191 -2.6877219091 -3.0000147820
48.7591389352 -2.2567006445 -3.0000147820
48.7992275313 -2.4452779117 -3.0000147820
48.8217756264 -2.5390032316 -3.0000147820
48.8459836237 -2.6323136010 -3.0000147820
48.8808297676 -2.7560311625 -3.0000147820
48.8121337390 -2.6917733810 -3.0000147820
48.8798664734 -3.2737568021 -3.0000147820
48.7498703753 -2.9853595590 -3.0000147820
52.4387344039 0.6659150615 -3.0000147820
52.3839039011 0.7133769778 -3.0000147820
52.2330492220 0.5208688721 -3.0000147820
51.9739430905 0.3337352059 -3.0000147820
51.7617507512 -0.1745357014 -3.0000147820
51.6664573453 -0.2460556692 -3.0000147820
54.7794941420 3.4849236629 -3.0000147820
54.7664407621 3.4863851388 -3.0000147820
54.7403213181 3.4891922163 -3.0000147820
54.8084548747 3.5058872813 -3.0000147820
54.7822193142 3.5089425871 -3.0000147820
54.6771100939 3.5196101035 -3.0000147820
54.5454168906 3.5294420667 -3.0000147820
54.4002894780 3.5357531178 -3.0000147820
54.2681820709 3.5615633048 -3.0000147820
54.2414257083 3.5855933942 -3.0000147820
54.0412931939 3.5794883142 -3.0000147820
53.9310345803 3.6208085611 -3.0000147820
53.8638091796 3.6151657029 -3.0000147820
54.7688812391 3.6320157551 -3.0000147820
54.3357691933 3.6579158756 -3.0000147820
54.0645689208 3.6532551391 -3.0000147820
54.0362016044 3.6760462773 -3.0000147820
53.6562051776 3.6401839563 -3.0000147820
54.2267150610 3.7063201936 -3.0000147820
53.7453672671 3.7001264985 -3.0000147820
53.5814840775 3.6782751418 -3.0000147820
53.9849524427 3.8426017078 -3.0000147820
53.6753895316 3.8133865792 -3.0000147820
54.8062523817 3.8467883484 -3.0000147820
53.8842711917 3.8595835454 -3.0000147820
52.7113449887 3.6383696638 -3.0000147820
48.6963956694 -2.8069688628 -3.0000147820
48.7132994062 -2.8564366299 -3.0000147820
52.4533327119 1.2178021474 -3.0000147820
51.7246068917 -0.3552368765 -3.0000147820
51.6202056340 -1.1460443344 -3.0000147820
54.1861040153 3.4673129987 -3.0000147820
54.1726456669 3.4907559113 -3.0000147820
54.1242116092 3.4876268265 -3.0000147820
54.0252002557 3.5037166389 -3.0000147820
53.9887619753 3.5001145452 -3.0000147820
53.9402300548 3.4948090079 -3.0000147820
53.9038741707 3.4904532020 -3.0000147820
53.8521967953 3.5080953264 -3.0000147820
53.8157264692 3.5029577516 -3.0000147820
53.6372686093 3.5222268333 -3.0000147820
53.5052321742 3.5447102384 -3.0000147820
53.4684505742 3.5364921054 -3.0000147820
54.0219528673 3.6733543791 -3.0000147820
54.1854195406 3.7093608963 -3.0000147820
54.0153526922 3.7455724879 -3.0000147820
53.0852855344 3.5824140764 -3.0000147820
53.0235122923 3.5623206871 -3.0000147820
54.0349202982 3.8201040940 -3.0000147820
52.9336810288 3.5825903906 -3.0000147820
52.1683323146 0.2910920251 -3.0000147820
52.0785055064 0.0760203794 -3.0000147820
52.1946756589 0.6202079910 -3.0000147820
52.0463253018 0.0144657135 -3.0000147820
52.0308110821 -0.2903364243 -3.0000147820
52.0311536251 -0.3121474561 -3.0000147820
52.1617287963 0.6014173176 -3.0000147820
52.0848877308 0.3562970416 -3.0000147820
52.2618875513 0.8876975771 -3.0000147820
52.2038199063 0.7675529698 -3.0000147820
52.1917900920 0.7404454378 -3.0000147820
52.0690431002 0.3910005697 -3.0000147820
51.9887241054 -0.0834348869 -3.0000147820
51.9901864486 -0.4612018774 -3.0000147820
51.9715396027 -0.5227532889 -3.0000147820
51.9739470490 -0.5450811695 -3.0000147820
51.9385187926 -0.1101419657 -3.0000147820
51.9350383031 -0.3367597724 -3.0000147820
51.9388014540 -0.4198011544 -3.0000147820
51.9700008411 0.2913670141 -3.0000147820
51.9570382451 -0.7540327666 -3.0000147820
52.2048997835 0.9864674863 -3.0000147820
52.0705485041 0.7009815352 -3.0000147820
52.4424954965 1.3852297140 -3.0000147820
52.0627445326 0.7459208595 -3.0000147820
51.8899108114 -0.6483481043 -3.0000147820
51.8387069239 -0.6319434129 -3.0000147820
51.8800945030 -0.8576399743 -3.0000147820
52.2576118007 1.2575547226 -3.0000147820
52.0649325480 0.9265243610 -3.0000147820
51.7717236955 -0.0678791830 -3.0000147820
51.9801231506 0.8594962297 -3.0000147820
51.7745286828 0.1679864481 -3.0000147820
52.1232763811 1.2289911208 -3.0000147820
51.9672934226 0.9467865606 -3.0000147820
51.6991655598 -0.4594346538 -3.0000147820
51.8766097654 -1.3270611578 -3.0000147820
52.2159067181 -3.2622129718 -3.0000147820
52.1657480267 -3.2542035121 -3.0000147820
52.1746077649 -3.2610620471 -3.0000147820
53.6135334127 3.4720708837 -3.0000147820
53.6024892801 3.4694657294 -3.0000147820
53.5914529023 3.4668279160 -3.0000147820
53.5804243760 3.4641574665 -3.0000147820
53.5694037975 3.4614544043 -3.0000147820
53.5583912635 3.4587187530 -3.0000147820
52.0915432459 -3.2572624851 -3.0000147820
53.5525288082 3.4821701261 -3.0000147820
53.5414550671 3.4793844650 -3.0000147820
53.5303896150 3.4765660579 -3.0000147820
53.5193325487 3.4737149295 -3.0000147820
53.5082839648 3.4708311049 -3.0000147820
53.4862126314 3.4649654677 -3.0000147820
52.0321301469 -3.2401265542 -3.0000147820
53.4799348804 3.4883090991 -3.0000147820
53.4466869995 3.4792094303 -3.0000147820
53.4135211824 3.4698150636 -3.0000147820
53.4024845981 3.4666182469 -3.0000147820
53.3735430951 3.4832949805 -3.0000147820
53.3514003794 3.4766319530 -3.0000147820
53.3403439013 3.4732513418 -3.0000147820
51.9482476847 -3.2327986471 -3.0000147820
53.2999280928 3.4859556585 -3.0000147820
53.2888442587 3.4824227422 -3.0000147820
53.2777709241 3.4788570534 -3.0000147820
53.2667081858 3.4752586232 -3.0000147820
53.2480769529 3.4945815938 -3.0000147820
53.2369678285 3.4908952547 -3.0000147820
53.2147825374 3.4834240690 -3.0000147820
53.2037065647 3.4796392878 -3.0000147820
53.1926418366 3.4758217585 -3.0000147820
51.8814242523 -3.2388970516 -3.0000147820
53.2069999430 3.5063100146 -3.0000147820
53.1958563037 3.5025021110 -3.0000147820
53.1736030620 3.4947874926 -3.0000147820
53.1513958520 3.4869413516 -3.0000147820
51.8302478185 -3.2258316995 -3.0000147820
53.0765351252 3.4852371911 -3.0000147820
51.8764064536 -3.2985647730 -3.0000147820
53.4940006430 3.6668558913 -3.0000147820
51.7286973132 -3.2312942520 -3.0000147820
51.8448734079 -3.3352118487 -3.0000147820
52.9053253450 3.4950025654 -3.0000147820
51.9029922092 -3.4156038671 -3.0000147820
53.4351572714 3.7015356083 -3.0000147820
53.2372179662 3.6435660162 -3.0000147820
52.8624569267 3.5029953384 -3.0000147820
52.7535925099 3.5073774641 -3.0000147820
52.6987399931 3.5084212192 -3.0000147820
52.6324730755 3.5032171945 -3.0000147820
53.1528501994 3.7431427395 -3.0000147820
53.0466874707 3.7061629044 -3.0000147820
53.1095034320 3.7539931659 -3.0000147820
52.8769207674 3.6925601766 -3.0000147820
52.1719749103 3.3254333325 -3.0000147820
51.3393834599 -3.2187691242 -3.0000147820
52.9331918329 3.7927942414 -3.0000147820
53.0702521267 3.8683072818 -3.0000147820
52.8046019927 3.7673166067 -3.0000147820
51.7731766076 3.1582860353 -3.0000147820
51.9983270624 3.3548970964 -3.0000147820
51.9920033436 3.5544232688 -3.0000147820
51.9335423832 3.5446862674 -3.0000147820
51.4450296593 3.1989967439 -3.0000147820
51.4348028175 3.1899779581 -3.0000147820
51.6136456703 0.0962850731 -3.0000147820
51.5924436966 0.1541988133 -3.0000147820
51.5894884998 -0.0951609254 -3.0000147820
51.5926952873 0.3775143271 -3.0000147820
51.5985123674 -0.4109478995 -3.0000147820
51.5520172414 0.2514688780 -3.0000147820
51.6008399713 0.7352517064 -3.0000147820
51.5210353760 -0.3866408148 -3.0000147820
51.5755450954 0.7351727100 -3.0000147820
51.5548896477 0.6632237848 -3.0000147820
51.5953242669 0.8712543992 -3.0000147820
51.5902175982 0.8570286391 -3.0000147820
51.4505799438 -0.4053921262 -3.0000147820
51.4742281076 -0.5328936470 -3.0000147820
51.6035467975 1.0238062854 -3.0000147820
51.5874303765 -1.0454900401 -3.0000147820
51.6284692530 1.1921580961 -3.0000147820
51.2616888168 -0.8636845305 -3.0000147820
51.5887496344 1.6039313539 -3.0000147820
52.4068348729 3.4117916250 -3.0000147820
52.3866833301 3.4023225706 -3.0000147820
52.3865619503 -3.4002613333 -3.0000147820
52.4067131553 -3.4097311068 -3.0000147820
52.3864717623 3.4289500712 -3.0000147820
52.3763383193 3.4241701342 -3.0000147820
52.3662190607 3.4193602415 -3.0000147820
52.3561140748 3.4145204352 -3.0000147820
52.3460234502 3.4096507578 -3.0000147820
52.3359472751 3.4047512517 -3.0000147820
52.3660970729 -3.4172982739 -3.0000147820
52.3863494323 -3.4268888263 -3.0000147820
52.3964968013 -3.4316391281 -3.0000147820
52.3152186246 3.4215141271 -3.0000147820
52.2335192898 -3.4053531698 -3.0000147820
52.2638182328 -3.4208710479 -3.0000147820
52.2739483362 -3.4259838454 -3.0000147820
52.1720213568 3.4022628966 -3.0000147820
52.2021555641 -3.4162589168 -3.0000147820
52.2122722938 -3.4215541438 -3.0000147820
52.1402525691 -3.4105666693 -3.0000147820
52.1503527310 -3.4160450415 -3.0000147820
52.1807498333 -3.4323005551 -3.0000147820
52.0883298614 3.4115202869 -3.0000147820
52.0782492834 3.4058584684 -3.0000147820
52.0781277777 -3.4037862242 -3.0000147820
52.0765234624 3.4326139880 -3.0000147820
52.0259786878 3.4038305125 -3.0000147820
52.0159211304 3.3979842817 -3.0000147820
52.0662582799 -3.4248444840 -3.0000147820
52.0239983325 3.4305994913 -3.0000147820
51.9835558790 3.4070111084 -3.0000147820
51.9733677648 -3.3989633865 -3.0000147820
52.0137394165 -3.4226727431 -3.0000147820
51.9611253582 3.4218113025 -3.0000147820
51.9510148941 3.4157731451 -3.0000147820
51.9080606917 -3.4160254648 -3.0000147820
51.8550443335 3.4136194349 -3.0000147820
51.6092124967 -3.3041791435 -3.0000147820
51.5929140935 3.4133336931 -3.0000147820
51.3800485532 3.4066977461 -3.0000147820
50.8327042938 -3.4166670941 -3.0000147820
51.5812311433 0.0130449637 -3.0000147820
51.5883335218 -0.0363438116 -3.0000147820
51.6427464797 -0.2942804806 -3.0000147820
51.5398774543 0.4696197269 -3.0000147820
51.6175434074 -0.2936007496 -3.0000147820
51.5236302757 0.5724776797 -3.0000147820
51.5438369819 -0.4694804708 -3.0000147820
51.4439464635 1.0541313810 -3.0000147820
51.5417723147 -0.9558202188 -3.0000147820
52.0247161559 3.3248898253 -3.0000147820
51.8780529852 3.3133412838 -3.0000147820
51.8288000783 3.3080063329 -3.0000147820
51.8544394338 3.3852793108 -3.0000147820
51.7562010892 3.3148412484 -3.0000147820
51.6152240643 3.2980475309 -3.0000147820
52.7506175163 -3.4583053015 -3.0000147820
52.7618332699 -3.4618952459 -3.0000147820
52.8068010078 -3.4759227741 -3.0000147820
52.6981873270 -3.4665365226 -3.0000147820
52.7094276594 -3.4702815289 -3.0000147820
52.7319413135 -3.4776717070 -3.0000147820
52.7770978184 -3.4920518263 -3.0000147820
52.6341415094 -3.4701199223 -3.0000147820
52.6453927224 -3.4740543720 -3.0000147820
52.6566555250 -3.4779555214 -3.0000147820
52.6905124842 -3.4894588276 -3.0000147820
52.5472322462 -3.4642847714 -3.0000147820
52.5922432814 -3.4808513914 -3.0000147820
52.6148215213 -3.4889346867 -3.0000147820
52.4936696085 -3.4697202321 -3.0000147820
52.5161837179 -3.4783869171 -3.0000147820
52.5500500371 -3.4911368149 -3.0000147820
52.4081417820 -3.4876724227 -3.0000147820
52.4420947594 -3.5013807664 -3.0000147820
52.7294587656 -3.6037814505 -3.0000147820
52.5663387427 -3.6256295671 -3.0000147820
52.0768873732 -3.4972890321 -3.0000147820
51.9756988610 -3.5001597482 -3.0000147820
51.2622908067 -3.5179455504 -3.0000147820
51.4338202714 0.4652595297 -3.0000147820
51.6944385470 -0.5333476696 -3.0000147820
51.5771908948 -0.3297079399 -3.0000147820
51.6728516946 -0.5442262305 -3.0000147820
51.6398733092 -0.5859929876 -3.0000147820
51.5341729702 -0.4774793574 -3.0000147820
53.3219713276 -3.4650927064 -3.0000147820
53.3817558446 -3.4730447047 -3.0000147820
53.2226499353 -3.4743843540 -3.0000147820
53.2945856575 -3.4855819017 -3.0000147820
53.1225731806 -3.4812234590 -3.0000147820
53.1826180886 -3.4921228685 -3.0000147820
53.2428176351 -3.5021329984 -3.0000147820
53.0338111330 -3.4881285259 -3.0000147820
52.9027095206 -3.5080349971 -3.0000147820
53.2238743786 -3.6215044149 -3.0000147820
52.7511353555 -3.5436666016 -3.0000147820
52.9102436592 -3.5843889215 -3.0000147820
52.6592201172 -3.5423739178 -3.0000147820
52.6713990182 -3.5459952450 -3.0000147820
53.2539696936 -3.6750600602 -3.0000147820
52.5668732839 -3.5390300016 -3.0000147820
52.6278339576 -3.5581421042 -3.0000147820
53.0191005623 -3.6825816865 -3.0000147820
52.4093569258 -3.5620998225 -3.0000147820
52.1662519704 -3.5717519015 -3.0000147820
51.7651448232 -3.5994236331 -3.0000147820
53.7921375121 -3.4861852682 -3.0000147820
53.8429576507 -3.4856200308 -3.0000147820
53.8683643224 -3.4851119209 -3.0000147820
53.9953281376 -3.4803173286 -3.0000147820
53.6517267160 -3.5088029326 -3.0000147820
53.2869337835 -3.5563126143 -3.0000147820
53.3256918052 -3.5604256997 -3.0000147820
53.4564565761 -3.7413721933 -3.0000147820
53.4142130904 -3.7625126844 -3.0000147820
53.4788295501 -3.8155222573 -3.0000147820
53.8910875434 -3.8714401031 -3.0000147820
51.9054578317 -0.7228589478 -3.0000147820
52.0111732760 -0.8205973337 -3.0000147820
51.4345953266 -0.1300514340 -3.0000147820
51.3486998620 -0.0094008154 -3.0000147820
52.1457786555 -0.9898661218 -3.0000147820
51.2514631991 0.1660871833 -3.0000147820
52.3920371803 -1.2586551440 -3.0000147820
52.4105048244 -1.3229253646 -3.0000147820
52.1761211903 -1.2730163567 -3.0000147820
50.8263991043 0.3193031908 -3.0000147820
51.4652519902 -0.9273193624 -3.0000147820
54.0938064808 -3.5450483908 -3.0000147820
54.2821726677 -3.5211008392 -3.0000147820
54.4160327819 -3.4992302700 -3.0000147820
54.5359070569 -3.4761691609 -3.0000147820
54.5889788566 -3.4648970400 -3.0000147820
54.0827965086 -3.5705055614 -3.0000147820
54.3126814419 -3.5409340265 -3.0000147820
54.3934228144 -3.5277421972 -3.0000147820
54.4739173383 -3.5131194333 -3.0000147820
54.5006896059 -3.5079279765 -3.0000147820
54.6207654170 -3.4826101763 -3.0000147820
54.0033982888 -3.6022632771 -3.0000147820
54.0579993714 -3.5972832200 -3.0000147820
54.0716401360 -3.5959372832 -3.0000147820
54.3028175742 -3.5668944047 -3.0000147820
54.4245332260 -3.5468231642 -3.0000147820
54.6260670235 -3.5061946681 -3.0000147820
53.5925731982 -3.6431488247 -3.0000147820
53.7578904414 -3.6408270306 -3.0000147820
53.8955211408 -3.6344110570 -3.0000147820
54.0329018565 -3.6239271133 -3.0000147820
54.3744719045 -3.5799888245 -3.0000147820
53.3709868674 -3.6612575757 -3.0000147820
53.4401704386 -3.6642787382 -3.0000147820
53.4540120914 -3.6647601581 -3.0000147820
53.4678551077 -3.6652006297 -3.0000147820
53.6894299402 -3.6666771694 -3.0000147820
53.3558513577 -3.6846683668 -3.0000147820
53.3975645524 -3.6867372594 -3.0000147820
54.3824086123 -3.6276789681 -3.0000147820
53.9278973247 -3.7049944240 -3.0000147820
54.3725703888 -3.6538007819 -3.0000147820
53.0590016438 -3.7078566166 -3.0000147820
53.1009323106 -3.7125589708 -3.0000147820
53.4937745244 -3.7384561880 -3.0000147820
53.9575824062 -3.7271383284 -3.0000147820
54.5011063092 -3.6555863769 -3.0000147820
52.9860598316 -3.7231592532 -3.0000147820
53.9452507606 -3.7522596941 -3.0000147820
54.6716639492 -3.6445809156 -3.0000147820
52.9406716535 -3.7413743063 -3.0000147820
53.0816338359 -3.7590856615 -3.0000147820
53.1664409067 -3.7677083242 -3.0000147820
54.1193211884 -3.7854283566 -3.0000147820
52.6933115730 -3.7491996947 -3.0000147820
53.3336953642 -3.8286994889 -3.0000147820
53.3766876267 -3.8309593318 -3.0000147820
54.0981414377 -3.8605166667 -3.0000147820
54.0280366577 -3.8912913578 -3.0000147820
48.7509600053 2.0692082534 -3.0000147820
48.6766103781 1.6344203984 -3.0000147820
48.6648337025 1.5321411149 -3.0000147820
54.3825031912 -3.8970251867 -3.0000147820
48.7242234454 2.0598877258 -3.0000147820
48.8218457406 2.5242677221 -3.0000147820
53.0577074739 -3.9753232323 -3.0000147820
48.7529217960 2.6253561062 -3.0000147820
48.8512954205 2.9609817095 -3.0000147820
48.7544479846 2.7049633595 -3.0000147820
48.6588714722 2.4002709967 -3.0000147820
48.2526499775 2.3781283479 -3.0000147820
51.5755353833 -0.4349966860 -3.0000147820
52.1927117629 -0.9381972414 -3.0000147820
52.2949310935 -0.9937285908 -3.0000147820
52.4030468065 -1.0724051626 -3.0000147820
51.2951690625 -0.1409660679 -3.0000147820
52.3086987221 -1.0816859730 -3.0000147820
52.2126957799 -1.0871805138 -3.0000147820
52.3536812877 -1.1827293558 -3.0000147820
51.1253602527 -0.0917447728 -3.0000147820
51.9432252463 -1.4081248902 -3.0000147820
48.9209942676 1.9617785053 -3.0000147820
48.8744252121 1.8183973483 -3.0000147820
48.8640464525 1.7376789665 -3.0000147820
48.8564929603 1.6702815682 -3.0000147820
48.8537508229 1.6432925652 -3.0000147820
48.8079952683 1.2645972370 -3.0000147820
48.7915644382 1.4704136805 -3.0000147820
48.7858268234 1.3471877321 -3.0000147820
48.7836334031 1.2512654463 -3.0000147820
48.7848306215 1.0730893096 -3.0000147820
48.7606657305 1.0724621528 -3.0000147820
48.7641661218 0.9760777840 -3.0000147820
48.7662771113 0.9347963018 -3.0000147820
48.7670621762 0.9210401715 -3.0000147820
48.8473446608 2.2131319246 -3.0000147820
48.7354848587 1.2657188590 -3.0000147820
48.8848800716 2.5485610211 -3.0000147820
48.6866437184 1.1685183305 -3.0000147820
48.6875277370 1.0985593341 -3.0000147820
48.6923992261 0.9587188236 -3.0000147820
48.7176568562 0.6519642612 -3.0000147820
48.6789728980 1.5898668561 -3.0000147820
48.6640061665 1.0699535254 -3.0000147820
48.6705353983 0.9153881214 -3.0000147820
48.6969444327 0.6212632502 -3.0000147820
48.6455982672 0.9280881997 -3.0000147820
48.6580169018 0.7589195931 -3.0000147820
48.6240168942 0.8842006250 -3.0000147820
48.6936779890 2.1889072076 -3.0000147820
48.6257420533 1.7805534662 -3.0000147820
48.6760276288 2.2219594410 -3.0000147820
48.5731909607 0.9240633384 -3.0000147820
48.6278067059 2.3367430162 -3.0000147820
54.1137453707 -3.7052088296 -3.0000147820
53.7074930375 -3.7702031518 -3.0000147820
53.8102042250 -3.7631212114 -3.0000147820
54.0734385370 -3.7351617408 -3.0000147820
54.3925672199 -3.6820282608 -3.0000147820
53.5317068836 -3.8015576397 -3.0000147820
53.6646320406 -3.7967301966 -3.0000147820
53.6793923842 -3.7959754046 -3.0000147820
53.5471092461 -3.8253609343 -3.0000147820
53.6658308422 -3.8208734804 -3.0000147820
55.1027831723 -3.5355037052 -3.0000147820
55.2003355822 -3.4995814603 -3.0000147820
53.6521242811 -3.8457347705 -3.0000147820
53.8754155469 -3.8303388289 -3.0000147820
55.1921649274 -3.6059103418 -3.0000147820
54.7220933338 -3.7794724921 -3.0000147820
54.8460885610 -3.7704231907 -3.0000147820
54.9116845542 -3.7763128914 -3.0000147820
48.4001399441 2.6130316700 -3.0000147820
54.7106454361 -3.8573584817 -3.0000147820
54.7554162970 -3.8456779619 -3.0000147820
49.0013809364 1.8221641023 -3.0000147820
48.9946154719 1.7600753327 -3.0000147820
48.9784946706 1.5483572781 -3.0000147820
48.9669270463 1.7250036193 -3.0000147820
48.9606485805 1.6498892782 -3.0000147820
48.9580095398 1.6122932775 -3.0000147820
48.9526042328 1.5119380630 -3.0000147820
48.9478107452 1.7775246698 -3.0000147820
48.9251224841 1.2729538343 -3.0000147820
48.9031380119 1.1836970977 -3.0000147820
48.9053378750 1.8333486842 -3.0000147820
48.8861733238 1.0424917516 -3.0000147820
48.8899209829 0.9915200246 -3.0000147820
48.8909521167 0.9787843005 -3.0000147820
48.8571516438 1.5416675618 -3.0000147820
48.8333055789 1.8417371206 -3.0000147820
48.8004356046 0.9057845120 -3.0000147820
48.7087958405 1.8159182339 -3.0000147820
48.6768677734 1.7383641893 -3.0000147820
48.6535445214 0.9185950813 -3.0000147820
48.8010379583 0.0254629280 -3.0000147820
51.5771848877 -0.5727440518 -3.0000147820
51.2917714789 -0.4738842383 -3.0000147820
51.1595224521 -0.3842465894 -3.0000147820
53.0589292646 -1.1421781226 -3.0000147820
49.0022966505 1.2260902363 -3.0000147820
48.9825057132 1.1542938463 -3.0000147820
48.9842332915 1.1308047514 -3.0000147820
48.9913735206 1.0486820390 -3.0000147820
48.9583926614 1.1525920784 -3.0000147820
48.9709164269 1.0109787016 -3.0000147820
48.9820546593 0.9168552913 -3.0000147820
48.9851870118 0.8933676834 -3.0000147820
48.9901459531 0.8581720467 -3.0000147820
48.9312046112 1.1984679791 -3.0000147820
48.9536197945 0.9492086926 -3.0000147820
48.9612356793 0.8901013465 -3.0000147820
48.9679573125 0.8429006070 -3.0000147820
48.9697249516 0.8311131076 -3.0000147820
48.9771439667 0.7840169467 -3.0000147820
48.9405950930 0.8630830509 -3.0000147820
48.9440463057 0.8393510954 -3.0000147820
48.9532880740 0.7801141704 -3.0000147820
48.9613116829 0.7328270909 -3.0000147820
48.9676962722 0.6974258960 -3.0000147820
48.9601396581 0.6101665529 -3.0000147820
48.9491704146 0.5459559834 -3.0000147820
48.8470182937 1.0346236384 -3.0000147820
48.9336622811 0.5050084384 -3.0000147820
48.8184884385 1.0811837397 -3.0000147820
48.8398381251 0.8859363492 -3.0000147820
48.9243817894 0.4398607981 -3.0000147820
48.7879355502 1.1653201338 -3.0000147820
48.8296658266 0.6466384822 -3.0000147820
48.9173040041 0.1937808045 -3.0000147820
48.7775365269 0.6622587330 -3.0000147820
48.7470392938 0.6951640968 -3.0000147820
48.7126963079 0.7536286240 -3.0000147820
48.8935654046 -0.1090387600 -3.0000147820
48.7173983944 0.1869941874 -3.0000147820
48.8840783762 -0.2803192598 -3.0000147820
48.5283465544 0.8443952357 -3.0000147820
48.8528899421 -0.6170543962 -3.0000147820
48.8423453340 -0.8557536597 -3.0000147820
53.1739343469 -1.0430935694 -3.0000147820
51.2766322691 -0.6896562283 -3.0000147820
50.9886931449 -0.5673970607 -3.0000147820
49.0098736343 0.6272578349 -3.0000147820
49.0124460500 0.6163529213 -3.0000147820
49.0176876009 0.5945661615 -3.0000147820
48.9968881285 0.5778912436 -3.0000147820
49.0108040235 0.5232575417 -3.0000147820
49.0195408978 0.4905782204 -3.0000147820
49.0225175942 0.4797025023 -3.0000147820
48.9962159951 0.4842312372 -3.0000147820
49.0052997804 0.4514239921 -3.0000147820
49.0083923644 0.4405063175 -3.0000147820
49.0146743538 0.4186986524 -3.0000147820
49.0210852548 0.3969285353 -3.0000147820
49.0011913006 0.3790921404 -3.0000147820
49.0112079404 0.3463331886 -3.0000147820
49.0146113762 0.3354334512 -3.0000147820
48.9935185212 0.2439937369 -3.0000147820
49.0013535201 0.1484394762 -3.0000147820
48.9948822197 0.0962756023 -3.0000147820
48.8270313057 0.5602211596 -3.0000147820
48.8957831964 0.3104791718 -3.0000147820
55.7682450521 -1.0420346483 -3.0000147820
48.8797943210 0.2807002926 -3.0000147820
55.7306625044 -1.1975283027 -3.0000147820
48.9668587891 -0.4867294163 -3.0000147820
51.9973938169 -0.8909950231 -3.0000147820
51.9787448896 -0.9121127289 -3.0000147820
52.9963394075 -0.8901085233 -3.0000147820
51.8393500381 -0.9313355644 -3.0000147820
51.8826504203 -0.9415336597 -3.0000147820
51.5126998423 -0.8531745408 -3.0000147820
51.6678905941 -0.9082035015 -3.0000147820
53.0831648335 -0.9931604996 -3.0000147820
53.2078270897 -0.9574506224 -3.0000147820
53.4369405736 -0.8734389064 -3.0000147820
51.2022058338 -0.8166532075 -3.0000147820
53.2220568310 -1.0289794083 -3.0000147820
51.0652901717 -0.8510865521 -3.0000147820
53.3892602283 -1.0742139674 -3.0000147820
53.2296795003 -1.2537785427 -3.0000147820
53.8242892723 -1.0073622132 -3.0000147820
49.0650868461 0.0593392478 -3.0000147820
49.0558970238 0.0197701929 -3.0000147820
49.0647319424 -0.0001990353 -3.0000147820
