34.5408739579 -3.5079453476 -3.0000281716
35.4119436081 -3.6767055467 -3.0000281716
35.5115353605 -3.7100440977 -3.0000282350
35.8038466465 -3.7249222488 -3.0000282350
35.6269785597 -3.7422046858 -3.0000282984
35.7739248871 -3.7483771002 -3.0000282984
34.4570386907 -3.5839842109 -3.0000284252
35.1517480470 -3.7411076351 -3.0000284252
35.3726390437 -3.7698170249 -3.0000284252
35.8617013180 -3.7983371128 -3.0000284252
35.1296356224 -3.7866165581 -3.0000285520
35.0664286808 -3.8008828917 -3.0000286154
35.5750084149 -3.8601104230 -3.0000286154
35.9363442572 -3.8710069634 -3.0000286154
34.8092404777 -3.8498844448 -3.0000288690
41.2547615509 1.8542391294 -3.0000293761
41.2051867219 2.1848887218 -3.0000293761
41.3004653656 1.6342151452 -3.0000294395
41.2907700310 1.7457595152 -3.0000294395
41.2373455093 2.1419646239 -3.0000294395
41.1912837901 2.3774107238 -3.0000294395
41.1662233915 2.4865350677 -3.0000294395
41.1547925183 2.5331393565 -3.0000294395
41.2183088814 2.3668763902 -3.0000295029
41.1558483403 2.7163550227 -3.0000295663
41.0254996987 3.1150816610 -3.0000295663
41.2551049127 2.4245594225 -3.0000296297
41.2211921407 2.5664468290 -3.0000296297
41.0420257962 3.2079951842 -3.0000296931
41.0935116487 3.1402489452 -3.0000297565
41.2621294086 2.6953972422 -3.0000298199
41.1607278718 3.2360861326 -3.0000300101
37.6835349896 -0.1539502929 -3.0000157930
37.6898957498 -0.1423207916 -3.0000157930
37.7116142626 -0.1013254681 -3.0000157930
37.7014678806 -0.1714758991 -3.0000157987
37.7269062424 -0.1243056975 -3.0000157987
37.6847932661 -0.2951832187 -3.0000158102
37.8221940441 -0.1505879274 -3.0000158218
37.8285324847 -0.1381381314 -3.0000158218
37.7322654457 -0.4002838199 -3.0000158333
37.4887922120 -0.7459754800 -3.0000158391
37.7364366064 -0.4375406774 -3.0000158391
37.5842888030 -0.6762318432 -3.0000158448
37.6490682730 -0.5977148958 -3.0000158448
38.0676275950 0.1951800197 -3.0000158448
38.1245560230 0.2162572716 -3.0000158564
37.5896023619 -0.7795444847 -3.0000158621
37.7198019059 -0.6250214493 -3.0000158621
38.2102623651 0.4714063716 -3.0000158621
37.2084260919 -1.1797791069 -3.0000158736
38.2046438232 0.2323503989 -3.0000158736
36.9857676475 -1.4582256880 -3.0000159025
37.7214928485 -0.9218246117 -3.0000159082
35.1784289486 -3.5043014925 -3.0000163232
35.1915398349 -3.5058873435 -3.0000163232
35.2440285711 -3.5118427006 -3.0000163232
35.2571614786 -3.5132344630 -3.0000163232
35.2965840992 -3.5171765696 -3.0000163232
35.3623612248 -3.5229688090 -3.0000163232
35.3755265277 -3.5240104734 -3.0000163232
35.5725042409 -3.5591169398 -3.0000163289
35.7052567414 -3.5615485282 -3.0000163289
35.2521376418 -3.5613187868 -3.0000163347
35.5316840687 -3.5817735488 -3.0000163347
35.2496257233 -3.5853609486 -3.0000163405
35.8124479916 -3.6090021949 -3.0000163405
35.2176292582 -3.6305464935 -3.0000163520
35.8541012578 -3.6563383791 -3.0000163520
36.0437489169 -3.6469006350 -3.0000163520
36.2084317662 -3.6566046358 -3.0000163578
36.2490892570 -3.6520991065 -3.0000163578
35.3624294342 -3.6927140447 -3.0000163635
35.4034406901 -3.6957148896 -3.0000163635
35.4444769619 -3.6983516645 -3.0000163635
36.0744913478 -3.6931167485 -3.0000163635
35.2233643430 -3.7041197084 -3.0000163693
36.3093400243 -3.6934897280 -3.0000163693
36.4729531936 -3.6697008135 -3.0000163693
36.5314746784 -3.6842905800 -3.0000163750
35.8168296792 -3.8265153179 -3.0000163923
36.8057819244 -3.7020903429 -3.0000163923
36.8468195524 -3.6922818750 -3.0000163923
35.1372937654 -3.8402145944 -3.0000164039
35.5195102004 -3.8715943168 -3.0000164039
36.0873976137 -3.8618350259 -3.0000164039
36.3558349034 -3.8336943325 -3.0000164039
36.9957847507 -3.7035762469 -3.0000164039
35.7183432763 -3.8999980146 -3.0000164096
35.8611143933 -3.8979669042 -3.0000164096
35.4458163963 -3.9163564059 -3.0000164154
37.2693270117 -3.6704736942 -3.0000164154
37.3100658060 -3.6565527687 -3.0000164154
37.3776841173 -3.6325495898 -3.0000164154
37.1810400679 -3.7246096087 -3.0000164212
41.3285630467 2.6505884147 -3.0000166575
41.3036011417 2.8069667660 -3.0000166632
37.7260059910 -0.0630360266 -3.0000128550
37.7318412025 -0.0440285506 -3.0000128550
37.7237923621 -0.1465368849 -3.0000128291
37.7281953064 -0.1338826140 -3.0000128291
37.7346591555 -0.1148529191 -3.0000128291
37.7256414621 -0.2117651114 -3.0000128032
37.7397827026 -0.1736821667 -3.0000128032
37.7420737639 -0.1673108664 -3.0000128032
37.7488337234 -0.1481566917 -3.0000128032
37.7510492361 -0.1417587284 -3.0000128032
37.8036507021 0.0332683530 -3.0000128032
37.7228988486 -0.2839394699 -3.0000127772
37.7255161448 -0.2776176326 -3.0000127772
37.7332556670 -0.2586060538 -3.0000127772
37.7783235617 -0.1366840454 -3.0000127772
37.7566620315 -0.3282349651 -3.0000127254
37.8329143387 -0.1256436436 -3.0000127254
37.7647027680 -0.3700916644 -3.0000126994
37.7675747350 -0.3636457866 -3.0000126994
37.7788715480 -0.3377781647 -3.0000126994
37.7925608491 -0.3052586378 -3.0000126994
37.7293314242 -0.5512711071 -3.0000126476
37.8372573186 -0.3236859745 -3.0000126476
37.6346735800 -0.7559626020 -3.0000126216
35.8031354388 -3.4921053806 -3.0000108581
35.8273655045 -3.4907558081 -3.0000108581
35.8394774372 -3.4900272701 -3.0000108581
35.9383421026 -3.5069951257 -3.0000108321
35.9505015885 -3.5059382278 -3.0000108321
35.9626578947 -3.5048453645 -3.0000108321
35.9748109149 -3.5037165455 -3.0000108321
36.0233880082 -3.4988419140 -3.0000108321
35.9526304242 -3.5300173337 -3.0000108062
36.0259438689 -3.5228794442 -3.0000108062
36.0747441269 -3.5173984423 -3.0000108062
36.0898448964 -3.5399350957 -3.0000107803
36.2934308767 -3.5591748119 -3.0000107284
35.8483999348 -3.6347907295 -3.0000107024
36.1484270309 -3.6055797129 -3.0000107024
35.8877075433 -3.6564183993 -3.0000106765
36.3556166961 -3.6218751804 -3.0000106506
35.9802583488 -3.6974269890 -3.0000106246
35.9440565888 -3.7248375634 -3.0000105987
35.9331646506 -3.7499714880 -3.0000105728
35.8327275261 -3.8052115614 -3.0000105209
36.9095745909 -3.6093866458 -3.0000105209
36.9841459668 -3.5852522382 -3.0000105209
35.9520019424 -3.8212026809 -3.0000104950
36.2723721019 -3.8319522295 -3.0000104431
36.2232434231 -3.8636813139 -3.0000104172
36.4993778112 -3.8155730837 -3.0000104172
36.6145942757 -3.8398525190 -3.0000103653
36.6332504502 -3.8603291959 -3.0000103394
36.7182509625 -3.8644934316 -3.0000103134
37.1777188911 -3.7737774856 -3.0000102616
37.7374891816 0.0100614526 -3.0000139234
37.7469086610 -0.0988418966 -3.0000139090
37.7479682199 -0.0922270228 -3.0000139090
37.7510294245 -0.0723640004 -3.0000139090
37.7539142354 -0.0524745938 -3.0000139090
37.7599582350 -0.0059721754 -3.0000139090
37.7629792072 0.0206536279 -3.0000139090
37.7663120423 0.0539830908 -3.0000139090
37.7481249828 -0.2224358836 -3.0000138946
37.7537080826 -0.1959349430 -3.0000138946
37.7563819438 -0.1826601630 -3.0000138946
37.7576894108 -0.1760168988 -3.0000138946
37.7651210129 -0.1360787385 -3.0000138946
37.7685707014 -0.1160617679 -3.0000138946
37.7749364951 -0.0759399281 -3.0000138946
37.7778520989 -0.0558382188 -3.0000138946
37.7805891965 -0.0357114267 -3.0000138946
37.7877273668 0.0248035857 -3.0000138946
37.7915900396 0.0652432335 -3.0000138946
37.7746095298 -0.2141769481 -3.0000138801
37.7760101494 -0.2074796255 -3.0000138801
37.7800930519 -0.1873632083 -3.0000138801
37.7912684476 -0.1268076598 -3.0000138801
37.7946348308 -0.1065590104 -3.0000138801
37.7978213861 -0.0862812837 -3.0000138801
37.7780485673 -0.3067301636 -3.0000138657
37.7846269813 -0.2798692521 -3.0000138657
37.8038041600 -0.1920662535 -3.0000138657
37.8064542560 -0.1784951560 -3.0000138657
37.8605694392 0.0242162653 -3.0000138513
37.8338369976 -0.3795354935 -3.0000138225
37.8304638920 -0.4756876984 -3.0000138081
37.9194334484 -0.0902733868 -3.0000138081
37.9243898233 -0.0546177716 -3.0000138081
37.9451054928 0.2468666535 -3.0000138081
37.8642702606 -0.4482974794 -3.0000137937
37.9237638286 -0.2084470792 -3.0000137937
37.9354495725 -0.1440594678 -3.0000137937
37.9682950165 0.3339550056 -3.0000137937
37.8530819481 -0.6306487078 -3.0000137649
37.9189596164 -0.4338411811 -3.0000137649
37.5127903963 -1.7589613866 -3.0000135632
37.8906819716 3.2713926895 -3.0000129724
36.4474564316 -3.4821699121 -3.0000129580
36.4585301723 -3.4793842495 -3.0000129580
36.4310080807 -3.5111285484 -3.0000129436
36.5200503603 -3.4883088753 -3.0000129436
36.5311419435 -3.4853084399 -3.0000129436
36.5151586217 -3.5146385858 -3.0000129292
36.5820403922 -3.4962272138 -3.0000129292
36.6556187591 -3.4997587427 -3.0000129148
36.7407883085 -3.4982348008 -3.0000129004
36.7519082886 -3.4945813392 -3.0000129004
36.4310033208 -3.6105801095 -3.0000128860
36.7818304454 -3.5100846781 -3.0000128860
36.7929853000 -3.5063097546 -3.0000128860
36.8374915866 -3.4908805794 -3.0000128860
36.8455444363 -3.5136728345 -3.0000128716
36.8567096266 -3.5097094177 -3.0000128716
36.8678630434 -3.5057129896 -3.0000128716
36.8790045894 -3.5016835852 -3.0000128716
36.4189625620 -3.6630569630 -3.0000128572
36.9319731706 -3.5078575416 -3.0000128572
36.4360864862 -3.6838903141 -3.0000128428
36.9964416395 -3.5089251118 -3.0000128428
37.0277191234 -3.5225118930 -3.0000128283
37.1152210696 -3.5125503551 -3.0000128139
37.2128675859 -3.5226265324 -3.0000127851
37.2789030374 -3.5189447236 -3.0000127707
37.3340191705 -3.5195412775 -3.0000127563
37.8090082446 -3.3662744330 -3.0000126987
36.9663371817 -3.8555566615 -3.0000126554
37.7605467096 -0.0946536877 -3.0000155288
37.7605604004 -0.0879545061 -3.0000155288
37.7603315964 -0.0544596031 -3.0000155288
37.7523418121 0.1060886979 -3.0000155288
37.7829915028 -0.1759646717 -3.0000155316
37.7847195876 -0.0947388429 -3.0000155316
37.7833373479 -0.0067359397 -3.0000155316
37.7758408121 0.1148915697 -3.0000155316
37.8310208272 -0.1847587539 -3.0000155374
37.8207001353 0.1535597812 -3.0000155374
37.8184766314 0.1741813544 -3.0000155374
37.8116535464 0.2290673710 -3.0000155374
37.8552829475 0.0097573160 -3.0000155403
37.8543342480 0.0306914550 -3.0000155403
37.8408982681 0.1907578660 -3.0000155403
37.8383438567 0.2115572214 -3.0000155403
37.8814255211 -0.0880227417 -3.0000155432
37.8687540299 -0.5064503219 -3.0000155460
37.9053550875 -0.0523963066 -3.0000155460
37.9173336125 -0.3324222479 -3.0000155489
37.9279192646 -0.1816227652 -3.0000155489
37.8942703752 0.3275101280 -3.0000155489
37.8611339461 -0.7557410158 -3.0000155518
37.9367417978 0.3646499753 -3.0000155547
37.8732818363 0.9735523339 -3.0000155691
36.9301589322 -3.4349212687 -3.0000156930
36.9396770444 -3.4571415483 -3.0000156959
36.9595925826 -3.4485408655 -3.0000156959
36.9794568877 -3.4398225062 -3.0000156959
37.0191319234 -3.4485434280 -3.0000156988
37.0389952016 -3.4394728139 -3.0000156988
37.0789893594 -3.4475154207 -3.0000157017
37.0889244037 -3.4428177388 -3.0000157017
37.1087525853 -3.4333343092 -3.0000157017
37.1292043165 -3.4502937063 -3.0000157045
37.1391473598 -3.4454474673 -3.0000157045
37.1589902208 -3.4356668558 -3.0000157045
37.2503718963 -3.4433603372 -3.0000157103
37.3311371526 -3.4275003487 -3.0000157132
37.3427756510 -3.4486871521 -3.0000157161
37.3725388878 -3.4321650392 -3.0000157161
37.2897556980 3.3857518449 -3.0000157247
37.2794757797 3.3910431133 -3.0000157247
37.5403580106 -3.4460538399 -3.0000157276
37.3420654699 3.3856271957 -3.0000157276
37.5828397087 -3.4483157471 -3.0000157305
37.3534134412 3.4069710199 -3.0000157305
37.6981723493 -3.4319511263 -3.0000157362
37.5004321086 3.3807017737 -3.0000157362
37.7313366072 -3.4389750487 -3.0000157391
37.5228406541 3.3956486707 -3.0000157391
37.6299785823 3.3879065219 -3.0000157449
37.7433126264 -0.0194749726 -3.0000157930
37.7741440677 -0.0545765813 -3.0000157987
37.7682974316 -0.0215951058 -3.0000157987
37.7670696013 -0.0150093899 -3.0000157987
37.7606385249 0.0178631235 -3.0000157987
37.7565467477 0.0375397083 -3.0000157987
37.8166648063 -0.1846317660 -3.0000158045
37.8143678514 -0.1644500054 -3.0000158045
37.7787737168 0.0491868279 -3.0000158045
37.7713918733 0.0822254277 -3.0000158045
37.7585669154 0.1348495779 -3.0000158045
37.7516883347 0.1610441572 -3.0000158045
37.8421415537 -0.1956125029 -3.0000158102
37.8024033963 0.0542832511 -3.0000158102
37.7819831823 0.1408507216 -3.0000158102
37.7767991186 0.1607118852 -3.0000158102
37.8654657044 -0.1862517115 -3.0000158160
37.8639630306 -0.1725061788 -3.0000158160
37.8396076743 -0.0084092488 -3.0000158160
37.8289083281 0.0458544895 -3.0000158160
37.8682954726 -0.0315185484 -3.0000158218
37.8436104890 0.0917534915 -3.0000158218
37.8305398437 0.1460839025 -3.0000158218
37.8944765460 -0.0413194631 -3.0000158275
37.8790801675 0.0419454686 -3.0000158275
37.8504699840 0.1656873726 -3.0000158275
37.9239181443 -0.0725454029 -3.0000158333
37.8907459331 0.1025048189 -3.0000158333
37.8204771487 0.3491874648 -3.0000158333
37.8433399569 0.3570377696 -3.0000158391
37.9362538904 0.1203429321 -3.0000158448
37.9073742125 0.2330304936 -3.0000158448
37.8615968023 0.4486907621 -3.0000158506
37.8563376633 0.4624022925 -3.0000158506
38.0771816050 -0.7438852173 -3.0000158679
37.6261801603 -3.3313766412 -3.0000161099
37.7721311812 -3.3128900529 -3.0000161272
37.8768651234 -3.3224810896 -3.0000161445
37.9517683649 -3.2919846845 -3.0000161503
36.7438646408 3.4629170520 -3.0000162310
36.7323334757 3.4664570642 -3.0000162310
36.8318876654 3.4601295838 -3.0000162367
36.8203643609 3.4639299962 -3.0000162367
36.8088298645 3.4676963040 -3.0000162367
36.7741602339 3.4787902712 -3.0000162367
36.9087980020 3.4594197302 -3.0000162425
36.8857430548 3.4674414901 -3.0000162425
36.8394928014 3.4830751104 -3.0000162425
36.8046854850 3.4944405884 -3.0000162425
36.9745718350 3.4614557689 -3.0000162483
37.0176283625 3.4711949218 -3.0000162540
37.0060715121 3.4755447404 -3.0000162540
37.0725411415 3.4759625944 -3.0000162598
37.1393416219 3.4752644436 -3.0000162655
37.2064544096 3.4734406215 -3.0000162713
37.1948900897 3.4783490118 -3.0000162713
37.2391480857 3.4857025130 -3.0000162771
37.3748430655 3.4775477124 -3.0000162886
37.0689200998 3.6068607902 -3.0000162886
38.0416415202 3.2360066619 -3.0000163174
38.1836178923 3.5193050833 -3.0000163923
38.3064355563 3.5231909125 -3.0000164096
37.8999013456 3.9711103756 -3.0000164500
37.7499290448 0.0044355201 -3.0000152588
37.7359082241 0.0416473571 -3.0000152588
37.7632504958 0.0378610974 -3.0000152588
37.7560254878 0.0566150274 -3.0000152588
37.7953197727 0.0210795265 -3.0000152588
37.7582519924 0.1156249739 -3.0000152588
37.7312256396 0.1777014453 -3.0000152588
37.8035404904 0.0678178384 -3.0000152588
37.7616323026 0.1689431913 -3.0000152588
37.7548346031 0.2415262411 -3.0000152588
37.8585575068 0.0591476991 -3.0000152588
37.8460982257 0.0917756079 -3.0000152588
37.8331577279 0.1242156700 -3.0000152588
37.7829902300 0.2941027385 -3.0000152588
37.9909091584 -0.2101873119 -3.0000152588
37.8383664222 0.2340707454 -3.0000152588
37.7686300181 0.3745026587 -3.0000152588
37.9003148630 0.1515823788 -3.0000152588
37.8326574539 0.3026896250 -3.0000152588
37.8165989265 0.3349078224 -3.0000152588
37.8607233455 0.3002308214 -3.0000152588
37.7866369489 0.4419766398 -3.0000152588
38.1048568432 -0.4242719215 -3.0000152588
37.9133942345 0.2441162293 -3.0000152588
37.6699445437 0.6706971714 -3.0000152588
38.1102232470 -0.1895501893 -3.0000152588
38.1999737301 -0.8438871905 -3.0000152588
38.1612538652 -0.3172424670 -3.0000152588
38.1528774547 -0.2726796955 -3.0000152588
38.3218298238 -0.7367354372 -3.0000152588
37.4855325643 1.1764081420 -3.0000152588
38.3120426507 -0.3389574971 -3.0000152588
38.3647416517 -0.3634304835 -3.0000152588
37.9646182679 -3.2219494207 -3.0000152588
36.2031639010 3.4676679651 -3.0000152588
36.1655627151 3.4724419407 -3.0000152588
36.2943709766 3.4791288300 -3.0000152588
36.2818076713 3.4810269869 -3.0000152588
36.2566644903 3.4847117659 -3.0000152588
36.2440848347 3.4864983558 -3.0000152588
36.2189099435 3.4899598581 -3.0000152588
36.3358849593 3.4970745798 -3.0000152588
36.2853835687 3.5049340620 -3.0000152588
36.4961877522 3.5173411466 -3.0000152588
36.4835105249 3.5198361468 -3.0000152588
36.6405940592 3.5109723538 -3.0000152588
36.7602172774 3.5063826302 -3.0000152588
36.8870137960 3.5216604632 -3.0000152588
36.2743571875 3.7019391656 -3.0000152588
37.0737933217 3.5396295221 -3.0000152588
36.8098493482 3.6433095662 -3.0000152588
36.5118898227 3.7359403478 -3.0000152588
36.3454234223 3.8136783228 -3.0000152588
37.9642754427 3.4119741626 -3.0000152588
36.7005882444 3.8940195396 -3.0000152588
37.7353072728 0.0649180393 -3.0000152588
37.7090517361 0.2400727869 -3.0000152588
37.8755464977 0.2065813868 -3.0000152588
37.8326881545 0.2731758602 -3.0000152588
37.5305778050 0.8092773643 -3.0000152588
38.5074961514 -1.0706416317 -3.0000152588
35.6214952904 3.4801629757 -3.0000152588
35.5945362469 3.4789812213 -3.0000152588
35.6882895286 3.5065842089 -3.0000152588
35.6340616008 3.5048497128 -3.0000152588
35.6069562824 3.5037418729 -3.0000152588
35.5934061996 3.5031278209 -3.0000152588
36.1937278533 3.5403836479 -3.0000152588
36.0432969265 3.5504964888 -3.0000152588
36.2643496509 3.5582265340 -3.0000152588
35.6175466179 3.5767744269 -3.0000152588
36.1839514126 3.5896949516 -3.0000152588
35.6573090684 3.6266005305 -3.0000152588
36.5489977543 3.5947415937 -3.0000152588
36.6680449227 3.6234494130 -3.0000152588
36.8865107511 3.6277850984 -3.0000152588
36.8725881275 3.6309556573 -3.0000152588
36.4718612439 3.7527742359 -3.0000152588
36.6898040351 3.7423397956 -3.0000152588
37.1058737066 3.6723585552 -3.0000152588
35.8688022582 3.8461848212 -3.0000152588
37.4138423603 3.6283618357 -3.0000152588
37.6160332975 3.5803649911 -3.0000152588
39.8181651773 -4.0971362447 -3.0000152588
41.3215242601 -3.2178368847 -3.0000152588
37.7247698544 0.0997545428 -3.0000152588
37.7077190076 0.1919923192 -3.0000152588
38.0093638616 0.0058992365 -3.0000152588
38.1361174131 -0.1513618303 -3.0000152588
38.1144289979 -0.1140030671 -3.0000152588
37.6561102964 0.5125027711 -3.0000152588
37.4483840242 0.6757795889 -3.0000152588
38.2910706693 -0.2932863933 -3.0000152588
38.1538059286 -0.0389688022 -3.0000152588
38.4579726026 -0.5895603910 -3.0000152588
37.3959590813 0.7982303371 -3.0000152588
37.5840118482 0.6962757908 -3.0000152588
37.3636784012 0.8468841819 -3.0000152588
37.1946526196 0.9686067408 -3.0000152588
38.5595952047 -0.6798091593 -3.0000152588
38.6305139209 -0.8879384966 -3.0000152588
38.6835415938 -0.9109086584 -3.0000152588
38.6288883513 -0.5696970047 -3.0000152588
37.0075426666 1.2101207119 -3.0000152588
35.3956032884 3.5536226286 -3.0000152588
35.3810866298 3.5517525838 -3.0000152588
35.0633601970 3.4997820801 -3.0000152588
35.0203180224 3.4910968072 -3.0000152588
35.7440065192 3.6097219901 -3.0000152588
35.5826423686 3.5980983285 -3.0000152588
35.5240704638 3.5925706278 -3.0000152588
35.4948100642 3.5895469767 -3.0000152588
35.9346583116 3.6408515291 -3.0000152588
35.8164737584 3.6374213423 -3.0000152588
35.0830254656 3.5528472413 -3.0000152588
36.1718340872 3.6634808104 -3.0000152588
35.9193944126 3.6647438498 -3.0000152588
35.6968450494 3.6553182234 -3.0000152588
36.1576462278 3.6880706092 -3.0000152588
36.1278097296 3.6887937336 -3.0000152588
35.1283946074 3.6349833998 -3.0000152588
36.1438998960 3.7367861000 -3.0000152588
35.7222440184 3.7295400322 -3.0000152588
35.0648822600 3.6478219148 -3.0000152588
36.5672927181 3.7331564594 -3.0000152588
36.4316603691 3.7459092181 -3.0000152588
36.1898783073 3.7596503214 -3.0000152588
35.1676326675 3.7644117105 -3.0000152588
35.5592255107 3.8629685230 -3.0000152588
41.2892060754 -2.1905338839 -3.0000152588
41.3054199440 -2.2412574093 -3.0000152588
41.3179559530 -2.1629944730 -3.0000152588
41.3314691787 -2.0688470145 -3.0000152588
41.2146626767 -2.8571628933 -3.0000152588
41.3110261340 -3.0389004486 -3.0000152588
37.5013879581 0.5689523993 -3.0000152588
37.5689008703 0.6417227035 -3.0000152588
37.5357379820 0.6605684791 -3.0000152588
41.0950088415 -2.4872210838 -3.0000152588
41.1077385424 -2.4158805527 -3.0000152588
41.1594334427 -2.0134826569 -3.0000152588
41.0038708066 -2.9731276537 -3.0000152588
41.0805651391 -2.6770825381 -3.0000152588
41.1859428828 -1.9865385287 -3.0000152588
41.2018482687 -1.5791423813 -3.0000152588
41.1737424694 -2.3083771680 -3.0000152588
41.2153783105 -1.9154935236 -3.0000152588
41.1817647096 -2.5484637367 -3.0000152588
41.2679223270 -1.8448927738 -3.0000152588
41.2735435635 -1.6824211739 -3.0000152588
41.2658060369 -1.2983232979 -3.0000152588
41.2930656597 -1.3562294197 -3.0000152588
41.2678054739 -2.6113153393 -3.0000152588
35.2837886928 3.6993802595 -3.0000152588
34.9572745060 3.6274406844 -3.0000152588
34.8802373641 3.6073329074 -3.0000152588
35.3107803858 3.7289539144 -3.0000152588
35.6241220358 3.8008456678 -3.0000152588
35.0178468854 3.7169641332 -3.0000152588
34.5523733513 3.5843721652 -3.0000152588
34.4520612718 3.6267283671 -3.0000152588
34.3574321500 3.6956349448 -3.0000152588
37.6306606478 0.1961950671 -3.0000152588
37.6538645468 0.2111454738 -3.0000152588
37.7185564230 0.2025955115 -3.0000152588
37.7068130706 0.2093381367 -3.0000152588
37.7777149634 0.1955692747 -3.0000152588
37.7542675688 0.2096854126 -3.0000152588
37.8313548468 0.1905723801 -3.0000152588
37.8138271669 0.2016617303 -3.0000152588
37.6702052970 0.2846903055 -3.0000152588
37.8928600351 0.2082015347 -3.0000152588
37.9180865586 0.2204148863 -3.0000152588
37.6789948899 0.3619578606 -3.0000152588
38.0198190332 0.1782211146 -3.0000152588
37.4940461513 0.4739287166 -3.0000152588
38.1316998847 0.1217113263 -3.0000152588
37.4490940240 0.5176776620 -3.0000152588
38.2031085602 0.0930081723 -3.0000152588
37.2345382502 0.6135002660 -3.0000152588
38.4601807515 -0.1295194273 -3.0000152588
37.9473549014 0.3170499320 -3.0000152588
37.1967761150 0.6735387701 -3.0000152588
37.2731910792 0.7532930733 -3.0000152588
38.2360677249 0.2860831213 -3.0000152588
37.1808592518 0.8018690735 -3.0000152588
41.0058926290 -2.3084547151 -3.0000152588
41.0074396965 -2.2953391958 -3.0000152588
41.0104174038 -2.2690947147 -3.0000152588
41.0184181963 -2.1902620021 -3.0000152588
41.0259823552 -2.0981284724 -3.0000152588
41.0329018087 -1.9794754977 -3.0000152588
41.0412454237 -2.2057089308 -3.0000152588
41.0491245300 -2.1130994330 -3.0000152588
41.0550843918 -2.0203466463 -3.0000152588
41.0581649401 -1.9540289562 -3.0000152588
41.0612369842 -1.8345703316 -3.0000152588
41.0599172664 -2.2611320683 -3.0000152588
41.1092583009 -1.7009652558 -3.0000152588
41.1291145799 -1.5656989338 -3.0000152588
41.1262727107 -1.5118041793 -3.0000152588
41.1237229185 -1.4714072442 -3.0000152588
41.1197657237 -1.4175828873 -3.0000152588
41.1259045195 -2.3227909697 -3.0000152588
41.1305517946 -2.2823653665 -3.0000152588
41.1449173388 -1.4291907900 -3.0000152588
41.1515042261 -2.3121166058 -3.0000152588
41.1819036068 -1.8497030706 -3.0000152588
41.1437946279 -1.1832368821 -3.0000152588
41.1969809043 -1.4801951090 -3.0000152588
41.1622699520 -1.1393608701 -3.0000152588
41.1523086558 -1.0715542296 -3.0000152588
41.1979116538 -2.3313927224 -3.0000152588
41.2150420616 -1.3961891899 -3.0000152588
41.1761983453 -1.0678639699 -3.0000152588
41.1628533670 -0.9862781550 -3.0000152588
41.2519217995 -1.9477331246 -3.0000152588
41.2549371445 -1.7954193905 -3.0000152588
41.1691872396 -0.8868060808 -3.0000152588
41.2556226082 -1.3090351183 -3.0000152588
41.1762745789 -0.8003467610 -3.0000152588
41.1674090323 -0.7595341036 -3.0000152588
41.3181463645 -2.0767708767 -3.0000152588
41.2084330644 -0.7216188258 -3.0000152588
41.1988675851 -0.6805238801 -3.0000152588
41.3218008930 -1.2455674406 -3.0000152588
41.2256321109 -0.6886977809 -3.0000152588
41.3731996216 -1.9378920373 -3.0000152588
41.3757626217 -1.7532228097 -3.0000152588
41.3532291956 -1.3135194958 -3.0000152588
41.2289837642 -0.6003625235 -3.0000152588
41.1997915337 -0.4905174901 -3.0000152588
41.1842226704 -0.4358617222 -3.0000152588
41.3913964640 -2.0670616469 -3.0000152588
41.2114040349 -0.4428172612 -3.0000152588
41.1403209105 -0.0734564252 -3.0000152588
41.1264945434 0.0296705691 -3.0000152588
34.9957018247 3.8212528737 -3.0000152588
34.7172115988 3.7862157110 -3.0000152588
34.7007570446 3.7807015077 -3.0000152588
34.5287472343 3.7455624757 -3.0000152588
37.5313408282 0.2356359171 -3.0000152588
37.5249824102 0.2375058796 -3.0000152588
37.6528665901 0.2215613888 -3.0000152588
37.4736816070 0.2768602576 -3.0000152588
37.7244153046 0.2207764384 -3.0000152588
37.7117774994 0.2256400993 -3.0000152588
37.6991111403 0.2304289056 -3.0000152588
37.6736945350 0.2397812865 -3.0000152588
37.6609451784 0.2443445338 -3.0000152588
37.6481690473 0.2488322717 -3.0000152588
37.7902659327 0.2202616096 -3.0000152588
37.7996116283 0.2425549552 -3.0000152588
37.5723092515 0.3495493327 -3.0000152588
37.6999070298 0.3331089283 -3.0000152588
37.4414938415 0.4342610961 -3.0000152588
36.5621687441 0.8392282960 -3.0000152588
39.2722044924 0.5537141900 -3.0000152588
40.9921204566 -1.6968613376 -3.0000152588
41.0125957344 -1.6346723739 -3.0000152588
41.0117547946 -1.6224960464 -3.0000152588
41.0099648745 -1.5981511207 -3.0000152588
41.0037313815 -1.5251858453 -3.0000152588
40.9988566821 -1.4766087588 -3.0000152588
41.0277974679 -1.5229145531 -3.0000152588
41.0188375353 -1.4374465431 -3.0000152588
41.0097504310 -1.3643491069 -3.0000152588
41.0353253398 -1.3733966495 -3.0000152588
41.0320612515 -1.3489166322 -3.0000152588
41.0413102363 -1.1082496180 -3.0000152588
41.1756070787 -1.5472512449 -3.0000152588
41.2071874657 -1.6471352921 -3.0000152588
41.1287598337 -1.0522282972 -3.0000152588
41.0737291082 -0.8158098207 -3.0000152588
41.2320861978 -1.6584738996 -3.0000152588
41.0837619045 -0.7600383310 -3.0000152588
41.2632694750 -1.4484939215 -3.0000152588
41.2238245803 -1.1654573150 -3.0000152588
41.1094001748 -0.5904220216 -3.0000152588
41.3300732942 -1.6790401444 -3.0000152588
41.1123340266 -0.5206700522 -3.0000152588
41.3734512008 -1.5969784389 -3.0000152588
41.3682894398 -1.5307902071 -3.0000152588
41.2164743147 -0.6959609270 -3.0000152588
41.3215479938 -0.6238682205 -3.0000152588
37.5856083593 0.2490156636 -3.0000152588
37.5723633103 0.2510368432 -3.0000152588
37.4660198024 0.2643786026 -3.0000152588
37.7290499741 0.2466881196 -3.0000152588
37.4212616229 0.2927249960 -3.0000152588
37.5252887680 0.3063069263 -3.0000152588
37.5117058203 0.3079702322 -3.0000152588
37.5967600715 0.3206721836 -3.0000152588
40.9929878786 -1.0969020421 -3.0000152588
40.9963597075 -0.8332389309 -3.0000152588
40.9894579463 -0.8110196596 -3.0000152588
41.0100868272 -0.7181520652 -3.0000152588
37.6616204732 0.2593156044 -3.0000152588
37.6281358557 0.2601765739 -3.0000152588
37.5209602292 0.2596027266 -3.0000152588
37.4406619735 0.2558445320 -3.0000152588
37.4206122067 0.2544598009 -3.0000152588
37.6827182491 0.2827130653 -3.0000152588
37.5405647488 0.2842648459 -3.0000152588
37.4255928844 0.2790542393 -3.0000152588
37.3985891171 0.2769884681 -3.0000152588
37.3581340223 0.2732910829 -3.0000152588
37.6837326561 0.3068647994 -3.0000152588
37.5469188327 0.3085606787 -3.0000152588
37.5058800250 0.3074909029 -3.0000152588
37.4922054399 0.3069724665 -3.0000152588
37.4443735713 0.3045210406 -3.0000152588
37.6156379015 0.3328957855 -3.0000152588
37.5672428070 0.3329945718 -3.0000152588
37.8485812100 0.3669997371 -3.0000152588
37.4526569913 0.4018649716 -3.0000152588
38.2340002886 0.3922186027 -3.0000152588
38.0407456846 0.4362272051 -3.0000152588
38.4885686609 0.3602819223 -3.0000152588
38.2470070169 0.7630083647 -3.0000152588
38.1731118037 0.7796062590 -3.0000152588
36.8662046880 0.7729456489 -3.0000152588
40.9391398317 -0.5797485110 -3.0000152588
40.9571320050 -0.5603193650 -3.0000152588
40.9398128671 -0.5205395635 -3.0000152588
40.9440130522 -0.4709261704 -3.0000152588
40.9568126819 -0.4409186117 -3.0000152588
40.9380807612 -0.4011509473 -3.0000152588
40.9333243586 -0.3912438814 -3.0000152588
40.9502837064 -0.3707921094 -3.0000152588
40.9485253396 -0.2595618896 -3.0000152588
40.9436448134 -0.1985794994 -3.0000152588
40.9432934214 -0.0019146349 -3.0000152588
40.9277673360 0.0700936177 -3.0000152588
34.1192873320 0.0004192245 -3.0000152588
34.1247687831 0.1504851591 -3.0000152588
34.1057845968 0.1196778850 -3.0000152588
40.7133635099 0.7615299720 -3.0000152588
37.6044384410 0.2576042562 -3.0000152588
37.5913325250 0.2556194301 -3.0000152588
37.5782385812 0.2535570998 -3.0000152588
37.6141485049 0.2834431851 -3.0000152588
37.4624615913 0.2565536288 -3.0000152588
37.4297504617 0.2493464880 -3.0000152588
37.5772621245 0.3023552736 -3.0000152588
37.5438610134 0.2968410671 -3.0000152588
37.4905995071 0.2869925817 -3.0000152588
37.4177758746 0.2713987626 -3.0000152588
37.3848500676 0.2635290790 -3.0000152588
37.3258908316 0.2481398393 -3.0000152588
37.5128058450 0.3158444653 -3.0000152588
37.4859232748 0.3107089923 -3.0000152588
37.4792122740 0.3093754500 -3.0000152588
37.3194750414 0.2714459097 -3.0000152588
37.5152108893 0.3408615832 -3.0000152588
37.4406216382 0.3260399609 -3.0000152588
37.2599118072 0.2794425546 -3.0000152588
37.4834260823 0.3594829564 -3.0000152588
37.1929939952 0.2836758512 -3.0000152588
37.7654887232 0.4210047836 -3.0000152588
37.4442337664 0.3762340487 -3.0000152588
37.1787171482 0.3044074657 -3.0000152588
37.5725467332 0.4239250053 -3.0000152588
37.1981714376 0.3361988404 -3.0000152588
37.1157814454 0.3338333523 -3.0000152588
38.3038041321 0.5691303324 -3.0000152588
36.7099883992 0.2841623167 -3.0000152588
37.8737956203 0.6196152870 -3.0000152588
37.0527040606 0.4652754125 -3.0000152588
36.9319753179 0.4179420821 -3.0000152588
37.8959902106 0.6683835687 -3.0000152588
37.9430456396 0.7894975148 -3.0000152588
36.1307269036 0.1793097584 -3.0000152588
36.7671674415 0.7418421163 -3.0000152588
35.8646536199 0.6794403140 -3.0000152588
40.8546359238 -0.0354623265 -3.0000152588
40.8316762305 -0.0010311199 -3.0000152588
40.8458646441 0.0211230258 -3.0000152588
40.8436613577 0.1090043193 -3.0000152588
40.8375323443 0.1176044561 -3.0000152588
40.8241612647 0.3361111436 -3.0000152588
40.7888242877 0.4927941713 -3.0000152588
40.7788631853 0.8254545307 -3.0000152588
34.0442663468 -0.7330971900 -3.0000152588
34.0370840622 -0.7561278508 -3.0000152588
34.0398715465 -0.6681048268 -3.0000152588
34.0360711320 -0.6796281306 -3.0000152588
34.0323048222 -0.6911626263 -3.0000152588
34.0365534819 -0.6027160307 -3.0000152588
34.0285999536 -0.6257946054 -3.0000152588
34.0207831050 -0.6489198319 -3.0000152588
34.0169260214 -0.6604996867 -3.0000152588
34.0343228933 -0.5369485081 -3.0000152588
34.0288062425 -0.4823641277 -3.0000152588
40.8192639254 1.0908105304 -3.0000152588
34.0285850316 -0.4158935529 -3.0000152588
34.0240385800 -0.4274513478 -3.0000152588
34.0247367430 -0.3606508676 -3.0000152588
34.0167780234 -0.3166811874 -3.0000152588
34.0283143582 -0.1699948385 -3.0000152588
33.8886394262 -0.4430307637 -3.0000152588
33.8027851117 -0.4663561311 -3.0000152588
34.1233604228 0.2741772726 -3.0000152588
33.8359183014 -0.3116838063 -3.0000152588
33.8435274613 -0.2298093659 -3.0000152588
37.3719050490 0.2529960250 -3.0000152588
37.4963583003 0.3272873153 -3.0000152588
37.3123312437 0.2532462876 -3.0000152588
37.2998833133 0.2475619158 -3.0000152588
37.9446785979 0.8025292916 -3.0000152588
38.6331721182 0.8700015781 -3.0000152588
36.5664124381 0.6641337021 -3.0000152588
34.0323407743 -1.2968336713 -3.0000152588
34.0307123734 -1.3093626741 -3.0000152588
34.0208799154 -1.2056265950 -3.0000152588
34.0171207728 -1.2307587654 -3.0000152588
34.0100488823 -1.2810876274 -3.0000152588
34.0113906596 -1.1137077535 -3.0000152588
34.0009132833 -1.1767291846 -3.0000152588
33.9803421716 -0.6955971653 -3.0000152588
33.9551273698 -0.6062664311 -3.0000152588
33.9318621639 -0.3595952790 -3.0000152588
33.9400347971 -0.1293180927 -3.0000152588
33.7428286092 -0.7456036656 -3.0000152588
33.6803501854 -1.0421677414 -3.0000152588
33.9762700270 0.0202147882 -3.0000152588
34.0623149414 0.3659695145 -3.0000152588
33.7264965186 -0.3635775423 -3.0000152588
37.4928378516 0.2407128954 -3.0000152588
37.4871245725 0.2374970090 -3.0000152588
37.4643673365 0.2244648789 -3.0000152588
37.4361402500 0.2077975498 -3.0000152588
37.4810118548 0.2617956153 -3.0000152588
37.4055132930 0.2457877033 -3.0000152588
37.2655552467 0.2129444576 -3.0000152588
37.2595211312 0.2963757195 -3.0000152588
37.1442412161 0.2149892332 -3.0000152588
37.1757155229 0.2680259469 -3.0000152588
37.1126815273 0.2213953271 -3.0000152588
36.9870644798 0.1822314559 -3.0000152588
37.9561321824 0.7609234674 -3.0000152588
38.5785999923 0.9591594218 -3.0000152588
34.0166995357 -1.7706017936 -3.0000152588
34.0210125187 -1.9054527780 -3.0000152588
33.9920576974 -1.6489456745 -3.0000152588
33.9934097152 -1.8116994421 -3.0000152588
33.9975200230 -1.9201309861 -3.0000152588
33.9729668911 -1.4715396680 -3.0000152588
33.9702062700 -1.5396606440 -3.0000152588
33.9687233945 -1.5941821735 -3.0000152588
33.9676934445 -1.7032587846 -3.0000152588
33.9678393097 -1.7305293595 -3.0000152588
33.9733768695 -1.9213324111 -3.0000152588
33.9509727024 -1.4293176631 -3.0000152588
33.9234688566 -1.1781696810 -3.0000152588
33.9219685063 -1.1919381981 -3.0000152588
33.8802325704 -1.3974093635 -3.0000152588
33.8489648593 -1.5496458548 -3.0000152588
33.8485637287 -1.5636331429 -3.0000152588
33.8470259948 -1.6475762205 -3.0000152588
33.8843661794 -0.7902629639 -3.0000152588
33.8740220917 -0.8458526556 -3.0000152588
33.7865893622 -1.3488251793 -3.0000152588
33.7789033407 -1.9025597782 -3.0000152588
33.8597761404 -0.6692238729 -3.0000152588
33.8508832108 -0.7111277167 -3.0000152588
33.8187248632 -0.6308068440 -3.0000152588
33.8393453087 -0.3520172913 -3.0000152588
33.8314990217 -0.3800708659 -3.0000152588
33.8759287455 -0.1494732912 -3.0000152588
33.8536248660 -0.2191741115 -3.0000152588
33.6292886354 -1.6747946184 -3.0000152588
33.9160580804 0.0385462341 -3.0000152588
33.8812200181 -0.0583354016 -3.0000152588
33.6071774911 -1.8364785085 -3.0000152588
33.9704180541 0.3033815495 -3.0000152588
34.0749034676 0.5831826475 -3.0000152588
37.3652837825 0.1942901255 -3.0000152588
37.3145066390 0.1808161023 -3.0000152588
37.2666411239 0.2022349498 -3.0000152588
37.6954406589 0.6605764393 -3.0000152588
36.9866594299 0.1181908179 -3.0000152588
37.8101944364 0.7722697541 -3.0000152588
37.7440496076 0.7403934396 -3.0000152588
37.5020436706 0.6018065391 -3.0000152588
36.9352869488 0.0944994532 -3.0000152588
37.6284369046 0.7064459875 -3.0000152588
38.1334502364 0.9964974236 -3.0000152588
38.0605318773 0.9740841176 -3.0000152588
38.1811995959 1.0849586291 -3.0000152588
38.0906092757 1.0594432996 -3.0000152588
36.2957776786 -0.4773003478 -3.0000152588
33.9376835091 -2.0317302485 -3.0000152588
33.9625504691 -2.2203625472 -3.0000152588
33.8887412297 -1.7266143290 -3.0000152588
33.9364691567 -2.2094365458 -3.0000152588
33.9526375039 -2.3111141070 -3.0000152588
33.9681692759 -2.3979841443 -3.0000152588
34.0070950337 -2.5851735668 -3.0000152588
33.8594366582 -1.5801149540 -3.0000152588
33.9288050031 -2.3151572723 -3.0000152588
33.8343559182 -1.4469485376 -3.0000152588
33.7924577277 -1.2218335519 -3.0000152588
33.7794314735 -1.0552629001 -3.0000152588
33.7842603059 -1.9580040097 -3.0000152588
33.7701808555 -0.9026121013 -3.0000152588
33.7593259861 -1.0080129657 -3.0000152588
33.7533777975 -0.8394819635 -3.0000152588
33.7361281150 -1.9625464018 -3.0000152588
33.7438059742 -0.7304888489 -3.0000152588
33.7221430188 -0.8971616546 -3.0000152588
33.7187875430 -0.9275372248 -3.0000152588
33.7305738840 -2.1318697414 -3.0000152588
33.6460519350 -2.0332999943 -3.0000152588
33.6346560297 -2.1440816101 -3.0000152588
39.7217101904 3.7841641483 -3.0000152588
40.3741770794 3.6593155921 -3.0000152588
40.3132658602 3.6769361075 -3.0000152588
40.2980058108 3.6812285237 -3.0000152588
33.5880574655 -2.4694323341 -3.0000152588
40.5632732719 3.6250703458 -3.0000152588
40.2584546210 3.7171711592 -3.0000152588
40.0265577786 3.7743282190 -3.0000152588
39.7295685103 3.8318672712 -3.0000152588
39.6981293712 3.8369508818 -3.0000152588
39.7650472278 3.8504256429 -3.0000152588
40.8591743859 3.5943427856 -3.0000152588
40.1821072522 4.0111572427 -3.0000152588
37.6834140904 0.8227633048 -3.0000152588
36.8743618347 -0.0009238012 -3.0000152588
37.8941552609 1.0352631837 -3.0000152588
36.8320145465 0.0224010420 -3.0000152588
36.6346045347 0.0105117804 -3.0000152588
38.0904612252 1.3636558878 -3.0000152588
39.7550075867 3.6080803719 -3.0000152588
39.7407170355 3.6100237656 -3.0000152588
39.6118612100 3.6256096768 -3.0000152588
40.2140987300 3.5472147252 -3.0000152588
40.0867471527 3.5754245627 -3.0000152588
39.5134648521 3.6594401681 -3.0000152588
39.4845784289 3.6618547262 -3.0000152588
40.3608979841 3.5352620777 -3.0000152588
40.3186317589 3.5463451997 -3.0000152588
40.2904003518 3.5535253750 -3.0000152588
39.2393182783 3.6996317048 -3.0000152588
39.2247591580 3.7000491957 -3.0000152588
40.1252180849 3.6167268062 -3.0000152588
39.9672526408 3.6478159355 -3.0000152588
39.0790667078 3.7260277792 -3.0000152588
39.1672546049 3.7496287813 -3.0000152588
39.0643008449 3.7501437834 -3.0000152588
38.9466559485 3.7481219552 -3.0000152588
38.7997211495 3.7416809395 -3.0000152588
39.5534727350 3.7772057619 -3.0000152588
38.8858853083 3.7943728972 -3.0000152588
38.7079868176 3.7839363183 -3.0000152588
39.1236030153 3.8226281072 -3.0000152588
39.5429948349 3.8267056103 -3.0000152588
40.1161407087 3.7914953122 -3.0000152588
39.9565642478 3.8460245040 -3.0000152588
33.7812568367 -1.9457512425 -3.0000152588
33.7530962775 -1.9174488392 -3.0000152588
33.8223285680 -2.3255337322 -3.0000152588
33.8610270047 -2.4963589522 -3.0000152588
33.6960870670 -1.5863550475 -3.0000152588
33.9224353399 -2.8104698580 -3.0000152588
33.6883793035 -1.7800764492 -3.0000152588
33.7257492731 -2.0668195243 -3.0000152588
33.8946313451 -2.8022075570 -3.0000152588
33.9088612403 -2.8482593633 -3.0000152588
33.6876550506 -1.9748011714 -3.0000152588
33.6659745421 -1.9941890324 -3.0000152588
33.9179299513 -3.1708896207 -3.0000152588
33.7424775229 -2.8831172337 -3.0000152588
33.5935856177 -2.7176379425 -3.0000152588
37.3038783373 0.0785624149 -3.0000152588
37.3038120533 0.1306529060 -3.0000152588
37.2914359961 0.1072083899 -3.0000152588
37.2823364764 0.0895297988 -3.0000152588
37.2704485103 0.0658340526 -3.0000152588
37.3050652039 0.1831723996 -3.0000152588
37.3017898280 0.1773285025 -3.0000152588
37.2638428898 0.1064626873 -3.0000152588
37.3080100114 0.2835428471 -3.0000152588
37.3131655106 0.3371677189 -3.0000152588
37.3080853923 0.3736536326 -3.0000152588
37.2416564686 0.2669177795 -3.0000152588
37.3626219846 0.5339444680 -3.0000152588
36.8924719075 -0.2442645476 -3.0000152588
37.5876448589 1.2696184780 -3.0000152588
39.7664445768 3.4863850792 -3.0000152588
39.7403251328 3.4891921567 -3.0000152588
39.5454207053 3.5294420071 -3.0000152588
39.0013140459 3.5772019649 -3.0000152588
38.9596518183 3.5986740357 -3.0000152588
39.3624550702 3.6333302777 -3.0000152588
39.0926618363 3.6302902464 -3.0000152588
38.9983399025 3.6254564527 -3.0000152588
38.8100973540 3.6099358461 -3.0000152588
38.6729170299 3.6180450507 -3.0000152588
39.7378857879 3.7324106861 -3.0000152588
39.5445809072 3.7474176071 -3.0000152588
39.5054025530 3.7978816794 -3.0000152588
38.1395192446 3.6889308250 -3.0000152588
38.1062981178 3.7055428429 -3.0000152588
39.7072985076 3.8566836342 -3.0000152588
37.6978505516 3.6337124495 -3.0000152588
37.2759764913 0.0693601692 -3.0000152588
37.2569955114 0.0058619083 -3.0000152588
37.2739967577 0.1402129228 -3.0000152588
37.2696312672 0.1275456823 -3.0000152588
37.2792221613 0.2244028273 -3.0000152588
37.2767809762 0.2180875249 -3.0000152588
37.2489507142 0.1417586440 -3.0000152588
37.2180008151 0.0450375723 -3.0000152588
37.2718852133 0.2712879977 -3.0000152588
37.2693053655 0.2649507860 -3.0000152588
37.2667442756 0.2586059705 -3.0000152588
37.2616784589 0.2458937498 -3.0000152588
37.2628273748 0.3123355148 -3.0000152588
37.1943871685 0.1313123788 -3.0000152588
37.2125787471 0.4917406292 -3.0000152588
37.2750295064 0.6573446055 -3.0000152588
37.5033544906 1.0194827040 -3.0000152588
37.2183278797 0.6560332815 -3.0000152588
36.7379984105 -0.6657872635 -3.0000152588
36.7212104213 -0.3950245735 -3.0000152588
37.2366483096 1.3024031493 -3.0000152588
39.1968642885 3.4921054259 -3.0000152588
39.1726342228 3.4907558517 -3.0000152588
38.9766117186 3.4988419446 -3.0000152588
38.9402186107 3.4948089483 -3.0000152588
38.9862657875 3.5241594711 -3.0000152588
38.8400235276 3.5064187064 -3.0000152588
38.7634006275 3.5194831822 -3.0000152588
38.7268327362 3.5135572443 -3.0000152588
38.6861347153 3.5311151721 -3.0000152588
38.3342464524 3.5535438125 -3.0000152588
38.8293253461 3.6757551875 -3.0000152588
38.1735781233 3.5589803306 -3.0000152588
38.6186996921 3.6908936606 -3.0000152588
38.1790699328 3.5858166588 -3.0000152588
39.0778725909 3.7750786793 -3.0000152588
39.1411901913 3.8036814738 -3.0000152588
37.9663825535 3.5684289408 -3.0000152588
37.9708813396 3.5955524285 -3.0000152588
39.1118581047 3.8502331054 -3.0000152588
38.4071868298 3.7456456364 -3.0000152588
38.1011713614 3.6633490505 -3.0000152588
37.5576764654 3.5891936994 -3.0000152588
38.0996467247 4.1663999025 -3.0000152588
37.2625146667 -0.0100611859 -3.0000152588
37.2603607997 -0.0298271844 -3.0000152588
37.2552730019 0.1120623641 -3.0000152588
37.2476621648 0.2025666113 -3.0000152588
37.2185419969 0.0289974685 -3.0000152588
37.2090077265 -0.0584983557 -3.0000152588
37.2282549943 0.2275592883 -3.0000152588
37.2199108227 0.1873634806 -3.0000152588
37.2032246644 0.0930439328 -3.0000152588
37.1875333785 -0.0290975902 -3.0000152588
37.2169917054 0.2865920209 -3.0000152588
37.1752481879 0.0694107777 -3.0000152588
37.1656697103 -0.0060311844 -3.0000152588
37.1565733954 -0.1093287853 -3.0000152588
37.1576428643 0.1142764049 -3.0000152588
37.2175719642 0.5426703540 -3.0000152588
37.1322589588 0.2410832912 -3.0000152588
37.0895959084 0.1471588318 -3.0000152588
37.0785245799 0.0760202602 -3.0000152588
38.6246042770 3.4746432369 -3.0000152588
38.5694228710 3.4614542851 -3.0000152588
38.5304086885 3.4765659387 -3.0000152588
38.4972630337 3.4679144899 -3.0000152588
38.3110414029 3.4894556522 -3.0000152588
38.2888633322 3.4824226230 -3.0000152588
38.2037256382 3.4796391686 -3.0000152588
38.1403288254 3.4829689265 -3.0000152588
38.1292545246 3.4789638433 -3.0000152588
38.5749477722 3.6368193757 -3.0000152588
37.9701505981 3.4955970938 -3.0000152588
38.4180881443 3.6719082137 -3.0000152588
37.8624760002 3.5029952191 -3.0000152588
37.6876114057 3.5031096623 -3.0000152588
38.0502657494 3.7331552800 -3.0000152588
37.4430271071 3.5140889148 -3.0000152588
37.1685992631 -0.0557826461 -3.0000152588
37.0472138747 0.0385369193 -3.0000152588
37.0230453235 0.0390021258 -3.0000152588
37.0015008897 0.1103663427 -3.0000152588
36.5783443829 0.5579851211 -3.0000152588
36.5734776152 -0.5344062028 -3.0000152588
36.5581579289 0.5778498445 -3.0000152588
36.5547677231 -0.5613179922 -3.0000152588
36.6462984519 -1.2249749355 -3.0000152588
37.4068310582 3.4117918444 -3.0000152588
37.4067093406 -3.4097308875 -3.0000152588
37.3662152460 3.4193604608 -3.0000152588
37.3359434604 3.4047514711 -3.0000152588
37.2848043911 -3.4043873644 -3.0000152588
37.3150927454 -3.4194501201 -3.0000152588
37.1705976370 -3.4269118126 -3.0000152588
37.1085372280 3.4227545590 -3.0000152588
37.0259748731 3.4038307318 -3.0000152588
37.0159173157 3.3979845010 -3.0000152588
37.0763971872 -3.4305414628 -3.0000152588
37.0137356018 -3.4226725238 -3.0000152588
36.9407968786 -3.4076277412 -3.0000152588
36.9609994685 -3.4197346592 -3.0000152588
36.7347665191 -3.4203789243 -3.0000152588
36.5586019846 -3.4166359909 -3.0000152588
37.1974776758 -0.0125281085 -3.0000152588
37.2049774506 -0.0491511977 -3.0000152588
37.1625115397 0.0468296011 -3.0000152588
37.1669170617 0.0201306348 -3.0000152588
37.1697497550 0.0041435600 -3.0000152588
37.1802145862 -0.0489535287 -3.0000152588
37.1323242111 0.0864820612 -3.0000152588
37.1369591944 0.0539092686 -3.0000152588
37.1083629795 0.0832891530 -3.0000152588
37.0892616820 -0.0857567429 -3.0000152588
37.0550945950 -0.0401528886 -3.0000152588
37.0875423572 -0.2653938271 -3.0000152588
36.9962868423 0.0146771815 -3.0000152588
36.5398621955 0.4696199355 -3.0000152588
36.2930904098 0.6834638585 -3.0000152588
36.6058967205 -1.0221213927 -3.0000152588
36.7329089037 3.3276507950 -3.0000152588
36.5234526835 3.2858969003 -3.0000152588
36.4817479679 3.2825524705 -3.0000152588
36.4486411007 3.2861699578 -3.0000152588
37.7730443354 -3.4654517877 -3.0000152588
37.8067857490 -3.4759225655 -3.0000152588
37.7319260547 -3.4776714984 -3.0000152588
37.5584513193 -3.4684761314 -3.0000152588
37.5274446436 -3.4826700626 -3.0000152588
37.3968360636 -3.4830358736 -3.0000152588
37.4081265232 -3.4876722141 -3.0000152588
37.4307483407 -3.4968445963 -3.0000152588
37.2324439169 -3.4908271644 -3.0000152588
37.2110770381 -3.5076477690 -3.0000152588
36.5877896403 -3.3007860229 -3.0000152588
36.9417636208 -3.5096711686 -3.0000152588
37.3257825718 -3.6890440878 -3.0000152588
37.2000695666 -0.0636576961 -3.0000152588
37.2077190576 -0.0836031696 -3.0000152588
37.0433328939 0.0233066527 -3.0000152588
37.1100134317 -0.1645540832 -3.0000152588
37.1375101357 -0.2842275680 -3.0000152588
37.0468707525 -0.2619597187 -3.0000152588
36.6932054809 -0.9971861069 -3.0000152588
38.3578394201 -3.4699699654 -3.0000152588
38.3817672887 -3.4730446451 -3.0000152588
38.2586043970 -3.4801426687 -3.0000152588
38.3186184422 -3.4890304113 -3.0000152588
38.3306366585 -3.4907013863 -3.0000152588
38.1465831898 -3.4856897285 -3.0000152588
38.2307774305 -3.5002021631 -3.0000152588
38.2669492476 -3.5058874953 -3.0000152588
38.3515358945 -3.5179033222 -3.0000152588
37.9685197496 -3.4986059320 -3.0000152588
38.0651211390 -3.5192590892 -3.0000152588
38.2735617349 -3.6290864884 -3.0000152588
38.2158865337 -3.8404354210 -3.0000152588
37.2110449387 -0.1018749372 -3.0000152588
37.2246864973 -0.1248298751 -3.0000152588
37.2012055524 -0.1326964978 -3.0000152588
37.1766034683 -0.2736709516 -3.0000152588
37.2026673058 -0.3110680125 -3.0000152588
37.1704424604 -0.5071787689 -3.0000152588
36.3850777394 0.2131488968 -3.0000152588
36.2927593247 0.4266600528 -3.0000152588
36.3717848387 0.0799659687 -3.0000152588
36.2644774426 0.4525924257 -3.0000152588
37.0574897670 -1.0543008121 -3.0000152588
36.1726424033 0.6337988162 -3.0000152588
36.2860893737 0.0297715562 -3.0000152588
36.7603022657 -1.0656256228 -3.0000152588
38.8683833959 -3.4851106692 -3.0000152588
38.9572737369 -3.4821487928 -3.0000152588
38.9699666836 -3.4815754313 -3.0000152588
38.6645189171 -3.5091320097 -3.0000152588
38.6772929659 -3.5094245517 -3.0000152588
38.7539503458 -3.5103861639 -3.0000152588
38.8050595300 -3.5102713062 -3.0000152588
38.8433885697 -3.5097882985 -3.0000152588
38.8689382292 -3.5092773289 -3.0000152588
38.8944844185 -3.5086152080 -3.0000152588
38.9583288417 -3.5062987832 -3.0000152588
38.5355438379 -3.5282667552 -3.0000152588
38.7153163128 -3.5342465603 -3.0000152588
38.4568716134 -3.5475369153 -3.0000152588
38.5084411799 -3.5509346304 -3.0000152588
38.5729537506 -3.5543233053 -3.0000152588
38.6891754068 -3.5580171233 -3.0000152588
38.3127875012 -3.5590916394 -3.0000152588
38.2323934614 -3.5742858841 -3.0000152588
38.2583354037 -3.5773886380 -3.0000152588
38.4123853940 -3.6168720775 -3.0000152588
38.0174639968 -3.5916053593 -3.0000152588
38.0695857628 -3.6001992644 -3.0000152588
37.9610922907 -3.6061727711 -3.0000152588
38.9267522082 -3.7010691817 -3.0000152588
38.9934395705 -3.6982544525 -3.0000152588
37.8207451448 -3.6275980321 -3.0000152588
37.8338733295 -3.6303860912 -3.0000152588
38.2843489927 -3.7019261088 -3.0000152588
38.3644848177 -3.7098314398 -3.0000152588
38.6323842977 -3.7258910073 -3.0000152588
37.7893173935 -3.6455133609 -3.0000152588
38.0908448844 -3.7257723962 -3.0000152588
38.8886013360 -3.7747792006 -3.0000152588
37.5607386956 -3.6641418378 -3.0000152588
37.9619404881 -3.7536968478 -3.0000152588
38.4788486236 -3.8155210056 -3.0000152588
37.4017238771 -3.6686740429 -3.0000152588
37.4814085620 -3.6922496002 -3.0000152588
