27.5619163218 -3.8649027974 -2.4999950537
31.5129345478 -3.4093144564 -2.4999950537
27.5726805689 -3.8924005795 -2.4999950278
31.6823613839 -3.4023244922 -2.4999949759
33.1554938165 -3.6724240102 -2.4999938607
33.5700259959 -3.3176195663 -2.4999938607
33.6582099063 -3.2343524863 -2.4999938607
33.7161721372 -3.1779772445 -2.4999938607
33.7592038309 -3.1352478880 -2.4999938607
33.7734632523 -3.1209201133 -2.4999938607
33.0256460394 -3.8025660521 -2.4999938348
33.0580833525 -3.7781966786 -2.4999938348
33.1225226130 -3.7288843406 -2.4999938348
33.1385409041 -3.7164373867 -2.4999938348
33.1704666752 -3.6914015966 -2.4999938348
33.9451920324 -2.9770219314 -2.4999938348
34.0272718621 -2.8871499854 -2.4999938348
34.0407961921 -2.8720303026 -2.4999938348
32.5525008592 -4.1544283712 -2.4999938089
32.6042438326 -4.1219874932 -2.4999938089
32.7914567940 -3.9991397303 -2.4999938089
32.8082759980 -3.9876709465 -2.4999938089
32.9084720846 -3.9178180012 -2.4999938089
32.9415933177 -3.8941398510 -2.4999938089
34.0179866352 -2.9335177315 -2.4999938089
34.0588370028 -2.8881195671 -2.4999938089
34.0858460608 -2.8576534932 -2.4999938089
34.2311404762 -2.6872721603 -2.4999938089
34.2697971589 -2.6399920719 -2.4999938089
33.0217601367 -3.8656524319 -2.4999937829
34.3522925463 -2.5753737861 -2.4999937829
32.8355720179 -4.0275741847 -2.4999937570
34.3965390699 -2.5580025243 -2.4999937570
34.4588030730 -2.4765804244 -2.4999937570
33.1491380610 -3.8304236809 -2.4999937310
33.1817380278 -3.8053231995 -2.4999937310
32.1297984000 -4.5328264391 -2.4999936792
32.2695188531 -4.4863457906 -2.4999936532
32.2001636311 -4.5780142444 -2.4999936014
35.1714113027 -1.6775234400 -2.4999935754
27.3608790330 -3.4487271583 -2.5000112747
27.4046648566 -3.4599324019 -2.5000112747
27.2962826917 -3.4565009790 -2.5000113237
27.3255093361 -3.4643963600 -2.5000113237
30.0180878910 -3.4499922930 -2.5000113237
33.4528492439 -0.2733602679 -2.5000113237
30.1268281769 -3.4436603696 -2.5000113727
30.1413852903 -3.4392564653 -2.5000113727
30.1994815597 -3.4212108062 -2.5000113727
33.4543830056 -0.3386703333 -2.5000113727
30.2358918420 -3.4349290597 -2.5000114216
27.0564546784 -3.4608347351 -2.5000114706
30.3161867363 -3.4337533078 -2.5000114706
33.4772195913 -0.4792017474 -2.5000115196
26.8948696155 -3.4572427364 -2.5000115686
26.9094810493 -3.4623994906 -2.5000115686
26.9387493609 -3.4725832169 -2.5000115686
30.5211643216 -3.4110232683 -2.5000115686
33.4639327836 -0.5741269203 -2.5000115686
30.5878231073 -3.4109516664 -2.5000116176
26.7467067365 -3.4540134244 -2.5000116666
30.6547415805 -3.4099841759 -2.5000116666
26.7087360265 -3.4652020563 -2.5000117156
26.4138888022 -3.3925554000 -2.5000118135
26.9594382034 -3.6071578380 -2.5000118135
30.8280183337 -3.4146445740 -2.5000118135
26.4038226782 -3.4145328528 -2.5000118625
26.2780581796 -3.3818527468 -2.5000119115
30.9494889985 -3.4121392151 -2.5000119115
33.4699027545 -1.0673096059 -2.5000120095
31.0388839828 -3.4497688546 -2.5000120585
31.3590649567 -3.3919986116 -2.5000122544
31.5946199152 -3.3666632128 -2.5000124504
31.8732014206 -3.3610718044 -2.5000127443
32.0706241077 -3.3721681936 -2.5000129893
33.0416445170 -3.4319340376 -2.5000143119
32.9238907396 -3.9104861874 -2.5000148998
32.9557048204 -3.8850788039 -2.5000148998
33.0031427036 -3.8466159242 -2.5000148998
33.0188792474 -3.8337015983 -2.5000148998
33.0814413328 -3.7815804802 -2.5000148998
33.0969851474 -3.7684348173 -2.5000148998
33.2046935282 -3.6751358003 -2.5000148998
32.9068435562 -3.9547266953 -2.5000149488
33.0184500266 -3.8653247763 -2.5000149488
33.8667850071 -3.0402165219 -2.5000149488
33.9330622090 -2.9624956813 -2.5000149488
32.8243014277 -4.0487873313 -2.5000149978
32.8894221291 -3.9989534911 -2.5000149978
33.9647340136 -2.9623281509 -2.5000149978
34.2664226459 -2.5738009880 -2.5000149978
34.0095663155 -2.9461631334 -2.5000150468
34.3806991434 -2.4533245949 -2.5000150468
34.4811167966 -2.3469820780 -2.5000150957
32.4654817596 -4.4756183223 -2.5000152917
31.4301955151 -5.1295052945 -2.5000154877
27.1024365757 -3.4500623204 -2.5000136763
27.1162624931 -3.4539072076 -2.5000136763
27.1439481469 -3.4614741995 -2.5000136763
27.1855593574 -3.4725172373 -2.5000136763
29.7242873592 -3.4476664385 -2.5000136763
29.7380947174 -3.4437554274 -2.5000136763
30.4762846743 -3.1668638436 -2.5000136763
27.0404624465 -3.4574752629 -2.5000137397
27.0681705367 -3.4654906509 -2.5000137397
29.7585815381 -3.4630321179 -2.5000137397
29.7724342007 -3.4590195911 -2.5000137397
29.8139201218 -3.4467363864 -2.5000137397
29.8763008947 -3.4528506955 -2.5000138031
29.9039319925 -3.4440883918 -2.5000138031
29.9177279802 -3.4396459750 -2.5000138031
29.9666833300 -3.4490057143 -2.5000138665
30.0573890770 -3.4434178813 -2.5000139299
30.1845016518 -3.4482981129 -2.5000140567
30.3036364354 -3.4273641763 -2.5000141201
33.4503675859 -0.1081101026 -2.5000146273
33.4619712332 -0.0633192564 -2.5000146273
33.4731769300 -0.0184271982 -2.5000146273
33.5967805537 1.7423684874 -2.5000146273
33.4518679009 2.5460006746 -2.5000146273
33.4479285980 2.5609123182 -2.5000146273
33.4399177448 2.5907003200 -2.5000146273
33.4358462646 2.6055764174 -2.5000146273
33.4616846637 -0.1591693768 -2.5000146906
33.5145280082 0.0512059248 -2.5000146906
33.4380383980 2.6865324428 -2.5000146906
33.4336834373 2.7014025614 -2.5000146906
30.8878587814 -3.4198937926 -2.5000147540
33.4551882441 -0.2703459462 -2.5000147540
33.4724906970 -0.2105337542 -2.5000147540
33.4434819172 2.7529686298 -2.5000147540
33.4389304024 2.7678545607 -2.5000147540
33.4343348722 2.7827269622 -2.5000147540
30.9405293170 -3.4189345089 -2.5000148174
30.9679411295 -3.4038764661 -2.5000148174
33.4556438185 -0.3520131347 -2.5000148174
33.4602773481 -0.3370776412 -2.5000148174
33.4648666755 -0.3221285061 -2.5000148174
33.4418087045 2.9166332909 -2.5000148808
33.4367730473 2.9315135560 -2.5000148808
33.4577140215 -0.5014141582 -2.5000149442
33.4678207489 -0.4715146668 -2.5000149442
33.4389831485 2.9989365707 -2.5000149442
33.4597539003 -0.5691097746 -2.5000150076
33.4402984335 3.0666501410 -2.5000150076
31.1666118478 -3.4012190571 -2.5000150710
33.4608954453 -0.6370938036 -2.5000150710
33.4350317866 3.1495185616 -2.5000150710
33.4438308141 -0.7501125441 -2.5000151344
33.4460569549 3.1880100960 -2.5000151344
33.4265963622 3.3011375045 -2.5000151978
31.3001748378 -3.4046299334 -2.5000152612
33.4649505206 -0.8277104440 -2.5000152612
33.4563500913 -0.9116759813 -2.5000153246
33.4750846994 -0.8668004005 -2.5000153246
31.5438539817 -3.3900155692 -2.5000155782
33.4511179634 -1.1601186500 -2.5000155782
31.6120281887 -3.3724304657 -2.5000156416
31.6530947614 -3.3731479753 -2.5000157050
33.4439942188 -1.2855587837 -2.5000157050
33.4448590563 -1.4939346328 -2.5000159586
33.4335117904 -1.5650550417 -2.5000160220
33.4287259083 -1.7198347007 -2.5000162122
33.4349869708 -1.8039591220 -2.5000163390
33.4436154786 -1.9738586778 -2.5000165925
33.4353505928 -2.0315464319 -2.5000166559
33.4450953392 -3.2162129330 -2.5000185578
33.1611611440 -3.7222160887 -2.5000189382
33.2048493431 -3.6798494690 -2.5000189382
33.2481598418 -3.6370968094 -2.5000189382
33.6335677564 -3.2200809620 -2.5000189382
33.6857603567 -3.1579516014 -2.5000189382
33.0891047435 -3.8235003215 -2.5000190016
33.6255202404 -3.2666794684 -2.5000190016
33.7302715704 -3.1419849119 -2.5000190016
33.8068825799 -3.0468563518 -2.5000190016
33.8570133731 -2.9826883765 -2.5000190016
33.9063813915 -2.9179317225 -2.5000190016
33.9307771960 -2.8853354712 -2.5000190016
33.9429026723 -2.8689833628 -2.5000190016
32.7821628669 -4.1230212121 -2.5000190650
32.7979546672 -4.1100614972 -2.5000190650
34.0579273378 -2.7507953916 -2.5000190650
34.1160656013 -2.6668124239 -2.5000190650
32.6854732290 -4.2314450773 -2.5000191284
32.7176615875 -4.2060491400 -2.5000191284
32.8606267320 -4.0894292526 -2.5000191284
32.9386948730 -4.0230083989 -2.5000191284
34.2489545432 -2.5093276936 -2.5000191284
34.3240611361 -2.4352578125 -2.5000191918
34.3669190056 -2.3650131559 -2.5000191918
32.6500297232 -4.3200572998 -2.5000192552
34.2673637669 -2.5700830486 -2.5000192552
32.0798154190 -4.7699124005 -2.5000193820
34.1327772058 -2.8542576205 -2.5000193820
34.6734779342 -2.0143365377 -2.5000194454
31.7687010479 -5.1143800394 -2.5000197623
29.4692617126 0.3053805588 -2.5000012861
29.4855160603 0.0488757145 -2.5000013207
29.5163103115 -3.4715261150 -2.5000020469
29.6663059198 -3.4500120516 -2.5000020526
29.7727308608 -3.4647334135 -2.5000020642
29.7986865163 -3.4554764119 -2.5000020642
29.8718551458 -3.4542841262 -2.5000020699
29.8848084749 -3.4493816390 -2.5000020699
30.1286025640 -3.4544180195 -2.5000020930
30.1772555343 -3.4593942982 -2.5000020988
30.3141894982 -3.4493794939 -2.5000021103
30.4023474070 -3.4331597449 -2.5000021160
30.4152359252 -3.4266880581 -2.5000021160
30.6265607817 -3.4520067564 -2.5000021449
30.6900948647 -3.4442849512 -2.5000021506
30.7537813449 -3.4356697799 -2.5000021564
30.8429183668 -3.4391801892 -2.5000021679
30.9456172473 -3.4329585704 -2.5000021794
33.4379386741 -0.3998509550 -2.5000022371
33.4495080625 -0.3535019346 -2.5000022371
33.4509530529 2.2015339600 -2.5000022371
33.4410803004 -0.4831694759 -2.5000022428
33.4574003331 -0.4213051851 -2.5000022428
33.4339640078 -0.5977377246 -2.5000022486
33.4428934762 -0.5668698153 -2.5000022486
33.4602037633 -0.5049782107 -2.5000022486
33.4489585377 2.3994505925 -2.5000022486
33.4401553710 2.4303547586 -2.5000022486
33.4678280322 2.4215315286 -2.5000022544
33.4633839020 2.4370458448 -2.5000022544
33.4497764206 2.4835089643 -2.5000022544
33.4451490289 2.4989696094 -2.5000022544
33.4404759221 2.5144164981 -2.5000022544
33.4375522241 -0.7507697776 -2.5000022601
33.4540777336 2.5524390835 -2.5000022601
33.4443693460 2.5833708590 -2.5000022601
33.4245487535 -0.8662977190 -2.5000022659
33.4350672778 -0.8354808134 -2.5000022659
33.4454032948 -0.8046022159 -2.5000022659
33.4524404863 2.6371707421 -2.5000022659
33.4473585236 2.6526385956 -2.5000022659
33.4474026769 -0.8741738518 -2.5000022716
33.4373229241 -0.9749285248 -2.5000022774
33.4450566926 2.8075286696 -2.5000022774
33.4298088367 -1.1308781306 -2.5000022889
33.4418926156 -1.1000254739 -2.5000022889
33.4501379005 2.9326058861 -2.5000022889
33.4211508941 -1.2169059639 -2.5000022947
33.4485060490 3.0032614271 -2.5000022947
33.4522600257 3.0586924386 -2.5000023005
33.4446789432 3.2011813445 -2.5000023120
33.4600635153 3.2263386782 -2.5000023178
33.4545080406 3.2981440380 -2.5000023235
33.3716761173 3.5803611832 -2.5000023350
33.3638043801 3.5955859942 -2.5000023350
33.3237720359 3.6713571025 -2.5000023350
33.2489067688 3.8062210792 -2.5000023350
33.4290776449 -1.6665885199 -2.5000023408
33.7403414175 2.7675033100 -2.5000023408
33.6654979841 2.9783414913 -2.5000023408
33.1821584103 3.9663002317 -2.5000023408
33.8054550218 2.6434862376 -2.5000023466
33.1197607576 4.1104619554 -2.5000023466
33.4090017450 -1.8116703673 -2.5000023523
33.4140183618 -1.8537270571 -2.5000023581
32.2984293771 -3.3911345306 -2.5000023696
33.4098662689 -2.0115670059 -2.5000023754
33.4218634068 -2.1831542651 -2.5000023984
33.1388413451 -3.7826127631 -2.5000025771
33.1666187689 -3.7534351580 -2.5000025771
33.2079600200 -3.7093618900 -2.5000025771
33.6845660440 -3.1368781094 -2.5000025771
33.6965637465 -3.1206983226 -2.5000025771
33.7322689446 -3.0719470065 -2.5000025771
33.7558314452 -3.0392709223 -2.5000025771
33.8138883183 -2.9569758367 -2.5000025771
33.8367691823 -2.9238188771 -2.5000025771
32.8235595586 -4.1239221967 -2.5000025829
32.9417915127 -4.0135979381 -2.5000025829
33.2531037544 -3.6961309444 -2.5000025829
33.9132457819 -2.8537135611 -2.5000025829
33.9575821390 -2.7860964366 -2.5000025829
33.9794495083 -2.7520923267 -2.5000025829
32.7491521108 -4.2229661862 -2.5000025886
32.7643667510 -4.2095487709 -2.5000025886
32.8248264087 -4.1554308001 -2.5000025886
32.9143046842 -4.0729219924 -2.5000025886
34.0431017286 -2.6964717751 -2.5000025886
34.0750285079 -2.6446618343 -2.5000025886
34.0960570471 -2.6099653477 -2.5000025886
34.1064942458 -2.5925706015 -2.5000025886
33.3840215134 -3.6229119002 -2.5000025944
33.4108498023 -3.5922865219 -2.5000025944
34.1272406349 -2.6049771571 -2.5000025944
34.1376629413 -2.5874901861 -2.5000025944
34.1583521375 -2.5524241337 -2.5000025944
34.1991063393 -2.4819278890 -2.5000025944
32.3690989118 -4.5943185414 -2.5000026002
33.3340595520 -3.7150249514 -2.5000026002
33.4021572234 -3.6388941186 -2.5000026002
34.2402392239 -2.4583500435 -2.5000026002
34.2700450435 -2.4047999949 -2.5000026002
34.2896510663 -2.3689539229 -2.5000026002
32.5285350164 -4.5325717159 -2.5000026117
31.9271759276 -5.0429133979 -2.5000026290
32.3244684681 -4.7771384061 -2.5000026290
32.5243266475 -4.6279121245 -2.5000026290
29.4845847982 0.0181555063 -2.4999995664
29.1654988185 -3.4536412188 -2.4999966876
29.1774972924 -3.4504334989 -2.4999966876
29.4382653202 -3.4476627117 -2.4999966098
29.4502449152 -3.4436481253 -2.4999966098
29.4338531248 -3.4745959417 -2.4999965839
29.4699952113 -3.4624840524 -2.4999965839
29.6426295780 -3.4514507216 -2.4999965320
29.8499386122 -3.4449511250 -2.4999964542
29.8956469461 -3.4512249521 -2.4999964283
29.9416046907 -3.4570046518 -2.4999964023
30.2824812030 -3.4490635593 -2.4999962467
33.4401815260 2.0775896652 -2.4999952353
33.4721498006 2.0521712988 -2.4999952093
33.4455989317 2.1475172255 -2.4999952093
33.4410094387 2.1633617482 -2.4999952093
33.4237369284 -1.0949808536 -2.4999951834
33.4386041498 -1.0475546897 -2.4999951834
33.4453103865 2.2336359271 -2.4999951834
33.4404661401 2.2494792194 -2.4999951834
33.4416998417 -1.1181612411 -2.4999951575
33.4517949237 -1.0864517551 -2.4999951575
33.4511553471 2.3751297784 -2.4999951315
33.4560457358 -1.2285405326 -2.4999951056
33.4338647635 -1.3634207985 -2.4999950797
33.4396613116 -1.3475956258 -2.4999950797
33.4447675178 -1.4035010630 -2.4999950537
33.4410874895 2.6212651613 -2.4999950537
33.4350965842 2.6370942655 -2.4999950537
33.4307764730 -1.5071550295 -2.4999950278
33.4369982264 -1.4913383636 -2.4999950278
33.4342332194 -1.5635749162 -2.4999950019
33.4469636489 -1.5319018098 -2.4999950019
33.4366780540 2.7655040537 -2.4999950019
33.4436638587 -1.6043858192 -2.4999949759
33.4461204628 -1.6612465916 -2.4999949500
33.4562785296 -1.7597399745 -2.4999948981
33.4454754704 3.0508784441 -2.4999948722
33.4372141872 3.1822912511 -2.4999948203
33.4473439784 3.3253451519 -2.4999947425
33.3809880949 3.5529435705 -2.4999946906
33.2822433519 3.7236139060 -2.4999946906
33.7740261470 2.7659437512 -2.4999946647
33.7480467307 2.8330822224 -2.4999946647
33.7414278891 2.8498184408 -2.4999946647
33.6937138618 2.9664135065 -2.4999946647
33.2936789676 3.7514740042 -2.4999946647
33.2080460316 3.8889592222 -2.4999946647
33.1588998498 3.9643400074 -2.4999946647
33.1489371209 3.9793284730 -2.4999946647
33.1187835148 4.0241161235 -2.4999946647
33.8758510448 2.5534170655 -2.4999946388
33.0350042584 4.1856176021 -2.4999946388
32.9597828680 4.2872992100 -2.4999946388
33.9772318628 2.3954163565 -2.4999945869
32.6743632426 4.7100510967 -2.4999945869
34.0651323772 2.1737756605 -2.4999945610
32.7886295728 4.6160442029 -2.4999945610
33.4728045093 -2.5735829954 -2.4999944832
33.4773546006 -2.7066215995 -2.4999944054
33.0435889502 -3.9227015410 -2.4999939904
33.0968038274 -3.8637376963 -2.4999939904
33.1882376607 -3.7590507895 -2.4999939904
33.2267562819 -3.7136096421 -2.4999939904
32.8970702443 -4.1126825263 -2.4999939645
33.0614381614 -3.9390031036 -2.4999939645
33.0882289463 -3.9094940040 -2.4999939645
33.7747490762 -3.0062079377 -2.4999939645
33.8065635434 -2.9555914764 -2.4999939645
33.8585854442 -2.8706097032 -2.4999939645
33.8688386713 -2.8535215353 -2.4999939645
32.8295566749 -4.2145354474 -2.4999939385
32.8721315913 -4.1722594562 -2.4999939385
33.7189138983 -3.1365746684 -2.4999939385
34.0187025008 -2.6402765638 -2.4999939385
32.5673447049 -4.4914896109 -2.4999939126
32.7014011634 -4.3704185752 -2.4999939126
33.3080121772 -3.7294428144 -2.4999939126
34.1152880270 -2.5101026899 -2.4999939126
34.1784753912 -2.3846174398 -2.4999939126
34.1872895656 -2.3665851060 -2.4999939126
32.5833064145 -4.5096433739 -2.4999938867
33.1420649790 -3.9580810302 -2.4999938867
34.3633605368 -2.1590767266 -2.4999938348
34.3795978937 -2.1218961687 -2.4999938348
32.2206572907 -4.8979770142 -2.4999938089
34.4723614176 -1.9624367432 -2.4999938089
31.9693012038 -5.1073773187 -2.4999937829
34.4638682006 -2.0470896650 -2.4999937829
28.9247845655 -3.4379856699 -2.4999989201
28.9585263577 -3.4793843389 -2.4999988913
29.1016955209 -3.4402001080 -2.4999988913
29.1195413812 -3.4601265913 -2.4999988769
29.2073239924 -3.4328597944 -2.4999988769
29.2696336931 -3.4376520102 -2.4999988625
29.2443252829 -3.4716273190 -2.4999988481
29.4064001894 -3.4399957473 -2.4999988337
29.4173471629 -3.4358526192 -2.4999988337
29.4589039934 -3.4457473872 -2.4999988193
29.6403450352 -3.4490380850 -2.4999987761
29.6831309288 -3.4564830234 -2.4999987616
29.7810994049 -3.4376880407 -2.4999987472
29.8244910957 -3.4435501925 -2.4999987328
29.8354467546 -3.4381702604 -2.4999987328
33.4413793415 0.1471101950 -2.4999979548
33.4426074169 0.2595689709 -2.4999979548
33.4418065000 0.3559650845 -2.4999979548
33.4510589822 -1.0695863231 -2.4999978539
33.4583240678 -1.1398863014 -2.4999978395
33.4513954013 -1.2588815084 -2.4999978251
33.4603020459 -1.2266695104 -2.4999978251
33.4440540753 1.8101775457 -2.4999978251
33.4348032643 1.8422923963 -2.4999978251
33.4388594823 1.9133889958 -2.4999978107
33.4339525318 1.9294374443 -2.4999978107
33.4289981286 1.9454713070 -2.4999978107
33.4601059320 -1.4013058314 -2.4999977963
33.4650043553 -1.3851800288 -2.4999977963
33.4368711049 2.0008591652 -2.4999977963
33.4704201566 -1.5288453893 -2.4999977675
33.4454424053 2.1285277003 -2.4999977675
33.4398990068 2.1445946810 -2.4999977675
33.4343081036 2.1606451931 -2.4999977675
33.4605951322 -1.6333961821 -2.4999977531
33.4826484761 -1.5687849814 -2.4999977531
33.4341903206 2.2329345486 -2.4999977531
33.4283381170 2.2489677868 -2.4999977531
33.4777693807 -1.6575190754 -2.4999977387
33.4594750463 -1.7787766455 -2.4999977243
33.4654900993 -1.7626510575 -2.4999977243
33.4435066972 2.3461839217 -2.4999977243
33.4637040336 -1.8357279482 -2.4999977098
33.4345354420 2.4352899037 -2.4999977098
33.4673495046 -1.8929144034 -2.4999976954
33.4737021634 -1.8767650220 -2.4999976954
33.4307793876 2.5085624111 -2.4999976954
33.4396731474 2.5499729489 -2.4999976810
33.4593453230 -2.0402418811 -2.4999976666
33.4353143444 2.7979295076 -2.4999976234
33.4328907963 2.9150423870 -2.4999975946
33.4515857428 -2.4065393329 -2.4999975802
33.4307573735 2.9738667139 -2.4999975802
33.4573370766 -2.4494549129 -2.4999975658
33.4550788372 -2.7148315025 -2.4999974937
33.4762868743 -2.7264312631 -2.4999974793
33.7120811760 2.9478726451 -2.4999974361
33.7041128403 2.9647248065 -2.4999974361
33.6217012762 3.1319216885 -2.4999974361
33.2333373763 3.7896362303 -2.4999974361
33.1699171558 3.8817621560 -2.4999974361
33.1591885782 3.8970064121 -2.4999974361
33.8478856993 2.7016740328 -2.4999974217
33.7961322947 2.8220021859 -2.4999974217
33.1354059468 3.9718383841 -2.4999974217
33.1133714262 4.0020893360 -2.4999974217
32.9189469623 4.2538319655 -2.4999974217
32.9139113386 4.2981599518 -2.4999974073
33.4525564352 -3.0571909708 -2.4999973929
34.0275235105 2.3682653551 -2.4999973929
32.7227238096 4.5557831953 -2.4999973929
32.6844390776 4.5974252869 -2.4999973929
32.5714108283 4.7507046901 -2.4999973785
33.4540046339 -3.1921036178 -2.4999973496
33.1505343647 -3.8263066032 -2.4999972776
33.2924166651 -3.6413355870 -2.4999972776
33.6377791820 -3.1246837131 -2.4999972776
33.6577212770 -3.0913363514 -2.4999972776
32.9437160261 -4.1100677911 -2.4999972632
32.9823271579 -4.0661232684 -2.4999972632
33.0331991405 -4.0070008509 -2.4999972632
33.0583719011 -3.9772149457 -2.4999972632
33.0708920873 -3.9622662743 -2.4999972632
33.2056681163 -3.7954197744 -2.4999972632
33.7850251896 -2.9175212778 -2.4999972632
33.8130200105 -2.8661575690 -2.4999972632
33.8586615806 -2.7800058037 -2.4999972632
32.8029255641 -4.2990355296 -2.4999972488
33.0642702863 -4.0077298032 -2.4999972488
32.6549146110 -4.4834983233 -2.4999972344
32.4127787008 -4.7732642448 -2.4999972056
29.6797051908 -3.4523510529 -2.5000016407
29.8212463601 -3.4329144875 -2.5000016465
29.8626341152 -3.4377016313 -2.5000016494
30.1679320255 3.4497010882 -2.5000016868
33.4511478886 -1.4569464860 -2.5000018626
33.4630934528 -1.4084805256 -2.5000018626
33.4486324499 1.2935704057 -2.5000018626
33.4679418420 1.3156955865 -2.5000018655
33.4466016769 1.3964753645 -2.5000018655
33.4637928847 -1.5985353068 -2.5000018684
33.4426285297 1.4997410476 -2.5000018684
33.4592796881 -1.7021963847 -2.5000018713
33.4476916444 -1.8223062632 -2.5000018741
33.4578648017 -1.7900214323 -2.5000018741
33.4678467731 -1.7576769787 -2.5000018741
33.4547401362 1.6266570805 -2.5000018741
33.4497187279 -1.8942976788 -2.5000018770
33.4517562720 1.7147868134 -2.5000018770
33.4464033480 1.7309182529 -2.5000018770
33.4508022398 -1.9665790098 -2.5000018799
33.4584403906 1.7709159081 -2.5000018799
33.4342622802 1.9807942677 -2.5000018857
33.4351128999 2.1110681066 -2.5000018914
33.4443737393 2.1523981013 -2.5000018943
33.4524576888 -2.4312883008 -2.5000019001
33.4341341522 2.3001290032 -2.5000019001
33.4535596515 -2.4893595147 -2.5000019030
33.4676792172 -2.4570282922 -2.5000019030
33.4389506383 -2.6383535415 -2.5000019087
33.4342743501 2.4749531755 -2.5000019087
33.4266727931 2.4910295743 -2.5000019087
33.4596823116 -2.7074659128 -2.5000019145
33.4289147055 2.6514546235 -2.5000019174
33.4392196493 -2.8579570597 -2.5000019202
33.4341416917 2.6945568183 -2.5000019202
33.4306689083 2.7539056910 -2.5000019231
33.4351245806 2.7973335827 -2.5000019260
33.4392558714 2.8409132302 -2.5000019289
33.4300177211 3.1983769197 -2.5000019491
33.4469776777 -3.3903913547 -2.5000019519
33.1183808960 -3.9204335697 -2.5000019548
33.1856162703 -3.8289155282 -2.5000019548
33.2619897891 -3.7206565386 -2.5000019548
33.2727167199 -3.7050626803 -2.5000019548
33.3046200805 -3.6580916687 -2.5000019548
33.6804478056 -3.0232484108 -2.5000019548
33.0098121546 -4.1001656312 -2.5000019577
33.0216628453 -4.0853160994 -2.5000019577
33.0802545465 -4.0105461774 -2.5000019577
33.8190732788 -2.7955716281 -2.5000019577
33.8428839018 -2.7437878230 -2.5000019577
33.8507185366 -2.7264798491 -2.5000019577
33.9558515239 -2.5438146284 -2.5000019606
33.9630941076 -2.5261733507 -2.5000019606
33.7250918122 2.9728289677 -2.5000019663
33.6977148166 3.0235515884 -2.5000019663
33.6884892536 3.0404048913 -2.5000019663
33.1654946175 3.8451769894 -2.5000019663
33.1067755274 3.9212067718 -2.5000019663
33.0829740994 3.9513741074 -2.5000019663
32.5412106031 -4.7598843452 -2.5000019692
34.1839755299 -2.1376621742 -2.5000019692
33.9639347102 2.5960705888 -2.5000019721
33.9479582312 2.6313323580 -2.5000019721
33.9317734113 2.6664989879 -2.5000019721
33.9153808171 2.7015692475 -2.5000019721
32.5329587968 -4.8349918087 -2.5000019750
34.1219937578 2.3465463162 -2.5000019779
34.1147690423 2.3646576752 -2.5000019779
32.4841261607 4.7408828848 -2.5000019779
34.1868347108 2.2459596655 -2.5000019808
32.4718404401 4.7851529850 -2.5000019808
34.5209463741 -1.4411800204 -2.5000019865
32.4167409011 4.9000016182 -2.5000019865
29.2710576823 3.4290585989 -2.5000021585
29.4122251513 3.4325745385 -2.5000021700
29.3162952993 3.4906863639 -2.5000021758
29.4514998760 3.4698665737 -2.5000021816
29.6874956958 3.4289652549 -2.5000021931
29.9768482135 3.4820868643 -2.5000022334
30.7143275838 3.4400022084 -2.5000023141
33.4374725090 -1.8397980424 -2.5000025216
33.4537363327 -1.7758508929 -2.5000025216
33.4512712551 0.9190221864 -2.5000025216
33.4437709392 -1.9099214205 -2.5000025274
33.4747226169 0.9248846865 -2.5000025274
33.4665916694 0.9570062031 -2.5000025274
33.4582708224 0.9890790521 -2.5000025274
33.4537148746 -1.9643860051 -2.5000025331
33.4687590760 1.0434414413 -2.5000025331
33.4439725438 -2.0831839542 -2.5000025389
33.4488293710 -2.0671949854 -2.5000025389
33.4631157676 -2.0191428547 -2.5000025389
33.4649022271 1.1462941481 -2.5000025389
33.4554615186 1.1783536889 -2.5000025389
33.4640513394 1.2334391946 -2.5000025446
33.4386115143 -2.2577380788 -2.5000025504
33.4598205189 -2.1937481938 -2.5000025504
33.4689540531 1.3765840516 -2.5000025562
33.4566042245 -2.3535224067 -2.5000025619
33.4530823176 1.4966979802 -2.5000025619
33.4502731648 -2.4418198528 -2.5000025677
33.4700933650 1.5208858297 -2.5000025677
33.4425099088 -2.5303482487 -2.5000025735
33.4632160573 1.6094874531 -2.5000025735
33.4448733932 1.6575224748 -2.5000025735
33.4549005154 1.6983113021 -2.5000025792
33.4421940632 1.7303020082 -2.5000025792
33.4581825113 1.7553250172 -2.5000025850
33.4516842725 1.7713392266 -2.5000025850
33.4466187387 -2.7748888410 -2.5000025965
33.4561431804 1.8860506690 -2.5000025965
33.4406002755 -2.8485524677 -2.5000026023
33.4409316986 -2.9064381938 -2.5000026080
33.4406592091 -2.9645192229 -2.5000026138
33.4481231999 -2.9485361993 -2.5000026138
33.4555398774 -2.9325311659 -2.5000026138
33.4583573087 2.0596904285 -2.5000026138
33.4435127557 2.0916952614 -2.5000026138
33.4360195371 2.1076646032 -2.5000026138
33.4361842446 -3.1398721506 -2.5000026311
33.4447189098 2.3098842461 -2.5000026369
33.4416176190 2.3688614300 -2.5000026426
33.4335432011 2.4872897594 -2.5000026542
33.1899146089 -3.8529403324 -2.5000026657
33.2596159487 -3.7456032726 -2.5000026657
33.2888047283 -3.6991642116 -2.5000026657
33.3175802379 -3.6524679452 -2.5000026657
32.9980198206 -4.1659254732 -2.5000026714
33.0309490252 -4.1217913794 -2.5000026714
33.0526836749 -4.0922070512 -2.5000026714
33.0634852678 -4.0773667953 -2.5000026714
33.0742429133 -4.0624946513 -2.5000026714
33.7349742414 -2.8998038793 -2.5000026714
33.7778522570 -2.7983650308 -2.5000026714
33.4349497066 2.6341638478 -2.5000026714
32.8812075952 -4.3547054009 -2.5000026772
33.0173299584 -4.1804669265 -2.5000026772
33.8547696398 -2.6706421035 -2.5000026772
33.8872239605 -2.5844155801 -2.5000026772
33.8935615821 -2.5671132003 -2.5000026772
32.7934744016 -4.4978658085 -2.5000026830
33.9712120897 -2.4182427391 -2.5000026830
33.9770577745 -2.4006926343 -2.5000026830
32.6765722725 -4.6666206842 -2.5000026887
32.7015365175 -4.6391234325 -2.5000026887
34.0115833870 -2.3730101806 -2.5000026887
34.0285615614 -2.3199518812 -2.5000026887
34.0396184636 -2.2844968774 -2.5000026887
34.1810598152 -1.9562580934 -2.5000027003
33.4163400596 2.9476175389 -2.5000027060
34.2746338182 -1.7658091739 -2.5000027118
33.6089735339 3.1848104616 -2.5000027752
33.2905379579 3.6330354259 -2.5000027752
33.2542442406 3.6794583419 -2.5000027752
33.2298201689 3.7102272247 -2.5000027752
33.2052144857 3.7408510680 -2.5000027752
33.8047185324 2.9125029317 -2.5000027809
33.7947956359 2.9295371941 -2.5000027809
33.7444277001 3.0142641102 -2.5000027809
33.7342040394 3.0311195762 -2.5000027809
33.7239305619 3.0479447250 -2.5000027809
33.6612486094 3.1482507305 -2.5000027809
33.6506289560 3.1648595514 -2.5000027809
33.1361572603 3.8624593097 -2.5000027809
33.0199946819 3.9965616837 -2.5000027809
33.8843113656 2.8214513764 -2.5000027867
33.8649525241 2.8559629644 -2.5000027867
33.8453898393 2.8903594151 -2.5000027867
33.7651144683 3.0267698251 -2.5000027867
33.0903109641 3.9531966965 -2.5000027867
32.9850968179 4.0714418596 -2.5000027867
33.9624811198 2.7286248834 -2.5000027925
33.8564735435 2.9195887849 -2.5000027925
32.8254741455 4.2751370035 -2.5000027925
34.0839019119 2.5450004307 -2.5000027982
34.0750649326 2.5628621760 -2.5000027982
32.7295383559 4.4043843611 -2.5000027982
32.5263656647 4.6256678016 -2.5000028040
32.4812929839 4.6652700287 -2.5000028040
32.4053965644 4.7303798718 -2.5000028040
32.4668165350 4.7097721869 -2.5000028098
32.0687190759 5.1169687545 -2.5000028270
31.9027919086 5.2336582379 -2.5000028270
29.4727478439 -0.4227883681 -2.5000009537
29.1986946696 3.4223197106 -2.5000009537
29.2415437296 3.4862492503 -2.5000009537
33.4334713433 -2.2963150403 -2.5000009537
33.4557049921 1.1621406086 -2.5000009537
33.4597129181 1.2891069680 -2.5000009537
33.4750452512 1.6284434810 -2.5000009537
33.4754302121 1.7432409055 -2.5000009537
33.8184268911 -2.6841488250 -2.5000009537
32.3233638178 -5.1904429464 -2.5000009537
33.6810144812 3.1160223772 -2.5000009537
33.6579450458 3.1486988972 -2.5000009537
33.0796865402 3.8913362159 -2.5000009537
34.4025841964 2.1573772449 -2.5000009537
29.4958478747 3.4265840589 -2.5000009537
29.5821728035 3.4280485343 -2.5000009537
29.5154005002 3.4464048268 -2.5000009537
29.3675921270 3.4832999582 -2.5000009537
29.6422452321 3.4358344810 -2.5000009537
29.6893025224 3.4469330001 -2.5000009537
29.9478230279 3.4627058956 -2.5000009537
30.0367535067 3.4554682422 -2.5000009537
30.0991460732 3.4571747167 -2.5000009537
30.1886188051 3.4469875193 -2.5000009537
30.1752275035 3.4525316499 -2.5000009537
30.2649349650 3.4408551842 -2.5000009537
30.3147575654 3.4454034620 -2.5000009537
30.5057503282 3.4365237041 -2.5000009537
30.5297404105 3.4517036090 -2.5000009537
33.4303019109 -2.4771871877 -2.5000009537
33.4384956380 -2.4468559958 -2.5000009537
33.4425251719 -2.4316723536 -2.5000009537
33.4543440329 -2.3860508372 -2.5000009537
33.4425749258 0.3691615795 -2.5000009537
33.4420577436 -2.6118576201 -2.5000009537
33.4418519811 -2.6948929762 -2.5000009537
33.4453180110 -2.7630659573 -2.5000009537
33.4386734432 -2.9307112766 -2.5000009537
33.4185437099 0.8313103331 -2.5000009537
33.4239761767 0.8852472846 -2.5000009537
33.4347949141 0.9242723310 -2.5000009537
33.4668729044 -3.0626004992 -2.5000009537
33.4331674175 0.9938536597 -2.5000009537
33.4178527822 1.0939464542 -2.5000009537
33.4467875532 -3.3033261967 -2.5000009537
33.4226699117 1.2039907484 -2.5000009537
33.3791057284 -3.5652726017 -2.5000009537
33.3009699369 -3.7698847627 -2.5000009537
33.4445778501 -3.5410784005 -2.5000009537
33.8728579133 -2.4051776520 -2.5000009537
33.8963706756 -2.4107888276 -2.5000009537
33.4398784982 1.6635625057 -2.5000009537
32.0390769372 3.4183433868 -2.5000009537
33.4614556470 1.8742222597 -2.5000009537
32.3088976547 3.4093697595 -2.5000009537
33.4671732560 2.1470457312 -2.5000009537
33.4699447638 2.2776244060 -2.5000009537
33.7710709575 3.0273672550 -2.5000009537
33.7221225174 3.0917243704 -2.5000009537
33.3450172394 3.5403081447 -2.5000009537
33.2761729791 3.6143060816 -2.5000009537
33.9331295153 2.8447088627 -2.5000009537
33.9215034790 2.8613325685 -2.5000009537
33.3076541353 3.6161319494 -2.5000009537
33.0945492381 3.8332988194 -2.5000009537
33.0066446088 3.9174821983 -2.5000009537
34.0557272536 2.7068604883 -2.5000009537
33.9645768278 2.8418166791 -2.5000009537
33.2266835280 3.7355579534 -2.5000009537
32.7807843828 4.1525786500 -2.5000009537
32.7497655564 4.1789510461 -2.5000009537
34.1641582082 2.5825954558 -2.5000009537
34.1533065399 2.5999037331 -2.5000009537
32.6393083599 4.3014185029 -2.5000009537
34.3215092478 2.3667417142 -2.5000009537
33.1157267565 3.9137598849 -2.5000009537
32.5417820350 4.4090903960 -2.5000009537
32.3389360266 4.6191499853 -2.5000009537
32.3124416831 4.7261368365 -2.5000009537
28.4247477773 3.3988943555 -2.5000011921
28.3403970927 3.3964461625 -2.5000011921
33.4599344295 -2.5953146558 -2.5000011921
33.4443361988 -2.7474479378 -2.5000011921
33.4565031003 -2.7036968236 -2.5000011921
33.4376159766 0.0618007731 -2.5000011921
33.4757894158 -2.7247346394 -2.5000011921
33.4392561242 0.1414057601 -2.5000011921
30.3954421053 3.4325507596 -2.5000011921
33.4470957594 -2.9070033745 -2.5000011921
33.4442525969 0.2068090737 -2.5000011921
30.4610358874 3.4324328125 -2.5000011921
33.4608370640 -2.9435248332 -2.5000011921
33.4626326058 0.2287427772 -2.5000011921
33.4579271846 0.2433555653 -2.5000011921
33.4337528154 0.3162072013 -2.5000011921
30.5127214179 3.4373440267 -2.5000011921
33.4395950249 -3.0824872439 -2.5000011921
33.4497317280 -3.0533539971 -2.5000011921
33.4516516061 0.3385844422 -2.5000011921
33.4415478891 0.3677291453 -2.5000011921
33.4312719191 0.3968135614 -2.5000011921
33.4520452629 -3.1197060189 -2.5000011921
33.4540402516 0.4049338025 -2.5000011921
33.4382311515 0.4486468983 -2.5000011921
33.4279964055 0.5443670720 -2.5000011921
33.4651628967 -3.2240512257 -2.5000011921
30.7501964294 3.4384218449 -2.5000011921
33.4594540923 -3.3058623322 -2.5000011921
33.4323420294 0.6639504170 -2.5000011921
33.3439562918 -3.6332575346 -2.5000011921
33.3965262856 -3.5184807651 -2.5000011921
33.4426175620 0.7022956961 -2.5000011921
30.9235058071 3.4351950653 -2.5000011921
30.9093262299 3.4422826276 -2.5000011921
33.4456816930 0.8769082247 -2.5000011921
31.0164020750 3.4420171350 -2.5000011921
33.4340066652 0.9598101436 -2.5000011921
31.0843941724 3.4334588399 -2.5000011921
31.0702190273 3.4410223466 -2.5000011921
33.4211016697 1.0970622634 -2.5000011921
31.2872062729 3.4312201659 -2.5000011921
33.4180697239 1.2608108215 -2.5000011921
31.5066493908 3.4119528590 -2.5000011921
33.4097518418 1.5226411511 -2.5000011921
33.8978032604 2.9398374367 -2.5000011921
33.8594808377 2.9873888593 -2.5000011921
33.8466131062 3.0031635260 -2.5000011921
33.8077307158 3.0502581710 -2.5000011921
33.6885975130 3.1894459233 -2.5000011921
34.0783898828 2.7442691358 -2.5000011921
34.0662403855 2.7606924388 -2.5000011921
34.0417959079 2.7934308646 -2.5000011921
33.7470145272 3.1592029910 -2.5000011921
33.2226770269 3.7031076661 -2.5000011921
33.1169450883 3.7993857244 -2.5000011921
33.0402129563 3.8668051315 -2.5000011921
32.9624920584 3.9330822661 -2.5000011921
32.8520540886 4.0239236783 -2.5000011921
32.8041521889 4.0621519738 -2.5000011921
34.1818162101 2.6422514145 -2.5000011921
34.1461235124 2.6923350113 -2.5000011921
33.6840910278 3.2673752585 -2.5000011921
33.2839919371 3.6787363917 -2.5000011921
32.8672161166 4.0427504727 -2.5000011921
32.7219955591 4.1565495077 -2.5000011921
34.3403306446 2.4520410298 -2.5000011921
34.1896742805 2.6729811051 -2.5000011921
34.4164190704 2.3784784683 -2.5000011921
34.3605605646 2.4652730221 -2.5000011921
34.5555840890 2.1969427824 -2.5000011921
32.3255199235 4.5239658970 -2.5000011921
32.1447186972 4.6653570662 -2.5000011921
34.6078027514 2.2034710735 -2.5000011921
34.2684992140 2.7289810549 -2.5000011921
34.8911677613 1.8325022890 -2.5000011921
33.4461720518 -2.9113960995 -2.5000009537
33.4437511052 -0.2619234746 -2.5000009537
33.4492915812 -2.9872159295 -2.5000009537
33.4508673716 -0.1999145789 -2.5000009537
33.5081427292 -2.8686783728 -2.5000009537
33.4396416647 -0.0822902115 -2.5000009537
30.0126729449 3.4496798111 -2.5000009537
33.4478734880 0.7279637423 -2.5000009537
30.1230132078 3.4463934562 -2.5000009537
30.1081060275 3.4503496160 -2.5000009537
30.1890339568 3.4534080080 -2.5000009537
27.2096490995 3.4066138983 -2.5000009537
30.2703418714 3.4551702633 -2.5000009537
27.0987923952 3.3959732147 -2.5000009537
30.3370735667 3.4602593629 -2.5000009537
30.4638375906 3.4448798335 -2.5000009537
33.4385176234 1.0051225714 -2.5000009537
30.5610270663 3.4369527709 -2.5000009537
26.8443416464 3.4067453975 -2.5000009537
33.4344847344 1.2051461961 -2.5000009537
30.8483689635 3.4303702205 -2.5000009537
30.8335060091 3.4364721839 -2.5000009537
30.9171157968 3.4277611445 -2.5000009537
33.4251252688 1.3129669406 -2.5000009537
31.2706495921 3.4513713489 -2.5000009537
31.3708432083 3.4278172867 -2.5000009537
33.4127624081 1.7639163059 -2.5000009537
33.6940106419 3.1903101988 -2.5000009537
33.6798453775 3.2048311354 -2.5000009537
33.6656372196 3.2193101050 -2.5000009537
33.6370927208 3.2481416369 -2.5000009537
33.2968630142 3.5672810326 -2.5000009537
33.1579475420 3.6857421837 -2.5000009537
33.6971239043 3.2217363948 -2.5000009537
34.0313232692 2.8918758928 -2.5000009537
33.0618466415 3.8258250319 -2.5000009537
32.7173014356 4.0813135116 -2.5000009537
33.6029380307 3.4173472125 -2.5000009537
32.2469717909 4.4921059099 -2.5000009537
34.7480861501 2.1151818522 -2.5000009537
34.7905206646 2.0924250044 -2.5000009537
29.5074283258 -0.5304498010 -2.5000011921
29.5713292227 -0.5284920336 -2.5000011921
29.6139828735 -0.5199905895 -2.5000011921
29.8259151684 -0.5199409527 -2.5000011921
29.8963930571 -0.5068685054 -2.5000011921
33.4676818242 -0.4706764185 -2.5000011921
33.4637925784 -0.4576819748 -2.5000011921
33.4518944412 -0.4187684696 -2.5000011921
33.4478517113 -0.4058209549 -2.5000011921
33.4584925133 -0.3596077040 -2.5000011921
33.4457242307 -0.3207450959 -2.5000011921
33.4370206563 -0.2949003029 -2.5000011921
33.4464949545 -0.2482454028 -2.5000011921
33.4373624341 -0.2223973188 -2.5000011921
33.4460726928 -0.1754056569 -2.5000011921
33.4413100772 -0.1624764288 -2.5000011921
33.4569695073 -0.0676218285 -2.5000011921
33.4518880000 -0.0546608373 -2.5000011921
33.4467681739 -0.0417149347 -2.5000011921
33.4482652235 0.0191039133 -2.5000011921
33.4429272038 0.0320387763 -2.5000011921
33.4598548310 0.0542783012 -2.5000011921
33.4489322449 0.0802001321 -2.5000011921
33.4434134886 0.0931367009 -2.5000011921
33.4600485290 0.1156406545 -2.5000011921
33.4519177637 0.2520961697 -2.5000011921
33.4523526571 0.3635751656 -2.5000011921
33.4566810778 0.4629760970 -2.5000011921
33.4443997283 0.5388905594 -2.5000011921
33.4378894674 0.6020280875 -2.5000011921
33.4490089326 0.9197821333 -2.5000011921
33.4410065406 0.9327152554 -2.5000011921
30.4152864327 3.4340000712 -2.5000011921
30.3998598031 3.4379478927 -2.5000011921
30.3070609292 3.4606749478 -2.5000011921
27.9070371345 3.4762333572 -2.5000011921
30.5448451693 3.4240385349 -2.5000011921
30.5140369675 3.4326552132 -2.5000011921
30.4986138842 3.4368951625 -2.5000011921
27.5609814284 3.4124875450 -2.5000011921
27.5149701523 3.3988645107 -2.5000011921
27.4996601502 3.3942328258 -2.5000011921
30.5977465702 3.4339731078 -2.5000011921
27.4619109813 3.4079186994 -2.5000011921
27.4159441524 3.3934166503 -2.5000011921
33.4250202768 1.5108171598 -2.5000011921
27.3932074452 3.4114906014 -2.5000011921
27.3778606255 3.4064986651 -2.5000011921
27.3472116231 3.3963787063 -2.5000011921
27.3319097084 3.3912507722 -2.5000011921
30.7970058916 3.4224667578 -2.5000011921
30.7662025758 3.4325753312 -2.5000011921
30.7353399933 3.4425014848 -2.5000011921
27.3088404327 3.4089635394 -2.5000011921
27.2781780552 3.3984351908 -2.5000011921
30.8663065591 3.4245576925 -2.5000011921
27.3010578353 3.4318494840 -2.5000011921
30.9204925288 3.4312216068 -2.5000011921
30.9050719079 3.4366639315 -2.5000011921
27.1852897149 3.4167620693 -2.5000011921
27.1239441592 3.3940616919 -2.5000011921
27.0847164444 3.4050095024 -2.5000011921
27.0540813828 3.3931552302 -2.5000011921
31.1066539775 3.4133741047 -2.5000011921
31.0604952100 3.4312168903 -2.5000011921
27.0299335953 3.4096522723 -2.5000011921
26.9992720243 3.3974738051 -2.5000011921
26.9839683926 3.3913165980 -2.5000011921
31.1308869738 3.4298176172 -2.5000011921
26.9289132290 3.3949050917 -2.5000011921
31.2015226492 3.4274788624 -2.5000011921
26.8583261662 3.3913929735 -2.5000011921
31.2723898219 3.4241946728 -2.5000011921
31.2569884482 3.4306780040 -2.5000011921
31.2261285015 3.4435078449 -2.5000011921
31.3588452584 3.4132201277 -2.5000011921
31.3434759712 3.4199592578 -2.5000011921
31.3280868156 3.4266528933 -2.5000011921
26.7470894940 3.3953673205 -2.5000011921
26.7317931970 3.3884641211 -2.5000011921
31.3685852101 3.4353440655 -2.5000011921
31.5015896928 3.4014509682 -2.5000011921
31.4708983821 3.4157284638 -2.5000011921
26.6350203087 3.3970080450 -2.5000011921
33.4102706151 1.9893269577 -2.5000011921
31.5732352312 3.3941168140 -2.5000011921
31.5118504420 3.4233382318 -2.5000011921
31.4964505541 3.4305299347 -2.5000011921
26.5633882811 3.3895430859 -2.5000011921
26.3401016625 3.3024944216 -2.5000011921
26.3250818811 3.2943876850 -2.5000011921
26.2801673430 3.2698013861 -2.5000011921
26.2503462990 3.2531894975 -2.5000011921
26.2206240584 3.2364014685 -2.5000011921
26.1762282289 3.2108904484 -2.5000011921
31.6558215624 3.4074477725 -2.5000011921
27.0944869032 3.6666808931 -2.5000011921
27.0783864915 3.6608041710 -2.5000011921
27.0141608002 3.6368217806 -2.5000011921
26.9661802166 3.6183371860 -2.5000011921
26.3892213462 3.3558992613 -2.5000011921
26.2985104072 3.3074577103 -2.5000011921
26.2534809263 3.2826350898 -2.5000011921
26.0609643785 3.1704897022 -2.5000011921
26.0317347322 3.1525826735 -2.5000011921
27.1998840691 3.7293667637 -2.5000011921
27.1510748872 3.7125267146 -2.5000011921
25.9898012657 3.1550025895 -2.5000011921
31.7697795937 3.4036784016 -2.5000011921
31.9843636990 3.3974752629 -2.5000011921
32.2264073866 3.4240525735 -2.5000011921
32.4445941141 3.4299721129 -2.5000011921
32.4577291711 3.4502651058 -2.5000011921
32.5173165884 3.4401975300 -2.5000011921
33.7971484705 3.1248952031 -2.5000011921
33.7534438435 3.1666259780 -2.5000011921
33.7093706003 3.2079672555 -2.5000011921
33.6945982036 3.2216605627 -2.5000011921
33.6649322120 3.2489157797 -2.5000011921
33.1044921253 3.7085211316 -2.5000011921
33.0556354215 3.7440819876 -2.5000011921
34.0275496073 2.9271627989 -2.5000011921
33.9432448365 3.0143551970 -2.5000011921
33.9148009813 3.0430851192 -2.5000011921
33.8574058383 3.1000376051 -2.5000011921
33.7993408250 3.1563069780 -2.5000011921
33.0861525088 3.7518417172 -2.5000011921
33.0369120812 3.7872381135 -2.5000011921
32.9873594695 3.8221961347 -2.5000011921
32.9707732318 3.8337509149 -2.5000011921
32.8705446269 3.9020446587 -2.5000011921
32.8030589799 3.9465808859 -2.5000011921
32.7861055960 3.9575899277 -2.5000011921
34.2893833223 2.6724941038 -2.5000011921
34.1690357744 2.8097785547 -2.5000011921
34.1554392807 2.8248333769 -2.5000011921
34.1417983116 2.8398479123 -2.5000011921
33.0012064653 3.8420101698 -2.5000011921
32.9008264801 3.9108427471 -2.5000011921
32.7480055347 4.0107242339 -2.5000011921
34.4120117046 2.5630636359 -2.5000011921
33.2775209107 3.6689971341 -2.5000011921
32.6398674722 4.1062489381 -2.5000011921
32.5699817341 4.1480413906 -2.5000011921
32.5524334134 4.1583600662 -2.5000011921
32.5348546450 4.1686267856 -2.5000011921
32.5172455827 4.1788414590 -2.5000011921
34.5696890119 2.4016988513 -2.5000011921
34.5323719253 2.4503139685 -2.5000011921
34.4178528160 2.5941456409 -2.5000011921
34.3918867552 2.6256908577 -2.5000011921
34.3657345168 2.6570818984 -2.5000011921
33.2922898666 3.6881338325 -2.5000011921
32.5646553804 4.1792157322 -2.5000011921
32.4405387785 4.2502352821 -2.5000011921
32.3869008110 4.2798825926 -2.5000011921
32.3689632813 4.2896591049 -2.5000011921
34.6986543400 2.2680097497 -2.5000011921
34.6381833516 2.3507722050 -2.5000011921
33.7464401500 3.3381617213 -2.5000011921
32.2718960720 4.3686436800 -2.5000011921
32.1914611069 4.4368900277 -2.5000011921
32.0911052138 4.5130527424 -2.5000011921
35.0332835423 1.8968173677 -2.5000011921
31.9513073800 4.6047450093 -2.5000011921
31.8469438092 4.7296863693 -2.5000011921
31.9527105297 4.7100422398 -2.5000011921
31.6228831557 4.8465942110 -2.5000011921
31.9817641239 4.7235611647 -2.5000011921
35.4747491249 1.4000686933 -2.5000011921
35.7449126186 0.9168936931 -2.5000011921
29.9439151408 -0.5260706656 -2.5000009537
33.4516279276 -0.9244714530 -2.5000009537
33.4426968317 -0.8885192216 -2.5000009537
33.4472041957 -0.8105127601 -2.5000009537
33.4466991984 -0.7200377824 -2.5000009537
33.4359540624 -0.6841373411 -2.5000009537
33.4600580550 -0.4498615617 -2.5000009537
33.4421902039 -0.3334033178 -2.5000009537
33.4458702248 -0.0923639092 -2.5000009537
33.4437546446 0.0822828874 -2.5000009537
33.4561934024 0.8294183772 -2.5000009537
29.5568188269 3.4193221176 -2.5000009537
29.4937147171 3.4208513557 -2.5000009537
29.4463771760 3.4215082148 -2.5000009537
29.3674743040 3.4216693695 -2.5000009537
27.8973273206 3.4080950485 -2.5000009537
30.9546598747 3.4160412668 -2.5000009537
31.0561893369 3.4106159669 -2.5000009537
31.0246648109 3.4203448548 -2.5000009537
31.1422812093 3.4084472042 -2.5000009537
27.6243124519 3.4000222288 -2.5000009537
31.1814062427 3.4209456030 -2.5000009537
27.5536540686 3.4015259821 -2.5000009537
27.5379412155 3.3960526469 -2.5000009537
31.3393231219 3.4169488362 -2.5000009537
31.4108004514 3.4161927620 -2.5000009537
27.3715036922 3.4124938003 -2.5000009537
27.2840378534 3.4044335314 -2.5000009537
27.0832132074 3.3993971723 -2.5000009537
31.7658151472 3.4271663334 -2.5000009537
31.9224902354 3.4351647182 -2.5000009537
26.3348807463 3.2888815053 -2.5000009537
27.0926306988 3.6920918136 -2.5000009537
27.0760603166 3.6852534166 -2.5000009537
27.0264715594 3.6644445374 -2.5000009537
26.1694944165 3.2165259596 -2.5000009537
25.9304196870 3.0581235128 -2.5000009537
27.3015048717 3.7992017534 -2.5000009537
27.2677470549 3.7867098662 -2.5000009537
25.7129451575 2.9296155368 -2.5000009537
25.6986363547 2.9186991166 -2.5000009537
27.5077780614 3.9215036352 -2.5000009537
25.3060801379 2.6563414782 -2.5000009537
33.1145081227 3.4417064240 -2.5000009537
33.0100098939 3.7436746232 -2.5000009537
34.1551909515 2.8550250626 -2.5000009537
33.0398020454 3.7532908651 -2.5000009537
32.9047020699 3.8379278217 -2.5000009537
34.3798206842 2.6555583069 -2.5000009537
34.2979545779 2.7432919315 -2.5000009537
32.7450471296 3.9601885110 -2.5000009537
34.5179160144 2.5371222669 -2.5000009537
32.4743906524 4.1336061679 -2.5000009537
32.3227296398 4.2352371256 -2.5000009537
34.9627720036 2.0917352762 -2.5000009537
33.4406729297 -1.0861455812 -2.5000009537
33.4445533661 -1.0034502160 -2.5000009537
33.4402007880 -0.8982834989 -2.5000009537
33.4369589986 -0.8873345971 -2.5000009537
33.4601272191 -0.8804375802 -2.5000009537
33.4535053343 -0.8584318352 -2.5000009537
33.4467533720 -0.8364656526 -2.5000009537
33.4558586920 -0.7852117274 -2.5000009537
33.4414045106 -0.6676339186 -2.5000009537
33.4641728204 -0.6595136139 -2.5000009537
33.4481846152 -0.6155092829 -2.5000009537
33.4371176048 -0.5191602826 -2.5000009537
33.4583687770 -0.2627875039 -2.5000009537
31.1017343473 3.4430959860 -2.5000009537
31.0856602040 3.4471082857 -2.5000009537
31.2202843024 3.4369987666 -2.5000009537
28.0298004433 3.3959100852 -2.5000009537
27.9031088764 3.4051711207 -2.5000009537
27.8871609170 3.3997214737 -2.5000009537
31.5854942011 3.4259786817 -2.5000009537
31.5694685772 3.4314221055 -2.5000009537
31.6575121543 3.4265147865 -2.5000009537
31.6977298918 3.4377946982 -2.5000009537
27.6711176465 3.3983711635 -2.5000009537
31.7863237041 3.4308174895 -2.5000009537
31.8591218100 3.4287020555 -2.5000009537
27.5417728002 3.3992044006 -2.5000009537
31.9000842773 3.4385098912 -2.5000009537
26.9620465902 3.6418450923 -2.5000009537
26.4107180525 3.3347240100 -2.5000009537
26.2085091175 3.2028889500 -2.5000009537
26.1931669599 3.1924272555 -2.5000009537
26.1778558171 3.1819202220 -2.5000009537
26.1625758229 3.1713679413 -2.5000009537
27.1707291608 3.7664614647 -2.5000009537
27.1197565855 3.7434574264 -2.5000009537
26.0423248520 3.1158240379 -2.5000009537
27.3502050563 3.8693040272 -2.5000009537
28.0447554030 4.2317136639 -2.5000009537
33.9018594428 3.0895173916 -2.5000009537
33.8262954223 3.1505564760 -2.5000009537
34.0954470983 2.9566526164 -2.5000009537
34.0807988436 2.9695229883 -2.5000009537
33.0363761188 3.7179592537 -2.5000009537
34.3413687486 2.7622781514 -2.5000009537
32.5558081699 4.0234146958 -2.5000009537
34.7992077393 2.3829325055 -2.5000009537
34.9450486328 2.2465548663 -2.5000009537
34.6763117310 2.5927059538 -2.5000009537
33.4428097434 -0.4110720402 -2.5000011921
30.3145930681 3.4224384998 -2.5000011921
31.5535337212 3.4259678257 -2.5000011921
31.5213820929 3.4345512385 -2.5000011921
30.9680454963 3.5511234128 -2.5000011921
28.5938057376 3.4188762011 -2.5000011921
28.5617478658 3.4099489932 -2.5000011921
28.5457388764 3.4054143037 -2.5000011921
31.6563933199 3.4222993755 -2.5000011921
31.7595826806 3.4166830554 -2.5000011921
31.7114106185 3.4313157389 -2.5000011921
31.6792245870 3.4408331108 -2.5000011921
28.4519679001 3.4283270176 -2.5000011921
31.8470439943 3.4143372505 -2.5000011921
31.8866754154 3.4267730097 -2.5000011921
28.2126172895 3.4016666316 -2.5000011921
31.9907906834 3.4167777563 -2.5000011921
28.4473539551 3.5026436378 -2.5000011921
