47.2374390192 -11.6641953950 -2.5000268439
49.7142491207 -10.0125933045 -2.5000268439
49.8327842408 -9.8831897748 -2.5000268439
46.9765596841 -11.8071699020 -2.5000268555
45.0839130296 -15.4219235785 -2.5000276393
44.9744600656 -7.0759477603 -2.4999994886
48.4406272958 -6.8893548552 -2.4999967914
48.4489696309 -7.4891656501 -2.4999965320
48.4471278588 -7.5460613909 -2.4999965061
48.4578142646 -7.7299192812 -2.4999964023
48.4465037247 -7.8460744823 -2.4999963505
48.4541911766 -8.5233784984 -2.4999959355
43.2241466852 -10.9537459824 -2.4999952093
45.9510026704 -10.9431935396 -2.4999952093
43.1060637895 -10.9481245075 -2.4999951834
45.9890766160 -10.9582890781 -2.4999951834
46.0370922224 -10.9454525348 -2.4999951834
42.9876407568 -10.9399236981 -2.4999951575
43.0516288277 -10.9582293461 -2.4999951575
46.1075545307 -10.9509235048 -2.4999951575
42.9168136543 -10.9439812369 -2.4999951315
42.9488058593 -10.9536476714 -2.4999951315
42.9648232680 -10.9584098673 -2.4999951315
46.2423000371 -10.9360309534 -2.4999951315
42.8616689745 -10.9521825932 -2.4999951056
42.7742230854 -10.9493189131 -2.4999950797
46.4327583059 -10.9243380969 -2.4999950797
42.6864905754 -10.9450471938 -2.4999950537
42.7184931180 -10.9560762783 -2.4999950537
46.5363232020 -10.9130655952 -2.4999950537
42.6144707104 -10.9451568998 -2.4999950278
42.6464751625 -10.9566120761 -2.4999950278
46.5924389509 -10.9179949655 -2.4999950278
42.5262122876 -10.9383032789 -2.4999950019
46.6169248541 -10.9345741195 -2.4999950019
46.7053904882 -10.9261256529 -2.4999949759
42.4128516384 -10.9461504810 -2.4999949500
42.0775975130 -10.9335983537 -2.4999948203
42.0935594242 -10.9409378292 -2.4999948203
44.8091711507 -11.4754036539 -2.4999948203
47.1554363576 -10.9132787874 -2.4999947944
41.9612502493 -10.9321014840 -2.4999947684
47.3736243439 -10.9119038227 -2.4999946906
47.3894989063 -10.9035767880 -2.4999946906
41.7583145498 -10.9384563155 -2.4999946647
47.5944163468 -10.9019284508 -2.4999945869
41.3475300567 -10.8175840464 -2.4999945610
40.9823104665 -10.6062538976 -2.4999945350
41.1336837864 -10.7100539278 -2.4999945350
42.0665510118 -11.2202883547 -2.4999945350
42.1170461783 -11.2422517085 -2.4999945350
42.1677342689 -11.2637660811 -2.4999945350
42.3465609572 -11.3613693951 -2.4999945091
40.6588900751 -10.4231961172 -2.4999944832
40.8643595524 -10.5808022280 -2.4999944832
42.5993033149 -11.4770654793 -2.4999944832
40.3308606986 -10.2069727368 -2.4999944313
40.3724316066 -10.2443792714 -2.4999944313
40.9722457247 -10.7172830258 -2.4999944313
40.1510717098 -10.0710113928 -2.4999944054
47.9793560005 -10.8962674176 -2.4999943794
39.5435816153 -9.5045038077 -2.4999943275
47.9680763854 -11.2439892351 -2.4999940682
48.0353136403 -11.2033427686 -2.4999940682
48.7713272286 -10.6804549678 -2.4999940682
48.7865110079 -10.6679942879 -2.4999940682
48.8167676519 -10.6429384518 -2.4999940682
48.8618733478 -10.6050201548 -2.4999940682
48.8768335811 -10.5922919531 -2.4999940682
47.7751836005 -11.3823027002 -2.4999940423
47.8268917555 -11.3535987622 -2.4999940423
47.8440709482 -11.3439289479 -2.4999940423
49.0986967875 -10.4272300377 -2.4999940423
49.1275235256 -10.4003314195 -2.4999940423
49.1561906178 -10.3732627234 -2.4999940423
49.1846970609 -10.3460248969 -2.4999940423
49.2130418569 -10.3186188935 -2.4999940423
47.5943992451 -11.5051522900 -2.4999940163
47.7694669039 -11.4129897386 -2.4999940163
49.3834136279 -10.1816938610 -2.4999940163
47.3910056665 -11.6307813630 -2.4999939904
49.4555883353 -10.1409386582 -2.4999939904
49.5004188273 -10.1283929310 -2.4999939645
49.5677221646 -10.0549188490 -2.4999939645
49.7119179962 -9.8898231522 -2.4999939645
47.1179795801 -11.8023629073 -2.4999939385
47.1549767318 -11.7871588102 -2.4999939385
46.8621049093 -11.9776776527 -2.4999938607
44.8360147279 -7.0891431627 -2.4999971434
48.4431385256 -6.3655668610 -2.4999897202
48.4643062972 -6.2282163060 -2.4999897202
48.4411962285 -6.5069992536 -2.4999896540
48.4486675516 -6.4696210834 -2.4999896540
48.4626136221 -6.3946731961 -2.4999896540
48.4403417969 -6.6241873228 -2.4999895877
48.4432157588 -6.6117373329 -2.4999895877
48.4570324480 -6.5493628565 -2.4999895877
48.4488822926 -6.6921263635 -2.4999895214
48.4833387961 -6.5418470780 -2.4999895214
48.4530141920 -6.7730187944 -2.4999894551
48.4447092440 -6.8918098448 -2.4999893889
48.4395147615 -7.0682931538 -2.4999892563
48.4452031214 -7.1259767891 -2.4999891900
48.4409416367 -7.2089152045 -2.4999891237
48.4501121546 -7.1839929949 -2.4999891237
48.4591350638 -7.1590169656 -2.4999891237
48.4682312705 -7.2048085305 -2.4999890575
48.4447205941 -7.3973769036 -2.4999889249
48.4498817714 -7.3849105774 -2.4999889249
48.4518108718 -7.5036859403 -2.4999887924
48.4572864995 -7.4911981746 -2.4999887924
48.4504554708 -7.6235152884 -2.4999886598
48.4424854888 -7.6962583244 -2.4999885935
48.4507573989 -7.8410616737 -2.4999883947
48.4611652536 -7.9752374500 -2.4999881959
48.4492376165 -8.2359278049 -2.4999878645
48.4543127226 -8.7476117595 -2.4999870691
42.8353920525 -10.9448153637 -2.4999864064
45.7343053603 -10.9164390188 -2.4999864064
42.7193357750 -10.9379789945 -2.4999863401
45.8034543801 -10.9214756439 -2.4999863401
45.8190520355 -10.9168072414 -2.4999863401
42.6812697001 -10.9521312818 -2.4999862738
42.5644786587 -10.9419168888 -2.4999862075
45.9427259502 -10.9288364812 -2.4999862075
42.5100806583 -10.9498901828 -2.4999861412
42.5257767790 -10.9549640511 -2.4999861412
45.9815277039 -10.9415835532 -2.4999861412
46.0128249851 -10.9311467345 -2.4999861412
42.4240204810 -10.9467027211 -2.4999860750
42.3690436103 -10.9532461542 -2.4999860087
42.2824100630 -10.9477811526 -2.4999859424
42.2268917549 -10.9528718727 -2.4999858761
42.2425979351 -10.9587834519 -2.4999858761
42.2583215340 -10.9646485436 -2.4999858761
46.3205102537 -10.9474641263 -2.4999858099
46.3674717212 -10.9287309951 -2.4999858099
42.0837232492 -10.9487166773 -2.4999857436
46.4391454196 -10.9254104857 -2.4999857436
46.4484659469 -10.9477143655 -2.4999856773
46.4954245964 -10.9278456895 -2.4999856773
41.9553095448 -10.9474938583 -2.4999856110
41.9710010041 -10.9542088504 -2.4999856110
46.5519199859 -10.9296960084 -2.4999856110
41.9143121170 -10.9560774282 -2.4999855447
46.6242478063 -10.9239075175 -2.4999855447
41.1399164418 -10.7162442962 -2.4999851471
41.2152392379 -10.7614394736 -2.4999851471
41.3371220500 -10.8314202225 -2.4999851471
41.9532353440 -11.1303210383 -2.4999851471
41.3407478328 -10.8611034800 -2.4999850808
41.9439555924 -11.1526419141 -2.4999850808
42.0092678545 -11.1793429476 -2.4999850808
42.1408172909 -11.2304173620 -2.4999850808
42.1904544001 -11.2487655189 -2.4999850808
46.9796745723 -10.9393609021 -2.4999850808
40.8179781175 -10.5641848313 -2.4999850145
42.4506100049 -11.3622137600 -2.4999850145
47.0222018555 -10.9444087874 -2.4999850145
40.5042679070 -10.3616405141 -2.4999849482
40.8041898116 -10.5840397527 -2.4999849482
42.5114433903 -11.4060655739 -2.4999849482
42.5968188871 -11.4308998823 -2.4999849482
42.6418440403 -11.4685111475 -2.4999848820
42.7281288675 -11.4914099493 -2.4999848820
47.1234073791 -10.9450200293 -2.4999848820
47.4025273393 -10.9244294127 -2.4999845506
47.5497456860 -10.9190574898 -2.4999843517
47.7715980828 -10.9190127886 -2.4999840203
47.9839725949 -11.2713558600 -2.4999828936
48.0005957186 -11.2602355594 -2.4999828936
48.0337429150 -11.2378476793 -2.4999828936
48.0667570771 -11.2152640811 -2.4999828936
48.7123589889 -10.7105296114 -2.4999828936
48.8015319292 -10.6302336901 -2.4999828936
48.8309378053 -10.6031182285 -2.4999828936
48.8455804554 -10.5894953754 -2.4999828936
48.8892657173 -10.5483677590 -2.4999828936
48.9325842745 -10.5068540799 -2.4999828936
47.9973836087 -11.2914675479 -2.4999828273
49.1334363670 -10.3393000516 -2.4999828273
49.1472972717 -10.3247835074 -2.4999828273
47.5467515832 -11.5949244383 -2.4999827611
47.6169049079 -11.5552996244 -2.4999827611
47.7557804902 -11.4735737220 -2.4999827611
48.6378164416 -10.8390585583 -2.4999827611
49.3149434362 -10.1785169452 -2.4999827611
49.3283279212 -10.1634641737 -2.4999827611
47.4876472402 -11.6549716904 -2.4999826948
47.6639410898 -11.5560820992 -2.4999826948
49.4782560741 -10.0262781005 -2.4999826948
49.5169181847 -9.9795580216 -2.4999826948
48.9558571338 -10.6184744474 -2.4999826285
49.5866913941 -9.9318406226 -2.4999826285
49.6370235303 -9.8681947191 -2.4999826285
49.6494886168 -9.8521905343 -2.4999826285
47.5998119279 -11.6483441804 -2.4999825622
49.7001797259 -9.8656874266 -2.4999824960
49.3819077077 -10.3209289818 -2.4999823634
48.4513014146 -7.0887599213 -2.4999961430
48.4661417989 -7.0350880176 -2.4999961430
48.4469254469 -7.1893097763 -2.4999961171
48.4509925299 -7.1759208268 -2.4999961171
48.4590077866 -7.1491071273 -2.4999961171
48.4543903880 -7.3245983457 -2.4999960652
48.4495386004 -7.4128639191 -2.4999960392
48.4636047548 -7.3726292766 -2.4999960392
48.4479644694 -7.4880539393 -2.4999960133
48.4675297196 -7.4343935669 -2.4999960133
48.4770738984 -7.4074775041 -2.4999960133
48.4554601685 -7.5367607735 -2.4999959874
48.4464887005 -7.6259482721 -2.4999959614
48.4571665495 -7.5991533425 -2.4999959614
48.4780457353 -7.5453763091 -2.4999959614
48.4636887878 -7.7113466734 -2.4999959096
48.4571899421 -7.7879730537 -2.4999958836
48.4745846784 -7.7476557386 -2.4999958836
48.4528969461 -7.9151068160 -2.4999958318
48.4714200923 -7.8748225924 -2.4999958318
48.4558431936 -7.9656151545 -2.4999958058
48.4516947968 -8.0297476716 -2.4999957799
48.4545638066 -8.1318378638 -2.4999957280
48.4551710179 -8.1831839272 -2.4999957021
42.6291662222 -10.9581921635 -2.4999954946
42.6444077962 -10.9619967075 -2.4999954946
42.6749243741 -10.9694704507 -2.4999954946
42.6901991111 -10.9731395844 -2.4999954946
45.2868356039 -10.9400444669 -2.4999954946
45.3171760582 -10.9318851040 -2.4999954946
45.3625948996 -10.9193098477 -2.4999954946
45.3777094928 -10.9150285854 -2.4999954946
42.5012102154 -10.9494349410 -2.4999954687
45.3387437797 -10.9510442309 -2.4999954687
45.4298047182 -10.9251053412 -2.4999954687
45.4600542854 -10.9161003864 -2.4999954687
48.4685725680 -8.5996791001 -2.4999954687
42.4033240996 -10.9465735670 -2.4999954427
42.4185322919 -10.9510462437 -2.4999954427
42.4337536485 -10.9554739122 -2.4999954427
42.3354971713 -10.9513316255 -2.4999954168
45.5500545591 -10.9388907958 -2.4999954168
45.6106545854 -10.9192782602 -2.4999954168
45.6257679997 -10.9142631927 -2.4999954168
45.6710183047 -10.8989500499 -2.4999954168
42.2521260630 -10.9502808953 -2.4999953909
42.2825801919 -10.9600757139 -2.4999953909
45.6939891597 -10.9165960120 -2.4999953909
48.4534013610 -8.7592831713 -2.4999953909
42.1684403994 -10.9478842003 -2.4999953649
45.6562961918 -10.9550211878 -2.4999953649
45.7170796429 -10.9341504226 -2.4999953649
45.8161702074 -10.9241700869 -2.4999953390
45.8615009327 -10.9071668412 -2.4999953390
42.0306041049 -10.9503006461 -2.4999953131
42.1068712723 -10.9777258276 -2.4999953131
45.9154690728 -10.9122801847 -2.4999953131
45.9305604519 -10.9063634514 -2.4999953131
45.9606903717 -10.8943961856 -2.4999953131
41.9612720969 -10.9501357563 -2.4999952871
41.9764927609 -10.9559160871 -2.4999952871
45.8482093528 -10.9638385458 -2.4999952871
45.9394171205 -10.9288555546 -2.4999952871
45.9998711474 -10.9046366027 -2.4999952871
46.0149395461 -10.8984702263 -2.4999952871
41.8916802539 -10.9490469854 -2.4999952612
41.9221333909 -10.9609743441 -2.4999952612
46.0543417773 -10.9083077800 -2.4999952612
48.4446601596 -8.9877427650 -2.4999952612
48.4540473426 -8.9743526477 -2.4999952612
41.8370528506 -10.9532209833 -2.4999952353
46.1391970735 -10.8983885225 -2.4999952353
46.1542463796 -10.8918100221 -2.4999952353
41.7669695930 -10.9504734440 -2.4999952093
46.1941319420 -10.9005967078 -2.4999952093
46.2091875400 -10.8938556904 -2.4999952093
48.4459306635 -9.0693009064 -2.4999952093
46.2341992346 -10.9090886267 -2.4999951834
46.2492797779 -10.9022290459 -2.4999951834
46.2643399633 -10.8953248841 -2.4999951834
41.6565554072 -10.9556475401 -2.4999951575
46.3046346715 -10.9032819377 -2.4999951575
46.3196977294 -10.8962140215 -2.4999951575
41.2858050662 -10.8032894951 -2.4999951315
41.3154064568 -10.8188039659 -2.4999951315
41.3450991182 -10.8341430335 -2.4999951315
41.3748820110 -10.8493061607 -2.4999951315
41.3898069685 -10.8568215807 -2.4999951315
41.4347143177 -10.8791024778 -2.4999951315
46.3451051331 -10.9109395125 -2.4999951315
46.4053187685 -10.8819215259 -2.4999951315
40.9538564191 -10.6418114808 -2.4999951056
41.0401197088 -10.6937450651 -2.4999951056
41.0545859532 -10.7022514531 -2.4999951056
41.1858963959 -10.7768727425 -2.4999951056
41.2448848668 -10.8089102960 -2.4999951056
41.3191467613 -10.8479720346 -2.4999951056
41.3939782708 -10.8859311383 -2.4999951056
41.7761029115 -11.0589050295 -2.4999951056
46.4159417594 -10.9036352853 -2.4999951056
48.4546684744 -9.2204208737 -2.4999951056
41.3380444998 -10.8848303024 -2.4999950797
42.2589383774 -11.2565525010 -2.4999950797
42.3235275227 -11.2758597427 -2.4999950797
42.3883405986 -11.2944013840 -2.4999950797
46.5019820272 -10.8877589982 -2.4999950797
40.9285540172 -10.6830077135 -2.4999950537
42.5619067851 -11.3649016053 -2.4999950537
46.5280049993 -10.9016291612 -2.4999950537
48.4418840019 -9.3167253275 -2.4999950537
40.6316765439 -10.5172388183 -2.4999950278
42.6885950467 -11.4191595642 -2.4999950278
46.5843049133 -10.8997329435 -2.4999950278
42.7668815757 -11.4604843833 -2.4999950019
40.6745866915 -10.6054353624 -2.4999949759
48.4674477127 -9.4016737802 -2.4999949759
46.7240831501 -10.9070950880 -2.4999949500
43.0757385246 -11.5882507517 -2.4999949241
46.8080014084 -10.9156884041 -2.4999948981
48.4479966342 -9.5411532563 -2.4999948981
47.0051767446 -10.9406936664 -2.4999947684
49.9260043392 -5.4912209212 -2.4999947425
47.1214120080 -10.9261794095 -2.4999947166
47.1645696373 -10.9275897471 -2.4999946906
47.6169086761 -10.9428079148 -2.4999944054
47.6320829172 -10.9318578819 -2.4999944054
48.1122647549 -10.9280773383 -2.4999940941
47.9624217243 -11.3192609958 -2.4999938607
48.0273535872 -11.2710775830 -2.4999938607
48.0434971134 -11.2589119434 -2.4999938607
48.0596045809 -11.2466986017 -2.4999938607
48.0756758486 -11.2344376645 -2.4999938607
48.0917107759 -11.2221292393 -2.4999938607
48.1554842798 -11.1724228181 -2.4999938607
48.6436058990 -10.7483376323 -2.4999938607
48.6727534022 -10.7203218442 -2.4999938607
48.7734537156 -10.6209189212 -2.4999938607
48.8018450943 -10.5921371398 -2.4999938607
47.8280369098 -11.4447126516 -2.4999938348
47.9109824770 -11.3863374802 -2.4999938348
47.9274674720 -11.3745155831 -2.4999938348
47.9439174237 -11.3626449722 -2.4999938348
47.9767116211 -11.3387580246 -2.4999938348
48.0093639213 -11.3146774736 -2.4999938348
48.7906126513 -10.6379455535 -2.4999938348
48.8332861650 -10.5945570709 -2.4999938348
48.9174696756 -10.5066525677 -2.4999938348
48.9589730423 -10.4621434702 -2.4999938348
48.9864218052 -10.4322668730 -2.4999938348
47.6214177249 -11.6110707896 -2.4999938089
47.6898262892 -11.5669018660 -2.4999938089
47.7238333860 -11.5445146321 -2.4999938089
49.1126648619 -10.3270269657 -2.4999938089
49.1657756268 -10.2653028041 -2.4999938089
49.2051273718 -10.2185996346 -2.4999938089
47.4605349505 -11.7386854430 -2.4999937829
48.6193342784 -10.8707857537 -2.4999937829
48.8679048887 -10.6283044427 -2.4999937829
49.0495839387 -10.4346198395 -2.4999937829
49.3141965294 -10.1233873273 -2.4999937829
49.3269393498 -10.1074199952 -2.4999937829
49.3522830095 -10.0753725940 -2.4999937829
49.4023993083 -10.0108307765 -2.4999937829
47.5255960879 -11.7277070266 -2.4999937570
49.4955714829 -9.9272870628 -2.4999937570
49.5439255338 -9.8610601564 -2.4999937570
47.2891058125 -11.8929450202 -2.4999937310
49.0439230023 -10.5126428120 -2.4999937310
49.3390600850 -10.1696409926 -2.4999937310
47.1553650630 -11.9923199535 -2.4999937051
47.1736459700 -11.9827306579 -2.4999937051
47.5859349338 -11.7474386346 -2.4999937051
49.7244320564 -9.6858794185 -2.4999937051
47.0373669420 -12.0795755476 -2.4999936792
47.0559064831 -12.0703349301 -2.4999936792
47.1481897041 -12.0233114333 -2.4999936792
47.3847739716 -11.8947131904 -2.4999936792
49.8885785692 -9.5206231435 -2.4999936532
47.1889568365 -12.0565897776 -2.4999936273
50.0786696792 -9.2459964343 -2.4999936273
46.7662833566 -12.2863126122 -2.4999936014
46.8236649186 -12.2608240060 -2.4999936014
42.3900928865 -10.9562428859 -2.5000115131
42.4778910018 -10.9777452906 -2.5000115131
44.9097577091 -10.9539444091 -2.5000115131
44.9389234742 -10.9463778422 -2.5000115131
48.4554526685 -7.6941229959 -2.5000115131
48.4701156903 -7.6513707840 -2.5000115131
42.3109245072 -10.9604726682 -2.5000115621
48.4631699409 -7.7448894281 -2.5000115621
48.4732876684 -7.7163558449 -2.5000115621
42.2021384655 -10.9549826629 -2.5000116111
45.0246068748 -10.9732816817 -2.5000116111
45.0831138957 -10.9566158234 -2.5000116111
45.1122924318 -10.9480235763 -2.5000116111
48.4755941018 -7.7816431900 -2.5000116111
42.1075910248 -10.9516666099 -2.5000116601
42.1221850257 -10.9561942217 -2.5000116601
42.1660464949 -10.9695177515 -2.5000116601
42.1806930470 -10.9738723633 -2.5000116601
45.2213814486 -10.9396149346 -2.5000116601
45.2649737439 -10.9254354875 -2.5000116601
42.0418815626 -10.9561151465 -2.5000117090
41.9758525567 -10.9596958769 -2.5000117580
45.3822928179 -10.9364343472 -2.5000117580
45.4403388038 -10.9155387622 -2.5000117580
48.4537394106 -8.0362394684 -2.5000117580
45.4049476522 -10.9540432050 -2.5000118070
45.5211986538 -10.9110256525 -2.5000118070
41.8136643535 -10.9534753924 -2.5000118560
45.4861802337 -10.9501252672 -2.5000118560
45.5878574396 -10.9109540506 -2.5000118560
41.7613435979 -10.9596108696 -2.5000119050
45.5676799962 -10.9448787508 -2.5000119050
48.4515457941 -8.2218059036 -2.5000119050
48.4580366159 -8.2075788941 -2.5000119050
41.6941515128 -10.9594538339 -2.5000119540
41.7234061520 -10.9709117767 -2.5000119540
45.7074746377 -10.9142383718 -2.5000119540
45.7893441916 -10.9053395082 -2.5000120030
41.2282574842 -10.8031612478 -2.5000120520
41.2565955979 -10.8173783116 -2.5000120520
41.4139231345 -10.8925577842 -2.5000120520
45.8569698625 -10.9016481377 -2.5000120520
41.3173499311 -10.8739806410 -2.5000121010
45.8814406951 -10.9170734788 -2.5000121010
45.8959158511 -10.9104375121 -2.5000121010
48.4710143837 -8.4058430958 -2.5000121010
46.0718172718 -10.9066856834 -2.5000122479
48.4547848755 -8.5958108570 -2.5000122479
46.1514763930 -10.9206770024 -2.5000123459
46.3041848969 -10.8946703436 -2.5000124439
46.3185919307 -10.8867839211 -2.5000124439
48.4564946698 -8.8399218592 -2.5000124929
48.4588792328 -8.9768881432 -2.5000126398
48.4576281778 -9.1151458034 -2.5000127868
46.7333407444 -10.8657156600 -2.5000128358
46.9153474384 -10.8619246641 -2.5000130317
47.2709103041 -10.8761168829 -2.5000134726
47.3141509988 -10.8738658455 -2.5000135216
48.6260792649 -10.7341502540 -2.5000150892
48.6677141041 -10.6897641147 -2.5000150892
47.9239250719 -11.4104885716 -2.5000151382
47.9398509023 -11.3978084078 -2.5000151382
47.9557391527 -11.3850811880 -2.5000151382
47.9715896842 -11.3723070236 -2.5000151382
47.9874023580 -11.3594860264 -2.5000151382
48.0502717146 -11.3077359588 -2.5000151382
48.1434166495 -11.2287251315 -2.5000151382
48.5873157369 -10.8095761016 -2.5000151382
48.7541702261 -10.6311674734 -2.5000151382
48.7813590509 -10.6008617200 -2.5000151382
48.8485425314 -10.5243982369 -2.5000151382
48.8618431007 -10.5089867644 -2.5000151382
47.8097590525 -11.5295061763 -2.5000151872
47.9229346649 -11.4420991508 -2.5000151872
48.0184843588 -11.3653271605 -2.5000151872
48.7446517546 -10.6776134387 -2.5000151872
47.6756889390 -11.6580753653 -2.5000152362
47.7255605203 -11.6220870242 -2.5000152362
47.7586299603 -11.5978495286 -2.5000152362
47.9217945477 -11.4737508712 -2.5000152362
49.1441110858 -10.2382863255 -2.5000152362
49.1689686691 -10.2056804272 -2.5000152362
47.4520541124 -11.8403353699 -2.5000152852
48.2681626397 -11.2158055189 -2.5000152852
47.3260214976 -11.9493204396 -2.5000153342
47.3435439061 -11.9384066251 -2.5000153342
47.8370030040 -11.5997806545 -2.5000153342
47.8863509002 -11.5623630371 -2.5000153342
47.9027261671 -11.5497933600 -2.5000153342
47.9190641790 -11.5371752969 -2.5000153342
49.4584102476 -9.8814436145 -2.5000153342
47.2503738188 -12.0238330879 -2.5000153832
47.3035080431 -11.9916047767 -2.5000153832
47.4263603185 -11.9145810231 -2.5000153832
47.0830589203 -12.1489148177 -2.5000154321
49.7597173211 -9.4831867952 -2.5000154321
46.9597256964 -12.2712577684 -2.5000155301
46.4302298474 -12.6295076787 -2.5000157261
46.9219456094 -12.4272028301 -2.5000157751
42.1162453269 -10.9539099494 -2.5000139147
42.1716609189 -10.9688800032 -2.5000139147
42.1855421913 -10.9725199791 -2.5000139147
42.0542933977 -10.9615061902 -2.5000139781
44.7862577668 -10.9549688450 -2.5000139781
44.8139029557 -10.9467391282 -2.5000139781
44.8762837285 -10.9528534373 -2.5000140415
44.9039148264 -10.9440911336 -2.5000140415
44.9804764233 -10.9443803880 -2.5000141049
44.9942729317 -10.9397114869 -2.5000141049
45.1207794857 -10.9462860024 -2.5000142317
45.1345810173 -10.9412020512 -2.5000142317
45.2258590330 -10.9323612047 -2.5000142951
45.3036192692 -10.9273669181 -2.5000143585
48.4581303569 -7.5782637005 -2.5000148657
48.4439280349 -4.9241904983 -2.5000148657
48.4399005787 -4.9093024218 -2.5000148657
48.4358290985 -4.8944263244 -2.5000148657
48.4508219183 -4.8581570401 -2.5000149291
48.4292673410 -4.7837430096 -2.5000149291
48.4343177061 -4.7172757796 -2.5000149925
48.4480369377 -4.6802650084 -2.5000150559
48.4432878878 -4.6653658443 -2.5000150559
45.8828576857 -10.9772605758 -2.5000151193
48.4547653212 -7.9340213989 -2.5000151193
48.4596414418 -7.9190880945 -2.5000151193
48.4467831550 -4.5982645473 -2.5000151193
48.4367558812 -4.5684891858 -2.5000151193
48.4525771998 -8.0163440918 -2.5000151827
45.9891446427 -10.9749889369 -2.5000152460
48.4663551060 -8.1221442693 -2.5000153094
48.4463317155 -4.3802530553 -2.5000153094
48.4406951835 -4.3653602482 -2.5000153094
48.4553920015 -8.2202935796 -2.5000153728
48.4485449259 -8.3037330905 -2.5000154362
48.4604404176 -8.2738824540 -2.5000154362
48.4489105494 -4.1896107283 -2.5000154996
48.4427100516 -4.1747111267 -2.5000154996
48.4436222563 -8.4415026467 -2.5000155630
48.4626220356 -8.3967386915 -2.5000155630
48.4463499165 -8.4958361594 -2.5000156264
48.4528880235 -8.4809252911 -2.5000156264
48.4485079822 -8.5503876930 -2.5000156898
48.4362375965 -8.6349350205 -2.5000157532
48.4511007973 -8.6601213918 -2.5000158166
46.7491481336 -10.8637464557 -2.5000160702
48.4415703919 -8.8968431532 -2.5000160702
48.4295991976 -9.1214490804 -2.5000163238
48.4259970850 -9.3188161257 -2.5000165774
48.4169142096 -9.6472299092 -2.5000170211
47.7624064265 -10.8342756930 -2.5000177185
47.8228909448 -10.8431966744 -2.5000178453
48.2337480206 -11.1513931238 -2.5000191766
48.3617649584 -11.0212308544 -2.5000191766
47.9224649328 -11.4730930365 -2.5000192400
47.9531206296 -11.4462993967 -2.5000192400
48.0591560052 -11.3511032783 -2.5000192400
48.0741422029 -11.3373253066 -2.5000192400
48.1039919976 -11.3096366693 -2.5000192400
48.1631975348 -11.2537320198 -2.5000192400
48.6913187610 -10.6890382813 -2.5000192400
48.8068654138 -10.5468590936 -2.5000192400
48.8569962070 -10.4826911183 -2.5000192400
47.7504474345 -11.6488029556 -2.5000193034
47.8918769578 -11.5313301233 -2.5000193034
48.9985361270 -10.3339120274 -2.5000193034
49.1045202594 -10.1836804060 -2.5000193034
49.0539985089 -10.2981712744 -2.5000193668
49.1817968910 -10.1123896348 -2.5000193668
47.4198681281 -11.9592660460 -2.5000194302
47.4534089839 -11.9354374289 -2.5000194302
47.5366392201 -11.8750013818 -2.5000194302
47.6353219861 -11.8008631041 -2.5000194302
48.9518951817 -10.4779739124 -2.5000194302
49.1790682333 -10.1599690160 -2.5000194302
49.3984981428 -9.8120022981 -2.5000194302
47.2806250173 -12.0841337884 -2.5000194936
47.3319969017 -12.0495473395 -2.5000194936
47.4842427436 -11.9430718592 -2.5000194936
47.7638519349 -11.7310598933 -2.5000194936
48.3771183636 -11.1788430512 -2.5000194936
49.1991249182 -10.1734621503 -2.5000194936
47.5124754346 -11.9823179582 -2.5000196204
46.9851382135 -12.3549533088 -2.5000196838
46.9793448155 -12.3863748381 -2.5000197472
49.6658725214 -9.5810895378 -2.5000197472
49.8062238631 -9.3002981652 -2.5000197472
44.7548789391 -7.1425673994 -2.5000015822
44.5812298628 -10.9518845663 -2.5000022853
44.5941773750 -10.9478418286 -2.5000022853
44.6144199420 -10.9668029863 -2.5000022911
44.6403906323 -10.9584826029 -2.5000022911
44.6792532327 -10.9457142970 -2.5000022911
44.7258512690 -10.9554644276 -2.5000022968
44.7388087384 -10.9509938580 -2.5000022968
44.9541941996 -10.9743699959 -2.5000023199
45.0801984626 -10.9489220710 -2.5000023256
45.8285937596 -11.0039389565 -2.5000024179
48.4533946922 -7.9367859565 -2.5000024813
48.4384572923 -8.0823070359 -2.5000024870
48.4602094853 -8.0049748729 -2.5000024870
48.4480182135 -8.1354720898 -2.5000024928
48.4571707049 -8.1045204046 -2.5000024928
48.4765842354 -5.1095328660 -2.5000024928
48.4588996191 -5.0474497156 -2.5000024928
48.4325720542 -8.2661903931 -2.5000024985
48.4683024837 -4.9940615842 -2.5000024985
48.4492521373 -4.9320845111 -2.5000024985
48.4402638445 -8.3200458208 -2.5000025043
48.4624727528 -4.8938063887 -2.5000025043
48.4524462083 -4.8628259201 -2.5000025043
48.4312184223 -8.4204803469 -2.5000025101
48.4366607377 -8.4050597227 -2.5000025101
48.4527136507 -8.3587021995 -2.5000025101
48.4441088134 -4.7623301413 -2.5000025101
48.4506025802 -4.7079297145 -2.5000025158
48.4450624146 -4.6924679925 -2.5000025158
48.4253117278 -8.5758868592 -2.5000025216
48.4560537670 -4.5828680764 -2.5000025274
48.4147918809 -8.7322760217 -2.5000025331
48.4337495161 -8.6860996870 -2.5000025331
48.4485117711 -4.4967352351 -2.5000025331
48.4522657477 -4.4413042236 -2.5000025389
48.4424129391 -4.3547137778 -2.5000025446
48.4285276837 -8.8839877182 -2.5000025504
48.4600692374 -4.2736579839 -2.5000025562
48.4463737288 -4.2427025890 -2.5000025562
48.4158783484 -9.0837420697 -2.5000025677
48.4551939131 -4.1453310343 -2.5000025677
48.3638101021 -3.9044106679 -2.5000025735
48.3479316871 -3.8740312368 -2.5000025735
48.3399251482 -3.8588768825 -2.5000025735
48.2992219544 -3.7834640226 -2.5000025735
48.2826291088 -3.7534688334 -2.5000025735
48.2658590919 -3.7235723380 -2.5000025735
48.7403471396 -4.7324933522 -2.5000025792
48.7348783699 -4.7161744059 -2.5000025792
48.7125212714 -4.6510625368 -2.5000025792
48.4243359974 -3.9699502773 -2.5000025792
48.3286729071 -3.7869225473 -2.5000025792
48.2265742896 -3.6074052804 -2.5000025792
48.8105140654 -4.8730375523 -2.5000025850
48.8003585542 -4.8399983179 -2.5000025850
48.7900077496 -4.8070197451 -2.5000025850
48.4225520701 -3.9128700459 -2.5000025850
48.4170861710 -9.2963082100 -2.5000025908
48.4193592384 -9.6400432659 -2.5000026311
48.4369821231 -9.7978685934 -2.5000026542
48.4602524985 -9.9422332908 -2.5000026772
48.4725839188 -10.6757295700 -2.5000027809
47.9830206344 -11.4401124448 -2.5000028155
48.1248937423 -11.2971364721 -2.5000028155
48.1388470671 -11.2826094252 -2.5000028155
48.1527573573 -11.2680411654 -2.5000028155
48.1666244910 -11.2534318201 -2.5000028155
48.7204210232 -10.5882292912 -2.5000028155
48.7440800824 -10.5556230521 -2.5000028155
48.7792059328 -10.5064526685 -2.5000028155
47.8977665407 -11.5552937916 -2.5000028213
47.9271614762 -11.5275377275 -2.5000028213
47.9709446931 -11.4855787655 -2.5000028213
48.2803732450 -11.1662755003 -2.5000028213
48.7989377060 -10.5204166366 -2.5000028213
48.8567110518 -10.4374861394 -2.5000028213
48.8681181734 -10.4207980058 -2.5000028213
48.8794758786 -10.4040762010 -2.5000028213
48.9020426426 -10.3705321629 -2.5000028213
48.9575878611 -10.2860930987 -2.5000028213
47.7339035680 -11.7363351973 -2.5000028270
47.7946823476 -11.6825758733 -2.5000028270
47.8398466580 -11.6417864841 -2.5000028270
49.0107221444 -10.2479930056 -2.5000028270
47.5472498867 -11.9248210613 -2.5000028328
49.2091700512 -9.9642255267 -2.5000028328
47.2654077520 -12.2302545231 -2.5000028501
47.2088244181 -12.3291939332 -2.5000028616
47.0980815330 -12.4623266420 -2.5000028732
44.7538032129 -7.1402707083 -2.4999993848
44.7639743015 -7.0561815459 -2.4999993848
44.7514265322 -7.2827968376 -2.4999993589
44.7558865847 -7.2630770035 -2.4999993589
44.7601129907 -7.2433057765 -2.4999993589
44.2439496378 -10.9571131041 -2.4999966617
44.2919214338 -10.9431407480 -2.4999966617
44.3108537745 -10.9627067694 -2.4999966358
44.3468951799 -10.9516867462 -2.4999966358
44.3947955618 -10.9364966705 -2.4999966358
44.4022388481 -10.9594952090 -2.4999966098
44.4382481541 -10.9476643210 -2.4999966098
44.4502277491 -10.9436497346 -2.4999966098
44.4820013456 -10.9583771477 -2.4999965839
44.5179975884 -10.9458384563 -2.4999965839
44.5299714333 -10.9415879647 -2.4999965839
44.6100687815 -10.9379635080 -2.4999965579
44.7685280212 -10.9532700120 -2.4999964801
44.7925026677 -10.9432512742 -2.4999964801
44.8716061441 -10.9618552942 -2.4999964283
44.8836258225 -10.9565586944 -2.4999964283
44.9655812471 -10.9459635798 -2.4999964023
45.0582820805 -10.9554766645 -2.4999963505
45.1529206716 -10.9353137765 -2.4999963245
45.5098669844 -10.9305892100 -2.4999961430
46.5304829933 -10.9069820888 -2.4999955206
48.4384965180 -8.3756665330 -2.4999952353
48.4428501756 -8.3598297421 -2.4999952353
48.4572259897 -5.4858547221 -2.4999952353
48.4530309793 -5.4699751702 -2.4999952353
48.4487890128 -5.4541080973 -2.4999952353
48.4392275511 -8.4614394964 -2.4999952093
48.4438349375 -8.4456001676 -2.4999952093
48.4363559287 -5.3208089843 -2.4999952093
48.4336780156 -8.5633796573 -2.4999951834
48.4436244135 -5.1799193801 -2.4999951575
48.4385244506 -5.1640814027 -2.4999951575
48.4333776584 -5.1482585812 -2.4999951575
48.4277302067 -8.7365401892 -2.4999951315
48.4511381809 -5.1248718309 -2.4999951315
48.4458753446 -5.1090118673 -2.4999951315
48.4405656146 -5.0931675414 -2.4999951315
48.4226589153 -8.8235417130 -2.4999951056
48.4283375379 -8.8077498129 -2.4999951056
48.4450927684 -8.7602742903 -2.4999951056
48.4580949711 -5.0695563626 -2.4999951056
48.4361074449 -5.0061324458 -2.4999951056
48.4338475974 -8.8634224079 -2.4999950797
48.4475768409 -4.9663315741 -2.4999950797
48.4418450293 -4.9504828393 -2.4999950797
48.4506654166 -8.8876450719 -2.4999950537
48.4529115273 -4.9104474765 -2.4999950537
48.4410703234 -4.8787364480 -2.4999950537
48.4350794181 -4.8629073439 -2.4999950537
48.4393443024 -4.8067371852 -2.4999950278
48.4556324997 -4.7820567794 -2.4999950019
48.4493555347 -4.7661850207 -2.4999950019
48.4366608879 -4.7344975556 -2.4999950019
48.4351985563 -4.6051582920 -2.4999949500
48.4381965060 -4.4332829604 -2.4999948722
48.4570054980 -9.4328093047 -2.4999948203
48.4371970210 -4.3177103583 -2.4999948203
48.4713038999 -9.4590733064 -2.4999947944
48.4623014187 -9.5332495129 -2.4999947684
48.4473268123 -4.1746564574 -2.4999947425
48.6215016274 -4.4278517050 -2.4999946906
48.3277984437 -3.8535664551 -2.4999946906
48.3187753957 -3.8380769152 -2.4999946906
48.2636784907 -3.7457063546 -2.4999946906
48.2543366536 -3.7304069651 -2.4999946906
48.7347424016 -4.6334666032 -2.4999946647
48.2655245762 -3.7024464793 -2.4999946647
48.2273742518 -3.6413968508 -2.4999946647
48.0676309079 -3.4018397117 -2.4999946647
48.8641990719 -4.9123707323 -2.4999946388
47.9922611714 -3.2560893721 -2.4999946388
48.9270539983 -5.0250397624 -2.4999946128
49.0030663789 -5.1918978701 -2.4999945869
49.0604453302 -5.3085488491 -2.4999945610
49.0509487949 -5.2732364792 -2.4999945610
48.4771980212 -9.9696324259 -2.4999945350
49.1111477307 -5.4090213127 -2.4999945350
49.1518563393 -5.4748894199 -2.4999945091
49.3386808789 -5.9303251659 -2.4999944054
48.4686002379 -10.3118932127 -2.4999943535
48.4786814725 -10.2959588976 -2.4999943535
48.4683133965 -10.4017201670 -2.4999943016
48.4576881468 -10.8415969346 -2.4999940423
48.0569408551 -11.4080212861 -2.4999939904
48.0835484100 -11.3785392347 -2.4999939904
48.1623180319 -11.2891558166 -2.4999939904
48.2011048241 -11.2439433536 -2.4999939904
48.2139444019 -11.2287962602 -2.4999939904
48.2394888536 -11.1983884599 -2.4999939904
48.7543231319 -10.4932551247 -2.4999939904
48.7755064177 -10.4596631356 -2.4999939904
48.7860234396 -10.4428202900 -2.4999939904
48.8069077812 -10.4090416339 -2.4999939904
47.8970530782 -11.6126841356 -2.4999939645
47.9387214485 -11.5698130102 -2.4999939645
47.9525261558 -11.5554406685 -2.4999939645
47.9662882867 -11.5410275529 -2.4999939645
47.9936843380 -11.5120795048 -2.4999939645
48.8379103991 -10.4046962821 -2.4999939645
48.9391724728 -10.2330672047 -2.4999939645
48.9490184668 -10.2157411968 -2.4999939645
48.9685564796 -10.1810021816 -2.4999939645
47.6995873236 -11.8390749023 -2.4999939385
47.8009485234 -11.7425104255 -2.4999939385
48.9896607566 -10.1927896653 -2.4999939385
47.5673275388 -11.9914912203 -2.4999939126
47.7160789934 -11.8567486147 -2.4999939126
47.3829120683 -12.2102127723 -2.4999938607
49.1489198274 -10.0502392394 -2.4999938607
47.1058313320 -12.4823868163 -2.4999938089
47.8706048349 -11.8433247121 -2.4999938089
49.5394734080 -9.3573236260 -2.4999937829
43.5029668335 -14.7820068876 -2.4999927196
43.5449728180 -15.5786100633 -2.4999918637
43.9028896698 -10.9433239507 -2.4999989201
44.1744966318 -10.9433268478 -2.4999988769
44.2805895907 -10.9339121016 -2.4999988625
44.3213973313 -10.9452947876 -2.4999988481
44.6622913401 -10.9393338386 -2.4999987761
44.8571530020 -10.9544070916 -2.4999987184
48.4401554751 -7.4010726987 -2.4999979548
48.4425898153 -7.2564964031 -2.4999979548
48.4426226757 -7.2404296582 -2.4999979548
48.4424360868 -7.1922298244 -2.4999979548
48.4420740591 -7.1600983420 -2.4999979548
48.4403373712 -7.0797839271 -2.4999979548
48.4471094619 -8.5856708828 -2.4999978539
48.4701834205 -8.4889832462 -2.4999978539
48.4323709527 -5.8309515953 -2.4999978539
48.4624644315 -8.6237655427 -2.4999978395
48.4430200709 -5.7766204890 -2.4999978395
48.4646991214 -8.7105425209 -2.4999978251
48.4655543078 -8.7976875253 -2.4999978107
48.4485461124 -5.6187497262 -2.4999978107
48.4290133874 -5.5545273220 -2.4999978107
48.4420045798 -5.5151968586 -2.4999977963
48.4651119802 -9.0449852133 -2.4999977675
48.4717326292 -9.1011218299 -2.4999977531
48.4574880724 -9.3518465619 -2.4999977098
48.4280998920 -5.0486753517 -2.4999977098
48.4638526206 -9.4664680669 -2.4999976810
48.4273991024 -4.8602734013 -2.4999976666
48.4762299746 -9.7993018081 -2.4999975946
48.4329923858 -4.4240050531 -2.4999975514
48.4291686294 -4.3646777592 -2.4999975369
48.4599930084 -10.1549913990 -2.4999975081
48.4616207247 -10.3027346690 -2.4999974649
48.2018469203 -3.6641587284 -2.4999974361
48.1699324145 -3.6182364730 -2.4999974361
48.1048871160 -3.5272506516 -2.4999974361
48.0606308604 -3.4672409980 -2.4999974361
47.9658442485 -3.3045155046 -2.4999974217
47.9377162620 -3.2309147381 -2.4999974073
48.2104646341 -11.2498468611 -2.4999972776
48.7067255743 -10.5074555126 -2.4999972776
47.9047316906 -11.6536665603 -2.4999972632
47.9437312849 -11.6100664202 -2.4999972632
48.0332143993 -11.5069994800 -2.4999972632
48.0458228077 -11.4921251438 -2.4999972632
48.7850404484 -10.4175199069 -2.4999972632
48.8891285496 -10.2737882590 -2.4999972488
48.9593346333 -10.1338499668 -2.4999972488
49.0015243016 -10.0455597879 -2.4999972488
47.7139242779 -11.9592285104 -2.4999972200
49.2092724640 -9.6860240800 -2.4999972200
47.6341681776 -12.1042385565 -2.4999971912
49.3244562576 -9.5180593678 -2.4999971912
49.3507402403 -9.6555932397 -2.4999971479
44.4202632006 -10.9391508927 -2.5000016263
44.4396923032 -10.9571431129 -2.5000016292
44.4794721464 -10.9398240708 -2.5000016292
44.5290855294 -10.9440243754 -2.5000016321
44.9141822794 -10.9363579135 -2.5000016522
44.9189705289 -4.0459254154 -2.5000016724
48.4631087115 -8.9084822095 -2.5000018626
48.4579409768 -9.0275668862 -2.5000018655
48.4621794895 -9.0114030097 -2.5000018655
48.4466169357 -6.1035263194 -2.5000018655
48.4422056571 -6.0874087353 -2.5000018655
48.4638081434 -9.0985369906 -2.5000018684
48.4682565729 -9.0823554474 -2.5000018684
48.4829447845 -6.1458168072 -2.5000018684
48.4519342374 -6.0325129005 -2.5000018684
48.4466182840 -5.9288898882 -2.5000018713
48.4416903992 -5.9127730643 -2.5000018713
48.4477069031 -9.3223079470 -2.5000018741
48.4578800605 -9.2900231161 -2.5000018741
48.4496631616 -5.8572039514 -2.5000018741
48.4445232036 -5.8410784338 -2.5000018741
48.4603330340 -9.3620012789 -2.5000018770
48.4517715307 -5.7852148704 -2.5000018770
48.4410179865 -5.7529678969 -2.5000018770
48.4563547246 -9.4504359687 -2.5000018799
48.4618441675 -9.4342749344 -2.5000018799
48.4473699096 -5.6968002391 -2.5000018799
48.4509508746 -9.5391396520 -2.5000018828
48.4624068243 -9.5068318338 -2.5000018828
48.4356647286 -5.5920230394 -2.5000018828
48.4501277097 -9.6119638354 -2.5000018857
48.4678862112 -9.5634812703 -2.5000018857
48.4403696945 -5.5353040335 -2.5000018857
48.4281377934 -5.5031288909 -2.5000018857
48.4483417597 -9.6850407288 -2.5000018885
48.4606609550 -9.6527457935 -2.5000018885
48.4667488480 -9.6365711354 -2.5000018885
48.4444945974 -5.4783450975 -2.5000018885
48.4519873215 -9.7422271783 -2.5000018914
48.4583399546 -9.7260777868 -2.5000018914
48.4709017639 -9.6937229806 -2.5000018914
48.4351281587 -5.3889335772 -2.5000018914
48.4286030358 -5.3728531057 -2.5000018914
48.4439833735 -9.8895546687 -2.5000018972
48.4575126181 -9.8572819397 -2.5000018972
48.4341494110 -5.1998726806 -2.5000019001
48.4613302507 -10.0314789580 -2.5000019058
48.4348494474 -5.0835178940 -2.5000019058
48.4499748003 -10.2826454931 -2.5000019174
48.4179818760 -4.6705384727 -2.5000019260
48.4359620631 -10.5204109472 -2.5000019289
48.4617830809 -10.4720183209 -2.5000019289
48.4433157438 -4.4671710084 -2.5000019404
48.4340638447 -4.4510703497 -2.5000019404
48.1745386003 -11.3442528696 -2.5000019548
48.1966790438 -11.3135488068 -2.5000019548
48.2512320345 -11.2362202803 -2.5000019548
48.3046353393 -11.1580933526 -2.5000019548
48.4218504654 -4.1959912167 -2.5000019548
48.0098274134 -11.6001673150 -2.5000019577
48.0216781041 -11.5853177833 -2.5000019577
48.0569658866 -11.5405597601 -2.5000019577
48.0686400412 -11.5255710450 -2.5000019577
48.8270764624 -10.2783355475 -2.5000019577
48.8507337954 -10.2264815329 -2.5000019577
48.8585171958 -10.2091504584 -2.5000019577
48.9263755447 -10.1141648612 -2.5000019606
48.9412252160 -10.0790342071 -2.5000019606
48.9631093664 -10.0261750346 -2.5000019606
47.7738977813 -11.9503475827 -2.5000019635
49.0210460085 -9.9464670976 -2.5000019635
49.0349018666 -9.9107792762 -2.5000019635
49.0552891600 -9.8570954016 -2.5000019635
47.6062918901 -12.1614528984 -2.5000019663
49.1301485045 -9.7210194214 -2.5000019663
48.2906932700 -3.8250942876 -2.5000019663
48.2458138049 -3.7627076997 -2.5000019663
48.2116714850 -3.7162686415 -2.5000019663
48.1304133176 -3.6091025368 -2.5000019663
48.0949123824 -3.5636936420 -2.5000019663
47.4010152523 -12.3922796643 -2.5000019692
48.8602448051 -4.7391447024 -2.5000019692
48.8432952094 -4.7044993718 -2.5000019692
47.9548589046 -3.3549369570 -2.5000019692
47.9423189532 -3.3402861084 -2.5000019692
47.9171093056 -3.3110960177 -2.5000019692
47.3165286544 -12.5006137352 -2.5000019721
49.2651070020 -9.4606625130 -2.5000019721
48.9875228271 -4.9569994343 -2.5000019721
48.9399070874 -4.8510740415 -2.5000019721
47.8842331347 -3.2370969944 -2.5000019721
47.1847140056 -12.6448739850 -2.5000019750
49.0404672921 -5.0186263215 -2.5000019750
49.3936746542 -9.1735883205 -2.5000019779
47.4153990929 -2.6311402957 -2.5000019836
46.7585000378 -13.0870142024 -2.5000019865
49.4570191637 -5.7668562417 -2.5000019923
49.6065402925 -6.0582528964 -2.5000020009
44.7470303436 -7.4201182796 -2.5000016168
44.7408379621 -7.3999725005 -2.5000016168
44.7449610612 -7.0874053481 -2.5000016456
44.7618403847 -7.0146145850 -2.5000016571
45.1068409417 -10.9336568137 -2.5000020605
44.3242749000 -4.0628173136 -2.5000021643
44.3893251542 -4.0593842443 -2.5000021700
44.2814175354 -3.9981556001 -2.5000021758
44.6096020133 -4.0648317933 -2.5000021873
44.6301864831 -4.0471123235 -2.5000021931
44.7525573444 -4.0465357554 -2.5000022046
44.8875515919 -4.0551954683 -2.5000022161
44.9776427806 -4.0452952993 -2.5000022277
45.3699185394 -4.0395929407 -2.5000022738
48.4456951902 -9.3078498347 -2.5000025216
48.4537325180 -9.2758522042 -2.5000025216
48.4615803964 -9.2438075821 -2.5000025216
48.4706780047 -6.6611409584 -2.5000025216
48.4630560767 -6.6290418430 -2.5000025216
48.4552443729 -6.5969883833 -2.5000025216
48.4524083836 -9.3779347219 -2.5000025274
48.4540354628 -6.4949044360 -2.5000025274
48.4816473601 -6.5047826821 -2.5000025331
48.4599229965 -6.4244757106 -2.5000025331
48.4554357198 -6.4084533669 -2.5000025331
48.4536350640 -9.5511930304 -2.5000025389
48.4583972101 -9.5351756068 -2.5000025389
48.4602017677 -6.3376704109 -2.5000025389
48.4554577039 -6.3216476224 -2.5000025389
48.4689545038 -6.2826105565 -2.5000025446
48.4590930930 -6.2505282628 -2.5000025446
48.4598167042 -9.6937495051 -2.5000025504
48.4650005311 -9.6777131713 -2.5000025504
48.4701368969 -9.6616615730 -2.5000025504
48.4565870917 -6.1630713926 -2.5000025504
48.4513265483 -6.1470600609 -2.5000025504
48.4742806444 -6.1394808290 -2.5000025562
48.4471541310 -6.0593227722 -2.5000025562
48.4508965403 -9.8695344334 -2.5000025619
48.4530785029 -6.0033033311 -2.5000025619
48.4443043084 -9.9578127648 -2.5000025677
48.4502693501 -9.9418211641 -2.5000025677
48.4425060941 -10.0303495600 -2.5000025735
48.4548180287 -9.9983581523 -2.5000025735
48.4609029649 -9.9823352727 -2.5000025735
48.4692316441 -5.9065614725 -2.5000025735
48.4485671332 -5.7856852592 -2.5000025792
48.4557048112 -10.1281670625 -2.5000025850
48.4685952360 -10.0960958547 -2.5000025850
48.4474908340 -5.6554130893 -2.5000025908
48.4466149240 -10.2748901523 -2.5000025965
48.4561393657 -5.6139506424 -2.5000025965
48.4334282729 -10.3645149859 -2.5000026023
48.4547910319 -10.3165681002 -2.5000026023
48.4397755591 -10.5227906913 -2.5000026196
48.4474119274 -10.5068100155 -2.5000026196
48.4700369244 -10.4587334294 -2.5000026196
48.4460942966 -10.5652672335 -2.5000026253
48.4384474137 -10.7416843871 -2.5000026426
48.4335393864 -5.0127115519 -2.5000026542
48.4601498844 -10.8556236312 -2.5000026599
48.1695893251 -11.3833420638 -2.5000026657
48.2497910995 -11.2610264814 -2.5000026657
48.2596121340 -11.2456045839 -2.5000026657
48.2791171265 -11.2146739693 -2.5000026657
48.1273648335 -11.4876614852 -2.5000026714
48.1378568310 -11.4726007550 -2.5000026714
48.2996021951 -11.2275074118 -2.5000026714
48.7566344921 -10.3491808978 -2.5000026714
48.7708272423 -10.3153254209 -2.5000026714
48.7778484423 -10.2983663421 -2.5000026714
48.7848194436 -10.2813865675 -2.5000026714
48.4349458919 -4.8658374635 -2.5000026714
47.8344658327 -11.9116989003 -2.5000026772
48.7571516192 -10.4094140397 -2.5000026772
48.8613586623 -10.1534366635 -2.5000026772
48.8679005700 -10.1362104847 -2.5000026772
48.8872201458 -10.0844168914 -2.5000026772
47.7450448405 -12.0538111859 -2.5000026830
48.0807961087 -11.6356404978 -2.5000026830
48.9533600827 -9.9707895349 -2.5000026830
48.9593612846 -9.9532919984 -2.5000026830
47.6007057702 -12.2482208582 -2.5000026887
47.7754432516 -12.0557535705 -2.5000026887
49.0229506823 -9.8376560080 -2.5000026887
48.4325550933 -4.7176681933 -2.5000026887
47.5184433828 -12.4022171300 -2.5000027003
48.4163362449 -4.5523837724 -2.5000027060
48.4143431177 -4.3275335192 -2.5000027348
48.4220349668 -4.2526976007 -2.5000027464
48.6826933554 -4.4312474438 -2.5000027752
48.6513918777 -4.3813221142 -2.5000027752
48.2298163542 -3.7897740866 -2.5000027752
48.1928399940 -3.7438930467 -2.5000027752
48.7947918212 -4.5704641172 -2.5000027809
48.7848185777 -4.5534592830 -2.5000027809
48.7545976399 -4.5026228368 -2.5000027809
48.7342002247 -4.4688817351 -2.5000027809
48.6928083153 -4.4017645141 -2.5000027809
48.1488389763 -3.6526319745 -2.5000027809
48.0330736053 -3.5181865574 -2.5000027809
47.9804817119 -3.4594319466 -2.5000027809
47.9405835689 -3.4157766202 -2.5000027809
48.9961424455 -4.8879694233 -2.5000027867
48.9688817759 -4.8352444237 -2.5000027867
48.9129621266 -4.7305305561 -2.5000027867
48.9034618715 -4.7131754524 -2.5000027867
48.8939103184 -4.6958485282 -2.5000027867
48.8843075509 -4.6785499349 -2.5000027867
48.0511800650 -3.5021712086 -2.5000027867
47.8220994860 -3.2559423058 -2.5000027867
47.8082419051 -3.2418206231 -2.5000027867
47.7943426104 -3.2277399954 -2.5000027867
49.0796682882 -5.0013611761 -2.5000027925
49.0534106177 -4.9478904663 -2.5000027925
47.8254703308 -3.2248643078 -2.5000027925
47.7127121816 -3.1129761984 -2.5000027925
47.6697499826 -3.0717108193 -2.5000027925
49.2020293870 -5.2077304263 -2.5000027982
47.7580742353 -3.1234381467 -2.5000027982
47.3593711308 -2.6997001467 -2.5000028098
47.2959036669 -2.5860561479 -2.5000028213
49.5687261416 -5.6054096786 -2.5000028443
44.7445550357 -7.8167598842 -2.5000011921
43.7092480239 -4.0819151690 -2.5000011921
43.6844784822 -4.0786585983 -2.5000011921
43.6720865946 -4.0770852817 -2.5000011921
43.8243131938 -4.0745176697 -2.5000011921
43.7870815847 -4.0686669349 -2.5000011921
43.7497995198 -4.0631468401 -2.5000011921
43.7407250546 -4.0374424922 -2.5000011921
44.1063297589 -4.0803549647 -2.5000011921
44.0691388471 -4.0720012611 -2.5000011921
44.0194384298 -4.0613770202 -2.5000011921
44.1986984843 -4.0776832696 -2.5000011921
44.2915869063 -4.0770516797 -2.5000011921
44.3725544595 -4.0748350792 -2.5000011921
44.4663563672 -4.0780661982 -2.5000011921
44.6259714882 -4.0548057258 -2.5000011921
44.8973716029 -4.0552881266 -2.5000011921
44.8849052743 -4.0501269551 -2.5000011921
44.9316698211 -4.0434554020 -2.5000011921
45.0634691161 -4.0484618199 -2.5000011921
45.1484265389 -4.0613240183 -2.5000011921
45.1359769671 -4.0554201545 -2.5000011921
45.3423017915 -4.0771722532 -2.5000011921
45.3410563702 -4.0492511150 -2.5000011921
45.4271029726 -4.0676237719 -2.5000011921
48.4321999713 -9.7115801397 -2.5000011921
48.4406547587 -9.6802824706 -2.5000011921
48.4422481792 -6.8594711490 -2.5000011921
48.4380616208 -6.8438113220 -2.5000011921
48.4295496221 -6.8125291641 -2.5000011921
48.4289276876 -9.8119513615 -2.5000011921
48.4334751580 -9.7963180205 -2.5000011921
48.4528556947 -6.8061133816 -2.5000011921
48.4396831997 -6.7590793621 -2.5000011921
48.4333950071 -9.8814082049 -2.5000011921
48.4428545334 -9.8501004933 -2.5000011921
48.4566961102 -9.8030353605 -2.5000011921
48.4492823559 -6.7053356809 -2.5000011921
48.4446398062 -6.6896557199 -2.5000011921
48.4352156561 -6.6583373413 -2.5000011921
48.4369550119 -9.9511861066 -2.5000011921
48.4437961150 -6.6042267955 -2.5000011921
48.4618966648 -6.5812564203 -2.5000011921
48.4413253880 -10.0916578250 -2.5000011921
48.4748294255 -6.5423945582 -2.5000011921
48.4487406938 -6.4637741166 -2.5000011921
48.4250927763 -10.2092493649 -2.5000011921
48.4668737821 -6.2980955582 -2.5000011921
48.4597167328 -6.2108960122 -2.5000011921
48.4423328332 -10.4319595250 -2.5000011921
48.4699518987 -6.1706400930 -2.5000011921
48.4252820668 -10.5351543189 -2.5000011921
48.4407302085 -10.5603690510 -2.5000011921
48.4765715396 -6.0579784364 -2.5000011921
48.4352879539 -10.6327237475 -2.5000011921
48.4422633896 -10.6170680004 -2.5000011921
48.4808550620 -5.9444272725 -2.5000011921
48.4755410866 -5.8142590800 -2.5000011921
48.4682624562 -5.7985053398 -2.5000011921
48.4754340268 -5.7567620747 -2.5000011921
48.4747244433 -5.6990746188 -2.5000011921
48.1605450912 -11.4495834388 -2.5000011921
48.2253704771 -11.3450797790 -2.5000011921
48.2344541092 -11.3300418889 -2.5000011921
48.2614375423 -11.2847679149 -2.5000011921
48.6763499795 -10.4327344822 -2.5000011921
48.7841343179 -10.2097995877 -2.5000011921
48.8296746262 -10.1505607946 -2.5000011921
48.8352220110 -10.1337404901 -2.5000011921
47.7720817074 -12.1062725496 -2.5000011921
48.1937830719 -11.5764154363 -2.5000011921
49.1233742321 -9.5260735733 -2.5000011921
48.4736932670 -5.2786285508 -2.5000011921
48.7265751789 -4.4497402384 -2.5000011921
48.2892248447 -3.8782321519 -2.5000011921
48.2500754897 -3.8327655603 -2.5000011921
