3.4455387107 -22.1964518218 -2.4999891237
3.4447124453 -22.2672678867 -2.4999890575
3.4818875788 -22.1671539008 -2.4999890575
3.4575575212 -22.3009723215 -2.4999889912
3.4498751553 -22.3849015175 -2.4999889249
3.4459106853 -22.4566220501 -2.4999888586
3.4565466865 -22.4316660674 -2.4999888586
3.4458507985 -22.5759358305 -2.4999887261
3.4504488547 -22.6235062285 -2.4999886598
3.4605041521 -22.6588128214 -2.4999885935
3.4519478771 -22.7318291124 -2.4999885272
3.4485189255 -22.7925696732 -2.4999884610
3.4548491647 -22.7800903621 -2.4999884610
3.4516553106 -23.4125075625 -2.4999875994
-2.1802820174 -25.9406483779 -2.4999864064
-2.1646145636 -25.9448063038 -2.4999864064
-2.1332430993 -25.9529830236 -2.4999864064
-2.1175393632 -25.9570017459 -2.4999864064
0.6091728344 -25.9504771503 -2.4999864064
0.7498818030 -25.9119661338 -2.4999864064
-2.2336517396 -25.9511955802 -2.4999863401
-1.9651374526 -26.0182205873 -2.4999863401
0.8034477640 -25.9214665840 -2.4999863401
0.8190454194 -25.9167981815 -2.4999863401
-2.3501000411 -25.9428480735 -2.4999862738
-2.3344253372 -25.9475083422 -2.4999862738
-1.4225734637 -26.1353906572 -2.4999862738
0.8729251930 -25.9256014231 -2.4999862738
0.8885347761 -25.9207274757 -2.4999862738
-2.4355279574 -25.9419078289 -2.4999862075
-2.4198556612 -25.9468208129 -2.4999862075
-2.3727525321 -25.9612812973 -2.4999862075
-2.3570232003 -25.9660084955 -2.4999862075
0.8957736563 -25.9437911678 -2.4999862075
0.9427193341 -25.9288274213 -2.4999862075
0.9583381548 -25.9237469961 -2.4999862075
0.9739418784 -25.9186203898 -2.4999862075
-2.5212728277 -25.9395942018 -2.4999861412
-2.5056070004 -25.9447608448 -2.4999861412
0.9501626066 -25.9518259642 -2.4999861412
0.9658494286 -25.9467234198 -2.4999861412
0.9971774469 -25.9363792298 -2.4999861412
1.0128183690 -25.9311376746 -2.4999861412
1.0205332499 -25.9540465352 -2.4999860750
1.0675650255 -25.9379752134 -2.4999860750
1.0832103608 -25.9325254321 -2.4999860750
-2.6466533589 -25.9476995884 -2.4999860087
-2.6309630058 -25.9532370943 -2.4999860087
1.1068923741 -25.9498216415 -2.4999860087
1.1382362540 -25.9386429398 -2.4999860087
-2.7019056752 -25.9535194610 -2.4999859424
1.1621380746 -25.9557039838 -2.4999859424
1.2248248840 -25.9325072305 -2.4999859424
-2.7731148612 -25.9528628128 -2.4999858761
1.2647210176 -25.9432009033 -2.4999858761
1.2960229648 -25.9310885503 -2.4999858761
-2.8602618099 -25.9450914862 -2.4999858099
1.3361759093 -25.9412570054 -2.4999858099
-2.9162833669 -25.9487076174 -2.4999857436
1.4078679985 -25.9383605998 -2.4999857436
1.4235129849 -25.9319041390 -2.4999857436
-2.9725332597 -25.9517449726 -2.4999856773
-3.0446970713 -25.9474847984 -2.4999856110
-3.0290056120 -25.9541997905 -2.4999856110
-3.0856944991 -25.9560683683 -2.4999855447
1.5929760377 -25.9379527858 -2.4999855447
1.6242411902 -25.9238984576 -2.4999855447
1.6655288826 -25.9316184360 -2.4999854785
1.6811527971 -25.9243997973 -2.4999854785
-3.2310806107 -25.9435459778 -2.4999854122
1.7642926953 -25.9386783295 -2.4999853459
-3.3458733803 -25.9424428327 -2.4999852796
1.8950888879 -25.9283067231 -2.4999852133
-3.8300413396 -25.7344469596 -2.4999851471
-3.8149766485 -25.7434860742 -2.4999851471
-3.7544524718 -25.7791957111 -2.4999851471
-3.7240329906 -25.7967813443 -2.4999851471
-3.6628845661 -25.8314111626 -2.4999851471
1.8430278883 -25.9811483858 -2.4999851471
-4.0807757119 -25.6039172756 -2.4999850808
-4.0660960541 -25.6136986789 -2.4999850808
-4.0070900023 -25.6523887632 -2.4999850808
-3.9476302823 -25.6903779519 -2.4999850808
-3.7513540839 -25.8089386442 -2.4999850808
-2.9907387616 -26.1793338877 -2.4999850808
-2.8095522160 -26.2487564590 -2.4999850808
-2.7597542317 -26.2666633918 -2.4999850808
-2.7431198312 -26.2725340749 -2.4999850808
-4.3402161326 -25.4504630559 -2.4999850145
-4.1382517378 -25.5942896192 -2.4999850145
-2.6169035823 -26.3407130298 -2.4999850145
-2.5662971213 -26.3569066930 -2.4999850145
-4.5374366819 -25.3283542719 -2.4999849482
-4.2829102145 -25.5223956296 -2.4999849482
-3.5732343081 -25.9626200433 -2.4999849482
2.0962010121 -25.9322824686 -2.4999849482
-2.2718777486 -26.4914008894 -2.4999848820
-4.9191626536 -25.0600071473 -2.4999848157
2.1977197980 -25.9315235512 -2.4999848157
-5.1030097513 -24.9140578274 -2.4999847494
-4.7350634010 -25.2581740986 -2.4999847494
-5.2327534031 -24.8136071256 -2.4999846831
-1.5028559524 -26.8074573081 -2.4999844180
2.5057368193 -25.9180410402 -2.4999844180
3.0868861567 -25.9044591331 -2.4999835564
3.2154955435 -26.0799321609 -2.4999829599
2.9839659787 -26.2713468001 -2.4999828936
3.0005891025 -26.2602264995 -2.4999828936
3.0832072929 -26.2038900746 -2.4999828936
3.0996304332 -26.1924764954 -2.4999828936
3.1160197381 -26.1810143835 -2.4999828936
3.8309311892 -25.6031091686 -2.4999828936
3.9325776584 -25.5068450200 -2.4999828936
2.7432681795 -26.4528778817 -2.4999828273
2.7604293581 -26.4424688144 -2.4999828273
3.8767199955 -25.5934450661 -2.4999828273
3.9781565450 -25.4962348949 -2.4999828273
4.0210090320 -25.4539343534 -2.4999828273
4.0915902325 -25.3825937185 -2.4999828273
4.1195259643 -25.3537664693 -2.4999828273
4.1334297509 -25.3392909917 -2.4999828273
4.1611085570 -25.3102169638 -2.4999828273
2.6343629785 -26.5452548741 -2.4999827611
2.6692029081 -26.5250287222 -2.4999827611
2.7729961932 -26.4631185102 -2.4999827611
4.2473496974 -25.2531742262 -2.4999827611
4.3682067692 -25.1180601610 -2.4999827611
2.5408348641 -26.6258439526 -2.4999826948
4.4782494579 -25.0262690406 -2.4999826948
2.2284679040 -26.8151582966 -2.4999826285
4.6119449846 -24.9000830570 -2.4999826285
4.6742698715 -24.8200628333 -2.4999826285
2.0916979859 -26.9062995987 -2.4999825622
1.9710531151 -26.9863388375 -2.4999824960
4.7001731097 -24.8656783667 -2.4999824960
1.9618046191 -27.0166306944 -2.4999824297
2.6413220343 -26.6804448219 -2.4999824297
4.9715835658 -24.5316866306 -2.4999824297
5.3581447608 -24.1391455300 -2.4999820983
3.4436490492 -22.1155266994 -2.4999961430
3.4469311689 -22.1893073921 -2.4999961171
3.4550257103 -22.1625175205 -2.4999961171
3.4590135087 -22.1491047431 -2.4999961171
3.4453426692 -22.3513792716 -2.4999960652
3.4543961101 -22.3245959615 -2.4999960652
3.4589614395 -22.3860522905 -2.4999960392
3.4479701914 -22.4880515552 -2.4999960133
3.4578321854 -22.4612503078 -2.4999960133
3.4464944226 -22.6259458879 -2.4999959614
3.4518531632 -22.6125563199 -2.4999959614
3.4580434848 -22.7247684539 -2.4999959096
3.4630336565 -22.7745487364 -2.4999958836
3.4803090508 -22.7341801409 -2.4999958836
3.4615097352 -22.8380027245 -2.4999958577
3.4517005188 -23.0297452874 -2.4999957799
3.4582537483 -23.0163385520 -2.4999957799
-2.4164843174 -25.9465058584 -2.4999954946
-2.4012771068 -25.9504455130 -2.4999954946
0.3020175873 -25.9359848394 -2.4999954946
0.3171817802 -25.9318827198 -2.4999954946
1.2707034327 -25.5710021222 -2.4999954946
0.3387495017 -25.9510418467 -2.4999954687
0.3995081261 -25.9339287876 -2.4999954687
0.4600600074 -25.9160980022 -2.4999954687
-2.5966701783 -25.9465711828 -2.4999954427
-2.5357589557 -25.9641916860 -2.4999954427
0.5125037226 -25.9253404214 -2.4999954427
0.5729460719 -25.9061732208 -2.4999954427
-2.6340382205 -25.9606307901 -2.4999954168
-2.6035248362 -25.9697519711 -2.4999954168
-2.5423388479 -25.9874519591 -2.4999954168
0.6106603074 -25.9192758760 -2.4999954168
0.6559557135 -25.9040966589 -2.4999954168
-2.7630734151 -25.9453135780 -2.4999953909
-2.6563346470 -25.9791215857 -2.4999953909
0.6939948817 -25.9165936278 -2.4999953909
0.7241894812 -25.9060258181 -2.4999953909
-2.9003300825 -25.9495455860 -2.4999953390
0.8765831437 -25.9014073936 -2.4999953390
-2.9541693246 -25.9558734954 -2.4999953131
-2.9389320503 -25.9614036785 -2.4999953131
-3.0082638204 -25.9616489831 -2.4999952871
0.9847902955 -25.9107559930 -2.4999952871
0.9998768695 -25.9046342186 -2.4999952871
-3.1083140241 -25.9490446012 -2.4999952612
1.0694265197 -25.9019778694 -2.4999952612
-3.1629414274 -25.9532185991 -2.4999952353
-3.1477110932 -25.9593663795 -2.4999952353
-3.1019119070 -25.9775390214 -2.4999952353
1.1941376641 -25.9005943236 -2.4999952093
-3.2881217480 -25.9533454250 -2.4999951834
-3.3282005686 -25.9623268697 -2.4999951575
1.3046403936 -25.9032795535 -2.4999951575
-3.7141892118 -25.8032871109 -2.4999951315
-3.6845878211 -25.8188015817 -2.4999951315
-3.6548951597 -25.8341406493 -2.4999951315
-3.6101873094 -25.8568191965 -2.4999951315
-3.5352326407 -25.8937322405 -2.4999951315
-3.9743155868 -25.6851935363 -2.4999951056
-3.9454083247 -25.7022490689 -2.4999951056
-3.8727031402 -25.7441370687 -2.4999951056
-3.7698920043 -25.8009639957 -2.4999951056
-2.8778428992 -26.1874008638 -2.4999951056
-2.8140623841 -26.2083314737 -2.4999951056
1.3857549323 -25.9182934253 -2.4999951056
1.4460527655 -25.8887940041 -2.4999951056
-2.7571671372 -26.2516039957 -2.4999950797
-2.6926353889 -26.2711022194 -2.4999950797
1.4568040364 -25.9104445343 -2.4999950797
-4.4781506090 -25.4085151499 -2.4999950537
-4.4234742003 -25.4484358708 -2.4999950537
-4.4097315893 -25.4583147437 -2.4999950537
-4.3266677201 -25.5167303571 -2.4999950537
-2.5692065810 -26.3311377409 -2.4999950537
-2.5037469108 -26.3484063601 -2.4999950537
-2.4709415964 -26.3567499072 -2.4999950537
-2.1538727179 -26.5007134532 -2.4999949759
1.6823575692 -25.9023209159 -2.4999949759
1.8080071305 -25.9156860199 -2.4999948981
2.0910794554 -25.9450109539 -2.4999947166
2.2796409596 -25.9397714986 -2.4999946128
2.5281292454 -25.9465778839 -2.4999944572
2.9624274463 -26.3192586116 -2.4999938607
3.0273593092 -26.2710751988 -2.4999938607
3.0435028355 -26.2589095593 -2.4999938607
3.0596103029 -26.2466962175 -2.4999938607
3.1077149446 -26.2097710495 -2.4999938607
3.5995808604 -25.7900343692 -2.4999938607
3.7161683225 -25.6779736682 -2.4999938607
3.7448982731 -25.6495298417 -2.4999938607
3.7592000162 -25.6352443117 -2.4999938607
3.8300714155 -25.5631855050 -2.4999938607
3.8581202473 -25.5340697986 -2.4999938607
2.7946241734 -26.4677157510 -2.4999938348
2.8944683048 -26.3981081757 -2.4999938348
4.0272680474 -25.3871464092 -2.4999938348
4.1077398853 -25.2958318515 -2.4999938348
2.6898320113 -26.5668994818 -2.4999938089
2.8752075287 -26.4412962044 -2.4999938089
4.1657813488 -25.2653004199 -2.4999938089
4.2051330938 -25.2185972504 -2.4999938089
4.2440688248 -25.1715466954 -2.4999938089
4.4024050303 -25.0108283923 -2.4999937829
2.3310932704 -26.8417821254 -2.4999937570
4.4215853196 -25.0255406929 -2.4999937570
4.4711071611 -24.9601824143 -2.4999937570
4.5198521864 -24.8942427457 -2.4999937570
4.5678135704 -24.8277309196 -2.4999937570
2.2168731290 -26.9323472238 -2.4999937310
4.4904601904 -24.9746667348 -2.4999937310
2.6559652719 -26.7036776291 -2.4999937051
4.7674561200 -24.6647999593 -2.4999936792
5.1301534510 -24.2028293787 -2.4999936014
4.9257156660 -24.6430087424 -2.4999935495
-2.6245199544 -25.9525082707 -2.5000115131
-0.0465280820 -25.9425303605 -2.5000115131
-2.7182961771 -25.9524913408 -2.5000115621
-2.7037004998 -25.9565038400 -2.5000115621
0.0617971133 -25.9376191099 -2.5000115621
3.4528660524 -22.7733631289 -2.5000115621
0.1122749080 -25.9480240531 -2.5000116111
0.1268449854 -25.9436632307 -2.5000116111
-2.8778324981 -25.9561946985 -2.5000116601
-2.8486046351 -25.9651203084 -2.5000116601
0.2359086505 -25.9349319207 -2.5000116601
3.4606094124 -22.8900277191 -2.5000116601
3.4661187331 -22.8757752977 -2.5000116601
-2.9581359612 -25.9561156233 -2.5000117090
-2.9435285131 -25.9608375961 -2.5000117090
-2.9289071606 -25.9655163368 -2.5000117090
0.2725353943 -25.9483900795 -2.5000117090
0.2871058532 -25.9435551759 -2.5000117090
0.3162035448 -25.9337561688 -2.5000117090
0.3597401080 -25.9187353041 -2.5000117090
0.3742224611 -25.9136425630 -2.5000117090
3.4548340644 -22.9701232732 -2.5000117090
3.4537218868 -23.0362399452 -2.5000117580
0.5211811301 -25.9110261293 -2.5000118070
3.4578535125 -23.0883749181 -2.5000118070
3.4700035055 -23.0598666735 -2.5000118070
-3.1717525326 -25.9588729614 -2.5000118560
0.6402856221 -25.9159096701 -2.5000119050
3.4708743357 -23.1790680604 -2.5000119050
3.4603380246 -23.2603984590 -2.5000119540
-3.3733169303 -25.9583955662 -2.5000120030
-3.6004970432 -25.8859357609 -2.5000120520
0.8569523387 -25.9016486146 -2.5000120520
3.4493779194 -23.5022079757 -2.5000121499
3.4566982292 -23.4879861005 -2.5000121499
1.0322259908 -25.8992422455 -2.5000121989
1.0862433420 -25.8994870707 -2.5000122479
1.1948464752 -25.8982447071 -2.5000123459
3.4393818509 -23.7730429195 -2.5000123949
3.4521459686 -23.7993107018 -2.5000124439
1.5946367237 -25.8666660738 -2.5000126888
1.7333232207 -25.8657161368 -2.5000128358
3.4408321432 -24.1851845167 -2.5000128358
1.7750471353 -25.8676700465 -2.5000128848
3.4421213932 -24.2269342551 -2.5000128848
3.4335071281 -24.4516970230 -2.5000131297
3.4214635228 -24.8668752339 -2.5000136196
3.2038699339 -26.1435698172 -2.5000150892
3.5980870543 -25.7635354640 -2.5000150892
3.6399837682 -25.7193964272 -2.5000150892
2.9398333785 -26.3978088847 -2.5000151382
3.0345943279 -26.3207436383 -2.5000151382
3.0814581413 -26.2815833413 -2.5000151382
3.8351789066 -25.5397707732 -2.5000151382
3.9406663364 -25.4156983117 -2.5000151382
2.7442649213 -26.5783953378 -2.5000151872
2.7606882349 -26.5662458548 -2.5000151872
2.7934266818 -26.5418014055 -2.5000151872
2.8097415288 -26.5295066531 -2.5000151872
2.8422617558 -26.5047726311 -2.5000151872
2.8584668512 -26.4923335778 -2.5000151872
2.9389364856 -26.4294222553 -2.5000151872
4.0747969873 -25.2881163378 -2.5000151872
4.0999505917 -25.2559195492 -2.5000151872
4.2423603938 -25.1069888290 -2.5000152362
2.6056145197 -26.7369388816 -2.5000152852
4.4038834788 -24.9193266073 -2.5000152852
2.2680994565 -27.0131432037 -2.5000153832
2.2091981665 -27.0764223945 -2.5000154321
2.0401582642 -27.2003678790 -2.5000154811
5.2185898128 -24.0076647061 -2.5000158240
-2.9595554349 -25.9574708522 -2.5000139781
-2.9179756375 -25.9694324250 -2.5000139781
-0.1860977596 -25.9467319756 -2.5000139781
-3.0080190828 -25.9682805942 -2.5000140415
-0.1237169867 -25.9528462848 -2.5000140415
-0.1025878810 -25.9715277442 -2.5000141049
0.0573711956 -25.9434134706 -2.5000141683
0.2120825396 -25.9377080590 -2.5000142951
0.2670897805 -25.9160478539 -2.5000142951
3.4657328450 -22.5483618976 -2.5000148657
3.4534081019 -22.6890336209 -2.5000149291
3.4737231064 -22.6142716766 -2.5000149291
0.9015610106 -25.9125364375 -2.5000149925
3.4595623079 -22.7554077469 -2.5000149925
3.4639100571 -22.7404610315 -2.5000149925
3.4389125210 -19.7321410286 -2.5000149925
3.4336569537 -19.6356028351 -2.5000150559
3.4547646060 -22.9340142464 -2.5000151193
3.4367551659 -19.5684820332 -2.5000151193
1.0600841820 -25.9074735671 -2.5000151827
3.4597360189 -23.0691053638 -2.5000152460
3.4650117417 -23.0541567620 -2.5000152460
3.4553565295 -23.1520254022 -2.5000153094
3.4463310003 -19.3802459027 -2.5000153094
3.4350139052 -19.3504770277 -2.5000153094
3.4496241640 -23.2352058429 -2.5000153728
3.4604397024 -23.2738753014 -2.5000154362
3.4265784808 -19.1988580848 -2.5000154362
3.4649326392 -23.3277060333 -2.5000154996
3.4550662291 -19.2045214542 -2.5000154996
1.4081564156 -25.8931233140 -2.5000156264
3.4431865121 -23.6200463051 -2.5000157532
3.4473661625 -23.9378488910 -2.5000161336
3.4250962261 -24.1779826317 -2.5000163872
3.4287080270 -24.2198302900 -2.5000164506
3.4214459340 -24.4183454945 -2.5000167042
3.4341222462 -24.4887333102 -2.5000168310
3.2481419604 -26.1370923986 -2.5000191766
3.2624942695 -26.1227563065 -2.5000191766
3.2768041070 -26.1083778204 -2.5000191766
3.7626438755 -25.5636061086 -2.5000191766
2.9836165544 -26.4193177040 -2.5000192400
3.0591552900 -26.3510961257 -2.5000192400
3.1188546182 -26.2957190935 -2.5000192400
2.6865954142 -26.6997889443 -2.5000193034
2.8918762425 -26.5313229707 -2.5000193034
4.1045195441 -25.1836732534 -2.5000193034
2.6206307000 -26.7816590141 -2.5000193668
2.6693049649 -26.7440671099 -2.5000193668
4.2043794539 -25.0781620263 -2.5000193668
4.2378737729 -25.0265823217 -2.5000193668
2.5861443750 -26.8381440333 -2.5000194302
2.2594985255 -27.1271210816 -2.5000195570
4.2191808877 -25.1869481322 -2.5000195570
-0.3799595887 -25.9396505988 -2.5000022853
-0.3985795770 -25.9709145821 -2.5000022911
-0.1883464131 -25.9507960875 -2.5000023026
-0.1281349598 -25.9542898482 -2.5000023084
0.5146910101 -25.9298456802 -2.5000023660
0.5000083667 -25.9647954817 -2.5000023717
0.8558326613 -25.9314109095 -2.5000024063
0.9972035085 -25.9289988518 -2.5000024236
3.4326559574 -23.0140338447 -2.5000024813
3.4533988646 -22.9367950164 -2.5000024813
3.4426818564 -20.1687947712 -2.5000024813
3.4339506998 -23.1818057941 -2.5000024928
3.4386869340 -23.1663781441 -2.5000024928
3.4404858165 -19.9855892239 -2.5000024928
3.4683066560 -19.9940706441 -2.5000024985
3.4350771722 -23.3354865354 -2.5000025043
3.4312225946 -23.4204894068 -2.5000025101
3.4651723047 -19.8242673000 -2.5000025101
3.4494464907 -19.7777977966 -2.5000025101
3.4561011554 -19.7234168175 -2.5000025158
3.4450950087 -19.6223399641 -2.5000025216
3.4211607885 -23.7169116859 -2.5000025331
3.4306791935 -23.7569853266 -2.5000025389
3.4266541253 -23.8280836964 -2.5000025446
3.4580523940 -19.3297687974 -2.5000025504
3.4228003647 -23.9555180675 -2.5000025562
3.4479936311 -19.1298672519 -2.5000025677
3.3872942010 -18.9501636857 -2.5000025735
3.3318779873 -18.8437553392 -2.5000025735
3.2992261267 -18.7834730825 -2.5000025735
3.6775491748 -19.5539111901 -2.5000025792
3.2953530781 -18.7266912031 -2.5000025792
3.2869108840 -18.7116930429 -2.5000025792
3.2698935791 -18.6817719711 -2.5000025792
3.2265784620 -18.6074143403 -2.5000025792
3.1731557192 -18.5190429956 -2.5000025792
3.8485730912 -19.9158882771 -2.5000025908
3.4712219748 -25.4781870912 -2.5000027521
3.0260299737 -26.3976702668 -2.5000028155
3.1109016773 -26.3116312390 -2.5000028155
3.1527615296 -26.2680502253 -2.5000028155
3.2216632128 -26.1945952072 -2.5000028155
3.2624800743 -26.1500358558 -2.5000028155
3.7085234281 -25.6044888372 -2.5000028155
3.7675499905 -25.5228864687 -2.5000028155
3.7792101051 -25.5064617284 -2.5000028155
2.9271656485 -26.5275467874 -2.5000028213
2.9709488655 -26.4855878254 -2.5000028213
3.9794594027 -25.2520980488 -2.5000028213
4.0011252095 -25.2179651593 -2.5000028213
4.1168898365 -25.0751507784 -2.5000028270
4.1272239394 -25.0576945867 -2.5000028270
4.4060655086 -24.6989276115 -2.5000028443
-0.7985393766 -25.9439289936 -2.4999966876
-0.8041718487 -25.9705325931 -2.4999966617
-0.7080662877 -25.9431564836 -2.4999966617
-0.5300096762 -25.9625013973 -2.4999965839
-0.4700162882 -25.9416037003 -2.4999965839
-0.4859910764 -25.9728852102 -2.4999965579
-0.4258489227 -25.9513353253 -2.4999965579
-0.4416798951 -25.9828062093 -2.4999965320
-0.1860677286 -25.9604528342 -2.4999964542
0.0822769896 -25.9437593414 -2.4999963505
0.1289989567 -25.9474807427 -2.4999963245
0.2118438069 -25.9319933450 -2.4999962986
0.2709633729 -25.9278256123 -2.4999962727
0.3420438212 -25.9439385042 -2.4999962208
0.6067245804 -25.9279693355 -2.4999960911
3.4341083099 -23.3915061114 -2.4999952353
3.4514291302 -23.3281336057 -2.4999952353
3.4401766384 -20.4224276797 -2.4999952353
3.4298845914 -23.4930926547 -2.4999952093
3.4501366460 -20.3683581493 -2.4999952093
3.4455940441 -20.3525001194 -2.4999952093
3.4336902942 -23.5633953929 -2.4999951834
3.4404612525 -20.2505381255 -2.4999951834
3.4262010173 -23.6656294421 -2.4999951575
3.4365771056 -23.6340107930 -2.4999951575
3.4385381715 -23.7049269145 -2.4999951315
3.4458876231 -20.1090276029 -2.4999951315
3.4339816990 -23.7919569191 -2.4999951056
3.4451050469 -23.7602900259 -2.4999951056
3.4505964150 -23.7444320393 -2.4999951056
3.4418573079 -19.9504985749 -2.4999950797
3.4360786380 -19.9346668651 -2.4999950797
3.4388006814 -23.9193584412 -2.4999950537
3.4431682764 -23.9755207068 -2.4999950278
3.4393565809 -19.8067529208 -2.4999950278
3.4342283318 -24.0635922612 -2.4999950019
3.4469587613 -24.0319191548 -2.4999950019
3.4430439242 -19.7503476355 -2.4999950019
3.4501682944 -24.0885479496 -2.4999949759
3.4479830753 -24.2183414948 -2.4999949241
3.4548294298 -24.2024729902 -2.4999949241
3.4368050914 -19.5480881838 -2.4999949241
3.4448973115 -19.5066331479 -2.4999948981
3.4719433886 -24.3431239680 -2.4999948462
3.4644985727 -24.4169288710 -2.4999948203
3.4435752728 -19.2754953687 -2.4999947944
3.4623136972 -24.5332652485 -2.4999947684
3.4658037784 -24.6344124232 -2.4999947166
3.4627340754 -24.6931953277 -2.4999946906
3.5919219926 -19.3625549436 -2.4999946906
3.3546043902 -18.9002100113 -2.4999946906
3.3457191586 -18.8846410068 -2.4999946906
3.3187876743 -18.8380926508 -2.4999946906
3.2822384643 -18.7764034389 -2.4999946906
3.4674683359 -24.7362349795 -2.4999946647
3.7546111469 -19.6836908474 -2.4999946647
3.7280369374 -19.6167855727 -2.4999946647
3.3487161903 -18.8414456061 -2.4999946647
3.1983011901 -18.5959239441 -2.4999946647
3.1786871867 -18.5657423552 -2.4999946647
3.1588949622 -18.5356773375 -2.4999946647
3.0984559209 -18.4461922153 -2.4999946647
3.0882287432 -18.4313829309 -2.4999946647
3.4718807378 -24.7794281652 -2.4999946388
3.8583180901 -19.8953055252 -2.4999946388
3.8523743270 -19.8782420906 -2.4999946388
3.8463801131 -19.8611963133 -2.4999946388
3.0665895111 -18.3584502592 -2.4999946388
3.0137226338 -18.2851892295 -2.4999946388
3.0030195510 -18.2706313059 -2.4999946388
2.9706525701 -18.2271483955 -2.4999946388
3.9325754126 -20.0423392426 -2.4999946128
3.0008538364 -18.2271483562 -2.4999946128
3.9825005814 -20.1220327694 -2.4999945869
3.4831703855 -24.9099057926 -2.4999945610
3.4772102998 -24.9696481615 -2.4999945350
3.4650980158 -25.1337377768 -2.4999944572
3.1231438103 -26.3340380238 -2.4999939904
3.1493124039 -26.3041656613 -2.4999939904
3.1753038046 -26.2741389994 -2.4999939904
3.2139566805 -26.2288119959 -2.4999939904
3.2395011322 -26.1984041956 -2.4999939904
3.2774793762 -26.1525104591 -2.4999939904
3.3025712906 -26.1217281726 -2.4999939904
3.3522065751 -26.0597209419 -2.4999939904
3.6454584924 -25.6593187144 -2.4999939904
3.7005109630 -25.5766973923 -2.4999939904
3.7436693319 -25.5100197100 -2.4999939904
3.7543354104 -25.4932708604 -2.4999939904
3.7860357182 -25.4428360257 -2.4999939904
3.7965028698 -25.4259621425 -2.4999939904
3.8378709492 -25.3581591918 -2.4999939904
2.9800199993 -26.5265895252 -2.4999939645
3.0344683720 -26.4683705284 -2.4999939645
3.0479725286 -26.4537154303 -2.4999939645
3.0882240587 -26.4095113490 -2.4999939645
3.8170635020 -25.4386741718 -2.4999939645
3.8992895397 -25.3020934392 -2.4999939645
3.9685687581 -25.1810179173 -2.4999939645
3.9879009012 -25.1461639166 -2.4999939645
2.8152769823 -26.7285606211 -2.4999939385
2.8295517873 -26.7145527923 -2.4999939385
2.8721267038 -26.6722768011 -2.4999939385
4.0753430613 -25.0345085531 -2.4999939385
4.1784705036 -24.8846347848 -2.4999939126
4.1960454709 -24.8485441221 -2.4999939126
2.4300858713 -27.1404088369 -2.4999938867
2.3671851975 -27.2229129632 -2.4999938607
2.4299156948 -27.1718965657 -2.4999938607
4.3733724564 -24.5751600827 -2.4999938607
2.2867725098 -27.3171466078 -2.4999938348
4.4269813010 -24.5098045727 -2.4999938348
4.5096164610 -24.3677335420 -2.4999938089
4.5023762224 -24.4525028222 -2.4999937829
1.7375068122 -27.8151284029 -2.4999937310
4.8940332437 -23.7348531307 -2.4999936273
-1.0752053017 -25.9379895442 -2.4999989201
-0.9641848325 -25.9589730897 -2.4999988913
-0.8145506478 -25.9398750082 -2.4999988769
-0.6566933046 -25.9374843147 -2.4999988481
-0.3706317863 -25.9538446977 -2.4999987761
-0.2729695387 -25.9364447812 -2.4999987616
0.4395182211 -25.9258803718 -2.4999985599
3.4378331114 -22.4653029170 -2.4999979548
3.4423763847 -22.2886344950 -2.4999979548
3.4425043008 -22.2725682257 -2.4999979548
3.4425846893 -22.2565016483 -2.4999979548
3.4426175497 -22.2404349034 -2.4999979548
3.4415168110 -22.1279748091 -2.4999979548
3.4411694704 -22.1119117855 -2.4999979548
3.4398423680 -22.0637298637 -2.4999979548
3.4665367083 -23.6076392680 -2.4999978395
3.4557642496 -20.8248864952 -2.4999978395
3.4646939954 -23.7105477661 -2.4999978251
3.4486183220 -20.7059041375 -2.4999978251
3.4394625530 -20.6737620619 -2.4999978251
3.4655491818 -23.7976927705 -2.4999978107
3.4746681190 -23.8528891795 -2.4999977963
3.4794232420 -23.8367205412 -2.4999977963
3.4368812377 -20.4991447091 -2.4999977963
3.4651068542 -24.0449904585 -2.4999977675
3.4606052650 -24.1334000564 -2.4999977531
3.4777795135 -24.1575229497 -2.4999977387
3.4345455748 -20.0647139706 -2.4999977098
3.4638474946 -24.4664733121 -2.4999976810
3.4328931957 -19.9339828552 -2.4999976810
3.4593554558 -24.5402457554 -2.4999976666
3.4273939764 -19.8602786465 -2.4999976666
3.4420678719 -19.6596631689 -2.4999976090
3.4280153037 -19.4671426555 -2.4999975658
3.7120913087 -19.5521312292 -2.4999974361
3.7041229731 -19.5352790678 -2.4999974361
3.6717521655 -19.4681083487 -2.4999974361
3.1699272885 -18.6182417183 -2.4999974361
3.1484250852 -18.5877850099 -2.4999974361
3.8260209714 -19.7466295570 -2.4999974217
3.8482412661 -19.7371114801 -2.4999974073
2.8170551559 -18.0869623477 -2.4999974073
3.4639364671 -25.6308977680 -2.4999973640
3.1866292637 -26.2805417322 -2.4999972776
3.3268644630 -26.0943188740 -2.4999972776
3.6377893148 -25.6246875874 -2.4999972776
3.0958096562 -26.4322620223 -2.4999972632
2.8298402629 -26.7706107635 -2.4999972488
2.8432293555 -26.7563368763 -2.4999972488
3.9420887688 -25.1689949360 -2.4999972488
4.0015191756 -25.0455650331 -2.4999972488
2.7107582228 -26.9282246587 -2.4999972344
2.5722003151 -27.0962591652 -2.4999972200
2.4425059242 -27.2471394187 -2.4999972056
4.3244511316 -24.5180646130 -2.4999971912
4.3311702457 -24.4993792523 -2.4999971912
-0.5205476423 -25.9398183487 -2.5000016292
-0.4709342593 -25.9440186534 -2.5000016321
-0.0019227221 -25.9433001526 -2.5000016580
0.1453788279 -25.9374242063 -2.5000016667
-0.1134422553 -19.0559145588 -2.5000016695
0.1344380274 -19.0581791080 -2.5000016839
3.4511433587 -23.9569424478 -2.5000018626
3.4591548644 -23.9246435631 -2.5000018626
3.4669751389 -23.8922978448 -2.5000018626
3.4746039083 -23.8599064254 -2.5000018626
3.4783463950 -23.8436939319 -2.5000018626
3.4566984890 -21.2387097332 -2.5000018626
3.4486279199 -21.2064255560 -2.5000018626
3.4826340238 -23.9303937243 -2.5000018655
3.4509607275 -21.1196511602 -2.5000018655
3.4421858683 -21.0874030133 -2.5000018655
3.4547479898 -24.1308545232 -2.5000018684
3.4637883547 -24.0985312685 -2.5000018684
3.4682367841 -24.0823497254 -2.5000018684
3.4769899423 -24.0499475153 -2.5000018684
3.4564880765 -21.0486537815 -2.5000018684
3.4472930762 -21.0163741756 -2.5000018684
3.4544722518 -24.2183468552 -2.5000018713
3.4563111279 -20.9611611940 -2.5000018713
3.4597800703 -20.8894945263 -2.5000018741
3.4445034148 -20.8410727118 -2.5000018741
3.4517517420 -20.7852091484 -2.5000018770
3.4507977098 -24.4665749715 -2.5000018799
3.4618243788 -24.4342692124 -2.5000018799
3.4473501208 -20.6967945170 -2.5000018799
3.4360735630 -20.6645751324 -2.5000018799
3.4680432811 -24.4906469274 -2.5000018828
3.4701896079 -20.6888766187 -2.5000018828
3.4415216875 -20.6081177197 -2.5000018828
3.4444748087 -20.4783393755 -2.5000018885
3.4319058471 -20.4461408255 -2.5000018885
3.4550257441 -24.7996371721 -2.5000018943
3.4507520742 -24.8734225876 -2.5000018972
3.4328767481 -20.2577400734 -2.5000018972
3.4464236693 -25.0054896201 -2.5000019030
3.4535551215 -24.9893554765 -2.5000019030
3.4491513286 -20.1740098431 -2.5000019030
3.4613104619 -25.0314732359 -2.5000019058
3.4422106601 -20.0996123875 -2.5000019058
3.4389461084 -25.1383495033 -2.5000019087
3.4579063086 -25.2664939684 -2.5000019174
3.4207865187 -19.8324815666 -2.5000019174
3.4222376451 -19.7300257581 -2.5000019231
3.4396981684 -25.5641385748 -2.5000019318
3.4469731478 -25.8903873165 -2.5000019519
3.1745188116 -26.3442471476 -2.5000019548
3.2076612588 -26.2981420661 -2.5000019548
3.7147922155 -25.4557769359 -2.5000019548
2.9859747200 -26.6297551625 -2.5000019577
3.0216583153 -26.5853120612 -2.5000019577
3.7019198801 -25.5343389994 -2.5000019577
3.8428793718 -25.2437837848 -2.5000019577
3.8662295049 -25.1917907130 -2.5000019577
3.8739102327 -25.1744138927 -2.5000019577
3.3973656246 -26.1055693886 -2.5000019606
3.4180900701 -26.0735510664 -2.5000019606
2.6427209714 -27.0897527849 -2.5000019635
2.9133175652 -26.7925844953 -2.5000019635
4.0348820779 -24.9107735542 -2.5000019635
2.6197849420 -27.1477889198 -2.5000019663
2.7264211509 -27.0370960880 -2.5000019663
3.7430880704 -19.5611161875 -2.5000019663
3.7250872822 -19.5271669941 -2.5000019663
3.6510851377 -19.3924529760 -2.5000019663
3.6225155449 -19.3423923878 -2.5000019663
3.2683260245 -18.7938288905 -2.5000019663
3.1770986003 -18.6701286839 -2.5000019663
3.1538363366 -18.6395436680 -2.5000019663
3.1067709975 -18.5787891900 -2.5000019663
3.0829695695 -18.5486218544 -2.5000019663
2.4009954636 -27.3922739422 -2.5000019692
2.4715903334 -27.3265955952 -2.5000019692
3.8852643450 -19.7912934835 -2.5000019692
3.8432754207 -19.7044936498 -2.5000019692
3.8347238317 -19.6872087410 -2.5000019692
3.7912009821 -19.6011678061 -2.5000019692
3.3215252995 -18.8268261869 -2.5000019692
3.1612908351 -18.6095555959 -2.5000019692
2.9797887251 -18.3843438976 -2.5000019692
4.2538903681 -24.4977144610 -2.5000019721
3.9952558861 -19.9747293891 -2.5000019721
3.9875030383 -19.9569937123 -2.5000019721
2.8713251116 -18.2226498632 -2.5000019721
2.8324048783 -18.1795552729 -2.5000019721
4.0555351676 -20.0544269685 -2.5000019750
2.7037905593 -18.0076827721 -2.5000019750
2.6629692109 -17.9660834221 -2.5000019750
2.6355505771 -17.9385524903 -2.5000019750
2.1093455851 -27.7373031935 -2.5000019779
4.3694840340 -24.2680339113 -2.5000019779
4.1433414738 -20.2079108443 -2.5000019779
4.2338020457 -20.3827241283 -2.5000019808
2.5148944032 -17.7547560195 -2.5000019808
2.4138768270 -17.6622229793 -2.5000019808
-0.7175113436 -19.0745985559 -2.5000021585
-0.6528336660 -19.0704763534 -2.5000021643
-0.5763340915 -19.0715002306 -2.5000021700
-0.7490001645 -19.0139876716 -2.5000021700
-0.5108850893 -19.0697303960 -2.5000021758
-0.6489205482 -19.0207847726 -2.5000021758
-0.7418717649 -18.9908895937 -2.5000021758
-0.5139060596 -19.0428036076 -2.5000021816
-0.3697990926 -19.0471137540 -2.5000021931
-0.2800628175 -19.0586626734 -2.5000021989
-0.1456715600 -19.0662296528 -2.5000022104
-0.1124339838 -19.0551968988 -2.5000022161
-0.1239143894 -19.0497526424 -2.5000022161
0.0345581502 -19.0469700088 -2.5000022334
0.0801907458 -19.0434004152 -2.5000022392
0.1490387786 -19.0527377988 -2.5000022450
1.0348502085 -19.0546548362 -2.5000023602
3.4630705010 -21.6290432735 -2.5000025216
3.4552587973 -21.5969898138 -2.5000025216
3.4437815488 -24.4099241623 -2.5000025274
3.4582814321 -21.5109236898 -2.5000025274
3.4497709770 -21.4789006310 -2.5000025274
3.4800458375 -24.3680890789 -2.5000025331
3.4643772810 -21.4405126889 -2.5000025331
3.4509154900 -21.3924457980 -2.5000025331
3.4463334982 -21.3764502829 -2.5000025331
3.4439831534 -24.5831866960 -2.5000025389
3.4621771271 -24.6062896271 -2.5000025446
3.4591075173 -21.2505296933 -2.5000025446
3.4598311285 -24.6937509356 -2.5000025504
3.4505879871 -24.7975166396 -2.5000025562
3.4635867611 -21.1073709596 -2.5000025562
3.4526886597 -21.0753235756 -2.5000025562
3.4509109646 -24.8695358640 -2.5000025619
3.4566148341 -24.8535251485 -2.5000025619
3.4530929272 -21.0033047616 -2.5000025619
3.4383064112 -24.9737880803 -2.5000025677
3.4466003418 -20.9150190457 -2.5000025677
3.4548324530 -24.9983595828 -2.5000025735
3.4611933199 -20.8177148438 -2.5000025792
3.4549111250 -20.8016914397 -2.5000025792
3.4485815575 -20.7856866897 -2.5000025792
3.4360283940 -25.1761309069 -2.5000025850
3.4581931209 -20.7446777246 -2.5000025850
3.4385564285 -20.6966931156 -2.5000025850
3.4449306258 -25.2174195772 -2.5000025908
3.4504364331 -20.5402644645 -2.5000026023
3.4433335369 -20.5242740952 -2.5000026023
3.4510044267 -20.4823805764 -2.5000026080
3.4331585799 -25.4804828386 -2.5000026138
3.4427093018 -20.3500363673 -2.5000026196
3.4350437103 -20.3340696886 -2.5000026196
3.4461087210 -25.5652686640 -2.5000026253
3.4361948542 -25.6398748924 -2.5000026311
3.4441775903 -25.6239043393 -2.5000026311
3.4334730068 -25.6986749305 -2.5000026369
3.1180163204 -26.4588138991 -2.5000026657
3.2100664730 -26.3224229576 -2.5000026657
3.2300268076 -26.2917842127 -2.5000026657
3.2694019292 -26.2301551320 -2.5000026657
3.3175908475 -26.1524706870 -2.5000026657
3.1168427537 -26.5026925427 -2.5000026714
3.1273792578 -26.4876629157 -2.5000026714
3.2201940680 -26.3510125041 -2.5000026714
3.7637703292 -25.3322650861 -2.5000026714
3.7708416666 -25.3153268514 -2.5000026714
2.9613751832 -26.7536555410 -2.5000026772
2.9726547614 -26.7390847171 -2.5000026772
3.0394226002 -26.6509648881 -2.5000026772
3.8808457927 -25.1017018781 -2.5000026772
2.7328496604 -27.0677087946 -2.5000026830
3.9533745070 -24.9707909654 -2.5000026830
2.7263482522 -27.1114817069 -2.5000026887
4.0341268428 -24.8022352982 -2.5000026887
4.0450788143 -24.7667477412 -2.5000026887
2.5406806427 -27.3453866423 -2.5000026945
4.1050136411 -24.6486239174 -2.5000026945
2.4249667583 -27.4939611520 -2.5000027003
3.4263287066 -19.5683000044 -2.5000027060
4.2706755412 -24.2842450821 -2.5000027118
4.2746444279 -24.2658119157 -2.5000027118
3.6514063020 -19.3813235447 -2.5000027752
3.3025547454 -18.8825129710 -2.5000027752
3.2905485675 -18.8669673159 -2.5000027752
3.2784964553 -18.8514572453 -2.5000027752
3.2542548502 -18.8205443999 -2.5000027752
3.2420655694 -18.8051418958 -2.5000027752
3.2175505847 -18.7744453984 -2.5000027752
3.8439155280 -19.6559281572 -2.5000027809
3.8244235472 -19.6216560232 -2.5000027809
3.8146016048 -19.6045633517 -2.5000027809
3.8047291421 -19.5874998101 -2.5000027809
3.1234377558 -18.6224910513 -2.5000027809
3.9780350670 -19.8527939477 -2.5000027867
3.8939247427 -19.6958499587 -2.5000027867
2.9314583836 -18.3703802747 -2.5000027867
2.8771246753 -18.3128385406 -2.5000027867
2.8497034457 -18.2843097722 -2.5000027867
2.7943570347 -18.2277414259 -2.5000027867
4.1223877001 -20.0909915161 -2.5000027925
4.0883296911 -20.0192376998 -2.5000027925
4.0709828939 -19.9835131709 -2.5000027925
2.8254847551 -18.2248657383 -2.5000027925
2.7975439527 -18.1966440287 -2.5000027925
2.6841258093 -18.0854249927 -2.5000027925
2.6553625026 -18.0580420506 -2.5000027925
2.6283743557 -17.9995840616 -2.5000027982
4.2794634125 -20.3265563363 -2.5000028040
4.3545942659 -20.4474221952 -2.5000028098
4.5338001555 -20.7255552146 -2.5000028270
-1.3155231867 -19.0786643203 -2.5000011921
-1.3279150743 -19.0770910037 -2.5000011921
-1.1880932242 -19.0725364370 -2.5000011921
-1.0102328567 -19.0799884383 -2.5000011921
-1.0722510186 -19.0679731247 -2.5000011921
-0.8936719101 -19.0803606867 -2.5000011921
-0.9308628218 -19.0720069832 -2.5000011921
-0.8013031846 -19.0776889917 -2.5000011921
-0.8509454397 -19.0655313432 -2.5000011921
-1.0508484629 -19.0227989478 -2.5000011921
-0.6836463393 -19.0839058579 -2.5000011921
-0.6398534184 -19.0712320482 -2.5000011921
-0.6206612071 -19.0516398216 -2.5000011921
-0.4890545934 -19.0669603520 -2.5000011921
-0.7524265421 -18.9903499768 -2.5000011921
-0.0901790596 -19.0604918752 -2.5000011921
0.0634674472 -19.0484675420 -2.5000011921
0.1713114774 -19.0454750499 -2.5000011921
0.7108473063 -19.0637701777 -2.5000011921
0.9757248519 -19.0613202238 -2.5000011921
3.4321983024 -24.7115858618 -2.5000011921
3.4196924392 -24.8431830669 -2.5000011921
3.4243323220 -24.8275769039 -2.5000011921
3.4289260187 -24.8119570835 -2.5000011921
3.4441187345 -21.7747500789 -2.5000011921
3.4381462548 -24.8657670669 -2.5000011921
3.4352139871 -21.6583430633 -2.5000011921
3.4369533429 -24.9511918286 -2.5000011921
3.4291268875 -25.0525644688 -2.5000011921
3.4395990726 -25.0212790035 -2.5000011921
3.4549598401 -24.9742360057 -2.5000011921
3.4518292171 -21.5498435635 -2.5000011921
3.4467266654 -21.5341567438 -2.5000011921
3.4421206284 -25.1623334370 -2.5000011921
3.4498248214 -21.3931137969 -2.5000011921
3.4557071379 -21.3378680936 -2.5000011921
3.4388807447 -25.3759332396 -2.5000011921
3.4487126722 -25.4162895384 -2.5000011921
3.4761280109 -21.1864029247 -2.5000011921
3.4252803979 -25.5351600409 -2.5000011921
3.4339208364 -25.5760262328 -2.5000011921
3.4407285396 -25.5603747731 -2.5000011921
3.4542048979 -25.5290117810 -2.5000011921
3.4700122017 -21.0422263036 -2.5000011921
3.4422617206 -25.6170737225 -2.5000011921
3.4560735021 -25.5857006673 -2.5000011921
3.4722801935 -20.9855519909 -2.5000011921
3.4503012098 -25.6583003913 -2.5000011921
3.4739598005 -20.9286629651 -2.5000011921
3.4670195874 -20.9129133971 -2.5000011921
3.4821098903 -20.8873387179 -2.5000011921
3.4358182017 -25.8040468377 -2.5000011921
3.4270972391 -25.8771674439 -2.5000011921
3.4747227743 -20.6990803408 -2.5000011921
3.1416257586 -26.4791986413 -2.5000011921
3.2070682887 -26.3750803393 -2.5000011921
3.2253688082 -26.3450855010 -2.5000011921
3.2524860518 -26.2998915470 -2.5000011921
3.2792011566 -26.2544587224 -2.5000011921
3.3399607686 -26.1475399910 -2.5000011921
3.0241172081 -26.6971646280 -2.5000011921
3.0543668815 -26.6537428047 -2.5000011921
3.1714768536 -26.4774226327 -2.5000011921
3.7487614641 -25.3095582477 -2.5000011921
3.4714825726 -20.5831588463 -2.5000011921
3.0027942382 -26.7687780711 -2.5000011921
3.4822671739 -20.4980704527 -2.5000011921
2.6270978732 -27.3106965048 -2.5000011921
2.6864172004 -27.2439833580 -2.5000011921
4.0997187573 -24.5210960484 -2.5000011921
3.4605059212 -19.7910500120 -2.5000011921
3.4522830706 -19.5209891975 -2.5000011921
3.7602287968 -19.4994169239 -2.5000011921
3.7378409013 -19.4662697379 -2.5000011921
3.6924787465 -19.4003756248 -2.5000011921
3.6346848347 -19.3187703435 -2.5000011921
3.3021831049 -18.8934703906 -2.5000011921
3.1839332133 -18.7577714277 -2.5000011921
3.1166905636 -18.6837580220 -2.5000011921
3.9320114281 -19.7224462765 -2.5000011921
3.8681926849 -19.6203210189 -2.5000011921
3.1885360073 -18.7267139158 -2.5000011921
3.0934469551 -18.6232863416 -2.5000011921
2.9962367365 -18.5218498374 -2.5000011921
2.9680785969 -18.4932397940 -2.5000011921
2.9397516835 -18.4647968444 -2.5000011921
2.9255252463 -18.4506383411 -2.5000011921
3.8885777410 -19.6073292996 -2.5000011921
3.0135152554 -18.5049445700 -2.5000011921
3.4222941109 -18.9241164514 -2.5000011921
4.3239947606 -20.2897991935 -2.5000011921
4.3062731652 -20.2533027457 -2.5000011921
4.2425537511 -20.1264042281 -2.5000011921
4.4147311377 -20.4268380833 -2.5000011921
4.7489827832 -20.9340997208 -2.5000011921
4.8777386631 -21.0883600031 -2.5000011921
-0.5247886051 -19.0430521026 -2.5000011921
-0.6729185814 -19.0074701405 -2.5000011921
-0.3444085010 -19.0681288655 -2.5000011921
-0.4246467727 -19.0449175305 -2.5000011921
-0.5187610046 -19.0196426320 -2.5000011921
-0.2572616956 -19.0697267293 -2.5000011921
-0.3106954511 -19.0530629468 -2.5000011921
-0.3912064256 -19.0292556396 -2.5000011921
-0.2231504153 -19.0553053173 -2.5000011921
-0.0871413122 -19.0504494584 -2.5000011921
-0.0387525517 -19.0421615229 -2.5000011921
-0.0521749456 -19.0372900513 -2.5000011921
0.0501561278 -19.0496622170 -2.5000011921
0.0367555333 -19.0445277047 -2.5000011921
0.1526743484 -19.0643351889 -2.5000011921
0.1393167107 -19.0588973449 -2.5000011921
0.2153539404 -19.0642154089 -2.5000011921
0.1752295300 -19.0474642970 -2.5000011921
0.1483980183 -19.0364949983 -2.5000011921
0.2515634966 -19.0533708482 -2.5000011921
0.2113414209 -19.0362988238 -2.5000011921
0.3147595919 -19.0545924849 -2.5000011921
0.2879678110 -19.0427975547 -2.5000011921
0.3648162887 -19.0505744208 -2.5000011921
0.4418657379 -19.0596373813 -2.5000011921
0.5698455388 -19.0681895204 -2.5000011921
0.6452279667 -19.0523180292 -2.5000011921
0.7233065986 -19.0660748670 -2.5000011921
3.4261398160 -24.9923304190 -2.5000011921
3.4384976646 -24.9468519426 -2.5000011921
3.4425271984 -24.9316683005 -2.5000011921
3.4543460594 -24.8860467841 -2.5000011921
3.4519461603 -22.2587470195 -2.5000011921
3.4440563276 -22.2283353621 -2.5000011921
3.4400439734 -22.2131471711 -2.5000011921
3.4318845650 -22.1828067290 -2.5000011921
3.4366195748 -25.0443460722 -2.5000011921
3.4409375222 -25.0291675592 -2.5000011921
3.4452105498 -25.0139763393 -2.5000011921
3.4634060694 -22.2069384874 -2.5000011921
3.4510436596 -22.1612389788 -2.5000011921
3.4468327916 -22.1460304116 -2.5000011921
3.4339305095 -22.1004803800 -2.5000011921
3.4374972177 -25.1270350380 -2.5000011921
3.4420597702 -25.1118535670 -2.5000011921
3.4392473668 -22.0329630592 -2.5000011921
3.4346570871 -22.0177899488 -2.5000011921
1.1929264392 -19.0613107345 -2.5000011921
3.4370458226 -25.2100694221 -2.5000011921
3.4513355532 -25.1644855868 -2.5000011921
3.4560088306 -25.1492630156 -2.5000011921
3.4388899080 -21.9499282176 -2.5000011921
3.4340539978 -21.9347565280 -2.5000011921
3.4291732281 -21.9195992102 -2.5000011921
3.4352553868 -25.2934279254 -2.5000011921
3.4502849478 -25.2478566966 -2.5000011921
3.4422313874 -21.8817490182 -2.5000011921
3.4321112779 -21.8514014347 -2.5000011921
3.4269839373 -21.8362502286 -2.5000011921
1.2726670947 -19.0553356265 -2.5000011921
3.4374185291 -25.3619223816 -2.5000011921
3.4341492846 -21.7829031409 -2.5000011921
3.4234445112 -21.7526051038 -2.5000011921
3.4331697054 -25.4458772880 -2.5000011921
3.4386754698 -25.4307072234 -2.5000011921
3.4602490527 -25.3698660882 -2.5000011921
3.4297470914 -21.6989561368 -2.5000011921
3.4185457364 -21.6686856138 -2.5000011921
3.4390196533 -25.4997705579 -2.5000011921
3.4668954629 -25.4236669401 -2.5000011921
3.4297607987 -21.6298919461 -2.5000011921
3.4239782033 -21.6147486623 -2.5000011921
3.4181508365 -21.5996225507 -2.5000011921
3.4501402446 -25.5387106629 -2.5000011921
3.4347969407 -21.5757236158 -2.5000011921
3.4168339796 -21.5303028536 -2.5000011921
3.4430204091 -25.6235024895 -2.5000011921
3.4331694440 -21.5061422872 -2.5000011921
3.4270207598 -21.4909894614 -2.5000011921
3.4208272776 -21.4758548909 -2.5000011921
3.4407951151 -25.6933356998 -2.5000011921
3.4431859132 -21.4666664907 -2.5000011921
3.4376330928 -25.7634014802 -2.5000011921
3.4568333119 -25.7177906437 -2.5000011921
3.4401815175 -25.8185145808 -2.5000011921
3.4226719383 -21.2960051985 -2.5000011921
3.4311051603 -21.2558074500 -2.5000011921
3.2313241628 -26.3462270984 -2.5000011921
3.2476210962 -26.3170491770 -2.5000011921
3.2796956637 -26.2584066366 -2.5000011921
3.3188094217 -26.1845764997 -2.5000011921
3.3791077549 -26.0652685486 -2.5000011921
3.3864460272 -26.0502556989 -2.5000011921
3.1330133998 -26.5604138271 -2.5000011921
3.2022572996 -26.4453971780 -2.5000011921
3.2523934673 -26.3580769797 -2.5000011921
3.3009719635 -26.2698807096 -2.5000011921
3.4008094668 -26.0759161298 -2.5000011921
3.6657237651 -25.4413594475 -2.5000011921
3.6927108541 -25.3619091775 -2.5000011921
3.6979670900 -25.3459717107 -2.5000011921
3.7134526025 -25.2980669938 -2.5000011921
3.7185198910 -25.2820684485 -2.5000011921
3.0348031246 -26.7572173958 -2.5000011921
3.0628387653 -26.7151423142 -2.5000011921
3.1624156135 -26.5587779727 -2.5000011921
3.2145703593 -26.4721470331 -2.5000011921
3.7711085734 -25.1926233899 -2.5000011921
3.7944052326 -25.1116416455 -2.5000011921
3.7989206869 -25.0954044434 -2.5000011921
2.9484448177 -26.9234634337 -2.5000011921
3.8649051938 -24.9380753534 -2.5000011921
3.8924029598 -24.9273110651 -2.5000011921
3.4385369436 -20.9912812449 -2.5000011921
3.4290374734 -20.9196186684 -2.5000011921
4.0160220304 -24.5695415355 -2.5000011921
3.4425770222 -20.8932833422 -2.5000011921
3.4560053897 -20.8668447538 -2.5000011921
4.0857222663 -24.4413393171 -2.5000011921
3.4448313208 -20.7946051376 -2.5000011921
3.4494660735 -20.7526227234 -2.5000011921
3.4622405654 -20.7257238873 -2.5000011921
3.4537831352 -20.7104884786 -2.5000011921
3.4577808738 -20.6682046972 -2.5000011921
3.4693575805 -20.2660234322 -2.5000011921
3.4701141205 -20.1347029883 -2.5000011921
3.4765536517 -19.7651823209 -2.5000011921
3.8072826997 -19.5212741549 -2.5000011921
3.7952607796 -19.5050233192 -2.5000011921
3.7710729841 -19.4726286919 -2.5000011921
3.7344329932 -19.4243064853 -2.5000011921
3.3450192659 -18.9596878022 -2.5000011921
3.3038439898 -18.9151667823 -2.5000011921
3.2761750056 -18.8856898653 -2.5000011921
3.2622752361 -18.8710129231 -2.5000011921
3.2483321103 -18.8563771631 -2.5000011921
3.8981061601 -19.6055195060 -2.5000011921
3.8863330556 -19.5889996294 -2.5000011921
3.8745111338 -19.5725146521 -2.5000011921
3.7412779455 -19.3935242888 -2.5000011921
3.1951988691 -18.7668642738 -2.5000011921
3.1809479463 -18.7524273936 -2.5000011921
3.1523182921 -18.7236804190 -2.5000011921
3.1379398112 -18.7093705762 -2.5000011921
3.1235190622 -18.6951033302 -2.5000011921
3.0507857238 -18.6244104081 -2.5000011921
3.0361140285 -18.6104013514 -2.5000011921
3.0066466354 -18.5825137486 -2.5000011921
2.9918511954 -18.5686354466 -2.5000011921
4.1001004776 -19.8614129974 -2.5000011921
4.0890834686 -19.8442944655 -2.5000011921
4.0780158680 -19.8272085987 -2.5000011921
3.9059977831 -19.5749414014 -2.5000011921
3.0083628328 -18.5509803875 -2.5000011921
2.7962371762 -18.3606721991 -2.5000011921
2.7807864094 -18.3474172969 -2.5000011921
2.7652964998 -18.3342081590 -2.5000011921
2.7497675829 -18.3210449008 -2.5000011921
2.7341997947 -18.3079276375 -2.5000011921
4.2491207524 -20.0570068447 -2.5000011921
4.2176479649 -20.0044192204 -2.5000011921
4.1641602347 -19.9174004910 -2.5000011921
2.7026482931 -18.2502068852 -2.5000011921
2.6868711594 -18.2372293193 -2.5000011921
2.6233808007 -18.1857874689 -2.5000011921
4.3316724713 -20.1510590639 -2.5000011921
4.2907122891 -20.0800211806 -2.5000011921
2.5417840616 -18.0909055508 -2.5000011921
4.4225752279 -20.2650106614 -2.5000011921
2.3918600661 -17.9485086632 -2.5000011921
4.5113328628 -20.3812626214 -2.5000011921
4.4827273379 -20.3263352430 -2.5000011921
2.3051665670 -17.8570958544 -2.5000011921
4.5233081514 -20.3517914481 -2.5000011921
2.1647951378 -17.7325342873 -2.5000011921
2.1127760383 -17.6985354181 -2.5000011921
2.0953695415 -17.6873052148 -2.5000011921
4.6467579640 -20.5452874169 -2.5000011921
2.1433442576 -17.6895630091 -2.5000011921
2.0382471028 -17.6224157323 -2.5000011921
2.0687398155 -17.6130302422 -2.5000011921
1.8849340803 -17.4729710155 -2.5000011921
1.3416986402 -17.1053771590 -2.5000011921
5.2689845036 -21.5718847551 -2.5000011921
-1.6033747354 -19.1017677509 -2.5000011921
-1.6455486361 -19.1030542399 -2.5000011921
-1.6596038609 -19.1035662353 -2.5000011921
-1.6736575096 -19.1041198063 -2.5000011921
3.4525065088 -25.1245286794 -2.5000011921
3.4425263674 -22.5465368157 -2.5000011921
0.1941164485 -19.0445764005 -2.5000011921
0.3159506033 -19.0628903399 -2.5000011921
3.4436590874 -22.3731637473 -2.5000011921
3.4392551705 -22.3586066376 -2.5000011921
3.4396111864 -22.2786448114 -2.5000011921
3.4497307743 -25.5533663949 -2.5000011921
3.4466203478 -22.1468481318 -2.5000011921
3.4361857350 -25.6634135882 -2.5000011921
3.4572442515 -25.6051222969 -2.5000011921
3.4435429940 -22.0659209213 -2.5000011921
3.4561612560 -21.9615141497 -2.5000011921
0.7643643283 -19.0682073635 -2.5000011921
0.7501954757 -19.0615905529 -2.5000011921
3.4419422397 -25.8496283201 -2.5000011921
3.4323410757 -21.8360619808 -2.5000011921
0.8172071559 -19.0665135276 -2.5000011921
0.7888389929 -19.0530092431 -2.5000011921
3.3303895823 -26.1617672269 -2.5000011921
3.4761150040 -25.8294251227 -2.5000011921
3.2959896265 -26.2859062905 -2.5000011921
3.3173779950 -26.2434307679 -2.5000011921
3.3453078615 -26.1865046602 -2.5000011921
0.7765314084 -18.9672253335 -2.5000011921
1.0305794446 -19.0653995735 -2.5000011921
3.4132376398 -21.3340652554 -2.5000011921
3.4097467765 -21.0739009750 -2.5000011921
1.4925350631 -19.0792468307 -2.5000011921
3.4141509122 -21.0329485599 -2.5000011921
1.5336296984 -19.0764669642 -2.5000011921
1.6030909837 -19.0921612052 -2.5000011921
3.4220154523 -20.5440896289 -2.5000011921
3.7236605771 -19.3877816560 -2.5000011921
3.6971422765 -19.3570761943 -2.5000011921
3.6838151180 -19.3417824321 -2.5000011921
3.9231154949 -19.5920640404 -2.5000011921
3.9104824843 -19.5761007805 -2.5000011921
3.8466121525 -19.4968488718 -2.5000011921
3.8336978129 -19.4811123392 -2.5000011921
3.0550959440 -18.6782216783 -2.5000011921
