18.4301693354 -11.6449410499 -2.5000154996
18.4436146269 -15.9414764207 -2.5000155630
18.4463422871 -15.9958099334 -2.5000156264
18.4528803941 -15.9808990651 -2.5000156264
18.4485003528 -16.0503614670 -2.5000156898
18.4551998237 -16.0354439760 -2.5000156898
18.4431795979 -16.1200272316 -2.5000157532
16.5710593453 -18.3713650769 -2.5000158166
16.5846329793 -18.3619912407 -2.5000158166
18.4581172396 -16.1451695247 -2.5000158166
18.4587080728 -16.2003383496 -2.5000158800
18.4354580921 -16.3559661117 -2.5000160068
18.4337943447 -16.4116924960 -2.5000160702
18.4448342608 -16.4939111486 -2.5000161970
18.4528458479 -16.4790025619 -2.5000161970
18.4252210031 -16.5798825007 -2.5000162604
18.4334869949 -16.5650315574 -2.5000162604
18.4417090186 -16.5501562268 -2.5000162604
18.4250893120 -16.6779635582 -2.5000163872
18.4287011128 -16.7198112165 -2.5000164506
18.4214390198 -16.9183264210 -2.5000167042
18.4307062064 -16.9034851847 -2.5000167042
18.4164834080 -17.2336819108 -2.5000171479
18.4260944243 -17.2622679334 -2.5000172113
18.4477034012 -18.1396817181 -2.5000186694
18.4548073386 -18.2780849140 -2.5000189230
18.1023038338 -18.7780751615 -2.5000191766
18.1318027469 -18.7502209020 -2.5000191766
18.1611363485 -18.7221926044 -2.5000191766
18.1757408365 -18.7081134978 -2.5000191766
18.2048245476 -18.6798259847 -2.5000191766
18.2193035162 -18.6656178259 -2.5000191766
18.2481350463 -18.6370733251 -2.5000191766
18.2910644336 -18.5939379927 -2.5000191766
18.3052889527 -18.5794750964 -2.5000191766
18.3194706257 -18.5649701847 -2.5000191766
18.6335429608 -18.2200574778 -2.5000191766
18.7115552650 -18.1266329332 -2.5000191766
18.7499365314 -18.0794051067 -2.5000191766
18.7626369614 -18.0635870351 -2.5000191766
17.9070701438 -18.9863954993 -2.5000192400
17.9836096402 -18.9192986305 -2.5000192400
18.0139461561 -18.8921441340 -2.5000192400
18.1925435755 -18.7254917382 -2.5000192400
18.6254954449 -18.2666559842 -2.5000192400
18.8694023641 -17.9665305646 -2.5000192400
18.9063565960 -17.9179082383 -2.5000192400
18.9549549275 -17.8525719723 -2.5000192400
18.9789633301 -17.8196893404 -2.5000192400
18.9908944718 -17.8031949025 -2.5000192400
17.6865885001 -19.1997698708 -2.5000193034
17.8136832657 -19.0970316398 -2.5000193034
17.8607116331 -19.0577337107 -2.5000193034
17.8918693284 -19.0313038972 -2.5000193034
17.9228701107 -19.0046902070 -2.5000193034
17.9537128949 -18.9778935715 -2.5000193034
19.0929346142 -17.7004852440 -2.5000193034
19.1045126300 -17.6836541799 -2.5000193034
17.6531103875 -19.2566266488 -2.5000193668
17.8448708959 -19.1025509689 -2.5000193668
19.1704217987 -17.6294233830 -2.5000193668
19.1931062083 -17.5952698822 -2.5000193668
19.2155881573 -17.5609827705 -2.5000193668
19.2378668587 -17.5265632482 -2.5000193668
19.2599415328 -17.4920125200 -2.5000193668
19.2709021178 -17.4746883315 -2.5000193668
17.5034468382 -19.3992972486 -2.5000194302
17.5531698600 -19.3627405909 -2.5000194302
17.5861374609 -19.3381249598 -2.5000194302
17.3830521984 -19.5144801299 -2.5000194936
17.4169205187 -19.4908683163 -2.5000194936
17.5176790331 -19.4188364377 -2.5000194936
19.4083134116 -17.3899254065 -2.5000195570
19.6896996409 -16.9291236574 -2.5000196204
16.9671388236 -19.8654791311 -2.5000196838
16.9249900336 -19.9177922077 -2.5000197472
20.1544319401 -16.4200737960 -2.5000201910
14.9596149261 -14.8445608714 -2.5000016456
14.9930735637 -14.8282404192 -2.5000016513
14.5163236630 -18.4715346981 -2.5000022853
14.6533650333 -18.4542767490 -2.5000022911
14.6999045690 -18.4643023986 -2.5000022968
14.7128882610 -18.4599085680 -2.5000022968
14.7517605557 -18.4464968983 -2.5000022968
14.8977605963 -18.4444494380 -2.5000023084
15.0412992357 -18.4652603355 -2.5000023256
15.0802060920 -18.4489339919 -2.5000023256
15.1415685172 -18.4487646095 -2.5000023314
15.1772688858 -18.4594028813 -2.5000023372
15.2161184061 -18.4418701140 -2.5000023372
15.2290334807 -18.4359493276 -2.5000023372
16.0879133060 -18.4278466831 -2.5000024351
18.4368993546 -15.4986136199 -2.5000024813
18.4410936519 -15.4831780590 -2.5000024813
18.4452422696 -15.4677301581 -2.5000024813
18.4493451715 -15.4522700525 -2.5000024813
18.4574136845 -15.4213137682 -2.5000024813
18.4628833723 -12.7461807261 -2.5000024813
18.4549415152 -12.7151917063 -2.5000024813
18.4429068277 -15.5668783984 -2.5000024870
18.4473030382 -15.5514247676 -2.5000024870
18.4489718891 -12.6005579906 -2.5000024870
18.4445931609 -12.5850993971 -2.5000024870
18.4339541568 -15.6818086551 -2.5000024928
18.4589072485 -12.5474616365 -2.5000024928
18.4497897721 -12.5164996188 -2.5000024928
18.4404892735 -12.4855920849 -2.5000024928
18.4588766100 -12.4630567913 -2.5000024985
18.4540910850 -12.4475694995 -2.5000024985
18.4443826975 -12.4166377241 -2.5000024985
18.4402714739 -15.8200577417 -2.5000025043
18.4454166463 -15.8046107990 -2.5000025043
18.4574900215 -12.3783206602 -2.5000025043
18.4473718750 -12.3473699875 -2.5000025043
18.4422441779 -12.3319172350 -2.5000025043
18.4420650418 -15.8896349877 -2.5000025101
18.4474160283 -15.8741824348 -2.5000025101
18.4547377000 -12.2932749629 -2.5000025101
18.4494499477 -12.2778006576 -2.5000025101
18.4450700440 -12.1924799134 -2.5000025158
18.4312214191 -16.0604949490 -2.5000025216
18.4358868946 -16.1154693219 -2.5000025274
18.4501512520 -12.0674026969 -2.5000025274
18.4274834757 -16.2015223904 -2.5000025331
18.4241993285 -16.2723895651 -2.5000025389
18.4199639562 -16.3434757170 -2.5000025446
18.4489598838 -11.8701810609 -2.5000025446
18.4147717325 -16.4147682207 -2.5000025504
18.4684584403 -11.7328688141 -2.5000025619
18.4150703137 -16.6404678002 -2.5000025735
18.3479393165 -11.3740431577 -2.5000025735
18.3399327776 -11.3588888034 -2.5000025735
18.3156446774 -11.3135687766 -2.5000025735
18.2658667213 -11.2235842589 -2.5000025735
18.2489201203 -11.1937875038 -2.5000025735
18.7348859993 -12.2161863268 -2.5000025792
18.7293689791 -12.1998836295 -2.5000025792
18.4116381361 -16.7544364854 -2.5000025850
18.2324403302 -11.0232637808 -2.5000025908
18.4310543225 -17.1677643562 -2.5000026369
18.4402350559 -17.4731829669 -2.5000026772
18.4502704718 -17.4577288988 -2.5000026772
18.4655490364 -17.7381132626 -2.5000027175
18.0827844121 -18.8404809871 -2.5000028155
18.1109051343 -18.8116341000 -2.5000028155
18.1527649867 -18.7680530863 -2.5000028155
18.2624835314 -18.6500387168 -2.5000028155
18.2894743882 -18.6201320024 -2.5000028155
18.3296277350 -18.5749738279 -2.5000028155
18.7322822960 -18.0719555896 -2.5000028155
18.7440877118 -18.0556349730 -2.5000028155
17.8682155349 -19.0828873806 -2.5000028213
17.9709523225 -18.9855906865 -2.5000028213
18.8567186812 -17.9374980603 -2.5000028213
18.8681258028 -17.9208099268 -2.5000028213
18.8907916974 -17.8873327920 -2.5000028213
18.9020502720 -17.8705440838 -2.5000028213
18.9903210060 -17.7350504880 -2.5000028213
17.7032843283 -19.2629561494 -2.5000028270
17.7491654622 -19.2229747693 -2.5000028270
19.0323708002 -17.7136871232 -2.5000028270
19.1062544132 -17.6398668068 -2.5000028328
19.1272539864 -17.6049857402 -2.5000028328
19.2091776806 -17.4642374476 -2.5000028328
17.3177813135 -19.6625189969 -2.5000028443
17.3507788775 -19.6381837380 -2.5000028443
19.3874668721 -17.2354682088 -2.5000028443
17.2318745192 -19.7540950522 -2.5000028501
17.6088259832 -19.4682740591 -2.5000028501
17.7978875009 -19.3409137475 -2.5000028559
19.5656320620 -16.9789578554 -2.5000028559
19.5827134359 -16.9413705234 -2.5000028559
16.8968242770 -20.0332842008 -2.5000028616
14.9925526938 -15.2080798642 -2.4999989699
15.0043550795 -15.1798092057 -2.4999989699
15.0089587363 -15.1684525832 -2.4999989699
15.0074236757 -15.2346318110 -2.4999989440
15.0308765339 -15.3002291009 -2.4999988921
14.0635183768 -18.4545163058 -2.4999967136
14.0875127667 -18.4486686764 -2.4999967136
14.1353956586 -18.4365480576 -2.4999967136
14.1894785955 -18.4471866635 -2.4999966876
14.3828469062 -18.4403420646 -2.4999966358
14.4262662723 -18.4516382068 -2.4999966098
14.4502372858 -18.4436444894 -2.4999966098
14.5180071252 -18.4458332111 -2.4999965839
14.6665880448 -18.4421733388 -2.4999965320
14.7565281117 -18.4582209009 -2.4999964801
15.0822742478 -18.4437383606 -2.4999963505
15.3778751809 -18.4237471157 -2.4999962208
18.4405147695 -15.7744235941 -2.4999952612
18.4445689389 -15.7585813040 -2.4999952612
18.4379851295 -13.0078117470 -2.4999952612
18.4206235210 -15.9388775855 -2.4999952353
18.4341055681 -15.8914851306 -2.4999952353
18.4530405161 -12.9699699250 -2.4999952353
18.4487985495 -12.9541028521 -2.4999952353
18.4357912857 -12.9065778959 -2.4999952353
18.4392370879 -15.9614342512 -2.4999952093
18.4438444742 -15.9455949224 -2.4999952093
18.4363654654 -12.8208037391 -2.4999952093
18.4336875524 -16.0633744121 -2.4999951834
18.4548505423 -12.7980896654 -2.4999951834
18.4501001149 -12.7822179901 -2.4999951834
18.4385354297 -16.2049059337 -2.4999951315
18.4352185742 -12.5773337468 -2.4999951315
18.4226684520 -16.3235364678 -2.4999951056
18.4472045549 -12.5378066373 -2.4999951056
18.4361169816 -12.5061272006 -2.4999951056
18.4532712807 -12.4821919502 -2.4999950797
18.4267335999 -16.4509642708 -2.4999950537
18.4327891593 -16.4351597877 -2.4999950537
18.4506749534 -16.3876398267 -2.4999950537
18.4529210641 -12.4104422312 -2.4999950537
18.4470239139 -12.3945779599 -2.4999950537
18.4410798601 -12.3787312028 -2.4999950537
18.4516210450 -12.3384340168 -2.4999950278
18.4331499545 -12.2909082567 -2.4999950278
18.4406142285 -16.5477441419 -2.4999950019
18.4469560195 -16.5318981740 -2.4999950019
18.4594988375 -16.5001503044 -2.4999950019
18.4366704247 -12.2344923104 -2.4999950019
18.4566279448 -16.5726525678 -2.4999949759
18.4396088470 -12.1778488008 -2.4999949759
18.4548266880 -16.7024520094 -2.4999949241
18.4713501241 -16.7854141896 -2.4999948722
18.4719406468 -16.8431029872 -2.4999948462
18.4644958309 -16.9169078902 -2.4999948203
18.4637078933 -16.9749842137 -2.4999947944
18.4417244118 -11.7172269006 -2.4999947684
18.4473363490 -11.6746512122 -2.4999947425
18.4361839530 -11.6002200485 -2.4999947166
18.6215111641 -11.9278464598 -2.4999946906
18.3896808554 -11.4627258424 -2.4999946906
18.3546016484 -11.4001890304 -2.4999946906
18.2914414182 -11.2917641488 -2.4999946906
18.2822357225 -11.2763824581 -2.4999946906
18.2543461903 -11.2304017199 -2.4999946906
18.2936713382 -11.2485223599 -2.4999946647
18.1885137673 -11.0807976633 -2.4999946647
18.1588922204 -11.0356563567 -2.4999946647
18.0364354596 -10.8577728901 -2.4999946647
18.8700513147 -12.4294637883 -2.4999946388
18.8583153483 -12.3952845444 -2.4999946388
17.6743556132 -10.2899452674 -2.4999945869
19.1682567453 -13.0467443491 -2.4999945091
18.4686097746 -17.8118879674 -2.4999943535
18.2462164005 -18.6524411067 -2.4999940163
18.0569503918 -18.9080160409 -2.4999939904
18.1753010628 -18.7741180186 -2.4999939904
18.3150461016 -18.6062605134 -2.4999939904
18.6895955873 -18.0932656736 -2.4999939904
18.7543326686 -17.9932498795 -2.4999939904
17.9109943251 -19.0984296238 -2.4999939645
18.8688310419 -17.8535178994 -2.4999939645
18.8891856225 -17.8192509450 -2.4999939645
18.9193364769 -17.7676262178 -2.4999939645
18.9490280036 -17.7157359516 -2.4999939645
17.6702713416 -19.3662720055 -2.4999939385
17.6995968603 -19.3390696570 -2.4999939385
19.0938037952 -17.4990044231 -2.4999939385
17.6422110539 -19.4246647252 -2.4999939126
17.6718825346 -19.3976273689 -2.4999939126
17.7599299623 -19.3154686766 -2.4999939126
19.1872819362 -17.3665814701 -2.4999939126
19.2265454218 -17.3408935273 -2.4999938867
19.2862053935 -17.2131407198 -2.4999938867
19.3248299225 -17.1862862893 -2.4999938607
17.3823231855 -19.7417359093 -2.4999938348
14.9891263401 -15.2653695978 -2.4999999719
14.9981861409 -15.2301840039 -2.4999999719
15.0024814968 -15.2125322924 -2.4999999719
15.0321485264 -15.0641121722 -2.4999999719
15.0152498397 -15.4279670058 -2.4999999287
15.0232812146 -15.4042072538 -2.4999999287
13.9028858551 -18.4433225202 -2.4999989201
13.9247960096 -18.4379828685 -2.4999989201
13.9526059956 -18.4559476099 -2.4999989057
14.0075024814 -18.4416189023 -2.4999989057
14.0184560102 -18.4386558126 -2.4999989057
14.0358164788 -18.4589664140 -2.4999988913
14.0797806130 -18.4465835842 -2.4999988913
14.1525466842 -18.4501422657 -2.4999988769
14.1854506635 -18.4398683325 -2.4999988769
14.2367575360 -18.4486704080 -2.4999988625
14.3104190273 -18.4491525617 -2.4999988481
14.3954524517 -18.4441036726 -2.4999988337
14.4259485412 -18.4584451340 -2.4999988193
14.4808301903 -18.4371152340 -2.4999988193
14.5117494524 -18.4507689886 -2.4999988049
14.6197201520 -18.4316744284 -2.4999987905
14.7261879235 -18.4634563440 -2.4999987472
14.8245025398 -18.4435473911 -2.4999987328
14.9450970720 -18.4639726987 -2.4999986896
14.9780925791 -18.4466647808 -2.4999986896
15.0334209290 -18.4443545214 -2.4999986752
15.0670184913 -18.4534785269 -2.4999986608
15.2006761377 -18.4326441550 -2.4999986320
18.4401516604 -14.9010712682 -2.4999979548
18.4413907856 -14.8528870036 -2.4999979548
18.4423776960 -14.7886278192 -2.4999979548
18.4426188610 -14.7404282277 -2.4999979548
18.4425419964 -14.7082947978 -2.4999979548
18.4424322721 -14.6922283939 -2.4999979548
18.4411707817 -14.6119051098 -2.4999979548
18.4541627410 -16.1559906143 -2.4999978395
18.4583355119 -16.1398834999 -2.4999978395
18.4665380196 -16.1076325923 -2.4999978395
18.4557655609 -13.3248798195 -2.4999978395
18.4430162562 -13.2766190585 -2.4999978395
18.4386713741 -13.2605575159 -2.4999978395
18.4603134900 -16.2266667090 -2.4999978251
18.4690294017 -16.1944025801 -2.4999978251
18.4575850787 -13.2380931435 -2.4999978251
18.4394638643 -13.1737553862 -2.4999978251
18.4348147084 -13.1577048023 -2.4999978251
18.4609108820 -16.3138138619 -2.4999978107
18.4701423750 -16.2815446734 -2.4999978107
18.4533066340 -13.1348396587 -2.4999978107
18.4485422977 -13.1187482956 -2.4999978107
18.4388709264 -13.0866082028 -2.4999978107
18.4339639759 -13.0705597542 -2.4999978107
18.4290095727 -13.0545258915 -2.4999978107
18.4601173761 -16.4013030300 -2.4999977963
18.4650157994 -16.3851772274 -2.4999977963
18.4841318258 -16.3205312313 -2.4999977963
18.4368825490 -12.9991380334 -2.4999977963
18.4732544047 -16.4407075492 -2.4999977819
18.4388669445 -12.9274149060 -2.4999977819
18.4334890715 -12.9113671658 -2.4999977819
18.4280637499 -12.8953354045 -2.4999977819
18.4651081655 -16.5449837828 -2.4999977675
18.4809351093 -16.4965133082 -2.4999977675
18.4861150908 -16.4803255064 -2.4999977675
18.4399104509 -12.8554025176 -2.4999977675
18.4343195477 -12.8393520055 -2.4999977675
18.4606065763 -16.6333933807 -2.4999977531
18.4717288145 -16.6011203994 -2.4999977531
18.4342017647 -12.7670626500 -2.4999977531
18.4546778795 -16.7220635311 -2.4999977387
18.4594864904 -16.7787738440 -2.4999977243
18.4714688678 -16.7465049451 -2.4999977243
18.4574842577 -16.8518451314 -2.4999977098
18.4760347241 -16.8034302310 -2.4999977098
18.4821226428 -16.7872555825 -2.4999977098
18.4409502371 -12.5807596812 -2.4999977098
18.4737136075 -16.8767622206 -2.4999976954
18.4800184656 -16.8605941175 -2.4999976954
18.4924845599 -16.8282023126 -2.4999976954
18.4505086877 -12.5396179742 -2.4999976954
18.4374109524 -12.5074763833 -2.4999976954
18.4638488059 -16.9664666364 -2.4999976810
18.4328945070 -12.4339761795 -2.4999976810
18.4928214112 -16.9594086415 -2.4999976666
18.4413641090 -12.3923568820 -2.4999976666
18.4344034266 -12.3763040958 -2.4999976666
18.4618166679 -17.1561797571 -2.4999976378
18.4356225928 -12.2603437344 -2.4999976378
18.4694473156 -17.1983202860 -2.4999976234
18.4353257885 -12.2020676910 -2.4999976234
18.4278022227 -12.1860335998 -2.4999976234
18.4767693424 -17.2406354252 -2.4999976090
18.4420691832 -12.1596564932 -2.4999976090
18.4532751167 -17.3476974502 -2.4999975946
18.4762261599 -17.2993003776 -2.4999975946
18.4546075592 -17.5086431470 -2.4999975514
18.4329885711 -11.9240036226 -2.4999975514
18.4557782689 -17.6114179435 -2.4999975225
18.4333635439 -11.8212228425 -2.4999975225
18.4247133788 -11.8051962224 -2.4999975225
18.4513344565 -17.6710953455 -2.4999975081
18.4372369997 -11.7776195217 -2.4999975081
18.4407835584 -11.7338686984 -2.4999974937
18.4258772047 -11.6578844962 -2.4999974793
18.4377208111 -11.6298680775 -2.4999974649
18.4551620656 -17.8630172412 -2.4999974505
18.4761253734 -17.8750536446 -2.4999974361
18.6717534768 -11.9681016730 -2.4999974361
18.2541242975 -11.2413179608 -2.4999974361
18.2123905550 -11.1795274323 -2.4999974361
18.8406565136 -12.2810681928 -2.4999974217
18.8333648721 -12.2638347143 -2.4999974217
18.8186288098 -12.2294328443 -2.4999974217
18.0687788392 -10.9377996922 -2.4999974217
18.9333010805 -12.4458367388 -2.4999974073
18.9057722173 -12.3759255515 -2.4999974073
18.8845837553 -12.3237086023 -2.4999974073
18.8774180596 -12.3063449926 -2.4999974073
17.9495426664 -10.7455039913 -2.4999974073
17.9019635453 -10.6873521242 -2.4999974073
18.4427233996 -18.0732698330 -2.4999973929
17.8353511886 -10.5711557210 -2.4999973929
19.1044760842 -12.7852575900 -2.4999973785
18.4538752224 -18.1470060677 -2.4999973640
17.5215190986 -10.1651285385 -2.4999973640
17.2735302305 -9.9008483878 -2.4999973496
17.6498807585 -10.2257879659 -2.4999973352
19.3495684023 -13.2125291982 -2.4999973064
17.1451793188 -9.6965518364 -2.4999973064
18.4511274163 -18.3736604354 -2.4999972920
18.0895065031 -18.9018676435 -2.4999972776
18.2104608194 -18.7498454306 -2.4999972776
18.2341090767 -18.7190153542 -2.4999972776
18.2458647011 -18.7035479840 -2.4999972776
18.2575745189 -18.6880459063 -2.4999972776
18.2692384275 -18.6725092566 -2.4999972776
18.6970232903 -18.0242877965 -2.4999972776
18.7067217596 -18.0074540821 -2.4999972776
17.9177707142 -19.1391702270 -2.4999972632
18.0078620411 -19.0366345028 -2.4999972632
18.0205582304 -19.0218350226 -2.4999972632
18.0709035314 -18.9622634729 -2.4999972632
18.1081979996 -18.9171961542 -2.4999972632
18.1936523467 -18.8107650663 -2.4999972632
18.2414880523 -18.7491601628 -2.4999972632
18.2651317122 -18.7181465308 -2.4999972632
18.7373692112 -18.0025660890 -2.4999972632
18.8676481481 -17.7626921676 -2.4999972632
17.8698818851 -19.2276639167 -2.4999972488
17.9357638671 -19.1553127711 -2.4999972488
17.9488114436 -19.1407260511 -2.4999972488
18.0133989473 -19.0672170164 -2.4999972488
18.1019799227 -18.9627166575 -2.4999972488
18.9333918241 -17.6865197177 -2.4999972488
18.9507364368 -17.6514311486 -2.4999972488
19.0015204869 -17.5455583573 -2.4999972488
17.9274368827 -19.2006188164 -2.4999972344
18.3740021562 -18.6527825412 -2.4999972344
19.0066275389 -17.5913392969 -2.4999972344
19.0399775191 -17.5202002604 -2.4999972344
19.0563362646 -17.4844840054 -2.4999972344
19.0884184034 -17.4127642728 -2.4999972344
17.5433749242 -19.6231511460 -2.4999972200
17.5722016264 -19.5962524895 -2.4999972200
17.6008686827 -19.5691837552 -2.4999972200
17.4720692199 -19.7208286837 -2.4999972056
17.4867917236 -19.7076111818 -2.4999972056
19.2317507008 -17.1949048024 -2.4999972056
19.2461815328 -17.1580596461 -2.4999972056
17.3534626415 -19.8562442285 -2.4999971912
19.3378353670 -16.9806674214 -2.4999971912
19.4121159147 -16.8378705187 -2.4999971767
14.9825697034 -15.3061300294 -2.5000014304
15.0618715815 -15.2347725334 -2.5000014390
14.4595887679 -18.4485433838 -2.5000016292
14.4692381761 -18.4707069621 -2.5000016321
14.5191281087 -18.4485459463 -2.5000016321
14.5290664559 -18.4440253291 -2.5000016321
14.5389913869 -18.4394753322 -2.5000016321
14.5690366472 -18.4521862106 -2.5000016350
14.6490722088 -18.4405743546 -2.5000016378
14.6589864061 -18.4356693741 -2.5000016378
14.6896502848 -18.4473580518 -2.5000016407
14.9042458525 -18.4420187037 -2.5000016522
14.9240637731 -18.4306697180 -2.5000016522
14.9460840561 -18.4458567719 -2.5000016551
14.9659239518 -18.4342601901 -2.5000016551
14.9582206446 -18.4667622376 -2.5000016580
14.9881397192 -18.4492148696 -2.5000016580
15.0079987465 -18.4373694136 -2.5000016580
15.1026879594 -18.4359125707 -2.5000016638
15.2080548277 -18.4254243755 -2.5000016695
15.2708422604 -18.4122925130 -2.5000016724
14.9189514554 -11.5459263690 -2.5000016724
15.0488216171 -11.5355902269 -2.5000016811
15.4448279065 -18.4072774007 -2.5000016839
15.3321912548 -11.5692069599 -2.5000016955
15.3113398233 -11.5554463911 -2.5000016955
15.3768672349 -11.5700618257 -2.5000016984
15.4008711514 -11.5571439538 -2.5000017012
15.8212853819 -18.4174459119 -2.5000017128
15.7970941884 -18.4692616296 -2.5000017156
18.4591555797 -16.4246502388 -2.5000018626
18.4630896381 -16.4084831631 -2.5000018626
18.4669758541 -16.3923045206 -2.5000018626
18.4708141938 -16.3761144527 -2.5000018626
18.4746046236 -16.3599131011 -2.5000018626
18.4783471103 -16.3437006076 -2.5000018626
18.4760387649 -13.8196308021 -2.5000018626
18.4606628267 -13.7548762619 -2.5000018626
18.4566992043 -13.7387164089 -2.5000018626
18.4486286352 -13.7064322318 -2.5000018626
18.4445217592 -13.6903081901 -2.5000018626
18.4449197330 -16.5759832501 -2.5000018655
18.4579219033 -16.5275678399 -2.5000018655
18.4621604160 -16.5114039634 -2.5000018655
18.4826347391 -16.4304004000 -2.5000018655
18.4679380273 -13.6843070510 -2.5000018655
18.4595453575 -13.6519573334 -2.5000018655
18.4552772871 -13.6358012365 -2.5000018655
18.4509614427 -13.6196578359 -2.5000018655
18.4421865836 -13.5874096890 -2.5000018655
18.4455172632 -16.6631304021 -2.5000018684
18.4547487051 -16.6308611990 -2.5000018684
18.4592927921 -16.6147062574 -2.5000018684
18.4637890700 -16.5985379443 -2.5000018684
18.4519151639 -13.5325138541 -2.5000018684
18.4472937915 -13.5163808513 -2.5000018684
18.4426247150 -13.5002615899 -2.5000018684
18.4640309708 -16.6860303763 -2.5000018713
18.4687382176 -16.6698477347 -2.5000018713
18.4733975726 -16.6536512391 -2.5000018713
18.4870878814 -16.6049800455 -2.5000018713
18.4563118432 -13.4611678697 -2.5000018713
18.4366957861 -13.3966718422 -2.5000018713
18.4476878297 -16.8223089007 -2.5000018741
18.4776333945 -16.7252766719 -2.5000018741
18.4647774363 -13.4056716988 -2.5000018741
18.4445041301 -13.3410793875 -2.5000018741
18.4340812203 -13.3088743198 -2.5000018741
18.4443437783 -16.9104257015 -2.5000018770
18.4570576381 -13.3013630279 -2.5000018770
18.4517524573 -13.2852158241 -2.5000018770
18.4463995333 -13.2690843846 -2.5000018770
18.4409989130 -13.2529688506 -2.5000018770
18.4355506437 -13.2368693631 -2.5000018770
18.4452134642 -16.9827099214 -2.5000018799
18.4507984251 -16.9665816473 -2.5000018799
18.4563356512 -16.9504369224 -2.5000018799
18.4672667056 -16.9180986857 -2.5000018799
18.4529175827 -13.2129357626 -2.5000018799
18.4417363849 -13.1806831609 -2.5000018799
18.4360742782 -13.1645818081 -2.5000018799
18.4451321971 -17.0552689568 -2.5000018828
18.4509318011 -17.0391406056 -2.5000018828
18.4623877509 -17.0068327875 -2.5000018828
18.4531328863 -13.1403770011 -2.5000018828
18.4473514969 -13.1242421118 -2.5000018828
18.4415224028 -13.1081243954 -2.5000018828
18.4678671377 -17.0634822240 -2.5000018857
18.4342584655 -13.0192083698 -2.5000018857
18.4319065624 -12.9461475012 -2.5000018885
18.4646257136 -17.2099106275 -2.5000018914
18.4543986426 -12.9372907745 -2.5000018914
18.4415866106 -12.9050342345 -2.5000018914
18.4615489252 -17.2834851584 -2.5000018943
18.4443699246 -12.8476045362 -2.5000018943
18.4371281355 -17.4056618292 -2.5000018972
18.4507527895 -17.3734292634 -2.5000018972
18.4641865064 -17.3411166537 -2.5000018972
18.4397430757 -12.7738404252 -2.5000018972
18.4328774633 -12.7577467491 -2.5000018972
18.4411671435 -12.7159712698 -2.5000019001
18.4341303375 -12.6998736343 -2.5000019001
18.4347824847 -12.6417956272 -2.5000019030
18.4540550991 -17.5476368127 -2.5000019058
18.4756797900 -17.4991020688 -2.5000019058
18.4389468236 -17.6383561790 -2.5000019087
18.4455811706 -17.6809042875 -2.5000019116
18.4408270481 -12.4824892901 -2.5000019116
18.4253244953 -12.4503210040 -2.5000019116
18.4313141074 -12.4075577655 -2.5000019145
18.4419567024 -17.7987686574 -2.5000019174
18.4289108908 -12.3485480141 -2.5000019174
18.4473899689 -17.8418453355 -2.5000019202
18.4635950514 -17.8095444233 -2.5000019202
18.4306650936 -12.2460969465 -2.5000019231
18.4488648629 -17.9446162169 -2.5000019260
18.4265655456 -12.1865915515 -2.5000019260
18.4305679018 -12.1429998735 -2.5000019289
18.4218361891 -12.1269360994 -2.5000019289
18.4484829500 -18.0480285578 -2.5000019318
18.4286006632 -12.0392892859 -2.5000019346
18.4195621645 -12.0232317850 -2.5000019346
18.4371338817 -18.1681593377 -2.5000019375
18.4462256517 -18.1520497776 -2.5000019375
18.4362677619 -11.9067540666 -2.5000019433
18.4173590460 -11.8746228311 -2.5000019433
18.4476704623 -11.8784144050 -2.5000019462
18.4189842360 -11.8301595673 -2.5000019462
18.4300139064 -11.8016257178 -2.5000019491
18.4202723497 -11.7855650762 -2.5000019491
18.4212218937 -11.7408417940 -2.5000019519
18.1183770813 -18.9204362072 -2.5000019548
18.1856124556 -18.8289181658 -2.5000019548
18.2076619741 -18.7981487418 -2.5000019548
18.2295290643 -18.7672494040 -2.5000019548
18.2727129052 -18.7050653178 -2.5000019548
18.3361015287 -18.6108420199 -2.5000019548
18.4218313919 -11.6959921704 -2.5000019548
17.9134320787 -19.2176892998 -2.5000019577
18.0098083399 -19.1001682687 -2.5000019577
18.1716786597 -18.8891383110 -2.5000019577
18.7192601198 -18.0005355052 -2.5000019577
18.7533375614 -17.9326103682 -2.5000019577
18.7617311515 -17.9155664511 -2.5000019577
18.7783668914 -17.8814045007 -2.5000019577
18.8029408123 -17.8299785283 -2.5000019577
18.8428800871 -17.7437904605 -2.5000019577
18.8662302202 -17.6917973887 -2.5000019577
17.8450247960 -19.3345531208 -2.5000019606
17.8575695605 -19.3201900230 -2.5000019606
17.9196530475 -19.2478213566 -2.5000019606
17.9441855927 -19.2186181064 -2.5000019606
17.9806593831 -19.1745423674 -2.5000019606
18.8960349011 -17.6841604850 -2.5000019606
18.9036929071 -17.6666955304 -2.5000019606
18.9112992151 -17.6492079985 -2.5000019606
18.9188537585 -17.6316980422 -2.5000019606
18.9412061426 -17.5790351608 -2.5000019606
18.9485529712 -17.5614370414 -2.5000019606
18.9630902929 -17.5261759882 -2.5000019606
18.9702806587 -17.5085133629 -2.5000019606
17.6956789287 -19.5344611712 -2.5000019635
17.8124156823 -19.4077750503 -2.5000019635
19.0069601782 -17.4820732721 -2.5000019635
19.0279812569 -17.4286343876 -2.5000019635
19.0417314834 -17.3929057343 -2.5000019635
19.0485272676 -17.3750110572 -2.5000019635
17.5381058238 -19.7291422590 -2.5000019663
17.7264218662 -19.5371027637 -2.5000019663
19.1044454751 -17.2934537041 -2.5000019663
19.1173945890 -17.2572750286 -2.5000019663
18.7341134986 -12.0441349541 -2.5000019663
18.7250879975 -12.0271736698 -2.5000019663
18.6977110019 -11.9764510491 -2.5000019663
18.6884854389 -11.9595977462 -2.5000019663
18.6698849496 -11.9259733813 -2.5000019663
18.6032235387 -11.8091670457 -2.5000019663
18.3566014672 -11.4196598745 -2.5000019663
18.3348123328 -11.3880084965 -2.5000019663
18.2795235861 -11.3094488768 -2.5000019663
18.2570837554 -11.2782554463 -2.5000019663
18.1886624887 -11.1854793441 -2.5000019663
18.1770993156 -11.1701353596 -2.5000019663
18.1654908028 -11.1548256481 -2.5000019663
18.1538370519 -11.1395503437 -2.5000019663
17.4575499140 -19.8398213587 -2.5000019692
19.1900118283 -17.1193504791 -2.5000019692
19.1959977379 -17.1010183589 -2.5000019692
18.8769700572 -12.2738906599 -2.5000019692
18.8602257316 -12.2391456561 -2.5000019692
18.8517765556 -12.2218104558 -2.5000019692
18.8174681609 -12.1527218685 -2.5000019692
18.7734370259 -12.0669399353 -2.5000019692
18.7373016155 -11.9987891397 -2.5000019692
18.3215260148 -11.3268328626 -2.5000019692
18.1612915504 -11.1095622716 -2.5000019692
18.1257934699 -11.0638791624 -2.5000019692
18.1138708565 -11.0487216878 -2.5000019692
18.0168864858 -10.9287450482 -2.5000019692
17.9797894404 -10.8843505733 -2.5000019692
17.9422998798 -10.8402870621 -2.5000019692
17.9170902321 -10.8110969714 -2.5000019692
17.3887159950 -19.9361740814 -2.5000019721
19.2650879285 -16.9606634667 -2.5000019721
19.2868229098 -16.8863526388 -2.5000019721
18.9639308955 -12.4039320487 -2.5000019721
18.9559687337 -12.3862893488 -2.5000019721
17.9098620873 -10.7660948274 -2.5000019721
17.8454214797 -10.6938884133 -2.5000019721
19.3258450929 -16.8368956895 -2.5000019750
19.0704114406 -12.5903286504 -2.5000019750
19.0404482186 -12.5186272751 -2.5000019750
18.9859787459 -12.3940210663 -2.5000019750
17.7307997161 -10.5356229003 -2.5000019750
17.7173161534 -10.5216362000 -2.5000019750
17.7037912745 -10.5076894478 -2.5000019750
17.6629699262 -10.4660900978 -2.5000019750
19.3543126221 -16.8245361367 -2.5000019779
19.1710584378 -12.7808231331 -2.5000019779
19.1433421891 -12.7079175200 -2.5000019779
19.1291610502 -12.6715889731 -2.5000019779
19.1147652276 -12.6353449623 -2.5000019779
17.5550328704 -10.3260299696 -2.5000019779
17.5267874829 -10.2991400810 -2.5000019779
17.8195681437 -10.5588789625 -2.5000019808
17.5291690269 -10.2681517651 -2.5000019808
19.4808499937 -16.5131019054 -2.5000019836
19.3192814215 -13.0608208678 -2.5000019836
17.3267321424 -10.0534845394 -2.5000019836
19.3716799862 -13.1475334002 -2.5000019865
17.2217460951 -9.9337213375 -2.5000019865
17.6504081258 -10.2836495169 -2.5000019894
19.6125600366 -16.2168917564 -2.5000019923
19.5166942099 -13.3949587773 -2.5000019952
17.1275505169 -9.7657751044 -2.5000019952
19.6065212190 -13.5582538501 -2.5000020009
19.7040618160 -13.7846197422 -2.5000020067
19.5947988498 -13.3120460695 -2.5000020067
15.3108422455 -11.5607910433 -2.5000022622
18.4706913889 -14.0590474691 -2.5000025274
18.4497708578 -13.9788968163 -2.5000025274
18.4399252750 -17.0123557914 -2.5000025331
18.4509153708 -13.8924419833 -2.5000025331
18.4439598221 -13.7025132352 -2.5000025446
18.4386220047 -17.2577370060 -2.5000025504
18.4509108454 -17.3695320493 -2.5000025619
18.4525472102 -13.4310135544 -2.5000025677
18.4510454617 -13.3584700159 -2.5000025735
18.4448838837 -13.3424764523 -2.5000025735
18.4516947630 -13.2286597006 -2.5000025850
18.4449305066 -17.7174157625 -2.5000025908
18.4406107660 -17.8485513948 -2.5000026023
18.4433334177 -13.0242702805 -2.5000026023
18.4361832502 -13.0083009929 -2.5000026023
18.4698267523 -17.8423743694 -2.5000026080
18.4481336903 -17.9485351265 -2.5000026138
18.4397898642 -18.0227883072 -2.5000026196
18.4334461042 -12.7756156342 -2.5000026253
18.1387850815 -18.9287135521 -2.5000026657
18.2399387922 -18.7764168749 -2.5000026657
18.2791314316 -18.7146715851 -2.5000026657
18.3080449512 -18.6680606462 -2.5000026657
18.4440109003 -12.3818035600 -2.5000026714
17.9272784034 -19.2971631047 -2.5000026772
17.9386868453 -19.2826929545 -2.5000026772
18.8535852766 -12.1731035052 -2.5000027809
18.7342145298 -11.9688793509 -2.5000027809
17.9672397023 -10.9448384661 -2.5000027809
17.9583688411 -10.8993874116 -2.5000027867
17.7804160285 -10.7136981617 -2.5000027867
17.8254846359 -10.7248619236 -2.5000027925
19.2794632933 -12.8265525216 -2.5000028040
13.7092470702 -11.5819065859 -2.5000011921
13.7870806311 -11.5686583518 -2.5000011921
13.9773785522 -11.5774977068 -2.5000011921
13.9277496967 -11.5679588196 -2.5000011921
14.1063288052 -11.5803463816 -2.5000011921
14.0567246292 -11.5692814957 -2.5000011921
14.2791866551 -11.5736738505 -2.5000011921
14.4539583525 -11.5741713650 -2.5000011921
14.2415465906 -11.5137451469 -2.5000011921
14.7797222632 -11.5600943042 -2.5000011921
14.8973706493 -11.5552795435 -2.5000011921
14.9690791424 -11.5594561251 -2.5000011921
14.9316688674 -11.5434468190 -2.5000011921
15.2816051002 -11.5730162764 -2.5000011921
14.6967207711 -11.0427387572 -2.5000011921
14.5280807978 -10.9906939359 -2.5000011921
18.4279022229 -17.2272014962 -2.5000011921
18.4321990176 -17.2115715566 -2.5000011921
18.4448117236 -17.1646064319 -2.5000011921
18.4609793867 -17.1018156685 -2.5000011921
18.4649051228 -17.0860884294 -2.5000011921
18.4338278024 -14.3281553649 -2.5000011921
18.4424303071 -17.2650027408 -2.5000011921
18.4485102942 -14.2904138260 -2.5000011921
18.4351987217 -14.2434189789 -2.5000011921
18.4381469701 -17.3657527618 -2.5000011921
18.4446388525 -14.1896471368 -2.5000011921
18.4399499388 -14.1739809779 -2.5000011921
18.4352147024 -14.1583287582 -2.5000011921
18.4291276028 -17.5525501637 -2.5000011921
18.4467273807 -14.0341424387 -2.5000011921
18.4540504706 -13.9794586140 -2.5000011921
18.4557078531 -13.8378537885 -2.5000011921
18.4469105084 -17.7887953524 -2.5000011921
18.4761287261 -13.6863886196 -2.5000011921
18.4352870002 -18.1327151644 -2.5000011921
18.4422624359 -18.1170594173 -2.5000011921
18.4503019251 -18.1582860862 -2.5000011921
18.4754330731 -13.2567534916 -2.5000011921
18.0543429401 -19.1110206647 -2.5000011921
18.1605441375 -18.9495748557 -2.5000011921
18.2253695235 -18.8450711959 -2.5000011921
18.2434922631 -18.8149686106 -2.5000011921
18.0543675967 -19.1537284995 -2.5000011921
18.1997713525 -18.9326874233 -2.5000011921
18.7487621793 -17.8095439426 -2.5000011921
18.7607492318 -17.7763629140 -2.5000011921
18.7725397643 -17.7431115467 -2.5000011921
18.8622102992 -17.5493882849 -2.5000011921
17.9378360341 -19.3972991962 -2.5000011921
18.9111299179 -17.4715093127 -2.5000011921
18.4688521836 -12.4844861783 -2.5000011921
18.4696745957 -12.2171910853 -2.5000011921
18.7265742252 -11.9497316553 -2.5000011921
18.7152580029 -11.9332412812 -2.5000011921
18.6924794617 -11.9003613196 -2.5000011921
18.6695067903 -11.8676166991 -2.5000011921
18.2631691349 -11.3478738819 -2.5000011921
18.2105232323 -11.2876396046 -2.5000011921
18.1705730947 -11.2428750043 -2.5000011921
18.0796894012 -11.1086581813 -2.5000011921
18.0275813753 -11.0193488209 -2.5000011921
17.8121849118 -10.8075026863 -2.5000011921
19.2024443474 -12.6015754736 -2.5000011921
19.1836113692 -12.5658014571 -2.5000011921
17.7246924083 -10.6940123124 -2.5000011921
17.6186730736 -10.6003032153 -2.5000011921
17.5883043302 -10.5424015004 -2.5000011921
19.2917709906 -12.6697340524 -2.5000011921
17.3818346722 -10.3123244884 -2.5000011921
17.8349481321 -10.6636379537 -2.5000011921
14.9835459716 -14.9014219491 -2.5000011921
14.6555856578 -11.5681384022 -2.5000011921
14.5753473860 -11.5449270673 -2.5000011921
14.7560598008 -11.5740009120 -2.5000011921
15.3281233553 -11.5605588762 -2.5000011921
15.2879619697 -11.5428070915 -2.5000011921
15.5698396975 -11.5681990571 -2.5000011921
18.4400381322 -14.7131567078 -2.5000011921
18.4510378184 -14.6612485156 -2.5000011921
18.4420539289 -17.6118631037 -2.5000011921
18.4346512458 -14.5177994856 -2.5000011921
18.4466114239 -17.6797038037 -2.5000011921
18.4531222196 -14.4955377263 -2.5000011921
18.4352495455 -17.7934374621 -2.5000011921
18.4371879349 -14.3665772789 -2.5000011921
18.4390138120 -17.9997800946 -2.5000011921
18.4446789769 -17.9845924891 -2.5000011921
18.4406890907 -14.0909086109 -2.5000011921
18.4331636028 -14.0061518239 -2.5000011921
18.4270149185 -13.9909989982 -2.5000011921
18.4208214364 -13.9758644277 -2.5000011921
18.4178489675 -13.9060590294 -2.5000011921
18.4360722823 -13.8263161928 -2.5000011921
18.4242101081 -13.7406713629 -2.5000011921
18.2796898225 -18.7584161733 -2.5000011921
18.2954663340 -18.7289536069 -2.5000011921
18.3864401860 -18.5502652357 -2.5000011921
18.1241612551 -19.0746842818 -2.5000011921
18.1330075586 -19.0604233639 -2.5000011921
18.1592928106 -19.0174844711 -2.5000011921
18.2107149937 -18.9309153575 -2.5000011921
18.4255510630 -13.6293717919 -2.5000011921
18.4253410025 -13.5734275834 -2.5000011921
18.8355277960 -17.5528583328 -2.5000011921
18.9002876982 -17.3942563497 -2.5000011921
18.9117564382 -17.3445738875 -2.5000011921
18.4385311023 -13.4912907816 -2.5000011921
18.4479596066 -13.3516367091 -2.5000011921
18.4448254795 -13.2946146743 -2.5000011921
18.4494602323 -13.2526322601 -2.5000011921
18.4770427307 -12.4732615386 -2.5000011921
18.3176071211 -11.4299760360 -2.5000011921
18.2483262691 -11.3563866998 -2.5000011921
18.2343399091 -11.3417922502 -2.5000011921
18.9562299914 -12.1886468442 -2.5000011921
18.9214996643 -12.1386729151 -2.5000011921
18.8863272143 -12.0890091661 -2.5000011921
18.0945454234 -11.1667066642 -2.5000011921
17.9621316345 -11.0410199853 -2.5000011921
17.8423474283 -10.9007198652 -2.5000011921
19.2386758520 -12.5394561648 -2.5000011921
19.2070476385 -12.4869618728 -2.5000011921
19.1093854733 -12.3311919211 -2.5000011921
17.6710498635 -10.7243080184 -2.5000011921
19.3618335810 -12.7046623540 -2.5000011921
19.3518307921 -12.6867680491 -2.5000011921
17.4437414061 -10.5166330138 -2.5000011921
17.4272744232 -10.5044223460 -2.5000011921
17.3417428352 -10.4124957521 -2.5000011921
17.5056496037 -10.5025799805 -2.5000011921
19.5795665905 -12.9626236626 -2.5000011921
13.3403990001 -11.6035452544 -2.5000011921
18.4487311311 -17.6390919060 -2.5000011921
18.4525093698 -17.6245076986 -2.5000011921
18.4635850001 -17.5806889098 -2.5000011921
15.1941193095 -11.5445554196 -2.5000011921
18.4484368754 -17.7328676686 -2.5000011921
18.4565050077 -17.7036882405 -2.5000011921
18.4644003635 -17.6744615893 -2.5000011921
15.3159534643 -11.5628693591 -2.5000011921
18.4463590914 -17.8270355837 -2.5000011921
18.4634369633 -17.7686474974 -2.5000011921
15.3812745683 -11.5619151915 -2.5000011921
18.4331269040 -17.9506544149 -2.5000011921
15.4610377947 -11.5675586045 -2.5000011921
18.4465435601 -17.9872963818 -2.5000011921
18.4513518602 -17.9727171220 -2.5000011921
18.4608389714 -17.9435162501 -2.5000011921
18.4655176994 -17.9288948935 -2.5000011921
18.4337547227 -14.6837842156 -2.5000011921
18.4466232088 -14.6468271510 -2.5000011921
18.4426983642 -18.2824192931 -2.5000011921
18.4391696238 -14.4177665014 -2.5000011921
18.4419451008 -18.3496073393 -2.5000011921
18.4500639667 -14.3797103115 -2.5000011921
15.8030359225 -11.5597194249 -2.5000011921
18.3303924434 -18.6617462461 -2.5000011921
18.4365132806 -14.2831442128 -2.5000011921
15.8702588053 -11.5653613648 -2.5000011921
18.3314299885 -18.7149880442 -2.5000011921
18.4274730802 -14.2009462195 -2.5000011921
15.9235077144 -11.5647963516 -2.5000011921
15.9093281372 -11.5577087894 -2.5000011921
16.0702209347 -11.5589690704 -2.5000011921
18.4209539270 -13.9571387840 -2.5000011921
18.4211035771 -13.9029291535 -2.5000011921
18.4132405008 -13.8340442746 -2.5000011921
18.4180716313 -13.7391805954 -2.5000011921
18.4103133612 -13.7247041481 -2.5000011921
16.4783985422 -11.5704549302 -2.5000011921
16.6859780133 -11.5886759517 -2.5000011921
18.4023741107 -12.9725375758 -2.5000011921
18.7104269960 -11.8723883328 -2.5000011921
18.6971451375 -11.8570552134 -2.5000011921
18.3218016040 -11.4583692725 -2.5000011921
18.9357040891 -12.1080436204 -2.5000011921
18.9104853453 -12.0760797996 -2.5000011921
18.8466150135 -11.9968278909 -2.5000011921
18.8207398393 -11.9653930975 -2.5000011921
18.7815795018 -11.9185293180 -2.5000011921
18.6885994204 -11.8105454936 -2.5000011921
18.2507622281 -11.3563691365 -2.5000011921
18.0856446738 -11.2051194786 -2.5000011921
18.0397662813 -11.1648091948 -2.5000011921
17.9625131476 -11.0985352358 -2.5000011921
19.0417978153 -12.2065605523 -2.5000011921
18.9798429808 -12.1253522090 -2.5000011921
19.2287143256 -12.4250071046 -2.5000011921
17.6400259451 -10.7819030262 -2.5000011921
17.5737989839 -10.7335490503 -2.5000011921
19.3290463722 -12.5307509374 -2.5000011921
19.4274382848 -12.6389704712 -2.5000011921
17.4499507659 -10.5876872692 -2.5000011921
19.5131400682 -12.7318873697 -2.5000011921
19.3465450163 -12.4696305726 -2.5000011921
14.9789164846 -15.0539776329 -2.5000011921
18.4461539320 -17.9114030137 -2.5000011921
18.4500397029 -17.8975885309 -2.5000011921
18.4724946253 -17.8144657507 -2.5000011921
18.4476439956 -15.2757377473 -2.5000011921
18.4437329854 -15.2619303888 -2.5000011921
18.4533835073 -17.9733988010 -2.5000011921
18.4614808276 -17.9457145435 -2.5000011921
18.4508492518 -15.1999214930 -2.5000011921
18.4467139494 -15.1861049845 -2.5000011921
18.4425377933 -15.1723007695 -2.5000011921
18.4571480719 -15.1375590807 -2.5000011921
18.4535704812 -15.0471656665 -2.5000011921
18.4625722585 -14.9979523924 -2.5000011921
18.4530656778 -14.9702658464 -2.5000011921
18.4433954605 -14.9426360291 -2.5000011921
18.4462608441 -14.8792284545 -2.5000011921
18.4411768937 -14.8654269225 -2.5000011921
18.4535072434 -14.8293462045 -2.5000011921
18.4430032905 -14.8017162411 -2.5000011921
15.0126548251 -11.5503271030 -2.5000011921
14.9678736819 -11.5395703415 -2.5000011921
14.9529256382 -11.5360731202 -2.5000011921
12.8044136925 -11.4935408873 -2.5000011921
12.4304433339 -11.5794231298 -2.5000011921
12.4156242844 -11.5834319121 -2.5000011921
12.3712391952 -11.5957210361 -2.5000011921
12.3564686169 -11.5999048836 -2.5000011921
18.4340543224 -14.2444564006 -2.5000011921
15.1378905000 -11.5576136986 -2.5000011921
15.1080879077 -11.5496572981 -2.5000011921
15.0333800517 -11.5305389095 -2.5000011921
12.2906150390 -11.5939084241 -2.5000011921
18.4416120861 -14.2059450277 -2.5000011921
15.1890158370 -11.5465989061 -2.5000011921
15.1441946632 -11.5342771863 -2.5000011921
12.2540430927 -11.5796698013 -2.5000011921
15.3447942207 -11.5674579644 -2.5000011921
15.2553899633 -11.5404447045 -2.5000011921
15.2404432482 -11.5360969543 -2.5000011921
15.4264592143 -11.5682103345 -2.5000011921
12.1058866889 -11.5761559449 -2.5000011921
12.0318991501 -11.6014383744 -2.5000011921
17.1212577457 -12.4648506150 -2.5000011921
17.0845094517 -12.4353451727 -2.5000011921
15.5084430270 -11.5702844702 -2.5000011921
15.4787089140 -11.5601355348 -2.5000011921
15.4638194708 -11.5551270806 -2.5000011921
11.9499716487 -11.6051169748 -2.5000011921
18.4307995374 -13.9811096396 -2.5000011921
17.3756818720 -12.6518940297 -2.5000011921
17.3288215106 -12.6096024967 -2.5000011921
17.2695477416 -12.5575226589 -2.5000011921
15.5610089465 -11.5630541432 -2.5000011921
15.5013919638 -11.5423108887 -2.5000011921
11.9268416152 -11.5878763163 -2.5000011921
11.8972742654 -11.5989170297 -2.5000011921
11.8677727537 -11.6101324802 -2.5000011921
18.4362898869 -13.9416782983 -2.5000011921
17.3567259943 -12.6021301847 -2.5000011921
17.3449107426 -12.5915616571 -2.5000011921
15.6435928970 -11.5673116599 -2.5000011921
15.6287239606 -11.5618154177 -2.5000011921
11.8147894817 -11.6047903406 -2.5000011921
15.5921665049 -11.5228318047 -2.5000011921
11.7468063733 -11.6059854575 -2.5000011921
18.4219571165 -13.8210301698 -2.5000011921
11.7228804842 -11.5896578125 -2.5000011921
15.8334878893 -11.5635347302 -2.5000011921
11.6543946593 -11.5920788686 -2.5000011921
15.9022421399 -11.5659404292 -2.5000011921
15.9414777096 -11.5563855171 -2.5000011921
15.8066888373 -11.5005816449 -2.5000011921
16.0255746094 -11.5668662602 -2.5000011921
16.0652603632 -11.5582433697 -2.5000011921
16.1497710218 -11.5707638136 -2.5000011921
16.1302244607 -11.5349030288 -2.5000011921
18.4111885090 -13.4015269474 -2.5000011921
16.3856600890 -11.5798810936 -2.5000011921
16.4561816968 -11.5897746368 -2.5000011921
16.4413756546 -11.5818745116 -2.5000011921
16.4116937842 -11.5662058306 -2.5000011921
16.4675927741 -11.5684644843 -2.5000011921
18.4127442883 -13.2360906082 -2.5000011921
16.7790011885 -11.6064572260 -2.5000011921
16.8210286651 -11.6036628432 -2.5000011921
16.9626860236 -11.6066256007 -2.5000011921
17.1915140496 -11.6131890344 -2.5000011921
17.1767740540 -11.6031135607 -2.5000011921
17.3213890860 -11.6154823681 -2.5000011921
17.3937967988 -11.6079919362 -2.5000011921
17.3790405442 -11.5973180962 -2.5000011921
18.3240554143 -11.5539588796 -2.5000011921
18.7919379873 -11.9125076259 -2.5000011921
18.7780764277 -11.8976964991 -2.5000011921
18.7502221701 -11.8681975842 -2.5000011921
18.7221938745 -11.8388639806 -2.5000011921
18.7081147689 -11.8242594918 -2.5000011921
18.6939925221 -11.8096967153 -2.5000011921
18.6798272577 -11.7951757788 -2.5000011921
18.6227385099 -11.7375129672 -2.5000011921
18.9863967524 -12.0929302029 -2.5000011921
18.9462744269 -12.0468873439 -2.5000011921
18.8096117096 -11.8960159667 -2.5000011921
18.7113209821 -11.7928426429 -2.5000011921
18.2201876801 -11.3348775695 -2.5000011921
18.1733682349 -11.2956642373 -2.5000011921
18.0468341807 -11.1931424998 -2.5000011921
18.0308478690 -11.1805386723 -2.5000011921
18.0148243430 -11.1679821904 -2.5000011921
17.9987637427 -11.1554731639 -2.5000011921
17.9179095580 -11.0936436796 -2.5000011921
17.8853133083 -11.0692478730 -2.5000011921
17.8689612007 -11.0571223956 -2.5000011921
19.1615970324 -12.2654667419 -2.5000011921
19.0708806233 -12.1549260686 -2.5000011921
17.8833307337 -11.0376839851 -2.5000011921
17.8007470280 -10.9775746838 -2.5000011921
17.7674661257 -10.9538740815 -2.5000011921
19.3555217387 -12.4777163269 -2.5000011921
19.3310889670 -12.4447909002 -2.5000011921
19.2691585553 -12.3631147804 -2.5000011921
17.7646787701 -10.9223247246 -2.5000011921
17.6973261090 -10.8755514799 -2.5000011921
17.6804018350 -10.8639829501 -2.5000011921
17.5952712210 -10.8068940458 -2.5000011921
17.5093055519 -10.7510705008 -2.5000011921
17.4920138633 -10.7400587145 -2.5000011921
19.4473515383 -12.5633518285 -2.5000011921
19.4354124258 -12.5465990221 -2.5000011921
19.4234238077 -12.5298816071 -2.5000011921
19.3992984749 -12.4965535361 -2.5000011921
19.3381261916 -12.4138629093 -2.5000011921
17.7279455983 -10.8672744013 -2.5000011921
17.6599441278 -10.8209396545 -2.5000011921
17.5913991635 -10.7754127764 -2.5000011921
19.6069125382 -12.7538005696 -2.5000011921
19.5262120091 -12.6339345822 -2.5000011921
17.2886403519 -10.5598156871 -2.5000011921
19.7275306712 -12.8975746567 -2.5000011921
19.5106582447 -12.5691966947 -2.5000011921
17.1747335999 -10.4672827356 -2.5000011921
17.6311637768 -10.7147679657 -2.5000011921
17.0400984729 -10.3672133401 -2.5000011921
17.0143144242 -10.3265470767 -2.5000011921
19.9792275250 -13.1845310948 -2.5000011921
20.2533290300 -13.5643140588 -2.5000011921
16.4241423838 -9.9511393593 -2.5000011921
18.4518973022 -15.4187651317 -2.5000011921
18.4478545723 -15.4058176170 -2.5000011921
18.4370235173 -15.2948969650 -2.5000011921
18.4464978155 -15.2482420649 -2.5000011921
18.4419506712 -15.2353112690 -2.5000011921
18.4413129382 -15.1624730910 -2.5000011921
18.4493912190 -15.1151807960 -2.5000011921
18.4429300648 -14.9679578859 -2.5000011921
18.4434163497 -14.9068599613 -2.5000011921
18.4458933558 -14.7349558441 -2.5000011921
18.4398278206 -14.7220290821 -2.5000011921
18.4555619974 -14.6987549779 -2.5000011921
18.4493893312 -14.6857997727 -2.5000011921
18.4369291627 -14.6599444252 -2.5000011921
18.4482844882 -14.5738741360 -2.5000011921
18.4512399618 -14.4740475393 -2.5000011921
18.4378923285 -14.3979685747 -2.5000011921
18.4448817556 -14.3604851965 -2.5000011921
18.4431529990 -14.2591244913 -2.5000011921
18.4329687861 -14.0543720137 -2.5000011921
15.4614981678 -11.5781136202 -2.5000011921
15.4307041774 -11.5699900300 -2.5000011921
15.4152892937 -11.5659965910 -2.5000011921
15.3998626641 -11.5620487695 -2.5000011921
15.2294331914 -11.5216430814 -2.5000011921
15.1827323114 -11.5115877224 -2.5000011921
12.5677440467 -11.6107177570 -2.5000011921
15.5140398286 -11.5673414489 -2.5000011921
15.3903134320 -11.5347018807 -2.5000011921
12.4996630112 -11.6057638363 -2.5000011921
15.6285639651 -11.5751355099 -2.5000011921
12.4619138423 -11.5920779627 -2.5000011921
12.4159470134 -11.6065800118 -2.5000011921
15.6818117787 -11.5660468072 -2.5000011921
12.3625315011 -11.5985353100 -2.5000011921
12.3241977069 -11.5858370231 -2.5000011921
15.8663094201 -11.5754389696 -2.5000011921
15.8354925207 -11.5649204269 -2.5000011921
12.2241852452 -11.5949253400 -2.5000011921
12.2088581545 -11.6004172549 -2.5000011921
12.1935473769 -11.6059544860 -2.5000011921
12.1852925759 -11.5832345929 -2.5000011921
16.0057680370 -11.5740084659 -2.5000011921
12.0693930078 -11.6008916398 -2.5000011921
11.9839712536 -11.6086800641 -2.5000011921
15.9134692701 -11.4894444879 -2.5000011921
16.2322910548 -11.5852017836 -2.5000011921
16.1861147314 -11.5662441207 -2.5000011921
11.8028177284 -11.6063266115 -2.5000011921
16.3434788322 -11.5800374043 -2.5000011921
16.2353450621 -11.5341405953 -2.5000011921
11.7931028336 -11.5841916595 -2.5000011921
11.7470923550 -11.6046293416 -2.5000011921
11.6911588416 -11.6035154923 -2.5000011921
16.4709012431 -11.5842681984 -2.5000011921
16.5732380923 -11.6058798481 -2.5000011921
16.5579243781 -11.5985064301 -2.5000011921
16.5425889189 -11.5911783452 -2.5000011921
