-0.0133686528 -33.4487637813 -2.5008041859
0.0314109674 -33.4595268814 -2.5008041859
2.5688469310 -33.4200332591 -2.5008041859
2.6280533760 -33.4037437332 -2.5008041859
-3.4343867698 -30.7541502219 -2.5008041859
-0.0490602141 -33.4648116788 -2.5008041859
2.6790859436 -33.4142770585 -2.5008041859
2.7086772749 -33.4055677573 -2.5008041859
-0.2046454700 -33.4482693309 -2.5008041859
-0.1897301906 -33.4524670148 -2.5008041859
-0.1598627056 -33.4607299249 -2.5008041859
-0.1449107614 -33.4647950788 -2.5008041859
-0.2710383539 -33.4542177612 -2.5008041859
2.8709845248 -33.4053141173 -2.5008041859
-0.3825338148 -33.4452580432 -2.5008041859
-0.3377707688 -33.4592974151 -2.5008041859
2.9230443479 -33.4133689518 -2.5008041859
3.0197909834 -33.4051322903 -2.5008041859
3.1785319996 -33.4230567898 -2.5008041859
-3.4098716219 -31.2449611877 -2.5008041859
-0.7895061372 -33.4534880089 -2.5008041859
-0.9123685471 -33.4552887874 -2.5008041859
-1.0114150987 -33.4387095648 -2.5008041859
-1.1905970843 -33.4358368109 -2.5008041859
-2.2778042499 -33.4145360406 -2.5008041859
-3.6234258058 -33.2610669225 -2.5008041859
-3.5656668277 -33.3180583729 -2.5008041859
-3.5511220299 -33.3321991356 -2.5008041859
-3.1586766323 -33.6843809473 -2.5008041859
-3.7402970655 -33.1764506218 -2.5008041859
-4.0053306815 -32.9213955915 -2.5008041859
-3.9785384140 -32.9522421701 -2.5008041859
-3.9515641167 -32.9829296969 -2.5008041859
-3.8970732158 -33.0438233035 -2.5008041859
-3.8833382049 -33.0589456261 -2.5008041859
-2.9982093100 -33.8747934012 -2.5008041859
-2.9820200722 -33.8872530860 -2.5008041859
-2.9005249203 -33.9488301658 -2.5008041859
-2.8181279338 -34.0091951652 -2.5008041859
-2.7849206567 -34.0329988154 -2.5008041859
-2.5446146222 -34.2254853140 -2.5008041859
-4.1479920716 -32.8271604087 -2.5008041859
-3.9604361106 -33.0456963477 -2.5008041859
-2.5404677896 -34.2569315687 -2.5008041859
-2.4360732427 -34.3227840637 -2.5008041859
-2.7594598708 -34.1395735519 -2.5008041859
-2.1393145326 -34.5514952042 -2.5008041859
-4.6449978373 -32.3192853226 -2.5008041859
0.5030248171 -29.2411206881 -2.4996049653
-3.4500257345 -29.6666114910 -2.4996058010
-3.4419556517 -29.7649836348 -2.4996058067
-3.4554911789 -29.7989920428 -2.4996058125
-3.4687764267 -29.8332143557 -2.4996058183
-3.4493971113 -29.8851140513 -2.4996058183
-3.4518972127 -29.9456373290 -2.4996058240
-3.4467774848 -29.9585832703 -2.4996058240
-3.4544228464 -30.0675454415 -2.4996058355
-3.4536063324 -30.1905281859 -2.4996058471
-3.4477621657 -30.2034781117 -2.4996058471
-3.4398366970 -30.2782658378 -2.4996058528
-3.4369385102 -30.3403505167 -2.4996058586
-3.4285539875 -30.4651619208 -2.4996058701
-3.4366263329 -30.5020885195 -2.4996058759
-3.4308413929 -30.6152280326 -2.4996058874
-3.4281811711 -30.7669815008 -2.4996059047
-0.3844573140 -33.4421715104 -2.4996059854
-0.3690076270 -33.4460281109 -2.4996059854
-0.3225910619 -33.4573234605 -2.4996059854
2.0150734546 -33.4932437101 -2.4996059854
2.3248887653 -33.4196811988 -2.4996059854
2.3862992309 -33.4027764819 -2.4996059854
2.4016202570 -33.3984368558 -2.4996059854
-0.4832140714 -33.4414101677 -2.4996059912
-0.4368339906 -33.4537192173 -2.4996059912
-0.4213499143 -33.4577307070 -2.4996059912
-0.4058540390 -33.4616963744 -2.4996059912
2.4236192746 -33.4172805121 -2.4996059912
2.4543335800 -33.4083349049 -2.4996059912
2.4696707512 -33.4037939966 -2.4996059912
2.1190788713 -33.5202686501 -2.4996059969
2.5533901150 -33.4034737628 -2.4996059969
-0.6509754431 -33.4436961087 -2.4996060027
-0.6200510437 -33.4529403740 -2.4996060027
2.6067570338 -33.4118347529 -2.4996060027
2.6221038913 -33.4068429332 -2.4996060027
2.6374359150 -33.4018057365 -2.4996060027
2.7064630802 -33.4040669497 -2.4996060084
-0.7891847931 -33.4508301114 -2.4996060142
-0.7582157677 -33.4608919448 -2.4996060142
2.7604388326 -33.4108631906 -2.4996060142
2.7757821436 -33.4054167566 -2.4996060142
-0.8896710080 -33.4423782290 -2.4996060200
2.7992966587 -33.4226692331 -2.4996060200
-0.9749730895 -33.4376487642 -2.4996060257
-0.9595341979 -33.4432522370 -2.4996060257
2.8999043423 -33.4112149952 -2.4996060257
2.9305744262 -33.3994516317 -2.4996060257
-1.0605308806 -33.4315332071 -2.4996060315
-0.9987431766 -33.4546855185 -2.4996060315
-0.9832537832 -33.4603592330 -2.4996060315
2.9853707357 -33.4039327396 -2.4996060315
-1.1155052916 -33.4361982324 -2.4996060373
-1.1000700761 -33.4422174312 -2.4996060373
-1.1707183375 -33.4402960855 -2.4996060430
-1.2570241148 -33.4309928295 -2.4996060488
3.1511563736 -33.4139615517 -2.4996060488
3.1665071406 -33.4073592909 -2.4996060488
3.2068644736 -33.4161537090 -2.4996060546
3.2375584043 -33.4025741799 -2.4996060546
-1.3840355487 -33.4288444519 -2.4996060603
3.3496222307 -33.4045472687 -2.4996060661
-1.4810651789 -33.4379891753 -2.4996060718
-1.5684117097 -33.4235980373 -2.4996060776
-1.5530117861 -33.4309570704 -2.4996060776
-1.5375901606 -33.4382705155 -2.4996060776
3.5995464380 -33.3348276846 -2.4996060776
3.6748834867 -33.2947399436 -2.4996060776
3.7347210815 -33.2618702087 -2.4996060776
2.8732229267 -33.6786374996 -2.4996060834
2.9054756389 -33.6670273120 -2.4996060834
2.9537245034 -33.6492547569 -2.4996060834
3.9973550398 -33.1348577319 -2.4996060834
3.8331132773 -33.2616739374 -2.4996060891
-1.6928677582 -33.4433089608 -2.4996060949
-1.7655670805 -33.4334207439 -2.4996061007
-1.8651826870 -33.4356470620 -2.4996061122
-2.0235236721 -33.4312176817 -2.4996061295
-2.1369223421 -33.4495755693 -2.4996061468
-2.2824728702 -33.4468083875 -2.4996061641
-3.7971818160 -33.1251907487 -2.4996063254
-3.0556734667 -33.7443831612 -2.4996063254
-3.0229280155 -33.7678491651 -2.4996063254
-3.9148337059 -33.0433797718 -2.4996063312
-3.8862205894 -33.0719411249 -2.4996063312
-3.8718507892 -33.0861581945 -2.4996063312
-3.6961740004 -33.2534073100 -2.4996063312
-3.6663221174 -33.2806713231 -2.4996063312
-3.6513358177 -33.2942369799 -2.4996063312
-3.6363094538 -33.3077582452 -2.4996063312
-4.1961255845 -32.7798410949 -2.4996063370
-3.6069736613 -33.3661900896 -2.4996063370
-2.8671364296 -33.9336922869 -2.4996063370
-2.7992804728 -33.9781860403 -2.4996063370
-4.3078012322 -32.6884772105 -2.4996063427
-2.7265616122 -34.0531539982 -2.4996063427
-4.4307949425 -32.5786062979 -2.4996063485
-4.3394270481 -32.6886090942 -2.4996063485
-4.1221714306 -32.9327769330 -2.4996063485
-2.4344558704 -34.2816155215 -2.4996063542
-4.7857496334 -32.2292158122 -2.4996063658
-4.7379275195 -32.2965308120 -2.4996063658
-2.1653870674 -34.4772089573 -2.4996063658
-1.5214988707 -34.9365397074 -2.4996064061
0.2634497881 -29.2387354163 -2.5001741414
0.1209887974 -29.2392328290 -2.5001741645
-3.4536130502 -29.1654765577 -2.5001755707
-3.4438824431 -29.2014429697 -2.5001755707
-3.4570810640 -29.2439446432 -2.5001755822
-3.4536408602 -29.2559529404 -2.5001755822
-3.4403112658 -29.3828318915 -2.5001755938
-3.4555501431 -29.4142485600 -2.5001756053
-3.4395613962 -29.4621899162 -2.5001756053
-3.4415476790 -29.5299659910 -2.5001756168
-3.4514087979 -29.6426072540 -2.5001756399
-3.4407148147 -29.7353668147 -2.5001756514
-3.4403358652 -29.9775480267 -2.5001756975
-3.4495720093 -30.0702768622 -2.5001757206
-3.4506153256 -30.1759257900 -2.5001757436
-3.4293601731 -30.3183403267 -2.5001757667
-3.4518632865 -30.4739618672 -2.5001758128
0.5222226235 -33.4209846436 -2.5001761125
0.7115811395 -33.4205259659 -2.5001761125
-0.7901061651 -33.4363223384 -2.5001762047
-0.7742758190 -33.4404228981 -2.5001762047
1.8494026408 -33.4728759372 -2.5001762047
2.1185648197 -33.4034622010 -2.5001762047
2.1342852328 -33.3989585296 -2.5001762047
-0.8438269294 -33.4470766364 -2.5001762162
2.2039977513 -33.4036269294 -2.5001762162
-0.9612865128 -33.4391506077 -2.5001762277
-0.9454470513 -33.4437575374 -2.5001762277
-1.0474033339 -33.4385125229 -2.5001762393
-1.1338421505 -33.4364928582 -2.5001762508
-1.1889197435 -33.4437831346 -2.5001762623
-1.2759629701 -33.4394866419 -2.5001762738
-1.2601211376 -33.4450244400 -2.5001762738
2.5729263794 -33.4073914060 -2.5001762738
2.6200642844 -33.3897086206 -2.5001762738
2.7161205191 -33.4042410089 -2.5001762969
2.8037886172 -33.3947511276 -2.5001763084
2.8759570767 -33.3905704274 -2.5001763199
-1.5566106945 -33.4629740317 -2.5001763315
-1.6705060106 -33.4683123877 -2.5001763545
3.1457439181 -33.4009910597 -2.5001763776
3.1876981458 -33.4076048989 -2.5001763891
3.2034261358 -33.3999385196 -2.5001763891
3.3460904152 -33.4094422798 -2.5001764237
3.6189921159 -33.3156253655 -2.5001764467
3.6806485049 -33.2795843311 -2.5001764467
3.7418741233 -33.2428162728 -2.5001764467
2.8743348460 -33.7054245417 -2.5001764583
2.9075355643 -33.6918940406 -2.5001764583
2.9241057589 -33.6850551891 -2.5001764583
2.9736939453 -33.6642449496 -2.5001764583
3.1376181755 -33.5917146045 -2.5001764583
3.8002556839 -33.2353031965 -2.5001764583
3.8609489741 -33.1971229904 -2.5001764583
3.9211862495 -33.1582273060 -2.5001764583
3.9511312434 -33.1385128573 -2.5001764583
3.9809590760 -33.1186215891 -2.5001764583
4.1428714478 -33.0060903864 -2.5001764583
2.7661047752 -33.7738245817 -2.5001764698
4.2006767148 -32.9939876044 -2.5001764698
4.3300285054 -32.8965027382 -2.5001764698
-2.2313576752 -33.4972046072 -2.5001764813
4.5828278117 -32.7214625902 -2.5001764813
2.3885486403 -33.9539141613 -2.5001764928
4.5985741289 -32.7398034947 -2.5001764928
2.2557040530 -34.0177868303 -2.5001765044
-2.3937599291 -33.4920144328 -2.5001765159
1.9714074366 -34.1640677363 -2.5001765389
-2.6300508381 -33.4953574886 -2.5001765735
-3.1557118904 -33.5012398160 -2.5001767118
-3.6369734532 -33.2900360129 -2.5001767695
-3.0598993559 -33.7113457535 -2.5001767695
-3.0432455095 -33.7221595686 -2.5001767695
-3.9535579897 -33.0479695699 -2.5001767810
-3.8945385040 -33.1015492039 -2.5001767810
-3.5745485138 -33.3711533167 -2.5001767810
-3.0060468905 -33.7747139146 -2.5001767810
-2.9384945597 -33.8170312806 -2.5001767810
-4.2144016483 -32.8295563483 -2.5001767925
-4.1151702581 -32.9283081694 -2.5001767925
-4.0864448933 -32.9561435287 -2.5001767925
-3.9846198446 -33.0522187619 -2.5001767925
-2.6576411865 -34.0090342297 -2.5001767925
-2.6225473926 -34.0282274429 -2.5001767925
-2.5520222192 -34.0659893172 -2.5001767925
-2.5277508042 -34.1060006665 -2.5001768041
-2.1217176849 -34.3795372383 -2.5001768386
-2.0096073778 -34.4269223012 -2.5001768386
-4.9048916371 -32.2515113312 -2.5001768617
0.1425562828 -29.2306609920 -2.4999314965
0.2039993812 -29.2351561489 -2.4999314965
0.0304720168 -29.2389713018 -2.4999315138
0.2656488793 -29.2607299622 -2.4999315138
0.2242718692 -29.2843283499 -2.4999315311
-0.0720671240 -29.2651714025 -2.4999315484
-0.1495090399 -29.2673567307 -2.4999315657
-3.4485233731 -28.8810371464 -2.4999333465
-3.4379732596 -28.9248885352 -2.4999333465
-3.4369436640 -29.1127483895 -2.4999333811
-3.4628976598 -29.1928505478 -2.4999334157
-3.4413417109 -29.2587860535 -2.4999334157
-3.4370988874 -29.4809227053 -2.4999334676
-3.4363982997 -29.6088771511 -2.4999335021
-3.4364187756 -29.7271242794 -2.4999335367
-3.4349411490 -30.0000961785 -2.4999336232
-3.4519032584 -30.1678889853 -2.4999336923
-3.4196011934 -30.2225927049 -2.4999336923
1.8129262208 -33.3930356932 -2.4999346260
-1.0914243896 -33.4706317765 -2.4999346433
1.8993877452 -33.3926447164 -2.4999346433
-1.1943379071 -33.4690947406 -2.4999346606
-1.1620226733 -33.4776192228 -2.4999346606
-1.4082982663 -33.4833043590 -2.4999347124
2.1367436634 -33.4170959262 -2.4999347124
-1.5287778979 -33.4705009922 -2.4999347297
2.3448638370 -33.3922651383 -2.4999347470
2.4332778183 -33.3832922381 -2.4999347643
2.5471829089 -33.3884178013 -2.4999347989
-1.8605293114 -33.4800918770 -2.4999348162
-1.9179258932 -33.4834903301 -2.4999348335
-2.0657580224 -33.4748341120 -2.4999348680
2.8037296124 -33.4059506235 -2.4999348853
2.9363871450 -33.3954796392 -2.4999349199
2.9950060787 -33.3930937833 -2.4999349372
3.0378689412 -33.3983230310 -2.4999349545
-2.6226379886 -33.4772381973 -2.4999350409
-2.8306902230 -33.4736444340 -2.4999351101
3.2033323965 -33.5573167157 -2.4999351101
3.7915437974 -33.2029055221 -2.4999351101
3.9585786242 -33.0853469990 -2.4999351101
2.8633332168 -33.7512007905 -2.4999351274
3.9577272629 -33.1158390831 -2.4999351274
4.1070882579 -33.0043143935 -2.4999351274
4.1218414703 -32.9929199894 -2.4999351274
2.6671724458 -33.8622436627 -2.4999351447
2.7190009830 -33.8406744331 -2.4999351447
2.7706360645 -33.8186461037 -2.4999351447
4.2683928435 -32.9071294221 -2.4999351447
4.2972876949 -32.8833443899 -2.4999351447
4.3973009276 -32.7987593287 -2.4999351447
2.5717417359 -33.9265161528 -2.4999351620
2.4038965288 -34.0149938348 -2.4999351793
4.7203467546 -32.5673939437 -2.4999351793
-3.9622036240 -33.0710024096 -2.4999353349
-3.9171358534 -33.1082963317 -2.4999353349
-3.7645526146 -33.2296940010 -2.4999353349
-3.1370818281 -33.6585890960 -2.4999353349
-2.7452852472 -33.8766561560 -2.4999353349
-4.0523417162 -33.0262855514 -2.4999353522
-4.3298499761 -32.8069835446 -2.4999353695
-4.0082492067 -33.0955004093 -2.4999353695
-4.5418913920 -32.6294809919 -2.4999353867
-3.7131168176 -33.3897159642 -2.4999354040
-2.3413391617 -34.1719344185 -2.4999354040
-2.3048456179 -34.1872326444 -2.4999354040
-2.2499371945 -34.2097744883 -2.4999354040
-0.2128269627 -29.2388893890 -2.5000255702
-0.1280302113 -29.2445899278 -2.5000255702
0.0012442418 -29.2421770686 -2.5000255702
0.0417440974 -29.2386568773 -2.5000255702
0.0404808452 -29.2630835646 -2.5000255760
-0.4546617553 -29.2403534796 -2.5000255818
-0.3515251539 -29.2909897078 -2.5000255875
-3.4433630288 -29.7503488420 -2.5000261754
-3.4306700973 -29.9240445486 -2.5000261927
-3.4296663361 -30.1125671581 -2.5000262157
3.4495032450 -30.0262604382 -2.5000262445
3.4522014506 -30.0697840570 -2.5000262503
3.4513730979 -30.5154931639 -2.5000263079
-1.3761190382 -33.4707974059 -2.5000266134
1.4061699971 -33.4188670247 -2.5000266134
1.4222055510 -33.4144271868 -2.5000266134
-1.4790435343 -33.4704769920 -2.5000266192
-1.4304049996 -33.4826178867 -2.5000266192
1.5090108503 -33.4147060779 -2.5000266192
1.5730168475 -33.3954458142 -2.5000266192
-1.5661663571 -33.4726210280 -2.5000266249
1.4513349742 -33.4564753569 -2.5000266249
1.6281764027 -33.4035465199 -2.5000266249
-1.6536558277 -33.4733804555 -2.5000266307
1.7873585071 -33.4016588257 -2.5000266365
-1.8296465920 -33.4707044101 -2.5000266422
-1.8134435357 -33.4758364760 -2.5000266422
1.4709955841 -33.5262784941 -2.5000266422
1.8593782016 -33.4018501462 -2.5000266422
1.8753614335 -33.3960697109 -2.5000266422
-1.9342804629 -33.4618076441 -2.5000266480
-1.8532356356 -33.4885365392 -2.5000266480
-1.9744623464 -33.4736348587 -2.5000266537
-2.1203840805 -33.4727521228 -2.5000266653
2.1340141136 -33.3996400482 -2.5000266653
-2.2673118272 -33.4680057173 -2.5000266768
-2.2511148391 -33.4744324879 -2.5000266768
2.2487382387 -33.4037597579 -2.5000266768
-2.3411212313 -33.4641685739 -2.5000266826
-2.3989718319 -33.4662118893 -2.5000266883
-2.5899565146 -33.4613589655 -2.5000267056
-2.5575772753 -33.4760735557 -2.5000267056
-2.8095490003 -33.4635765635 -2.5000267287
-2.8527535160 -33.4689456470 -2.5000267344
2.8499078773 -33.3793821341 -2.5000267344
-3.0157221504 -33.4658891301 -2.5000267517
-3.7206635140 -33.2619664059 -2.5000267978
-3.6737871219 -33.2940086313 -2.5000267978
-3.5791905192 -33.3568388009 -2.5000267978
-3.0903121218 -33.6452803287 -2.5000267978
-2.9219035545 -33.7316488092 -2.5000267978
-4.0255761073 -33.0686010376 -2.5000268036
-3.9196974570 -33.1490716417 -2.5000268036
-2.7437954873 -33.8428616771 -2.5000268036
-4.2623723425 -32.9073018801 -2.5000268094
-4.2186220673 -32.9441654336 -2.5000268094
-4.1301487267 -33.0167205358 -2.5000268094
-4.1152785711 -33.0286598894 -2.5000268094
-2.6841655748 -33.8960165619 -2.5000268094
-4.3216144000 -32.8883283449 -2.5000268151
-4.2487904176 -32.9504295611 -2.5000268151
-2.5175998506 -33.9926648735 -2.5000268151
3.7385104473 -33.2149520523 -2.5000268151
3.7693211018 -33.1922296192 -2.5000268151
3.8152836739 -33.1578051790 -2.5000268151
3.8305364188 -33.1462398893 -2.5000268151
3.8457548847 -33.1346295298 -2.5000268151
2.9728214431 -33.7250763671 -2.5000268209
3.0066635653 -33.7068750792 -2.5000268209
3.8908923277 -33.1303837024 -2.5000268209
4.1000630428 -32.9612987785 -2.5000268209
4.1293666716 -32.9364417182 -2.5000268209
-4.6647749463 -32.6369742415 -2.5000268266
-2.3016723352 -34.1271625300 -2.5000268266
2.6912607926 -33.8934965623 -2.5000268266
2.7261042729 -33.8769581342 -2.5000268266
2.8127795662 -33.8347127268 -2.5000268266
4.2324033513 -32.8789429193 -2.5000268266
4.2612174190 -32.8533043306 -2.5000268266
4.3041528491 -32.8145279328 -2.5000268266
4.6699245501 -32.5242527982 -2.5000268382
4.6966324946 -32.4960318949 -2.5000268382
2.2276275623 -34.1936916519 -2.5000268497
-2.1009725234 -34.3229586212 -2.5000268555
-1.7803782295 -34.4162142945 -2.5000268555
4.4576610863 -32.8371831209 -2.5000268555
4.7805439678 -32.5479088684 -2.5000268612
1.6181780679 -34.4882676754 -2.5000268727
-0.2858197938 -29.2576924820 -2.4999998776
3.4553538602 -29.4203215886 -2.4999967654
3.4471139113 -30.0460532846 -2.4999965061
-1.8078648678 -33.4457004487 -2.4999952093
0.9829231642 -33.4349006005 -2.4999952093
-1.9099377588 -33.4437720653 -2.4999951834
-1.8779497758 -33.4524134240 -2.4999951834
1.0050805050 -33.4540494768 -2.4999951834
-2.0123731907 -33.4399155918 -2.4999951575
1.1395180177 -33.4417042170 -2.4999951575
1.1714403960 -33.4323040074 -2.4999951575
-2.0832002932 -33.4439731307 -2.4999951315
-2.0512080882 -33.4536395651 -2.4999951315
-2.1383449730 -33.4521744870 -2.4999951056
-2.1223315169 -33.4571944560 -2.4999951056
-2.1063032810 -33.4621670324 -2.4999951056
1.3453457281 -33.4283875254 -2.4999951056
1.4168125664 -33.4298267228 -2.4999950797
-2.3295000338 -33.4394535916 -2.4999950537
-2.3135233720 -33.4450390876 -2.4999950537
-2.4738016598 -33.4382951726 -2.4999950019
-2.5463328119 -33.4362821634 -2.4999949759
-2.8485687962 -33.4405984801 -2.4999948462
2.1554224102 -33.4132706811 -2.4999947944
-3.6836430726 -33.2984382017 -2.4999945610
-4.0476059708 -33.0849509897 -2.4999945350
-3.9120636474 -33.1793766354 -2.4999945350
-4.3403858771 -32.8927800172 -2.4999945091
-4.2971789082 -32.9272616086 -2.4999945091
-4.2098554873 -32.9950677199 -2.4999945091
-2.7392893585 -33.8278887008 -2.4999945091
-2.3199700398 -34.0285614113 -2.4999944572
-4.8851519542 -32.5013305228 -2.4999944313
-4.8320685460 -32.5536939304 -2.4999944313
-2.1665692491 -34.0999027871 -2.4999944313
-1.8578740421 -34.2542459146 -2.4999943535
3.7713132811 -33.1804468616 -2.4999940682
3.8167537044 -33.1429303456 -2.4999940682
3.8318263043 -33.1303354087 -2.4999940682
2.8612075132 -33.8342002505 -2.4999940423
4.0842099189 -32.9406071669 -2.4999940423
4.1561766703 -32.8732546172 -2.4999940423
2.6471907928 -33.9780397679 -2.4999940163
3.9382266696 -33.1032844419 -2.4999940163
4.3281566749 -32.7383550883 -2.4999940163
2.6230205205 -34.0176832653 -2.4999939904
4.6075659973 -32.5103513012 -2.4999939645
4.7816421517 -32.3440131964 -2.4999939385
2.4316761392 -34.2184895179 -2.4999938867
-0.4641502169 -29.2335621100 -2.4999983364
3.4411897316 -29.0069921011 -2.4999896540
3.4510777453 -28.9571399882 -2.4999896540
3.4534575251 -28.9446589510 -2.4999896540
3.4558003733 -28.9321709287 -2.4999896540
3.4648020453 -28.8821511738 -2.4999896540
3.4488466351 -29.0868049679 -2.4999895877
3.4596784957 -29.0368566675 -2.4999895877
3.4622940542 -29.0243498390 -2.4999895877
3.4579897154 -29.1546655411 -2.4999895214
3.4428437164 -29.3104164387 -2.4999894551
3.4519970972 -29.3668637421 -2.4999893889
3.4410472153 -29.4860731376 -2.4999893226
3.4488993650 -29.4611541649 -2.4999893226
3.4566039483 -29.4361891724 -2.4999893226
3.4395082646 -29.5682860012 -2.4999892563
3.4680472114 -29.4808844119 -2.4999892563
3.4835406588 -29.4306813334 -2.4999892563
3.4409351398 -29.7089080519 -2.4999891237
3.4546355833 -29.6715045006 -2.4999891237
3.4589307869 -29.7298304220 -2.4999890575
3.4682247736 -29.7048013779 -2.4999890575
3.4476948495 -29.8259384793 -2.4999889912
3.4618093917 -29.9191664952 -2.4999888586
3.4572800026 -29.9911910220 -2.4999887924
3.4571928204 -30.0509800212 -2.4999887261
3.4445819581 -30.1359751152 -2.4999886598
3.4519479963 -30.2318310197 -2.4999885272
3.4507509020 -30.3410545211 -2.4999883947
3.4457979440 -30.4022169616 -2.4999883284
3.4610874118 -30.5739762953 -2.4999880633
3.4530147886 -31.2083798976 -2.4999871354
3.4645523229 -31.2744476114 -2.4999870029
-2.1332429801 -33.4529849309 -2.4999864064
-2.1175392440 -33.4570036532 -2.4999864064
-2.0546074816 -33.4726134762 -2.4999864064
0.7030934726 -33.4252211268 -2.4999864064
0.7187026681 -33.4208495744 -2.4999864064
-2.2650107523 -33.4424267478 -2.4999863401
-2.2336516204 -33.4511974876 -2.4999863401
-2.1865170002 -33.4640053443 -2.4999863401
-2.1550315758 -33.4723113110 -2.4999863401
0.7252562140 -33.4441172841 -2.4999863401
0.8190455386 -33.4168000888 -2.4999863401
0.6529468040 -33.4889692087 -2.4999862738
0.8416632337 -33.4352125910 -2.4999862738
-2.4355278382 -33.4419097362 -2.4999862075
-2.3884676920 -33.4565094969 -2.4999862075
-2.3727524129 -33.4612832046 -2.4999862075
-2.3570230811 -33.4660104028 -2.4999862075
0.9427194533 -33.4288293286 -2.4999862075
0.9583382741 -33.4237489034 -2.4999862075
0.9739419977 -33.4186222972 -2.4999862075
-2.5056068812 -33.4447627522 -2.4999861412
0.9815212070 -33.4415764007 -2.4999861412
0.9971775661 -33.4363811371 -2.4999861412
1.0128184882 -33.4311395820 -2.4999861412
-2.5759860159 -33.4466955685 -2.4999860750
-2.5602989477 -33.4520240324 -2.4999860750
1.0754830250 -33.4608166140 -2.4999860087
1.0911958891 -33.4553433102 -2.4999860087
1.1225727005 -33.4442573783 -2.4999860087
1.1538833746 -33.4329860046 -2.4999860087
-2.6861977449 -33.4592222951 -2.4999859424
1.2248250032 -33.4325091379 -2.4999859424
-2.7731147420 -33.4528647201 -2.4999858761
-2.7416849629 -33.4646413910 -2.4999858761
1.2960230840 -33.4310904576 -2.4999858761
-2.8602616907 -33.4450933935 -2.4999858099
-2.9319589534 -33.4423280095 -2.4999857436
1.4235131041 -33.4319060464 -2.4999857436
-2.9882175851 -33.4451989541 -2.4999856773
-2.9725331405 -33.4517468800 -2.4999856773
1.4484594500 -33.4477072129 -2.4999856773
1.4641319021 -33.4411306348 -2.4999856773
1.4954180995 -33.4278385369 -2.4999856773
-3.0446969521 -33.4474867058 -2.4999856110
1.5362744997 -33.4365251579 -2.4999856110
1.5519134890 -33.4296888559 -2.4999856110
1.5675321869 -33.4228063208 -2.4999856110
-3.1170674287 -33.4422584795 -2.4999855447
-3.1013911188 -33.4491875794 -2.4999855447
-3.0542401650 -33.4696962166 -2.4999855447
1.4986894737 -33.4790044156 -2.4999855447
1.6086191270 -33.4309506511 -2.4999855447
-3.1582941013 -33.4502979495 -2.4999854785
1.7226370548 -33.4316944142 -2.4999854122
-3.3301953991 -33.4500506882 -2.4999852796
-3.3878728688 -33.4487639994 -2.4999852133
-3.8900306173 -33.1978479601 -2.4999851471
-3.8600900551 -33.2162371437 -2.4999851471
-3.6475336496 -33.3399572803 -2.4999851471
1.9529282707 -33.4259662582 -2.4999851471
-4.0070898831 -33.1523906705 -2.4999850808
-3.8877250998 -33.2276628334 -2.4999850808
-2.7597541125 -33.7666652992 -2.4999850808
-2.7431197120 -33.7725359822 -2.4999850808
-4.3117311731 -32.9715219244 -2.4999850145
-4.0794701724 -33.1338367491 -2.4999850145
-4.0647020189 -33.1436141599 -2.4999850145
-2.6000506353 -33.8461627182 -2.4999850145
-2.5662970021 -33.8569086003 -2.4999850145
-2.5324803834 -33.8674545966 -2.4999850145
2.0534911414 -33.4278077889 -2.4999850145
-4.5925713604 -32.7834134711 -2.4999849482
-4.4817738418 -32.8726433606 -2.4999849482
-4.7573894103 -32.6746283734 -2.4999848820
-2.2372704507 -34.0002045553 -2.4999848820
2.1234008822 -33.4450128768 -2.4999848820
-4.5397714361 -32.8884144577 -2.4999848157
-2.0034736682 -34.1034001509 -2.4999847494
2.3868937108 -33.4337748356 -2.4999845506
2.4025208424 -33.4244222602 -2.4999845506
2.8611454824 -33.4165899196 -2.4999838878
3.1623214092 -33.4087927888 -2.4999834238
2.9171468308 -33.8153367146 -2.4999828936
3.0005892217 -33.7602284069 -2.4999828936
3.0171793768 -33.7490589807 -2.4999828936
3.0337364181 -33.7378405268 -2.4999828936
3.0667505802 -33.7152569285 -2.4999828936
3.7273134032 -33.1972499134 -2.4999828936
3.7422349864 -33.1839331690 -2.4999828936
3.7571171110 -33.1705723420 -2.4999828936
3.7867624636 -33.1437189088 -2.4999828936
2.8627431051 -33.8789544105 -2.4999828273
2.9973771118 -33.7914603954 -2.4999828273
3.0473253838 -33.7578324075 -2.4999828273
3.1134551199 -33.7123080929 -2.4999828273
3.1790415618 -33.6660044875 -2.4999828273
3.6221729566 -33.3206172015 -2.4999828273
3.8030438446 -33.1615865308 -2.4999828273
3.9059070746 -33.0658872786 -2.4999828273
3.9637892886 -33.0102522669 -2.4999828273
3.9781566642 -32.9962368022 -2.4999828273
4.0067667207 -32.9680786759 -2.4999828273
2.5818803576 -34.0752086423 -2.4999827611
2.5994041132 -34.0652764546 -2.4999827611
2.6343630978 -34.0452567814 -2.4999827611
2.6517980207 -34.0351694713 -2.4999827611
2.6692030274 -34.0250306296 -2.4999827611
2.6865779653 -34.0148403451 -2.4999827611
2.7039226825 -34.0045987070 -2.4999827611
2.7557739933 -33.9735665695 -2.4999827611
3.1272796875 -33.7321377831 -2.4999827611
3.8490220372 -33.1522325201 -2.4999827611
3.8932639838 -33.1110718331 -2.4999827611
3.9516817276 -33.0555832572 -2.4999827611
4.0094388151 -32.9994073399 -2.4999827611
4.0948180520 -32.9138719304 -2.4999827611
4.1229387685 -32.8850250377 -2.4999827611
4.1647986121 -32.8414440156 -2.4999827611
4.2880346761 -32.7084962253 -2.4999827611
4.3416613219 -32.6483647219 -2.4999827611
3.7755198727 -33.2514269735 -2.4999826948
3.9245258448 -33.1148403967 -2.4999826948
4.2514527240 -32.7843958737 -2.4999826948
4.3195011499 -32.7096654342 -2.4999826948
4.3731394274 -32.6491615230 -2.4999826948
4.4911829975 -32.5107357343 -2.4999826948
2.4455140336 -34.2049666327 -2.4999826285
2.4991536731 -34.1762198367 -2.4999826285
2.5347707905 -34.1567913372 -2.4999826285
4.4837790838 -32.5573164235 -2.4999826285
4.5484435041 -32.4791746261 -2.4999826285
2.2390267735 -34.3369052740 -2.4999825622
2.2573261753 -34.3279861641 -2.4999825622
2.3120649547 -34.3009045855 -2.4999825622
2.3484230233 -34.2825807835 -2.4999825622
2.7233580959 -34.0773402614 -2.4999825622
4.7548003481 -32.2535584331 -2.4999825622
1.9710532343 -34.4863407448 -2.4999824960
2.2127791320 -34.3763880590 -2.4999824960
1.9429485793 -34.5246766804 -2.4999824297
4.9214964941 -32.1468294279 -2.4999823634
3.4490147342 -29.7634697257 -2.4999960911
3.4659225548 -29.7098127158 -2.4999960911
3.4453426692 -29.8513792716 -2.4999960652
3.4495443224 -29.9128615349 -2.4999960392
3.4571722716 -30.0991509583 -2.4999959614
3.4780514573 -30.0453739249 -2.4999959614
3.4534096259 -30.5806881441 -2.4999957540
-2.4835678342 -33.4536156561 -2.4999954687
-2.4683392980 -33.4577537248 -2.4999954687
0.4902557689 -33.4069142384 -2.4999954687
-2.5662406294 -33.4554715280 -2.4999954427
0.5427532474 -33.4158462212 -2.4999954427
0.5729460719 -33.4061732208 -2.4999954427
-2.6797057798 -33.4466109305 -2.4999954168
-2.6340382205 -33.4606307901 -2.4999954168
0.6257737217 -33.4142608085 -2.4999954168
-2.7630734151 -33.4453135780 -2.4999953909
-2.7326483943 -33.4551984427 -2.4999953909
-2.7174140861 -33.4600733298 -2.4999953909
0.7241894812 -33.4060258181 -2.4999953909
-2.8011124646 -33.4581717892 -2.4999953649
-2.7858690612 -33.4632491924 -2.4999953649
0.7322423081 -33.4288180813 -2.4999953649
0.7625085622 -33.4180237730 -2.4999953649
0.7776176082 -33.4125595163 -2.4999953649
-2.8546277918 -33.4655232470 -2.4999953390
0.8615066547 -33.4071644570 -2.4999953390
-2.9541693246 -33.4558734954 -2.4999953131
-3.0387221810 -33.4501333721 -2.4999952871
-3.0778608870 -33.4609719599 -2.4999952612
1.0543474994 -33.4083053959 -2.4999952612
1.2492854999 -33.4022266617 -2.4999951834
-3.7141892118 -33.3032871109 -2.4999951315
-3.6548951597 -33.3341406493 -2.4999951315
-3.5652799603 -33.3791000937 -2.4999951315
1.4053244905 -33.3819191417 -2.4999951315
-3.9164006624 -33.2191332780 -2.4999951056
-3.8434489269 -33.2605903964 -2.4999951056
-2.8459836000 -33.6979605063 -2.4999951056
-4.0444150786 -33.1712063450 -2.4999950797
-4.2001607682 -33.1015667162 -2.4999950537
-2.5158021819 -33.8952252833 -2.4999950019
1.6823575692 -33.4023209159 -2.4999949759
3.1554900018 -33.6724204339 -2.4999938607
3.6142988772 -33.2761780996 -2.4999938607
3.6727591243 -33.2203194600 -2.4999938607
3.7305543333 -33.1637730021 -2.4999938607
3.7448982731 -33.1495298417 -2.4999938607
2.7610701915 -33.9905231172 -2.4999938348
3.0742439857 -33.7659365556 -2.4999938348
3.2496243865 -33.6279860296 -2.4999938348
3.9174753976 -33.0066501835 -2.4999938348
3.9451882177 -32.9770183552 -2.4999938348
3.9864275273 -32.9322644889 -2.4999938348
2.8250573870 -33.9761488823 -2.4999938089
4.0042766993 -32.9485660943 -2.4999938089
4.0452611842 -32.9032889713 -2.4999938089
4.1920619169 -32.7342037542 -2.4999938089
4.2440688248 -32.6715466954 -2.4999938089
3.2324097017 -33.7039511242 -2.4999937829
3.2642599782 -33.6783601707 -2.4999937829
4.3269450719 -32.6074176111 -2.4999937829
4.3774423446 -32.5431734280 -2.4999937829
4.4024050303 -32.5108283923 -2.4999937829
2.3489280974 -34.3316736696 -2.4999937570
4.5272199391 -32.4250936675 -2.4999937310
2.2101280057 -34.4633876583 -2.4999937051
4.7674561200 -32.1647999593 -2.4999936792
-0.6200176033 -29.3124179283 -2.5000033811
-0.7070520045 -29.4150569219 -2.5000034301
-0.6529796756 -29.4043858133 -2.5000034791
-2.6391042777 -33.4487300193 -2.5000115131
-2.6245200736 -33.4525082707 -2.5000115131
-2.6099247565 -33.4562433628 -2.5000115131
-0.1194699549 -33.4613387660 -2.5000115131
-0.1048594763 -33.4576634282 -2.5000115131
-0.0610941688 -33.4463783191 -2.5000115131
-0.0465282012 -33.4425303605 -2.5000115131
3.4843810897 -30.1084906063 -2.5000115131
-2.7182962963 -33.4524913408 -2.5000115621
0.0035162478 -33.4540342753 -2.5000115621
0.0181045803 -33.4499951540 -2.5000115621
0.1704768056 -33.4303224268 -2.5000116111
0.1994982490 -33.4212136672 -2.5000116111
-2.8778326173 -33.4561946985 -2.5000116601
-2.8046652263 -33.4781841058 -2.5000116601
0.1922331086 -33.4488532129 -2.5000116601
0.2213638056 -33.4396154114 -2.5000116601
0.2359085313 -33.4349319207 -2.5000116601
3.4606092932 -30.3900277191 -2.5000116601
-2.9435286323 -33.4608375961 -2.5000117090
-2.9289072798 -33.4655163368 -2.5000117090
-2.9142721507 -33.4701518044 -2.5000117090
0.2579505774 -33.4531818598 -2.5000117090
0.3597399887 -33.4187353041 -2.5000117090
3.4548339451 -30.4701232732 -2.5000117090
-3.0241650863 -33.4596963538 -2.5000117580
3.4714209486 -30.4934894654 -2.5000117580
0.4922142104 -33.4220382505 -2.5000118070
0.5211810109 -33.4110261293 -2.5000118070
3.4819845022 -30.5312870443 -2.5000118070
-3.1571361124 -33.4642268385 -2.5000118560
-3.0985134982 -33.4852092666 -2.5000118560
3.4614366220 -30.6407412250 -2.5000118560
3.4738963690 -30.6122108642 -2.5000118560
-3.2240550286 -33.4651631860 -2.5000119050
-3.2766114909 -33.4709122535 -2.5000119540
0.6929714196 -33.4203173555 -2.5000119540
-3.3587010404 -33.4643457094 -2.5000120030
0.7603886963 -33.4179386448 -2.5000120030
0.7748669397 -33.4116607158 -2.5000120030
0.7893265486 -33.4053399851 -2.5000120030
3.4688584753 -30.7991714766 -2.5000120030
-3.6292433836 -33.3725630889 -2.5000120520
-3.5716723271 -33.3991381265 -2.5000120520
3.4639763168 -30.9737426328 -2.5000121499
1.0717996288 -33.4066861603 -2.5000122479
1.0862432228 -33.3994870707 -2.5000122479
3.4547672325 -31.0958113339 -2.5000122479
1.1948463560 -33.3982447071 -2.5000123459
3.4481156270 -31.3541420174 -2.5000124929
1.4429107895 -33.3722736063 -2.5000125418
1.5802878765 -33.3753692266 -2.5000126888
1.7189765767 -33.3748295535 -2.5000128358
3.4326150857 -31.7411097761 -2.5000128848
3.4421212740 -31.7269342551 -2.5000128848
1.8732181099 -33.3610746654 -2.5000129827
2.1561567903 -33.3704648973 -2.5000133257
3.6260616219 -33.2341507308 -2.5000150892
3.6538619692 -33.2046010043 -2.5000150892
3.6952334765 -33.1599693161 -2.5000150892
3.2351269718 -33.6480740732 -2.5000151382
3.5872980939 -33.3095765785 -2.5000151382
3.7948684639 -33.0856491308 -2.5000151382
3.8351787874 -33.0397707732 -2.5000151382
3.8485248884 -33.0243987137 -2.5000151382
3.8750803788 -32.9935364908 -2.5000151382
3.9276412685 -32.9313434175 -2.5000151382
3.9406662172 -32.9156983117 -2.5000151382
4.0050936247 -32.8368986069 -2.5000151382
3.0026366269 -33.8782405552 -2.5000151872
3.0814030115 -33.8132093843 -2.5000151872
3.7583883737 -33.1625091004 -2.5000151872
3.8668016964 -33.0402193829 -2.5000151872
3.9330788983 -32.9624985424 -2.5000151872
4.0110833448 -32.8679523164 -2.5000151872
2.7255428774 -34.1220875010 -2.5000152362
2.9700030183 -33.9355862161 -2.5000152362
3.0019647756 -33.9099056763 -2.5000152362
4.1813073685 -32.6893229476 -2.5000152362
4.2058746139 -32.6564977362 -2.5000152362
2.6393654387 -34.2134089130 -2.5000152852
2.8224657616 -34.0804545561 -2.5000152852
2.9528627495 -33.9800547923 -2.5000152852
4.3455883822 -32.5040702420 -2.5000152852
4.4038833596 -32.4193266073 -2.5000152852
2.9840231786 -33.9862218759 -2.5000153342
3.0323575100 -33.9475038521 -2.5000153342
3.2532886106 -33.7612185412 -2.5000153342
4.5148615549 -32.2950454519 -2.5000153342
2.5303562785 -34.3465483789 -2.5000153832
2.1192388523 -34.6284698338 -2.5000154321
2.5918165924 -34.3635257694 -2.5000154811
2.8303498934 -34.1951233431 -2.5000154811
5.1041514210 -31.5250964962 -2.5000156281
1.8351402709 -34.9438735990 -2.5000157261
-2.8837553883 -33.4539027968 -2.5000139147
-2.8699181576 -33.4577067676 -2.5000139147
-2.8560697345 -33.4614697888 -2.5000139147
-2.8144585240 -33.4725128266 -2.5000139147
-0.2481274357 -33.4397991780 -2.5000139147
-2.9595554349 -33.4574708522 -2.5000139781
-2.9318473446 -33.4654862402 -2.5000139781
-3.0080190828 -33.4682805942 -2.5000140415
-0.1652596254 -33.4656828431 -2.5000140415
-0.0395792302 -33.4765426012 -2.5000141683
0.0573711956 -33.4434134706 -2.5000141683
0.1345803021 -33.4411948986 -2.5000142317
0.1483667341 -33.4360701421 -2.5000142317
0.2120825396 -33.4377080590 -2.5000142951
0.2622852660 -33.4439896907 -2.5000143585
0.2898572096 -33.4329438231 -2.5000143585
3.4694680882 -30.0333978346 -2.5000148657
3.4358283832 -27.3944191719 -2.5000148657
3.4380205166 -27.3134631465 -2.5000149291
3.4639100571 -30.2404610315 -2.5000149925
3.4479714954 -27.2619262894 -2.5000149925
3.4648487941 -30.3221240954 -2.5000150559
3.4336569537 -27.1356028351 -2.5000150559
3.4547646060 -30.4340142464 -2.5000151193
3.4597360189 -30.5691053638 -2.5000152460
3.4497913359 -30.6669450140 -2.5000153094
3.4553565295 -30.6520254022 -2.5000153094
3.4406944682 -26.8653530957 -2.5000153094
1.2064027075 -33.4055061130 -2.5000153728
3.4283916728 -26.7673626982 -2.5000153728
3.4499989317 -30.9265929325 -2.5000155630
3.4500920901 -31.1051442491 -2.5000157532
3.4513715148 -31.2706492564 -2.5000159434
3.4354650063 -31.3559851852 -2.5000160068
3.4492940558 -31.3819375164 -2.5000160702
3.4646104282 -31.3520723238 -2.5000160702
3.4307131206 -31.9035042581 -2.5000167042
3.4246029217 -32.0035842584 -2.5000168310
3.4362118182 -32.0744769749 -2.5000169577
3.4070722092 -32.4958028376 -2.5000175283
3.1464971901 -33.7362475203 -2.5000191766
3.1757477506 -33.7081325713 -2.5000191766
3.8129760075 -32.9999602017 -2.5000191766
3.8378587805 -32.9679150265 -2.5000191766
3.1336767394 -33.7817647627 -2.5000192400
3.8569954917 -32.9826839658 -2.5000192400
2.8136901798 -34.0970507133 -2.5000193034
4.0224324981 -32.8007647741 -2.5000193034
2.7815668590 -34.1546837723 -2.5000193668
4.1590108332 -32.6464687290 -2.5000193668
4.2155950714 -32.5610018440 -2.5000193668
4.3023033778 -32.4701843301 -2.5000194302
4.3769372556 -32.3951464513 -2.5000194936
-0.3985795770 -33.4709145821 -2.5000022911
-0.3336841858 -33.4500177736 -2.5000022911
-0.2871151961 -33.4599057070 -2.5000022968
-0.2482429013 -33.4464940373 -2.5000022968
-0.2142745711 -33.4601298302 -2.5000023026
-0.1883464131 -33.4507960875 -2.5000023026
-0.1411027347 -33.4591539957 -2.5000023084
-0.1022428607 -33.4444465770 -2.5000023084
-0.0676193208 -33.4569684819 -2.5000023141
-0.0417124332 -33.4467671329 -2.5000023141
-0.0068103931 -33.4588252936 -2.5000023199
0.0061558218 -33.4535638866 -2.5000023199
0.0802026350 -33.4489311309 -2.5000023256
0.1642812008 -33.4651675749 -2.5000023372
0.1902325384 -33.4535940811 -2.5000023372
0.2161149491 -33.4418672530 -2.5000023372
0.2520986744 -33.4519165467 -2.5000023429
0.2908788363 -33.4337199710 -2.5000023429
0.4519718728 -33.4351579516 -2.5000023602
0.5775952081 -33.4236569205 -2.5000023717
0.7030249287 -33.4369677288 -2.5000023890
0.7537912393 -33.4356755020 -2.5000023948
0.7659278072 -33.4565809797 -2.5000024006
0.8047291295 -33.4338242751 -2.5000024006
0.8812808361 -33.4442474665 -2.5000024121
0.8285979319 -33.5039480164 -2.5000024179
3.4410901948 -30.4831751979 -2.5000024813
3.4493417144 -30.4522671915 -2.5000024813
3.4574102275 -30.4213109072 -2.5000024813
3.4628799152 -27.7461778651 -2.5000024813
3.4589319045 -27.7306774818 -2.5000024813
3.4549380581 -27.7151888453 -2.5000024813
3.4508984110 -27.6997120911 -2.5000024813
3.4472995811 -30.5514219066 -2.5000024870
3.4783364773 -27.7091184860 -2.5000024870
3.4533014119 -27.6160266084 -2.5000024870
3.4489684321 -27.6005551295 -2.5000024870
3.4497863150 -27.5164967577 -2.5000024928
3.4375621184 -30.7507754996 -2.5000024985
3.4425023617 -30.7353368646 -2.5000024985
3.4588731529 -27.4630539303 -2.5000024985
3.4492563097 -27.4320935710 -2.5000024985
3.4655362608 -30.7426699933 -2.5000025043
3.4473684180 -27.3473671265 -2.5000025043
3.4422407208 -27.3319143740 -2.5000025043
3.4366649101 -30.9050687826 -2.5000025101
3.4420615847 -30.8896321266 -2.5000025101
3.4527178230 -30.8587112594 -2.5000025101
3.4547342429 -27.2932721018 -2.5000025101
3.4494464907 -27.2777977966 -2.5000025101
3.4441129858 -27.2623392012 -2.5000025101
3.4259892352 -31.0057620571 -2.5000025158
3.4316838254 -30.9903565411 -2.5000025158
3.4373328184 -30.9749342469 -2.5000025158
3.4506067526 -27.2079387744 -2.5000025158
3.4193682968 -31.0912822233 -2.5000025216
3.4253159002 -31.0758959191 -2.5000025216
3.4370744307 -31.0450708650 -2.5000025216
3.4298187311 -31.1308838527 -2.5000025274
1.8213516797 -33.3945019071 -2.5000025331
3.4274800186 -31.2015195294 -2.5000025331
3.4461641273 -31.1552318431 -2.5000025331
3.4485159434 -26.9967442950 -2.5000025331
3.4306791935 -31.2569853266 -2.5000025389
3.4522699200 -26.9413132835 -2.5000025389
3.4199604991 -31.3434728559 -2.5000025446
3.4489564267 -26.8701781999 -2.5000025446
3.4513935006 -26.8142867045 -2.5000025504
3.4228003647 -31.4555180675 -2.5000025562
3.4479936311 -26.6298672519 -2.5000025677
3.4074492009 -31.6558184547 -2.5000025735
3.6183358043 -26.9661769825 -2.5000025735
3.3950305166 -26.4654577545 -2.5000025735
3.3399293205 -26.3588859424 -2.5000025735
3.3156412203 -26.3135659156 -2.5000025735
3.2489166632 -26.1937846428 -2.5000025735
3.7403513119 -27.2325024121 -2.5000025792
3.3612859554 -26.3475620991 -2.5000025792
3.2440364497 -26.1370804467 -2.5000025792
3.2353293953 -26.1222344825 -2.5000025792
3.1821683047 -26.0337054904 -2.5000025792
3.4195440379 -31.7390672960 -2.5000025850
3.8003627265 -27.3400073778 -2.5000025850
3.4170903433 -31.7963172699 -2.5000025908
3.8436463365 -27.3992483889 -2.5000025908
3.4140282562 -31.8537327791 -2.5000025965
3.4222313495 -31.8383589356 -2.5000025965
3.4374179521 -32.1092438642 -2.5000026311
3.4218733011 -32.1831599872 -2.5000026369
3.4259050126 -32.2697827844 -2.5000026484
3.4369862954 -32.2978776533 -2.5000026542
3.4502670147 -32.4577260378 -2.5000026772
3.4747534650 -32.9327451764 -2.5000027464
3.4673360024 -33.0237218169 -2.5000027579
3.4740728223 -33.3291676772 -2.5000028040
3.0260299737 -33.8976702668 -2.5000028155
3.0827809550 -33.8404781260 -2.5000028155
3.1109016773 -33.8116312390 -2.5000028155
3.1248979147 -33.7971455321 -2.5000028155
3.1388512395 -33.7826184851 -2.5000028155
3.1804525193 -33.7387905772 -2.5000028155
3.6845759384 -33.1368838314 -2.5000028155
3.7440842548 -33.0556321120 -2.5000028155
3.7792101051 -33.0064617284 -2.5000028155
3.8138982126 -32.9569815587 -2.5000028155
2.9563958553 -33.9996172987 -2.5000028213
3.3477599879 -33.5909531853 -2.5000028213
3.7872403695 -33.0369087459 -2.5000028213
2.7032808712 -34.2629532884 -2.5000028270
2.7339077403 -34.2363442572 -2.5000028270
2.8846513793 -34.1006069531 -2.5000028270
3.4323911171 -33.5303456723 -2.5000028270
3.8994967293 -32.9176376729 -2.5000028270
3.9333918364 -32.8670935247 -2.5000028270
4.0107263168 -32.7480020655 -2.5000028270
4.0323673431 -32.7136842622 -2.5000028270
4.0960669415 -32.6099710697 -2.5000028270
2.5630667158 -34.4120091028 -2.5000028328
2.6102761579 -34.3732661751 -2.5000028328
2.6726837162 -34.3209601320 -2.5000028328
4.0850453825 -32.6746201613 -2.5000028328
2.4179438308 -34.5572954240 -2.5000028386
2.6414087789 -34.3788312025 -2.5000028386
4.2099692459 -32.5116391954 -2.5000028386
2.4651210049 -34.5514790822 -2.5000028443
4.3400153070 -32.3263226066 -2.5000028443
4.3967914832 -32.2172102368 -2.5000028443
4.2417847252 -32.6013176738 -2.5000028559
4.5130544316 -32.0911014436 -2.5000028559
2.2088285905 -34.8292029931 -2.5000028616
2.4106072378 -34.6840484138 -2.5000028616
4.4923623348 -32.2425420851 -2.5000028674
1.7611263793 -35.1708301564 -2.5000028732
4.7100438461 -31.9527066414 -2.5000028847
1.5693627981 -35.3878521181 -2.5000028962
-0.7683252752 -29.5327533295 -2.4999999554
-0.7660790036 -29.5124183885 -2.4999999554
-0.7650072083 -29.6556432051 -2.4999999295
-0.7398201203 -29.4905906813 -2.4999999295
-0.7327646440 -29.6192338821 -2.4999999035
-0.6863072978 -30.0068483502 -2.4999997220
-0.7865697226 -33.4406149203 -2.4999966876
-0.7921234718 -33.4672350653 -2.4999966617
-0.7320314000 -33.4502136166 -2.4999966617
-0.7080661684 -33.4431564836 -2.4999966617
-0.7252716103 -33.4734222470 -2.4999966358
-0.6530924224 -33.4517024819 -2.4999966358
-0.6171502328 -33.4403630454 -2.4999966358
-0.5737308666 -33.4516591877 -2.4999966098
-0.4939763800 -33.4500692442 -2.4999965839
-0.4138589901 -33.4469187338 -2.4999965579
-0.3899188208 -33.4379792437 -2.4999965579
-0.2314595810 -33.4532857476 -2.4999964801
-0.2194648485 -33.4482941091 -2.4999964801
-0.2101443078 -33.4705979833 -2.4999964542
-0.1380963838 -33.4397360914 -2.4999964542
-0.0344063551 -33.4459793154 -2.4999964023
0.0822771088 -33.4437593414 -2.4999963505
0.1529330694 -33.4353295121 -2.4999963245
0.1879286395 -33.4444931704 -2.4999962986
0.2350975926 -33.4470470536 -2.4999962727
0.3300596357 -33.4505912063 -2.4999962208
0.3420439404 -33.4439385042 -2.4999962208
0.3540085128 -33.4372503795 -2.4999962208
0.3659532482 -33.4305268906 -2.4999962208
0.6803600007 -33.4385672464 -2.4999960392
0.7413034145 -33.4277907337 -2.4999960133
1.1436540943 -33.4394795021 -2.4999957540
1.1941643632 -33.4313488178 -2.4999957280
3.4424344400 -29.5892439151 -2.4999954427
3.4459033603 -29.3832064403 -2.4999954427
3.4444889330 -29.2722516216 -2.4999954427
3.4436628422 -29.2405579130 -2.4999954427
3.4414482076 -29.1771879314 -2.4999954427
3.4405176305 -30.7744445749 -2.4999952612
3.4485790872 -30.7427480710 -2.4999952612
3.4525394574 -30.7268820723 -2.4999952612
3.4420711238 -28.0236675777 -2.4999952612
3.4251671231 -30.9231143985 -2.4999952353
3.4428625733 -30.8598454777 -2.4999952353
3.4471693638 -30.8439958771 -2.4999952353
3.4654873930 -28.0176664429 -2.4999952353
3.4530433771 -27.9699909058 -2.4999952353
3.4298847106 -30.9930926547 -2.4999952093
3.4345857271 -30.9772808620 -2.4999952093
3.4392399489 -30.9614552320 -2.4999952093
3.4546324364 -27.8842295477 -2.4999952093
3.4363683265 -27.8208247200 -2.4999952093
3.4336904134 -31.0633953929 -2.4999951834
3.4482767855 -31.0158820996 -2.4999951834
3.4501029760 -27.7822389710 -2.4999951834
3.4453056181 -27.7663814178 -2.4999951834
3.4365772248 -31.1340107930 -2.4999951575
3.4586552800 -27.7275385969 -2.4999951575
3.4385368484 -27.6640971383 -2.4999951575
3.4543804848 -31.1573650257 -2.4999951315
3.4526808689 -27.5536917972 -2.4999951056
3.4472074159 -27.5378276182 -2.4999951056
3.4361198426 -27.5061481814 -2.4999951056
3.4280166588 -31.3792460997 -2.4999950797
3.4475892387 -27.4663473098 -2.4999950797
3.4360787572 -27.4346668651 -2.4999950797
3.4369934580 -31.4913557086 -2.4999950278
3.4516239061 -27.3384549976 -2.4999950278
3.4393567001 -27.3067529208 -2.4999950278
3.4469588805 -31.5319191548 -2.4999950019
3.4566308058 -31.5726735487 -2.4999949759
3.4590858834 -27.2254573129 -2.4999949759
3.4396117080 -27.1778697816 -2.4999949759
3.4527932114 -31.6454012061 -2.4999949500
3.4419643272 -27.1210046120 -2.4999949500
3.4352109541 -27.1051740276 -2.4999949500
3.4548295490 -31.7024729902 -2.4999949241
3.4616289317 -31.6865843023 -2.4999949241
3.4683812830 -31.6706755701 -2.4999949241
3.4437274470 -27.0639237341 -2.4999949241
3.4701643833 -31.7279503524 -2.4999948981
3.4519422632 -27.0224928178 -2.4999948981
3.4378057133 -26.9907943873 -2.4999948981
3.4571222428 -31.8172481636 -2.4999948722
3.4526856104 -26.9650005181 -2.4999948722
3.4454707021 -26.9491389009 -2.4999948722
3.4380112843 -26.8756072146 -2.4999948462
3.4448131061 -26.8335638478 -2.4999948203
3.4637107543 -31.9750051946 -2.4999947944
3.4435753920 -26.7754953687 -2.4999947944
3.4623138164 -32.0332652485 -2.4999947684
3.4840155378 -32.0439128102 -2.4999947425
3.6574137674 -27.0099929478 -2.4999946906
3.3457192778 -26.3846410068 -2.4999946906
3.3367880291 -26.3690983546 -2.4999946906
3.3006044328 -26.3071939851 -2.4999946906
3.2914442792 -26.2917851296 -2.4999946906
3.2822385835 -26.2764034389 -2.4999946906
3.2165303516 -26.1695034955 -2.4999946906
3.4590430807 -32.2521385368 -2.4999946647
3.7740213786 -27.2340735938 -2.4999946647
3.7676010311 -27.2172602299 -2.4999946647
3.7212699511 -27.1001087519 -2.4999946647
3.2936741992 -26.2485433407 -2.4999946647
3.2465521101 -26.1718809726 -2.4999946647
3.2273866495 -26.1414125864 -2.4999946647
3.1086393645 -25.9610316888 -2.4999946647
3.0779579210 -25.9166039651 -2.4999946647
3.0572851067 -25.8871375065 -2.4999946647
3.4718808570 -32.2794281652 -2.4999946388
2.9706526893 -25.7271483955 -2.4999946388
3.9434402977 -27.5769552445 -2.4999946128
2.9790616077 -25.6981413864 -2.4999946128
2.8788881799 -25.5692263760 -2.4999946128
3.9825007007 -27.6220327694 -2.4999945869
3.9719019448 -27.5871848841 -2.4999945869
4.0697451773 -27.8439325213 -2.4999945610
4.0604577280 -27.8085645847 -2.4999945610
3.4772104190 -32.4696481615 -2.4999945350
3.4798591675 -32.5135821691 -2.4999945091
3.4841593645 -32.6018633056 -2.4999944572
3.4682428605 -32.7671771155 -2.4999943794
3.4676663410 -32.9468260493 -2.4999942757
3.4591535968 -33.1739428603 -2.4999941460
3.2774794954 -33.6525104591 -2.4999939904
3.3150489626 -33.6062814943 -2.4999939904
3.6676261978 -33.1263679715 -2.4999939904
3.6895984484 -33.0932866545 -2.4999939904
3.7113745942 -33.0600759212 -2.4999939904
3.7221888894 -33.0434223866 -2.4999939904
3.7436694511 -33.0100197100 -2.4999939904
3.7965029891 -32.9259621425 -2.4999939904
2.8550182893 -34.1551995251 -2.4999939645
3.0614333930 -33.9390204486 -2.4999939645
3.6877227172 -33.1398017049 -2.4999939645
3.7853990258 -32.9893845246 -2.4999939645
3.8688339029 -32.8535388802 -2.4999939645
3.8790365352 -32.8364204562 -2.4999939645
3.9292876662 -32.7503797462 -2.4999939645
3.9391848706 -32.7330829403 -2.4999939645
3.9490308646 -32.7157569324 -2.4999939645
2.6849570794 -34.3527134997 -2.4999939385
2.7866034909 -34.2564492903 -2.4999939385
2.5974080647 -34.4649114097 -2.4999939126
4.2352329144 -32.3227401432 -2.4999938867
4.2694326771 -32.2497881653 -2.4999938867
4.2828812363 -32.2782599457 -2.4999938607
4.3330596288 -32.1678428383 -2.4999938607
2.2384979052 -34.8542025149 -2.4999938348
3.0116828924 -34.1682720189 -2.4999938348
4.3956102254 -32.0846375408 -2.4999938348
4.4346856917 -31.9910387391 -2.4999938348
4.6063967518 -31.8168109057 -2.4999937310
4.5610708288 -32.0650865830 -2.4999936792
-0.7408595532 -29.6752634726 -2.5000004474
-0.7569155484 -29.5283907226 -2.5000004474
-0.7166029464 -29.7983354142 -2.5000004330
-0.7324584167 -29.5280627416 -2.5000004330
