25.8848115029 -17.9283224745 -2.5001767925
25.9279611809 -17.9700116605 -2.5001767925
27.4126411016 -19.0472269988 -2.5001767925
27.4656602658 -19.0753134933 -2.5001767925
27.4833884526 -19.0845709615 -2.5001767925
25.6708393791 -17.7453817880 -2.5001768041
25.7402779556 -17.8178350568 -2.5001768041
25.4507642297 -17.5377724093 -2.5001768156
25.4639529080 -17.5529970318 -2.5001768156
25.4904650872 -17.5833289007 -2.5001768156
25.3410950680 -17.4455353337 -2.5001768271
25.3540113722 -17.4610847810 -2.5001768271
28.2302659463 -19.5978425201 -2.5001768732
28.4162740815 -19.6881478447 -2.5001768847
29.8671526155 -15.0691234603 -2.4999321190
26.5496914206 -13.9746769271 -2.4999333638
26.5583864933 -14.0075893290 -2.4999333638
26.5643453277 -14.0294875011 -2.4999333638
26.5565997434 -14.0908353812 -2.4999333811
26.5465050505 -14.1416455813 -2.4999333984
26.5498648875 -14.1526336351 -2.4999333984
26.5566820018 -14.1745796854 -2.4999333984
26.5671508241 -14.2074221779 -2.4999333984
26.5477288112 -14.2258604038 -2.4999334157
26.5549791970 -14.2478178103 -2.4999334157
26.5623593634 -14.2697319367 -2.4999334157
26.5625318257 -14.3433948041 -2.4999334330
26.5477820518 -14.3735848234 -2.4999334503
26.5559064240 -14.3955393294 -2.4999334503
26.5600172835 -14.4064984614 -2.4999334503
26.5457664679 -14.4370370147 -2.4999334676
26.5492425172 -14.5118364109 -2.4999334849
26.5627045967 -14.5447316439 -2.4999334849
26.5542098338 -14.5869586864 -2.4999335021
26.5588869539 -14.5979219996 -2.4999335021
26.5571102329 -14.7702437175 -2.4999335540
26.5650536356 -15.0000904565 -2.4999336232
26.5711243453 -15.1109321932 -2.4999336578
26.5862407474 -15.2786912526 -2.4999337096
26.5779240284 -15.5319842547 -2.4999338134
26.5797332543 -15.6608205814 -2.4999338652
28.8762952657 -18.4625193778 -2.4999346433
28.9085703950 -18.4706260545 -2.4999346433
28.9408929213 -18.4785416388 -2.4999346433
31.8834565836 -18.3974572294 -2.4999346433
28.8056568775 -18.4690890186 -2.4999346606
31.9543130154 -18.4009655256 -2.4999346606
31.9861701011 -18.3908626929 -2.4999346606
28.7185147976 -18.4702030479 -2.4999346779
28.7346697870 -18.4747469647 -2.4999346779
28.7832144155 -18.4880917028 -2.4999346779
28.6310224628 -18.4699282313 -2.4999346951
28.6471770220 -18.4747309675 -2.4999346951
28.6957249539 -18.4888521555 -2.4999346951
28.7119352105 -18.4934634072 -2.4999346951
32.1288203091 -18.3942508006 -2.4999346951
28.5432019673 -18.4682544737 -2.4999347124
28.5593519596 -18.4733170061 -2.4999347124
28.5755168570 -18.4783317418 -2.4999347124
32.2164862325 -18.3887802651 -2.4999347124
28.4873738226 -18.4757707377 -2.4999347297
28.5035462936 -18.4809983870 -2.4999347297
32.2885008687 -18.3879055217 -2.4999347297
28.4151001830 -18.4772826324 -2.4999347470
28.4636798984 -18.4934632716 -2.4999347470
32.3289318492 -18.3983954518 -2.4999347470
28.3425432896 -18.4778460534 -2.4999347643
28.3587225335 -18.4835021285 -2.4999347643
32.3535823601 -18.4148034104 -2.4999347643
32.4173719870 -18.3896841355 -2.4999347643
32.4332726029 -18.3832865161 -2.4999347643
28.2535545420 -18.4715351747 -2.4999347816
28.2697155065 -18.4774545223 -2.4999347816
28.2858939108 -18.4833260369 -2.4999347816
28.2128040337 -18.4821894435 -2.4999347989
28.2289966938 -18.4882292918 -2.4999347989
28.2614352604 -18.5001651543 -2.4999347989
32.5153252879 -18.4018340642 -2.4999347989
32.5885341684 -18.3969938048 -2.4999348162
32.6044556586 -18.3900898248 -2.4999348162
28.1144819583 -18.4962898278 -2.4999348335
27.9920931322 -18.4729555381 -2.4999348508
28.0082594424 -18.4796483296 -2.4999348508
28.0406511044 -18.4928902979 -2.4999348508
32.7355374817 -18.3843653261 -2.4999348508
27.8761690756 -18.4761027445 -2.4999348853
32.8514982120 -18.3831817718 -2.4999348853
27.8502741482 -18.4911432771 -2.4999349026
32.9097555979 -18.3816776722 -2.4999349026
27.7594241262 -18.4768416369 -2.4999349199
32.9522974018 -18.3875409472 -2.4999349199
32.9681893372 -18.3795609311 -2.4999349199
33.0109090212 -18.3849816963 -2.4999349372
33.0219160008 -18.4065033524 -2.4999349545
27.5828753858 -18.4733733272 -2.4999349718
27.5990447224 -18.4812766570 -2.4999349718
33.0649212816 -18.4115402835 -2.4999349718
33.0808837186 -18.4032270005 -2.4999349718
27.4209030910 -18.4727633098 -2.4999350237
27.4370713317 -18.4811457856 -2.4999350237
33.2587107655 -18.3896454211 -2.4999350237
27.3935384479 -18.4857437493 -2.4999350409
33.3461651736 -18.3957715627 -2.4999350582
33.3620797333 -18.3866263785 -2.4999350582
33.0546490330 -18.6336281979 -2.4999351101
33.1539942123 -18.5831895511 -2.4999351101
33.6207674965 -18.3149617297 -2.4999351101
33.6677017130 -18.2849513836 -2.4999351101
33.7915385820 -18.2028998000 -2.4999351101
33.8068806434 -18.1924379646 -2.4999351101
33.8221916897 -18.1819307904 -2.4999351101
33.8527202013 -18.1607807936 -2.4999351101
33.8679373994 -18.1501381562 -2.4999351101
33.8831230481 -18.1394505501 -2.4999351101
33.8982770145 -18.1287180689 -2.4999351101
33.9133991659 -18.1179408064 -2.4999351101
27.1088536384 -18.4668997553 -2.4999351274
32.8293237167 -18.7664811555 -2.4999351274
32.8802960808 -18.7434766488 -2.4999351274
32.8972412534 -18.7357080683 -2.4999351274
32.9141633710 -18.7278893948 -2.4999351274
32.9310622855 -18.7200206969 -2.4999351274
32.9479378490 -18.7121020433 -2.4999351274
32.9647899139 -18.7041335035 -2.4999351274
33.7432145633 -18.2644430495 -2.4999351274
34.0477350671 -18.0494483711 -2.4999351274
34.0774758208 -18.0269663027 -2.4999351274
34.1218362549 -17.9929142673 -2.4999351274
27.0644103388 -18.4690012292 -2.4999351447
34.0322670748 -18.0911660446 -2.4999351447
34.2538875586 -17.9189520050 -2.4999351447
27.0198322080 -18.4707670520 -2.4999351620
32.4663897328 -18.9665609868 -2.4999351620
32.5191519850 -18.9467694368 -2.4999351620
32.5542283442 -18.9333152746 -2.4999351620
32.5717365205 -18.9265104307 -2.4999351620
34.5256519108 -17.7174891072 -2.4999351620
32.3327037431 -19.0399041030 -2.4999351793
32.4216417505 -19.0086276357 -2.4999351793
32.4393732945 -19.0022146775 -2.4999351793
34.6112828755 -17.6715962752 -2.4999351793
34.7203415392 -17.5673882217 -2.4999351793
32.2328256074 -19.0986928604 -2.4999351966
34.3871074347 -17.9027822402 -2.4999351966
26.8691683036 -18.4640208604 -2.4999352138
35.0431885907 -17.3001251489 -2.4999352138
26.7335236496 -18.4638135178 -2.4999352657
31.8005599871 -19.3215676446 -2.4999352657
31.8751175847 -19.3029285083 -2.4999352657
26.6880722502 -18.4630537402 -2.4999352830
26.6586464219 -18.4726314577 -2.4999353003
26.3120109892 -18.2576643522 -2.4999353176
26.0377911606 -18.0709966875 -2.4999353349
26.0527769547 -18.0834724164 -2.4999353349
26.0828589312 -18.1082906096 -2.4999353349
26.1434607449 -18.1573909053 -2.4999353349
26.1892910546 -18.1937436671 -2.4999353349
26.9974966202 -18.7374507383 -2.4999353349
27.0484410048 -18.7662015688 -2.4999353349
27.1167599300 -18.8038305910 -2.4999353349
27.1339088585 -18.8131113287 -2.4999353349
27.2200611768 -18.8587518549 -2.4999353349
25.8012120616 -17.8964590605 -2.4999353522
25.8301920070 -17.9227688692 -2.4999353522
25.8739525139 -17.9619109544 -2.4999353522
25.9033184217 -17.9877892605 -2.4999353522
26.0072939577 -18.0769856849 -2.4999353522
27.3310769296 -18.9421675651 -2.4999353522
27.3486341460 -18.9508137090 -2.4999353522
27.3662168625 -18.9594078777 -2.4999353522
27.4191164725 -18.9848777826 -2.4999353522
27.4367996483 -18.9932633028 -2.4999353522
31.7530150682 -19.4570815781 -2.4999353522
27.5693371498 -19.0805520620 -2.4999353695
27.6052916420 -19.0963803252 -2.4999353695
25.4855097773 -17.6578196973 -2.4999353867
25.6108938130 -17.7833427425 -2.4999353867
27.6317961887 -19.1342052114 -2.4999353867
27.7591386374 -19.1873663142 -2.4999353867
27.8140457779 -19.2093402820 -2.4999353867
25.2924363738 -17.4868939115 -2.4999354040
27.8789392899 -19.2604649703 -2.4999354040
25.1438017115 -17.3535666304 -2.4999354213
25.1566691294 -17.3686900809 -2.4999354213
25.6921987373 -17.9274900919 -2.4999354213
25.0111803075 -17.2309025894 -2.4999354386
25.3920317290 -17.6653418539 -2.4999354386
24.8573542256 -17.0723361596 -2.4999354559
24.7901844776 -17.0223841671 -2.4999354732
26.5471445907 -14.4496181085 -2.5000261466
26.5645811859 -14.4893465655 -2.5000261466
26.5619096612 -14.5988224599 -2.5000261581
26.5563448807 -14.8013938879 -2.5000261812
26.5411806965 -14.8743746855 -2.5000261927
26.5743086155 -15.2511077776 -2.5000262330
33.4791489637 -14.9737368841 -2.5000262445
28.5915151215 -18.4630728117 -2.5000266134
31.3579883761 -18.4319016523 -2.5000266134
31.4061728581 -18.4188670247 -2.5000266134
31.4862171861 -18.3961940632 -2.5000266134
28.5047706615 -18.4663341653 -2.5000266192
28.5858344131 -18.4865688717 -2.5000266192
31.4286930899 -18.4377141839 -2.5000266192
31.4929769526 -18.4194027004 -2.5000266192
28.4824974965 -18.4855350045 -2.5000266249
31.6121749955 -18.4085957045 -2.5000266249
28.3301505432 -18.4687210813 -2.5000266307
28.3787810090 -18.4825553660 -2.5000266307
31.6836127346 -18.4110916431 -2.5000266307
28.2261390598 -18.4628586333 -2.5000266365
28.2909446415 -18.4824394966 -2.5000266365
31.8193107910 -18.3904767951 -2.5000266365
31.8753642945 -18.3960697109 -2.5000266422
28.0818995940 -18.4672492748 -2.5000266480
28.0980928165 -18.4726430267 -2.5000266480
28.1467672255 -18.4885365392 -2.5000266480
31.9476471953 -18.3950965460 -2.5000266480
28.0093446756 -18.4680264796 -2.5000266537
32.0042053070 -18.3993745728 -2.5000266537
27.9203377195 -18.4619778304 -2.5000266595
27.9365160550 -18.4678495345 -2.5000266595
27.8634261913 -18.4667120847 -2.5000266653
27.7900876554 -18.4646079368 -2.5000266710
27.7326910338 -18.4680057173 -2.5000266768
27.6750675898 -18.4708137029 -2.5000266826
32.3543288547 -18.3834770468 -2.5000266826
27.5848590060 -18.4593477669 -2.5000266883
32.3962670136 -18.3909000041 -2.5000266883
32.4543474476 -18.3905213386 -2.5000266941
27.4685183751 -18.4612930190 -2.5000266998
32.4966492097 -18.3972005521 -2.5000266998
32.5126158990 -18.3895349826 -2.5000266998
27.4100463464 -18.4613589655 -2.5000267056
32.6296919017 -18.3857258234 -2.5000267114
32.7315068010 -18.3878066855 -2.5000267229
27.1904538607 -18.4635765635 -2.5000267287
27.2066401191 -18.4716073891 -2.5000267287
32.7746815849 -18.3923956530 -2.5000267287
27.0715253590 -18.4572766716 -2.5000267402
26.8640849010 -18.4552508519 -2.5000267632
33.1892996055 -18.3789616042 -2.5000267748
33.2178371675 -18.3898595649 -2.5000267805
33.2783855952 -18.3808210369 -2.5000267863
26.2637773019 -18.2511933741 -2.5000267978
26.2793393470 -18.2619664059 -2.5000267978
26.3105587022 -18.2833741281 -2.5000267978
26.3891564153 -18.3360820905 -2.5000267978
26.4049690280 -18.3464838567 -2.5000267978
27.0442143746 -18.7147742694 -2.5000267978
33.3838865770 -18.3710771815 -2.5000267978
25.9146800712 -18.0216390297 -2.5000268036
26.0195991437 -18.1033568057 -2.5000268036
26.1108603193 -18.1716588914 -2.5000268036
26.2033193578 -18.2383304991 -2.5000268036
26.2188436167 -18.2492824327 -2.5000268036
26.2344002055 -18.2601883948 -2.5000268036
27.1185934101 -18.7783483182 -2.5000268036
27.1528531658 -18.7947816940 -2.5000268036
27.1872095472 -18.8110120900 -2.5000268036
27.2562073737 -18.8428616771 -2.5000268036
27.2735153384 -18.8506963324 -2.5000268036
25.6798089797 -17.8575492810 -2.5000268094
25.9897951573 -18.1109964192 -2.5000268094
27.3333022317 -18.9036745886 -2.5000268094
27.3682997019 -18.9188354815 -2.5000268094
27.3858319204 -18.9263382150 -2.5000268094
27.4209625569 -18.9411879280 -2.5000268094
27.4561804344 -18.9558295364 -2.5000268094
27.4914843202 -18.9702625278 -2.5000268094
25.7512124434 -17.9504295611 -2.5000268151
27.6070918641 -19.0417134895 -2.5000268151
33.6452823162 -18.2820200990 -2.5000268151
27.7789771186 -19.1301116410 -2.5000268209
32.8706601390 -18.7784744778 -2.5000268209
32.9048199703 -18.7608766929 -2.5000268209
32.9558630092 -18.7341018481 -2.5000268209
32.9728243042 -18.7250763671 -2.5000268209
33.8604483077 -18.1538264741 -2.5000268209
34.1000659039 -17.9612987785 -2.5000268209
25.2133028089 -17.5134581349 -2.5000268266
25.2942213580 -17.5961634282 -2.5000268266
32.6912636536 -18.8934965623 -2.5000268266
32.7434920289 -18.8686116876 -2.5000268266
34.2468322071 -17.8661449343 -2.5000268266
34.2755703052 -17.8404212206 -2.5000268266
34.3041557101 -17.8145279328 -2.5000268266
34.3183908398 -17.8015179817 -2.5000268266
32.5429972747 -18.9874916134 -2.5000268324
33.9662498962 -18.1328379519 -2.5000268324
32.4096689140 -19.0703991423 -2.5000268382
34.6966353556 -17.4960318949 -2.5000268382
24.9119231285 -17.2895335316 -2.5000268439
25.1206696413 -17.5213579502 -2.5000268439
32.2556681298 -19.1572956670 -2.5000268439
34.8067338820 -17.4122204946 -2.5000268439
34.8327766114 -17.3831921590 -2.5000268439
24.5462177264 -16.9052673853 -2.5000268555
32.0510853961 -19.2823174136 -2.5000268555
31.7140189158 -19.4623420575 -2.5000268727
29.8663180258 -14.9441808627 -2.4999991255
26.5771177431 -15.2873786047 -2.4999971804
33.4484115798 -14.2899065958 -2.4999968173
33.4485190347 -14.3664129463 -2.4999967914
33.4387644881 -14.4662477048 -2.4999967654
33.4489284094 -14.5752403523 -2.4999967136
33.4575661324 -14.6187144765 -2.4999966876
33.4387398060 -14.9554521156 -2.4999965579
33.4534950620 -15.3814580058 -2.4999963245
28.0900609299 -18.4437816021 -2.4999951834
28.1701253470 -18.4650297756 -2.4999951834
31.0210844425 -18.4497801533 -2.4999951834
31.0370769636 -18.4454539653 -2.4999951834
27.9876254980 -18.4399251286 -2.4999951575
28.0836877109 -18.4670993499 -2.4999951575
30.9791013875 -18.4858730325 -2.4999951575
31.1235348012 -18.4463429934 -2.4999951575
31.1554848474 -18.4370372570 -2.4999951575
31.2422847783 -18.4360323839 -2.4999951315
27.8296717037 -18.4420020838 -2.4999951056
27.8456551797 -18.4471167060 -2.4999951056
27.8616537157 -18.4521840237 -2.4999951056
31.2814787712 -18.4490664562 -2.4999951056
31.3294010042 -18.4336352356 -2.4999951056
27.7742078266 -18.4493203436 -2.4999950797
31.4486585091 -18.4187956902 -2.4999950797
27.6704986549 -18.4394631284 -2.4999950537
31.4726103211 -18.4359970622 -2.4999950537
31.4885600938 -18.4303352393 -2.4999950537
31.5286638150 -18.4415900750 -2.4999950278
31.5765099655 -18.4239655202 -2.4999950278
27.5741716352 -18.4561999314 -2.4999950019
31.6646900209 -18.4161681396 -2.4999950019
31.6575048217 -18.4448951600 -2.4999949759
31.6894369566 -18.4324303031 -2.4999949759
31.7212947864 -18.4197767430 -2.4999949759
27.4288339553 -18.4524995898 -2.4999949500
27.3398222204 -18.4426370103 -2.4999949241
27.3558097179 -18.4492006930 -2.4999949241
27.2825655113 -18.4449281657 -2.4999948981
31.9083784526 -18.4201849485 -2.4999948981
27.2250935005 -18.4466267093 -2.4999948722
27.2410933022 -18.4535297629 -2.4999948722
31.8378888834 -18.4765357884 -2.4999948722
31.9499403049 -18.4283424011 -2.4999948722
31.9658653452 -18.4212685833 -2.4999948722
27.0935441654 -18.4409392597 -2.4999948203
32.1554210989 -18.4132802179 -2.4999947944
26.9187399229 -18.4382958388 -2.4999947425
32.2989236168 -18.4231884374 -2.4999947166
26.7742769700 -18.4467416970 -2.4999946647
32.4166573097 -18.4165609171 -2.4999946647
26.6991662310 -18.4346666043 -2.4999946388
26.7151329537 -18.4431254982 -2.4999946388
26.5963868456 -18.4340129273 -2.4999945869
26.2082015448 -18.2300210034 -2.4999945610
26.2389577840 -18.2497998153 -2.4999945610
26.8935560922 -18.6141492082 -2.4999945610
25.9226167387 -18.0634891843 -2.4999945350
26.0879350413 -18.1793861722 -2.4999945350
26.1183938127 -18.1998774073 -2.4999945350
26.1796723849 -18.2403174778 -2.4999945350
27.1677190101 -18.7637675116 -2.4999945350
27.2355963328 -18.7917520032 -2.4999945350
25.6883834775 -17.9158199031 -2.4999945091
25.7317936948 -17.9500452642 -2.4999945091
27.3465456984 -18.8613708257 -2.4999945091
27.5642052525 -18.9653235402 -2.4999944832
25.4864062943 -17.8118470884 -2.4999944572
27.6093180614 -19.0058286074 -2.4999944572
25.1812975169 -17.5666958889 -2.4999944313
25.0320413627 -17.4518625818 -2.4999944054
33.2041752780 -18.3929461660 -2.4999942497
33.0854081239 -18.6723388002 -2.4999940682
33.1020499815 -18.6619049956 -2.4999940682
33.1517893456 -18.6303088455 -2.4999940682
33.6330182531 -18.2905658736 -2.4999940682
33.6485283613 -18.2785138097 -2.4999940682
33.7255403978 -18.2175681788 -2.4999940682
33.8917408379 -18.0795209825 -2.4999940682
33.9214721936 -18.0538440296 -2.4999940682
32.7578759339 -18.8917699959 -2.4999940423
32.8783278841 -18.8244385043 -2.4999940423
32.9465233170 -18.7848481713 -2.4999940423
33.9817983825 -18.0331064213 -2.4999940423
34.1275082668 -17.9003328500 -2.4999940423
32.5590475892 -19.0229625244 -2.4999940163
32.6120125190 -18.9961709980 -2.4999940163
32.6296144021 -18.9871361663 -2.4999940163
32.6471894815 -18.9780493047 -2.4999940163
34.2298806336 -17.8359488199 -2.4999940163
32.4089914638 -19.1224011963 -2.4999939904
32.4449187998 -19.1054784345 -2.4999939904
32.5342936181 -19.0622441978 -2.4999939904
34.8196185988 -17.2975730527 -2.4999939385
32.0151656667 -19.3692037282 -2.4999939126
31.8349871917 -19.4616490257 -2.4999938867
32.1356558436 -19.3995347267 -2.4999938348
29.8262179071 -14.9790526588 -2.4999961492
33.4403414194 -13.7249211432 -2.4999897865
33.4436903223 -13.7000196046 -2.4999897865
33.4453095117 -13.6875615143 -2.4999897865
33.4484372955 -13.6626312367 -2.4999897865
33.4386149435 -14.0194413435 -2.4999896540
33.4411790624 -14.0069968695 -2.4999896540
33.4461968053 -13.9820854383 -2.4999896540
33.4486503855 -13.9696186992 -2.4999896540
33.4534468559 -13.9446637194 -2.4999896540
33.4603645241 -13.9071791340 -2.4999896540
33.4431985926 -14.1117349487 -2.4999895877
33.4515993279 -14.0743347318 -2.4999895877
33.4596678264 -14.0368614359 -2.4999895877
33.4622833850 -14.0243546074 -2.4999895877
33.4648619346 -14.0118400963 -2.4999895877
33.4488651265 -14.1921239793 -2.4999895214
33.4579790462 -14.1546703095 -2.4999895214
33.4428330471 -14.3104212071 -2.4999894551
33.4496459214 -14.2854946800 -2.4999894551
33.4529970259 -14.2730164102 -2.4999894551
33.4595884229 -14.2480304043 -2.4999894551
33.4723271686 -14.1979435894 -2.4999894551
33.4409896043 -14.4042606431 -2.4999893889
33.4519864280 -14.3668685105 -2.4999893889
33.4661318535 -14.3168633266 -2.4999893889
33.4488886958 -14.4611589333 -2.4999893226
33.4527594502 -14.4486821350 -2.4999893226
33.4565932791 -14.4361939408 -2.4999893226
33.4394975953 -14.5682907696 -2.4999892563
33.4478361709 -14.5433794630 -2.4999892563
33.4519501532 -14.5309054185 -2.4999892563
33.4407907714 -14.6384280238 -2.4999891900
33.4495442799 -14.6135078388 -2.4999891900
33.4666082275 -14.5635142853 -2.4999891900
33.4409244706 -14.7089128203 -2.4999891237
33.4500949885 -14.6839906107 -2.4999891237
33.4542176347 -14.7423289829 -2.4999890575
33.4476841803 -14.8259432477 -2.4999889912
33.4549888824 -14.8724266539 -2.4999889249
33.4512365920 -14.9441586003 -2.4999888586
33.4517937057 -15.0036835561 -2.4999887924
33.4627079960 -14.9786918815 -2.4999887924
33.4458402484 -15.0759425062 -2.4999887261
33.4515296572 -15.0634720358 -2.4999887261
33.4445712889 -15.1359798835 -2.4999886598
33.4504383046 -15.1235129042 -2.4999886598
33.4485136550 -15.1837949181 -2.4999885935
33.4702779849 -15.1943139118 -2.4999885272
33.4485083755 -15.2925763489 -2.4999884610
33.4673882067 -15.2550825108 -2.4999884610
33.4468105625 -15.4511178213 -2.4999882621
33.4542405671 -15.4877321877 -2.4999881959
33.4684003782 -15.5119963175 -2.4999881296
33.4513251279 -15.6859399361 -2.4999879307
33.4492204504 -15.7359254207 -2.4999878645
33.4543492783 -15.7735968537 -2.4999877982
33.4587332342 -15.9892225703 -2.4999874668
33.4513969896 -16.1692842862 -2.4999872017
27.8510545715 -18.4489245401 -2.4999864064
27.8667463507 -18.4529896993 -2.4999864064
27.8981656422 -18.4609806719 -2.4999864064
28.0401147893 -18.4946340796 -2.4999864064
30.6405187534 -18.4422497888 -2.4999864064
30.7342881942 -18.4164366346 -2.4999864064
30.7498712530 -18.4119728095 -2.4999864064
30.6467274441 -18.4656118829 -2.4999863401
30.7722008145 -18.4306715409 -2.4999863401
30.7878258168 -18.4260955011 -2.4999863401
30.8190348694 -18.4168048572 -2.4999863401
27.6498894089 -18.4428547492 -2.4999862738
27.6655641128 -18.4475150179 -2.4999862738
27.6812525340 -18.4521288976 -2.4999862738
30.8729146430 -18.4256080988 -2.4999862738
30.8885242260 -18.4207341514 -2.4999862738
27.5644614926 -18.4419145046 -2.4999862075
27.5801337888 -18.4468274886 -2.4999862075
27.6115216388 -18.4565142652 -2.4999862075
30.9114263979 -18.4388562267 -2.4999862075
30.9427087841 -18.4288340970 -2.4999862075
30.9583276048 -18.4237536718 -2.4999862075
30.9739313284 -18.4186270655 -2.4999862075
27.4943824495 -18.4447675206 -2.4999861412
27.5257596129 -18.4549616669 -2.4999861412
27.5571965390 -18.4649699970 -2.4999861412
30.9971668969 -18.4363859055 -2.4999861412
31.0518930871 -18.4433853649 -2.4999860750
31.0675544754 -18.4379818891 -2.4999860750
31.1225620312 -18.4442621467 -2.4999860087
31.1538727054 -18.4329907730 -2.4999860087
27.2823928968 -18.4477787684 -2.4999859424
31.2091684329 -18.4383826090 -2.4999859424
31.2248143340 -18.4325139062 -2.4999859424
27.2111859648 -18.4469114734 -2.4999858761
27.2425807689 -18.4587810677 -2.4999858761
31.2647104676 -18.4432075791 -2.4999858761
31.2803703988 -18.4371745518 -2.4999858761
27.0837060831 -18.4487142931 -2.4999857436
27.0994005978 -18.4550494088 -2.4999857436
31.3608088522 -18.4574585801 -2.4999857436
31.4078574485 -18.4383672755 -2.4999857436
27.0117717457 -18.4452037224 -2.4999856773
27.0431599362 -18.4582531482 -2.4999856773
31.4954074303 -18.4278433053 -2.4999856773
26.9709838379 -18.4542064662 -2.4999856110
26.9866950927 -18.4608750107 -2.4999856110
31.4892264831 -18.4567608379 -2.4999856110
26.9142949508 -18.4560750440 -2.4999855447
31.6086084578 -18.4309554194 -2.4999855447
26.8260158839 -18.4432052838 -2.4999854785
26.8416952295 -18.4503027179 -2.4999854785
31.6655183325 -18.4316251117 -2.4999854785
31.7382502693 -18.4243116075 -2.4999854122
26.7116068564 -18.4433018702 -2.4999853459
31.7486156285 -18.4461495243 -2.4999853459
31.7799265121 -18.4311741743 -2.4999853459
31.8374125614 -18.4300466910 -2.4999852796
26.6121164620 -18.4487687678 -2.4999852133
26.6278132013 -18.4564989307 -2.4999852133
26.0652531727 -18.1699376250 -2.4999851471
26.1699481104 -18.2344536353 -2.4999851471
26.1850128015 -18.2434927499 -2.4999851471
26.2152220718 -18.2614370895 -2.4999851471
26.2455369782 -18.2792023868 -2.4999851471
26.2607337134 -18.2880177000 -2.4999851471
26.2759564594 -18.2967880200 -2.4999851471
26.3217794290 -18.3228282549 -2.4999851471
26.3371048839 -18.3314178383 -2.4999851471
26.3832327658 -18.3569140515 -2.4999851471
27.0672553112 -18.6763499238 -2.4999851471
25.9045630798 -18.0940991657 -2.4999850808
25.9192137381 -18.1039239513 -2.4999850808
25.9633391953 -18.1331376724 -2.4999850808
26.0822565542 -18.2091147201 -2.4999850808
27.0748743172 -18.7052669228 -2.4999850808
27.1904372340 -18.7487631347 -2.4999850808
27.2236182570 -18.7607502026 -2.4999850808
27.2568696188 -18.7725407506 -2.4999850808
27.2735213131 -18.7783622004 -2.4999850808
31.9953028229 -18.4312105652 -2.4999850808
25.6882581577 -17.9715266927 -2.4999850145
25.8763891411 -18.1042477648 -2.4999850145
26.3290056522 -18.3822401431 -2.4999850145
27.2823140273 -18.8069882910 -2.4999850145
32.0378448527 -18.4361326250 -2.4999850145
25.4625527681 -17.8283609476 -2.4999849482
25.6882928935 -18.0015149690 -2.4999849482
26.1937005356 -18.3329091847 -2.4999849482
32.1118144566 -18.4237964966 -2.4999849482
25.3100102635 -17.7331589667 -2.4999848820
25.3920342488 -17.8020643220 -2.4999848820
27.7627188801 -19.0002093237 -2.4999848820
32.1546878407 -18.4278250226 -2.4999848820
25.6597843388 -18.0405611395 -2.4999848157
27.8439177583 -19.0448458785 -2.4999848157
27.8788390692 -19.0529615542 -2.4999848157
24.9096231001 -17.4268728781 -2.4999847494
27.9085449922 -19.0844636651 -2.4999847494
27.9788992697 -19.0997207953 -2.4999847494
28.0270076103 -19.1343138454 -2.4999846831
28.1291197702 -19.1785548251 -2.4999846168
32.4025101732 -18.4244270285 -2.4999845506
32.5057262693 -18.4180477159 -2.4999844180
33.1623107399 -18.4087975572 -2.4999834238
32.9338897022 -18.8044186534 -2.4999828936
32.9506108577 -18.7934463116 -2.4999828936
33.0005785524 -18.7602331753 -2.4999828936
33.0171687075 -18.7490637491 -2.4999828936
33.0337257489 -18.7378452952 -2.4999828936
33.0502495316 -18.7265779116 -2.4999828936
33.0667399110 -18.7152616969 -2.4999828936
33.0831967428 -18.7038967503 -2.4999828936
33.1160091881 -18.6810210592 -2.4999828936
33.1486857189 -18.6579516390 -2.4999828936
33.6973417144 -18.2237554575 -2.4999828936
33.7123418228 -18.2105272272 -2.4999828936
33.7273027340 -18.1972546818 -2.4999828936
33.7422243172 -18.1839379373 -2.4999828936
33.7571064417 -18.1705771104 -2.4999828936
33.8455632893 -18.0894929912 -2.4999828936
33.8601655764 -18.0758268822 -2.4999828936
33.8747273729 -18.0621176367 -2.4999828936
33.8892485512 -18.0483653748 -2.4999828936
33.9037289843 -18.0345702168 -2.4999828936
33.9325671083 -18.0068516958 -2.4999828936
33.9469245469 -17.9929285753 -2.4999828936
32.7432576294 -18.9528845574 -2.4999828273
32.7775491197 -18.9320157026 -2.4999828273
32.7946484145 -18.9215052862 -2.4999828273
32.8457587023 -18.8896711863 -2.4999828273
32.8627324359 -18.8789591789 -2.4999828273
33.0804469175 -18.7351728309 -2.4999828273
33.8326245611 -18.1344663053 -2.4999828273
33.9781459950 -17.9962415706 -2.4999828273
33.9924718475 -17.9821836659 -2.4999828273
34.0209984819 -17.9539410291 -2.4999828273
34.1055688675 -17.8682074294 -2.4999828273
34.1195154143 -17.8537731450 -2.4999828273
34.1334192009 -17.8392976674 -2.4999828273
32.5818696883 -19.0752134107 -2.4999827611
32.5993934440 -19.0652812229 -2.4999827611
32.6343524285 -19.0452615498 -2.4999827611
32.6691923581 -19.0250353980 -2.4999827611
32.6865672961 -19.0148451135 -2.4999827611
32.7557633240 -18.9735713378 -2.4999827611
34.0948073828 -17.9138766987 -2.4999827611
34.2745064640 -17.7234343926 -2.4999827611
34.3014973148 -17.6935276728 -2.4999827611
34.3549458461 -17.6332377952 -2.4999827611
34.3681962191 -17.6180668367 -2.4999827611
32.4341795168 -19.1836147684 -2.4999826948
32.4698414939 -19.1645704853 -2.4999826948
34.2924038103 -17.7396830934 -2.4999826948
34.3597863658 -17.6643517051 -2.4999826948
34.4391637052 -17.5726508509 -2.4999826948
34.4522344826 -17.5572310259 -2.4999826948
34.5296960634 -17.4639062587 -2.4999826948
32.2830834466 -19.2883399986 -2.4999826285
34.7789922081 -17.2208231884 -2.4999825622
32.0831332312 -19.4367535272 -2.4999824960
34.7619689373 -17.2843636539 -2.4999824960
34.7863535667 -17.2515806269 -2.4999824960
34.9285499218 -17.0519054060 -2.4999824960
31.9617940691 -19.5166373701 -2.4999824297
31.9806263497 -19.5085375468 -2.4999824297
34.9484860719 -17.0655760022 -2.4999824297
34.9715730158 -17.0316933064 -2.4999824297
31.7128901757 -19.6693409590 -2.4999822971
32.2626679113 -19.4328798190 -2.4999822971
31.5543389463 -19.7786743857 -2.4999821646
35.0716564210 -17.0994553463 -2.4999820983
31.3118379742 -19.9092272813 -2.4999820320
31.3318344506 -19.9030484279 -2.4999820320
31.4911304338 -19.8514937091 -2.4999820320
29.9678224593 -14.6900800743 -2.4999993330
29.9385393731 -15.0572145418 -2.4999990218
33.4436528639 -14.6155247920 -2.4999961430
33.4513109513 -14.5887556298 -2.4999961430
33.4550805706 -14.5753541753 -2.4999961430
33.4510020667 -14.6759165353 -2.4999961171
33.4550295250 -14.6625156132 -2.4999961171
33.4490185489 -14.7634678183 -2.4999960911
33.4533050084 -14.7500723808 -2.4999960911
33.4575518231 -14.7366643217 -2.4999960911
33.4617589557 -14.7232437584 -2.4999960911
33.4588671832 -14.8111824301 -2.4999960652
33.4720306426 -14.7708690902 -2.4999960652
33.4495481371 -14.9128596276 -2.4999960392
33.4773228322 -14.8322670977 -2.4999960392
33.4464982373 -15.1259439805 -2.4999959614
33.4571760863 -15.0991490510 -2.4999959614
33.4780552720 -15.0453720176 -2.4999959614
33.4743126471 -15.1215030550 -2.4999959355
33.4580472995 -15.2247665465 -2.4999959096
33.4693096139 -15.1979015593 -2.4999959096
33.4688357336 -15.2611076848 -2.4999958836
33.4591205787 -15.4016927345 -2.4999958318
33.4775244758 -15.3613538924 -2.4999958318
33.4517043335 -15.5297433800 -2.4999957799
33.4647711043 -15.5029105823 -2.4999957799
33.4534134406 -15.5806862368 -2.4999957540
33.4799906615 -15.5269200143 -2.4999957540
33.4682440637 -15.6049820137 -2.4999957280
33.4551805546 -15.6831796356 -2.4999957021
27.5987267079 -18.4504436056 -2.4999954946
27.6291757589 -18.4581878720 -2.4999954946
27.6596700947 -18.4657518560 -2.4999954946
30.2260220682 -18.4558196806 -2.4999954946
30.2564569438 -18.4480198912 -2.4999954946
30.3020214020 -18.4359829321 -2.4999954946
30.3474772446 -18.4235420880 -2.4999954946
30.3626044364 -18.4193055561 -2.4999954946
33.4724702511 -16.0467566090 -2.4999954946
27.5469052274 -18.4618448192 -2.4999954687
27.5926990724 -18.4738530672 -2.4999954687
30.3691579405 -18.4425732777 -2.4999954687
30.3995119408 -18.4339268802 -2.4999954687
30.4902595836 -18.4069123311 -2.4999954687
27.4185418286 -18.4510419522 -2.4999954427
27.4337631853 -18.4554696207 -2.4999954427
27.4489975732 -18.4598522423 -2.4999954427
30.4822023710 -18.4346535817 -2.4999954427
30.5427570621 -18.4158443139 -2.4999954427
30.5729498866 -18.4061713135 -2.4999954427
32.3529664941 -17.4249347661 -2.4999954427
27.3355067080 -18.4513273340 -2.4999954168
29.5395205570 -18.6552727608 -2.4999954168
30.5652357927 -18.4340506168 -2.4999954168
30.6559595282 -18.4040947515 -2.4999954168
30.6710278414 -18.3989457584 -2.4999954168
32.8325779373 -17.0078370657 -2.4999954168
33.4590552795 -16.2059421500 -2.4999954168
27.2825897286 -18.4600714224 -2.4999953909
27.2978383909 -18.4649012223 -2.4999953909
30.6939986964 -18.4165917205 -2.4999953909
30.7241932959 -18.4060239107 -2.4999953909
27.1684499362 -18.4478799087 -2.4999953649
27.1836630332 -18.4530474081 -2.4999953649
30.7927142385 -18.4070486809 -2.4999953649
30.8615104694 -18.4071625497 -2.4999953390
30.8765869584 -18.4014054863 -2.4999953390
33.4583629016 -16.3395468916 -2.4999953390
27.0458344901 -18.4558715881 -2.4999953131
27.1068808091 -18.4777215360 -2.4999953131
30.9003697938 -18.4181479576 -2.4999953131
30.9305699886 -18.4063591599 -2.4999953131
30.9606999085 -18.3943918940 -2.4999953131
26.9612816337 -18.4501314648 -2.4999952871
26.9917399943 -18.4616470757 -2.4999952871
27.0069945903 -18.4673372549 -2.4999952871
30.9998806842 -18.4046323112 -2.4999952871
26.9069075383 -18.4550288947 -2.4999952612
31.0694303344 -18.4019759620 -2.4999952612
26.8522927215 -18.4593644721 -2.4999952353
30.8651310489 -18.5091257545 -2.4999952353
31.1392066102 -18.3983842310 -2.4999952353
31.1542559163 -18.3918057306 -2.4999952353
26.7669791297 -18.4504691524 -2.4999952093
26.7822016428 -18.4568242638 -2.4999952093
31.1790660055 -18.4072888669 -2.4999952093
26.7271133238 -18.4598616035 -2.4999951834
26.7423637959 -18.4663346040 -2.4999951834
31.2191080022 -18.4158992749 -2.4999951834
31.2492893146 -18.4022247543 -2.4999951834
26.6565649440 -18.4556432486 -2.4999951575
31.2895603081 -18.4103009722 -2.4999951575
31.3046442083 -18.4032776462 -2.4999951575
31.3197072661 -18.3962097300 -2.4999951575
26.3154159936 -18.3187996744 -2.4999951315
26.3748915478 -18.3493018692 -2.4999951315
26.3898165053 -18.3568172892 -2.4999951315
26.4197327895 -18.3717155129 -2.4999951315
31.3300079401 -18.4180782324 -2.4999951315
31.3451146698 -18.4109352210 -2.4999951315
31.3752644079 -18.3965152895 -2.4999951315
25.8968750494 -18.1063377499 -2.4999951056
26.0256882279 -18.1851916289 -2.4999951056
26.2153527815 -18.2929744774 -2.4999951056
27.0427908666 -18.6601768383 -2.4999951056
27.1062548333 -18.6820484973 -2.4999951056
27.1380827557 -18.6927023391 -2.4999951056
27.1699731528 -18.7031676899 -2.4999951056
31.4159512961 -18.4036309937 -2.4999951056
25.7707979248 -18.0535244908 -2.4999950797
25.8839810077 -18.1267847294 -2.4999950797
26.0715047674 -18.2400589688 -2.4999950797
27.2428366775 -18.7516020884 -2.4999950797
33.4638299075 -16.7484060263 -2.4999950797
25.5902722254 -17.9583128364 -2.4999950537
25.6733360946 -18.0167284498 -2.4999950537
26.2669391722 -18.3752960107 -2.4999950537
27.4144646014 -18.8266977475 -2.4999950537
27.4471429232 -18.8355255853 -2.4999950537
27.4635015268 -18.8398669643 -2.4999950537
27.5126533906 -18.8526004874 -2.4999950537
27.5619163218 -18.8648973138 -2.4999950537
31.4827067085 -18.4245431831 -2.4999950537
25.5348780510 -17.9480775344 -2.4999950278
25.7582212649 -18.1031794516 -2.4999950278
27.6554272543 -18.9117545395 -2.4999950278
31.5843144501 -18.3997286519 -2.4999950278
27.7501743859 -18.9570356662 -2.4999950019
27.8003547675 -18.9672205145 -2.4999950019
31.6257175091 -18.4052503833 -2.4999950019
27.8629766047 -19.0038719229 -2.4999949759
27.9304499133 -19.0160147024 -2.4999949759
31.6823613839 -18.4023190086 -2.4999949759
33.4568059146 -16.9150973770 -2.4999949759
31.7089956715 -18.4153549103 -2.4999949500
28.0757480613 -19.0882464602 -2.4999949241
31.8350590332 -18.4281394712 -2.4999948722
31.9349929757 -18.4261741266 -2.4999948203
32.0203569447 -18.4315489649 -2.4999947684
32.0783945214 -18.4244340389 -2.4999947425
32.1775104875 -18.4480088836 -2.4999946647
32.2078649975 -18.4286635701 -2.4999946647
32.2361112503 -18.4392315181 -2.4999946388
32.2512765906 -18.4294079966 -2.4999946388
32.4701353459 -18.4280747425 -2.4999945091
32.5876534474 -18.4340439716 -2.4999944313
32.6169182128 -18.4428036233 -2.4999944054
32.7061149161 -18.4376441781 -2.4999943535
33.4414364588 -17.8717410529 -2.4999943016
32.9624312610 -18.8192567043 -2.4999938607
32.9787176066 -18.8072829341 -2.4999938607
33.0596141176 -18.7466943101 -2.4999938607
33.0756853854 -18.7344333730 -2.4999938607
33.1236805852 -18.6973660644 -2.4999938607
33.1554938165 -18.6724185266 -2.4999938607
33.1713449435 -18.6598742849 -2.4999938607
33.6582099063 -18.2343470027 -2.4999938607
33.6727629389 -18.2203175527 -2.4999938607
33.7017441812 -18.1921298084 -2.4999938607
33.7449020878 -18.1495279344 -2.4999938607
33.7592038309 -18.1352424043 -2.4999938607
33.7876802272 -18.1065447357 -2.4999938607
33.8300752302 -18.0631835977 -2.4999938607
33.8441211785 -18.0486464879 -2.4999938607
32.8113542309 -18.9562358164 -2.4999938348
32.8447044889 -18.9331315755 -2.4999938348
32.8944721195 -18.8981062684 -2.4999938348
32.9767211578 -18.8387537331 -2.4999938348
32.9930651167 -18.8267376055 -2.4999938348
33.1225226130 -18.7288788569 -2.4999938348
33.8895915654 -18.0361156275 -2.4999938348
33.9035571813 -18.0214025760 -2.4999938348
33.9174792123 -18.0066482761 -2.4999938348
33.9727290556 -17.9472211798 -2.4999938348
33.9864313420 -17.9322625815 -2.4999938348
34.0407961921 -17.8720248189 -2.4999938348
34.0542757362 -17.8568651948 -2.4999938348
34.1077437000 -17.7958299441 -2.4999938348
32.6214272617 -19.1110664980 -2.4999938089
32.6556968739 -19.0890832191 -2.4999938089
32.7068559308 -19.0557291073 -2.4999938089
32.7238429228 -19.0445103406 -2.4999938089
32.7407966533 -19.0332413723 -2.4999938089
32.7577169740 -19.0219223011 -2.4999938089
34.1126743986 -17.8270226741 -2.4999938089
34.1260205037 -17.8116506182 -2.4999938089
34.1393210771 -17.7962391493 -2.4999938089
34.1657851635 -17.7652985125 -2.4999938089
34.2051369085 -17.7185953431 -2.4999938089
32.4253932189 -19.2595072251 -2.4999937829
32.4780737622 -19.2281902180 -2.4999937829
32.4955719264 -19.2176474756 -2.4999937829
32.5478782244 -19.1857093202 -2.4999937829
34.3396444170 -17.5914107459 -2.4999937829
34.3522925463 -17.5753683025 -2.4999937829
34.3774461593 -17.5431715206 -2.4999937829
32.3310970851 -19.3417802180 -2.4999937570
32.4022558862 -19.3010304647 -2.4999937570
32.5954009912 -19.1846594524 -2.4999937570
33.3271165268 -18.6582831278 -2.4999937570
34.5077429464 -17.4107797573 -2.4999937570
34.5559008745 -17.3444101006 -2.4999937570
32.2530544297 -19.4127498702 -2.4999937310
32.6950330262 -19.1500068161 -2.4999937310
34.0160072387 -18.0428539073 -2.4999937310
34.5875077416 -17.3417513209 -2.4999937310
34.5994162487 -17.3249767453 -2.4999937310
34.6348433092 -17.2744426825 -2.4999937310
32.1187280854 -19.5113318090 -2.4999937051
32.1553745998 -19.4923156619 -2.4999937051
32.1919079668 -19.4730830346 -2.4999937051
34.5467045612 -17.4394037630 -2.4999937051
34.7586292816 -17.1342370120 -2.4999937051
34.8145861032 -17.0475058103 -2.4999937051
32.0002157962 -19.5978877595 -2.4999936792
32.0373764788 -19.5795712561 -2.4999936792
32.1297984000 -19.5328209555 -2.4999936792
31.9734417365 -19.6377603158 -2.4999936532
32.0108387871 -19.6196015189 -2.4999936532
34.9321028076 -16.9497701720 -2.4999936532
31.7662928934 -19.7863083206 -2.4999936014
32.1443895882 -19.6068456960 -2.4999936014
31.6988888619 -19.8417474551 -2.4999935754
31.4628042785 -19.9888352838 -2.4999935236
31.8534072317 -19.8269633427 -2.4999935236
35.4300643188 -16.2649137578 -2.4999935236
29.9566757636 -14.6899391379 -2.5000047527
27.3754670518 -18.4525082707 -2.5000115131
27.3900623689 -18.4562433628 -2.5000115131
29.8951276491 -18.4576634282 -2.5000115131
29.9388929566 -18.4463783191 -2.5000115131
29.9680134450 -18.4386393301 -2.5000115131
27.2962865064 -18.4565038400 -2.5000115621
27.3108939896 -18.4604731450 -2.5000115621
27.3255131508 -18.4643992211 -2.5000115621
29.9742911820 -18.4619829652 -2.5000115621
30.0326680259 -18.4459128955 -2.5000115621
33.4580172982 -15.2591341242 -2.5000115621
33.4682193890 -15.2306305959 -2.5000115621
27.1875171811 -18.4506920500 -2.5000116111
27.2021079479 -18.4549831398 -2.5000116111
27.2605960362 -18.4717153200 -2.5000116111
33.4597442522 -15.3244393667 -2.5000116111
30.2067924143 -18.4442558557 -2.5000116601
30.2794458159 -18.4206235818 -2.5000116601
30.2939341062 -18.4157683190 -2.5000116601
30.3161905510 -18.4337561688 -2.5000117090
30.3742094673 -18.4136425630 -2.5000117090
33.4605673537 -15.4558875859 -2.5000117090
26.9758220391 -18.4596963538 -2.5000117580
26.9904403685 -18.4646136367 -2.5000117580
27.0050731801 -18.4694876544 -2.5000117580
27.0343817378 -18.4791057240 -2.5000117580
30.4403082863 -18.4155392390 -2.5000117580
33.4537088930 -15.5362399452 -2.5000117580
33.4655505103 -15.5077570570 -2.5000117580
26.9094848640 -18.4624023517 -2.5000118070
30.5211681363 -18.4110261293 -2.5000118070
33.4517023260 -15.6026019594 -2.5000118070
33.4578405187 -15.5883749181 -2.5000118070
26.8136338359 -18.4534758692 -2.5000118560
26.8282344736 -18.4588729614 -2.5000118560
30.4861497161 -18.4501257440 -2.5000118560
30.5733515859 -18.4166791994 -2.5000118560
33.4551306301 -15.6549786369 -2.5000118560
26.7613130803 -18.4596113464 -2.5000119050
30.5676494786 -18.4448792276 -2.5000119050
30.6402726283 -18.4159096701 -2.5000119050
33.4644548055 -15.6933332228 -2.5000119050
26.6941209952 -18.4594543107 -2.5000119540
30.7074441201 -18.4142388487 -2.5000119540
33.4536779505 -15.7746320972 -2.5000119540
26.6705705881 -18.4761161557 -2.5000120030
26.2849868110 -18.3314279455 -2.5000120520
26.3134911638 -18.3453087042 -2.5000120520
26.4716972449 -18.4186213413 -2.5000120520
30.8569393449 -18.4016486146 -2.5000120520
33.4623515398 -16.0815731062 -2.5000122479
31.1115317631 -18.4138318261 -2.5000122969
31.1548601895 -18.3917535388 -2.5000122969
31.2349710289 -18.4044326446 -2.5000123949
33.4393688571 -16.2730429195 -2.5000123949
31.3734676684 -18.3839526151 -2.5000124929
31.3997310195 -18.3969088339 -2.5000125418
31.4285332627 -18.3805279022 -2.5000125418
33.4463607767 -16.5878825874 -2.5000127378
31.9009808142 -18.3715769829 -2.5000130317
32.1847077799 -18.3795974534 -2.5000133746
33.0658627878 -18.7631029368 -2.5000150892
33.0813520022 -18.7500034502 -2.5000150892
33.2038569401 -18.6435698172 -2.5000150892
32.9238945543 -18.9104890485 -2.5000151382
32.9398203847 -18.8978088847 -2.5000151382
33.0031465183 -18.8466187853 -2.5000151382
33.6436057885 -18.2507665542 -2.5000151382
33.6575768914 -18.2359602410 -2.5000151382
33.7677565334 -18.1160351809 -2.5000151382
33.7948555893 -18.0856491308 -2.5000151382
33.8217743969 -18.0551032853 -2.5000151382
33.8618125831 -18.0089872413 -2.5000151382
33.8750675042 -17.9935364908 -2.5000151382
33.8882766613 -17.9780465974 -2.5000151382
33.9014399386 -17.9625176968 -2.5000151382
33.9145572211 -17.9469499248 -2.5000151382
33.9665641123 -17.8842928522 -2.5000151382
32.7934136880 -19.0418014055 -2.5000151872
32.9068473709 -18.9547295563 -2.5000151872
33.2053907233 -18.7067571503 -2.5000151872
33.9461831111 -17.9468372147 -2.5000151872
34.0621358684 -17.8041587846 -2.5000151872
34.0999375979 -17.7559195492 -2.5000151872
32.6589638301 -19.1699734283 -2.5000152362
33.2213523942 -18.7249109473 -2.5000152362
34.2544114722 -17.5904141466 -2.5000152362
32.4863890521 -19.3177126872 -2.5000152852
32.5376847741 -19.2833977192 -2.5000152852
34.4268364459 -17.3851892869 -2.5000152852
32.3259909800 -19.4493209164 -2.5000153342
32.2680864626 -19.5131432037 -2.5000153832
32.1372792458 -19.6181668837 -2.5000154321
32.1732939534 -19.5974009949 -2.5000154321
34.7287166595 -17.0373118406 -2.5000154321
31.7840504005 -19.8882345938 -2.5000155791
34.9430591048 -16.7974793106 -2.5000155791
29.9190334015 -14.8534679326 -2.5000060536
27.1578057337 -18.4651727538 -2.5000139147
29.7104665845 -18.4515131037 -2.5000139147
27.0128003556 -18.4492726006 -2.5000139781
27.0959236564 -18.4733184841 -2.5000139781
29.7169512732 -18.4748000978 -2.5000139781
29.8139182145 -18.4467129021 -2.5000139781
29.8762989873 -18.4528272113 -2.5000140415
29.9039300852 -18.4440649076 -2.5000140415
29.9177260729 -18.4396224908 -2.5000140415
29.8974280931 -18.4715086707 -2.5000141049
29.9942881905 -18.4396852608 -2.5000141049
30.0159211109 -18.4578383829 -2.5000141683
30.1345962761 -18.4411758251 -2.5000142317
30.2258742918 -18.4323349787 -2.5000142951
33.4542777220 -15.0931678000 -2.5000148657
33.4581456157 -15.0782374744 -2.5000148657
33.4619693259 -15.0632957722 -2.5000148657
33.4399158375 -12.4092761958 -2.5000148657
33.4616827564 -15.1591458926 -2.5000149291
33.4657457928 -15.1441933729 -2.5000149291
33.4697645792 -15.1292288994 -2.5000149291
33.4776692617 -15.0992646150 -2.5000149291
33.4891935435 -15.0542318122 -2.5000149291
33.4423474439 -12.3283270093 -2.5000149291
33.4551863367 -15.2703224620 -2.5000149925
33.4767037239 -15.1955255593 -2.5000149925
33.4479874695 -12.2619072159 -2.5000149925
33.4389284950 -12.2321219551 -2.5000149925
33.4509642200 -15.3669113719 -2.5000150559
33.4556419112 -15.3519896505 -2.5000150559
33.4602754408 -15.3370541569 -2.5000150559
33.4648647682 -15.3221050219 -2.5000150559
33.4596567006 -15.4190618685 -2.5000151193
33.4418067972 -12.0833432249 -2.5000151193
31.0601001561 -18.4074544936 -2.5000151827
33.4577121142 -15.5013906740 -2.5000151827
33.4728058250 -15.4565191445 -2.5000151827
33.4389812411 -12.0010399451 -2.5000151827
30.9891599015 -18.4749627108 -2.5000152460
33.4597519930 -15.5690862903 -2.5000152460
33.4553725036 -15.6520063287 -2.5000153094
33.4629918935 -11.9250043806 -2.5000153094
31.2737248817 -18.3926011888 -2.5000154362
33.4545300065 -15.7887903435 -2.5000154362
33.4463651753 -15.9958099334 -2.5000156264
33.4501080642 -16.1051251756 -2.5000157532
33.4417319068 -16.5501562268 -2.5000162604
31.9993036016 -18.3564202691 -2.5000164506
33.1023267219 -18.7780751615 -2.5000191766
33.1611592367 -18.7221926044 -2.5000191766
33.1903265001 -18.6939912500 -2.5000191766
33.2048474358 -18.6798259847 -2.5000191766
33.2337632794 -18.6513668978 -2.5000191766
33.2481579345 -18.6370733251 -2.5000191766
33.3053118409 -18.5794750964 -2.5000191766
32.9224801916 -18.9730668104 -2.5000192400
33.7815314247 -18.0786932899 -2.5000192400
33.8941093695 -17.9341520960 -2.5000192400
33.9670063352 -17.8361484117 -2.5000192400
33.9909173600 -17.8031949025 -2.5000192400
32.8294210037 -19.0839787221 -2.5000193034
33.6171016649 -18.3133141957 -2.5000193034
33.6967716994 -18.2201671714 -2.5000193034
33.7098887618 -18.2045058228 -2.5000193034
33.9133763932 -17.9487506261 -2.5000193034
34.0579254305 -17.7507719074 -2.5000193034
32.5716407187 -19.3187984077 -2.5000193668
32.7336973743 -19.1932563841 -2.5000193668
34.4608709281 -17.2528954532 -2.5000194936
34.5215875575 -17.1449400889 -2.5000194936
32.2421954864 -19.6384666629 -2.5000195570
34.5920584331 -17.0655136339 -2.5000195570
32.1328420096 -19.7370773764 -2.5000196204
29.5163103115 -18.4715346981 -2.5000022853
29.5812241407 -18.4518964872 -2.5000022853
29.5941716530 -18.4478537496 -2.5000022853
29.6403849102 -18.4584945238 -2.5000022911
29.6663059198 -18.4500206347 -2.5000022911
29.6998912176 -18.4643023986 -2.5000022968
29.7128749096 -18.4599085680 -2.5000022968
29.7727308608 -18.4647419965 -2.5000023026
29.8329089380 -18.4687699625 -2.5000023084
30.3271263831 -18.4431771062 -2.5000023487
30.3400448382 -18.4369278930 -2.5000023487
30.3529447505 -18.4306404920 -2.5000023487
30.4152359252 -18.4266966412 -2.5000023545
29.7527841439 -18.8540217814 -2.5000023890
29.3829896862 -19.0315959726 -2.5000024063
28.1117111011 -19.2130933698 -2.5000024179
27.5638361738 -19.4400678830 -2.5000024813
33.4410803004 -15.4831780590 -2.5000024813
33.4493318200 -15.4522700525 -2.5000024813
33.4533889702 -15.4367978774 -2.5000024813
33.4574003331 -15.4213137682 -2.5000024813
33.4628700208 -12.7461807261 -2.5000024813
33.4468031041 -12.6842502156 -2.5000024813
33.4426719621 -12.6687976322 -2.5000024813
33.4428934762 -15.5668783984 -2.5000024870
33.4472896868 -15.5514247676 -2.5000024870
33.4489585377 -12.6005579906 -2.5000024870
33.4339408054 -15.6818086551 -2.5000024928
33.4386770396 -15.6663810051 -2.5000024928
33.4433676153 -15.6509394119 -2.5000024928
33.4526116274 -15.6200149368 -2.5000024928
33.4404759221 -12.4855920849 -2.5000024928
33.4275348352 -15.7816114507 -2.5000024985
33.4375522241 -15.7507783607 -2.5000024985
33.4473870187 -15.7198865440 -2.5000024985
33.4443693460 -12.4166377241 -2.5000024985
33.4402581225 -15.8200577417 -2.5000025043
33.4505027498 -15.7891487035 -2.5000025043
33.4473585236 -12.3473699875 -2.5000025043
33.4312127003 -15.9204922678 -2.5000025101
33.4366550157 -15.9050716437 -2.5000025101
33.4420516903 -15.8896349877 -2.5000025101
33.4474026769 -15.8741824348 -2.5000025101
33.4579673991 -15.8432301798 -2.5000025101
33.4494365963 -12.2778006576 -2.5000025101
33.4441030914 -12.2623420622 -2.5000025101
33.4429262704 -15.9594981704 -2.5000025158
33.4370645363 -16.0450737260 -2.5000025216
33.4733651869 -12.1998213837 -2.5000025216
33.4621907008 -12.1687798332 -2.5000025216
33.4508327580 -12.1378049380 -2.5000025216
33.4175427347 -16.1616673387 -2.5000025274
33.4298088367 -16.1308867137 -2.5000025274
33.4418926156 -16.1000340570 -2.5000025274
33.4677308509 -12.1138867092 -2.5000025274
33.4441819974 -12.0519429476 -2.5000025274
33.4485060490 -11.9967471560 -2.5000025331
33.4647804372 -11.9723029228 -2.5000025389
33.4585431476 -11.9568002742 -2.5000025389
33.4522600257 -11.9413161445 -2.5000025389
33.4132114838 -16.3588450082 -2.5000025446
33.4618878609 -11.9011494804 -2.5000025446
33.4424072171 -11.8547256987 -2.5000025446
33.4157198870 -16.4708981304 -2.5000025562
33.4600635153 -11.7736699048 -2.5000025562
33.4614994939 -11.7173563725 -2.5000025619
33.4545080406 -11.7018645450 -2.5000025619
33.4551881910 -11.6453429553 -2.5000025677
33.4479837367 -11.6298701129 -2.5000025677
33.4626020283 -11.6041179413 -2.5000025735
33.2992162323 -11.2834759436 -2.5000025735
33.2826233867 -11.2534807543 -2.5000025735
33.2658533699 -11.2235842589 -2.5000025735
33.4136421132 -16.6973640262 -2.5000025792
33.4290776449 -16.6665971030 -2.5000025792
33.7293556277 -12.1998836295 -2.5000025792
33.7181770296 -12.1673275526 -2.5000025792
33.7125155494 -12.1510744577 -2.5000025792
33.6952429801 -12.1024166542 -2.5000025792
33.3204030472 -11.2718374660 -2.5000025792
27.5109480812 -19.8719561569 -2.5000025850
33.4195341436 -16.7390701570 -2.5000025850
33.8155127525 -12.3895914772 -2.5000025850
33.7466532228 -12.1757470461 -2.5000025850
33.4170804490 -16.7963201309 -2.5000025908
33.8386604853 -12.3826260087 -2.5000025908
33.4103447586 -16.9113103805 -2.5000026023
