55.9604253678 -31.0901698690 -1.2999866009
55.9378321297 -30.9044288262 -1.2999866009
55.9400910340 -30.7447985284 -1.2999866009
55.9444531283 -30.6811328420 -1.2999866009
55.9897426197 -30.7412734478 -1.2999866009
55.9711587213 -30.6846490822 -1.2999866009
55.9541621126 -30.5638739998 -1.2999866009
55.9932974441 -30.6008459651 -1.2999866009
55.9511391293 -30.4878345863 -1.2999866009
55.9781738687 -30.4248899178 -1.2999866009
55.9627500059 -30.3252107042 -1.2999866009
55.9718733398 -30.2265942867 -1.2999866009
55.9458808513 -29.6159409426 -1.2999866009
55.9728220964 -29.5678087816 -1.2999866009
50.6355723441 -26.5781315900 -1.2999866009
50.6196306995 -26.5826416456 -1.2999866009
50.6130157822 -26.5593913091 -1.2999866009
50.5650658005 -26.5732637664 -1.2999866009
50.5491100645 -26.5779824144 -1.2999866009
50.5331683569 -26.5827482418 -1.2999866009
53.7236755137 -26.5435102800 -1.2999866009
50.4942326685 -26.5693128824 -1.2999866009
50.4782655550 -26.5742410849 -1.2999866009
53.8108217449 -26.5442296740 -1.2999866009
50.4071090577 -26.5714246575 -1.2999866009
50.3752034979 -26.5818436902 -1.2999866009
53.9303428593 -26.5567703199 -1.2999866009
53.9143236081 -26.5515339419 -1.2999866009
53.8982889369 -26.5463449747 -1.2999866009
50.3516342238 -26.5641899226 -1.2999866009
50.3037371200 -26.5803818057 -1.2999866009
54.0020786599 -26.5553143893 -1.2999866009
50.2958941445 -26.5575164823 -1.2999866009
50.2319884434 -26.5798600494 -1.2999866009
54.0580710775 -26.5491398340 -1.2999866009
54.0420286951 -26.5435256463 -1.2999866009
54.0259697752 -26.5379589393 -1.2999866009
54.1623921939 -26.5611608177 -1.2999866009
54.1303601860 -26.5493625138 -1.2999866009
54.0015509816 -26.5040705145 -1.2999866009
50.0558540278 -26.5939712362 -1.2999866009
54.2189306373 -26.5566302629 -1.2999866009
54.2029097092 -26.5505401906 -1.2999866009
49.9833476787 -26.5967370214 -1.2999866009
49.9265065442 -26.5938616489 -1.2999866009
49.7962635869 -26.5968228555 -1.2999866009
49.7387740332 -26.5958910319 -1.2999866009
49.7228888481 -26.6030539014 -1.2999866009
49.6651972561 -26.6028917236 -1.2999866009
54.5789993948 -26.5489013111 -1.2999866009
49.6231971266 -26.5958278303 -1.2999866009
49.6073122602 -26.6033325975 -1.2999866009
49.5651220578 -26.5967033758 -1.2999866009
54.7273801003 -26.5641993538 -1.2999866009
49.5227647013 -26.5903863098 -1.2999866009
49.5068641774 -26.5981881981 -1.2999866009
54.8124654206 -26.5516518231 -1.2999866009
54.9192391020 -26.5782142020 -1.2999866009
49.3310564410 -26.6063310718 -1.2999866009
55.0213834398 -26.5770490720 -1.2999866009
49.2606871088 -26.5889925082 -1.2999866009
49.2447836084 -26.5975696755 -1.2999866009
55.0806680891 -26.5814852051 -1.2999866009
58.1744507104 -30.5790159430 -1.2999866009
49.6001191735 -26.2871766895 -1.2999866009
49.4996724374 -26.3333665345 -1.2999866009
49.4830117035 -26.3412378584 -1.2999866009
49.3670487207 -26.3977122430 -1.2999866009
48.8685247858 -26.6761746998 -1.2999866009
48.8372658902 -26.6956946804 -1.2999866009
48.7596286826 -26.7453007311 -1.2999866009
48.7441897626 -26.7553594359 -1.2999866009
48.5763594967 -26.8689969284 -1.2999866009
48.5612872943 -26.8795972354 -1.2999866009
49.7088757068 -26.2133005508 -1.2999866009
48.3830252689 -26.9798313874 -1.2999866009
49.8541218444 -26.1278028879 -1.2999866009
49.8196013473 -26.1415013427 -1.2999866009
48.3094527261 -27.0056649250 -1.2999866009
55.4200572046 -26.5813941012 -1.2999866009
49.9846813729 -26.0523604757 -1.2999866009
49.8974034951 -26.0850661781 -1.2999866009
58.3157714769 -30.5463890966 -1.2999866009
55.4804624630 -26.5900500880 -1.2999866009
50.1530007310 -25.9679052706 -1.2999866009
47.8380740489 -27.3430645082 -1.2999866009
50.4079533440 -25.8386308755 -1.2999866009
56.4539990347 -26.9431422817 -1.2999866009
56.4391116997 -26.9304387818 -1.2999866009
56.4241868505 -26.9177793769 -1.2999866009
56.3034532901 -26.8181047702 -1.2999866009
56.2422104251 -26.7693458639 -1.2999866009
56.1492751093 -26.6975747364 -1.2999866009
55.4989813890 -26.2625776317 -1.2999866009
55.4312215868 -26.2233765009 -1.2999866009
56.7604460994 -27.1888946882 -1.2999866009
56.6604743458 -27.0945021246 -1.2999866009
56.6460338571 -27.0811871711 -1.2999866009
56.6024769491 -27.0414994298 -1.2999866009
56.1482103168 -26.6664682641 -1.2999866009
55.3575465353 -26.1543371505 -1.2999866009
55.2538352792 -26.0983640671 -1.2999866009
56.8894612338 -27.2822777153 -1.2999866009
56.8755752174 -27.2682845556 -1.2999866009
56.8336696546 -27.2265523958 -1.2999866009
56.8055275750 -27.1989382720 -1.2999866009
57.0706017681 -27.4369783844 -1.2999866009
57.0030278399 -27.3647291303 -1.2999866009
56.9757002962 -27.3361106082 -1.2999866009
56.9619731498 -27.3218621022 -1.2999866009
57.1551162683 -27.4941027623 -1.2999866009
54.7676441193 -25.7874122202 -1.2999866009
57.1996175301 -27.5077704607 -1.2999866009
57.4741926676 -27.7218975766 -1.2999866009
59.4934445315 -30.2744987105 -1.2999866009
52.5190299266 -30.4604353861 -1.2999867844
52.4850156030 -30.1944668555 -1.2999868161
55.9405903341 -30.4171970970 -1.2999870524
55.9719141835 -30.4276131073 -1.2999870553
55.9673282163 -30.3043619873 -1.2999870610
55.9418734208 -30.2532573146 -1.2999870610
49.0610550319 -30.0913450430 -1.2999870697
55.9393333041 -29.6778372246 -1.2999870956
49.0551617748 -28.7575465815 -1.2999871648
53.8493124069 -26.5643330821 -1.2999872685
53.7203146477 -26.5339147375 -1.2999872685
51.1910309533 -26.5542458093 -1.2999872685
51.1266887963 -26.5701097606 -1.2999872685
53.9518100234 -26.5657920879 -1.2999872714
53.9357290327 -26.5615197479 -1.2999872714
51.0402610104 -26.5676631561 -1.2999872714
50.9213445415 -26.5758325598 -1.2999872743
54.1418270976 -26.5696418350 -1.2999872772
53.9155973677 -26.5063021975 -1.2999872772
50.9145910581 -26.5526220935 -1.2999872772
50.8341992667 -26.5766597360 -1.2999872772
54.1971545836 -26.5613552268 -1.2999872800
54.1810593944 -26.5563571326 -1.2999872800
54.0193214884 -26.5090030901 -1.2999872800
50.7949109502 -26.5635416333 -1.2999872800
54.3730308860 -26.5682426521 -1.2999872858
54.3569553015 -26.5627242538 -1.2999872858
54.3408634629 -26.5572534342 -1.2999872858
50.8291660982 -26.5023703306 -1.2999872858
50.6190436453 -26.5706551019 -1.2999872858
54.4453200368 -26.5680341375 -1.2999872887
50.5789095077 -26.5590812600 -1.2999872887
50.5628234231 -26.5647865991 -1.2999872887
54.5906841783 -26.5704836430 -1.2999872944
54.5746142708 -26.5643213771 -1.2999872944
54.4778184238 -26.5283484981 -1.2999872944
54.6476717726 -26.5667756373 -1.2999872973
50.3604740757 -26.5631895842 -1.2999872973
54.7784090147 -26.5678379115 -1.2999873031
50.1655761874 -26.5912709086 -1.2999873031
50.0500127721 -26.5895038881 -1.2999873089
55.0584413520 -26.5868556542 -1.2999873146
49.9336576682 -26.5901490281 -1.2999873146
55.2933389558 -26.5951892419 -1.2999873261
49.2569214954 -26.5965355342 -1.2999873521
56.4846793798 -26.9325280361 -1.2999873694
56.4244426465 -26.8857285978 -1.2999873694
56.3636563773 -26.8396451849 -1.2999873694
56.2093425239 -26.7276113566 -1.2999873694
55.3918781232 -26.2384584683 -1.2999873694
49.6338878632 -26.2251255382 -1.2999873694
49.5827541373 -26.2507838746 -1.2999873694
48.5378840332 -26.9141268123 -1.2999873694
56.7357890527 -27.1084809649 -1.2999873722
56.7213012528 -27.0959707370 -1.2999873722
56.5744124044 -26.9732465087 -1.2999873722
56.5595252626 -26.9612142538 -1.2999873722
49.6574855037 -26.1865559009 -1.2999873722
48.3297090496 -27.0517153034 -1.2999873722
48.2859622008 -27.0889149452 -1.2999873722
56.9090922159 -27.2311461115 -1.2999873751
55.0475936557 -26.0255387625 -1.2999873751
49.8733119700 -26.0594773985 -1.2999873751
49.6296201153 -26.1733034918 -1.2999873751
48.2121930935 -27.1209574903 -1.2999873751
48.1690653579 -27.1591972936 -1.2999873751
57.1470054272 -27.4281659018 -1.2999873780
57.0236604056 -27.3060677214 -1.2999873780
54.8965422062 -25.9373454438 -1.2999873780
48.0251507652 -27.2586115372 -1.2999873780
47.9417089191 -27.3387703511 -1.2999873780
47.9142127556 -27.3658175084 -1.2999873780
57.3372047675 -27.5939506720 -1.2999873809
57.1777917804 -27.4250334119 -1.2999873809
57.0682289853 -27.3156113445 -1.2999873809
54.7607684271 -25.8596381010 -1.2999873809
50.1398722821 -25.8967821240 -1.2999873809
50.3316980355 -25.8004250798 -1.2999873838
50.2767678524 -25.8199074665 -1.2999873838
49.0406497002 -26.0784716531 -1.2999874184
60.5918308360 -28.5642857769 -1.2999876489
52.5226294856 -30.4649484583 -1.2999866009
55.9597702762 -29.8551023137 -1.2999866009
55.9479485943 -29.7122621758 -1.2999866009
49.0573839634 -30.7500096258 -1.2999866009
49.0380209677 -30.7313298878 -1.2999866009
49.0187355288 -30.7125249819 -1.2999866009
49.0599284632 -30.5241935967 -1.2999866009
49.0514416235 -30.5466232675 -1.2999866009
49.0597079803 -30.3942486989 -1.2999866009
49.0588673060 -30.2742399620 -1.2999866009
49.0624458415 -30.2081988335 -1.2999866009
49.0469610070 -30.2418521739 -1.2999866009
48.9975129191 -30.3549979080 -1.2999866009
48.9897885943 -30.3113522377 -1.2999866009
49.0508477319 -30.1201329401 -1.2999866009
49.0073723968 -30.1548466562 -1.2999866009
49.0516782896 -29.9074020844 -1.2999866009
49.0366087233 -29.6899823014 -1.2999866009
49.0454998176 -29.2782368197 -1.2999866009
54.4112357949 -26.5671343324 -1.2999866009
54.1376734334 -26.4953233682 -1.2999866009
54.5140126186 -26.5726551194 -1.2999866009
54.4980393815 -26.5677468007 -1.2999866009
54.3375353971 -26.5212705217 -1.2999866009
54.2405978419 -26.4956707950 -1.2999866009
51.2204949349 -26.5601845325 -1.2999866009
54.6170840615 -26.5801294004 -1.2999866009
54.6011324837 -26.5749161451 -1.2999866009
54.3439146953 -26.4979544363 -1.2999866009
51.1814216457 -26.5467929611 -1.2999866009
51.1333604457 -26.5617857609 -1.2999866009
54.6885485639 -26.5785785372 -1.2999866009
54.3502939935 -26.4746383510 -1.2999866009
51.1100006921 -26.5438556717 -1.2999866009
51.0619162378 -26.5594824081 -1.2999866009
54.8080713081 -26.5951610361 -1.2999866009
54.7921633610 -26.5893827401 -1.2999866009
54.7762383903 -26.5836515281 -1.2999866009
54.7602965352 -26.5779674500 -1.2999866009
51.0061957558 -26.5526472684 -1.2999866009
54.8641792863 -26.5901439905 -1.2999866009
54.8163577805 -26.5724526751 -1.2999866009
54.7683811574 -26.5551864455 -1.2999866009
50.9341786182 -26.5520109573 -1.2999866009
54.9682299373 -26.6043165486 -1.2999866009
54.9523483731 -26.5980644344 -1.2999866009
54.9045936849 -26.5795903559 -1.2999866009
50.8618898429 -26.5523236412 -1.2999866009
50.8458724413 -26.5582190511 -1.2999866009
55.0248498777 -26.6009544279 -1.2999866009
54.9292183069 -26.5631435696 -1.2999866009
50.7733285091 -26.5597016600 -1.2999866009
55.0816958547 -26.5981764356 -1.2999866009
50.7807578297 -26.5309940791 -1.2999866009
50.7165471401 -26.5558211347 -1.2999866009
55.1546488402 -26.6027898808 -1.2999866009
55.1069281213 -26.5825203131 -1.2999866009
50.6595342929 -26.5525240967 -1.2999866009
50.6435183696 -26.5590181101 -1.2999866009
55.2119335479 -26.6013607603 -1.2999866009
50.5542842856 -26.5699464399 -1.2999866009
55.2852975045 -26.6077174972 -1.2999866009
55.1577285768 -26.5515160080 -1.2999866009
50.5769575143 -26.5341713605 -1.2999866009
50.5448378126 -26.5476956100 -1.2999866009
50.5127986870 -26.5614096537 -1.2999866009
55.3271159589 -26.6002934178 -1.2999866009
50.4711321653 -26.5531755146 -1.2999866009
55.3850014589 -26.6006622211 -1.2999866009
55.3691072610 -26.5931772373 -1.2999866009
50.2648888641 -26.5679037947 -1.2999866009
50.2224211624 -26.5615259120 -1.2999866009
55.5865911495 -26.5919293284 -1.2999866009
55.6612607973 -26.6033167383 -1.2999866009
55.6294611991 -26.5867593320 -1.2999866009
50.0459935310 -26.5689271154 -1.2999866009
55.7634114378 -26.6030523333 -1.2999866009
55.7475226545 -26.5944479339 -1.2999866009
49.9549734315 -26.5896505423 -1.2999866009
55.8067802920 -26.5992313759 -1.2999866009
49.7926344095 -26.5965405291 -1.2999866009
49.7647453262 -26.5846187262 -1.2999866009
49.7488282597 -26.5937595468 -1.2999866009
56.4464236005 -26.8862503940 -1.2999866009
56.3708411379 -26.8335665481 -1.2999866009
56.3251205405 -26.8024948684 -1.2999866009
56.1395350480 -26.6823018207 -1.2999866009
55.5588467988 -26.3622600498 -1.2999866009
55.5256228207 -26.3463127779 -1.2999866009
55.5089755958 -26.3384129236 -1.2999866009
56.6245136507 -26.9867897840 -1.2999866009
56.6097562646 -26.9756364096 -1.2999866009
56.5652870494 -26.9424388976 -1.2999866009
56.4905226347 -26.8879908693 -1.2999866009
56.3078672583 -26.7618737122 -1.2999866009
56.2148896220 -26.7012662850 -1.2999866009
55.3678655331 -26.2474186065 -1.2999866009
55.3169826973 -26.2252708543 -1.2999866009
55.2999783215 -26.2179887248 -1.2999866009
49.6608001785 -26.5891921087 -1.2999866009
49.6448970957 -26.5986403978 -1.2999866009
56.8715476297 -27.1525560240 -1.2999866009
56.8286381679 -27.1170282936 -1.2999866009
56.7998574287 -27.0935552999 -1.2999866009
56.7564271916 -27.0586661032 -1.2999866009
56.7418818514 -27.0471221902 -1.2999866009
55.2409671901 -26.1670183698 -1.2999866009
55.2237908254 -26.1599613628 -1.2999866009
55.2065936601 -26.1529551975 -1.2999866009
56.8727232306 -27.1220747187 -1.2999866009
55.0069466459 -26.0501603732 -1.2999866009
49.5722337052 -26.5859609527 -1.2999866009
56.1588206926 -26.5805341490 -1.2999866009
55.3379115867 -26.1290481159 -1.2999866009
56.5762581944 -26.8007751144 -1.2999866009
57.6902137643 -27.7891430651 -1.2999866009
57.2321917264 -27.3109561861 -1.2999866009
55.0756145494 -25.9724084139 -1.2999866009
54.5535423704 -25.8034937651 -1.2999866009
49.3776446711 -26.5937943049 -1.2999866009
54.0886079485 -25.6194110982 -1.2999866009
49.1516424755 -26.5991816154 -1.2999866009
48.8422838459 -26.7341167319 -1.2999866009
48.8113774478 -26.7579003940 -1.2999866009
48.7959771513 -26.7698606910 -1.2999866009
48.7499894878 -26.8060141885 -1.2999866009
49.6459081598 -26.1799818696 -1.2999866009
49.6117092490 -26.1990207187 -1.2999866009
49.5946521835 -26.2086159348 -1.2999866009
49.5606235786 -26.2279575303 -1.2999866009
49.5267100006 -26.2475001119 -1.2999866009
49.5097967178 -26.2573465590 -1.2999866009
48.8275983228 -26.7149159327 -1.2999866009
48.7811218101 -26.7507909736 -1.2999866009
48.7196518462 -26.7992632646 -1.2999866009
48.6587597321 -26.8484595033 -1.2999866009
48.6436279936 -26.8608708748 -1.2999866009
48.5984539937 -26.8983728018 -1.2999866009
48.5387430743 -26.9489961715 -1.2999866009
48.5091132877 -26.9745719220 -1.2999866009
49.7900441665 -26.0753652782 -1.2999866009
49.7031964994 -26.1212205550 -1.2999866009
48.3468802749 -27.0872800486 -1.2999866009
48.3324563753 -27.1006129711 -1.2999866009
48.3037272149 -27.1274065294 -1.2999866009
48.2609319542 -27.1679143893 -1.2999866009
49.9020685452 -25.9916514597 -1.2999866009
49.8843967735 -26.0003886478 -1.2999866009
49.8491311550 -26.0180196613 -1.2999866009
49.7789159333 -26.0539060679 -1.2999866009
48.2158040540 -27.1777472746 -1.2999866009
48.0486453920 -27.3451236830 -1.2999866009
48.0213678063 -27.3735920830 -1.2999866009
50.1242500534 -25.8607761724 -1.2999866009
50.1061901567 -25.8688566800 -1.2999866009
50.0701424692 -25.8851777914 -1.2999866009
49.7152176339 -26.0600051199 -1.2999866009
50.2969506636 -25.7605617726 -1.2999866009
50.2053914835 -25.7989541407 -1.2999866009
50.1325592365 -25.8306404455 -1.2999866009
50.2693449216 -25.7457980533 -1.2999866009
47.7414644831 -27.5746531922 -1.2999866009
48.3539257918 -26.9178676192 -1.2999866009
47.3917995850 -27.9351364757 -1.2999866009
47.1668260789 -28.1708706785 -1.2999866009
47.8069745771 -26.5659687495 -1.2999866009
52.3817432703 -30.3982469124 -1.2999853584
52.3798650420 -29.9706855697 -1.2999851279
49.0811314217 -31.2523805602 -1.2999838888
49.0774921518 -31.2766630155 -1.2999838888
49.0757264067 -31.2888122110 -1.2999838888
49.0674371876 -31.3496336145 -1.2999838888
49.0777022273 -31.1269558739 -1.2999838744
49.0733209628 -31.1512608126 -1.2999838744
49.0711842735 -31.1634228960 -1.2999838744
49.0610409949 -31.2243251949 -1.2999838744
49.0655740690 -31.0616007363 -1.2999838600
49.0608063539 -31.0859785730 -1.2999838600
49.0571189684 -30.9835124603 -1.2999838456
49.0394486094 -31.0691463716 -1.2999838456
49.0501458928 -30.9048679747 -1.2999838312
49.0444511640 -30.9293398328 -1.2999838312
49.0607128500 -30.7645946174 -1.2999838167
49.0579332539 -30.6848727264 -1.2999838023
49.0509368230 -30.7093023621 -1.2999838023
49.0244000365 -30.8074219891 -1.2999838023
49.0455401842 -30.6413770654 -1.2999837879
49.0570041047 -30.5241151312 -1.2999837735
49.0374067682 -30.5852970903 -1.2999837735
49.0588839452 -30.4431390596 -1.2999837591
49.0403468196 -30.4229259131 -1.2999837447
49.0580105113 -30.3045250099 -1.2999837303
49.0467095807 -30.2012637449 -1.2999837015
49.0445678882 -30.1430796243 -1.2999836871
49.0046342021 -30.2415085117 -1.2999836871
49.0432270274 -30.0846111372 -1.2999836727
49.0537334079 -30.0014026805 -1.2999836583
49.0499245828 -29.8953716653 -1.2999836294
49.0164035167 -29.9095307172 -1.2999836150
49.0487009566 -29.6323740900 -1.2999835574
49.0412012863 -28.8345053899 -1.2999832981
54.6832490346 -26.5840745845 -1.2999830819
54.6675772366 -26.5796614694 -1.2999830819
54.6518924524 -26.5752947337 -1.2999830819
54.6047615555 -26.5624731825 -1.2999830819
54.5259631686 -26.5420350035 -1.2999830819
54.4310189824 -26.5190509206 -1.2999830819
54.2719202299 -26.4845001321 -1.2999830819
51.7872495161 -26.5558943090 -1.2999830819
51.7715070270 -26.5600482076 -1.2999830819
54.7683383236 -26.5836760743 -1.2999830675
54.7369778945 -26.5743928136 -1.2999830675
54.7212772210 -26.5698208013 -1.2999830675
51.7179452515 -26.5494811230 -1.2999830675
51.7021840943 -26.5538400642 -1.2999830675
51.6864359006 -26.5582456107 -1.2999830675
54.8694222157 -26.5896050132 -1.2999830531
54.8380950950 -26.5797236025 -1.2999830531
54.9864103911 -26.6027709724 -1.2999830387
54.9551591172 -26.5921971900 -1.2999830387
54.9238458322 -26.5818084857 -1.2999830387
54.9081662779 -26.5766836517 -1.2999830387
55.0098952001 -26.5852755169 -1.2999830243
54.9471219827 -26.5640363718 -1.2999830243
55.1274820110 -26.6015423490 -1.2999830099
55.1828008213 -26.5963927276 -1.2999829955
55.1515083744 -26.5846571451 -1.2999829955
54.1033732293 -26.3061705382 -1.2999829955
55.2383634540 -26.5918110454 -1.2999829811
51.4863041434 -26.4664609164 -1.2999829811
55.3254355185 -26.6003807455 -1.2999829667
55.3098091472 -26.5940678553 -1.2999829667
51.0888859649 -26.5555079249 -1.2999829523
55.4377632320 -26.5947565039 -1.2999829378
55.6806112123 -26.5979149623 -1.2999828802
50.9484821831 -26.4818533719 -1.2999828802
50.9006678817 -26.5019011889 -1.2999828802
55.7379105347 -26.5985214074 -1.2999828658
55.7222768584 -26.5909883497 -1.2999828658
55.7953949235 -26.5997305912 -1.2999828514
56.3936597720 -26.8256409699 -1.2999827938
56.3786950873 -26.8161670936 -1.2999827938
56.3637024426 -26.8067375270 -1.2999827938
56.3034548919 -26.7694640020 -1.2999827938
56.1509435303 -26.6794216116 -1.2999827938
55.5326025535 -26.3724076084 -1.2999827938
50.5222108138 -26.5163754963 -1.2999827938
56.6139507545 -26.9430297145 -1.2999827794
56.4961738791 -26.8632382930 -1.2999827794
56.4813199655 -26.8534609969 -1.2999827794
56.1783562065 -26.6672625366 -1.2999827794
55.4929227026 -26.3294600600 -1.2999827794
50.4796535853 -26.5106252462 -1.2999827794
56.8725417013 -27.1025759213 -1.2999827649
56.7728378470 -27.0272171523 -1.2999827649
55.1855073718 -26.1856904833 -1.2999827649
56.9997727755 -27.1724289712 -1.2999827505
55.0235583578 -26.1059378661 -1.2999827505
54.9104760507 -26.0458986663 -1.2999827361
50.2086954677 -26.5725930946 -1.2999827361
54.9692459979 -26.0383365994 -1.2999827217
57.2529430390 -27.2920906469 -1.2999827073
49.7381918792 -26.5745692022 -1.2999825920
49.6935796820 -26.5748515955 -1.2999825776
49.5814730584 -26.1869113892 -1.2999823471
49.5478560149 -26.2083223095 -1.2999823471
49.5310951433 -26.2191022598 -1.2999823471
49.4810048879 -26.2517389385 -1.2999823471
49.4643727430 -26.2627164566 -1.2999823471
49.4146721665 -26.2959435417 -1.2999823471
48.8425133773 -26.7281868860 -1.2999823471
48.7517682558 -26.8060443670 -1.2999823471
48.7367790373 -26.8191766736 -1.2999823471
48.7218287321 -26.8323532636 -1.2999823471
48.7069174711 -26.8455740217 -1.2999823471
48.6772126032 -26.8721475788 -1.2999823471
48.5890485585 -26.9529161721 -1.2999823471
49.7219159212 -26.0722747987 -1.2999823327
48.4999368036 -27.0039772683 -1.2999823327
48.4711727249 -27.0317726202 -1.2999823327
48.3858741877 -27.1161729034 -1.2999823327
49.7095388679 -26.0515107954 -1.2999823183
48.2846334412 -27.1853493353 -1.2999823183
48.2294313851 -27.2436446029 -1.2999823183
48.2157389527 -27.2583201618 -1.2999823183
48.2020899932 -27.2730361611 -1.2999823183
48.0234174840 -27.4369634559 -1.2999823039
50.0021394738 -25.8320882628 -1.2999822895
50.0629191376 -25.7733423406 -1.2999822751
48.2894834340 -25.9304648659 -1.2999817708
52.6382980393 -30.4562777959 -1.2999866009
52.4036048445 -30.4850483160 -1.2999866009
52.3710852195 -30.2011422179 -1.2999866009
52.3777680712 -30.0488870084 -1.2999866009
49.0608588144 -30.4893310396 -1.2999866009
49.0535828585 -30.5156134672 -1.2999866009
49.0500032234 -30.5287707087 -1.2999866009
49.0429607958 -30.5551166713 -1.2999866009
49.0565492183 -30.4169554436 -1.2999866009
49.0450515043 -30.4564362079 -1.2999866009
49.0412968495 -30.4696189456 -1.2999866009
49.0493278222 -30.3573404423 -1.2999866009
49.0452800055 -30.3705109635 -1.2999866009
49.0558077832 -30.2578777781 -1.2999866009
49.0514657096 -30.2710295655 -1.2999866009
49.0552726387 -30.1843638188 -1.2999866009
49.0507130999 -30.1975175110 -1.2999866009
49.0372682271 -30.2370587087 -1.2999866009
49.0328646481 -30.2502654306 -1.2999866009
49.0511669407 -30.1236652465 -1.2999866009
49.0188131584 -30.2161171177 -1.2999866009
49.0505543257 -29.9881722686 -1.2999866009
49.0454144374 -30.0013407768 -1.2999866009
49.0491032443 -29.9265636900 -1.2999866009
49.0384979734 -29.9529255168 -1.2999866009
49.0267037414 -29.9174753704 -1.2999866009
49.0097192805 -29.8950973380 -1.2999866009
49.0380960023 -29.7664804222 -1.2999866009
49.0323003640 -29.7796867544 -1.2999866009
49.0483002364 -29.6277467935 -1.2999866009
48.6324462908 -30.9879865160 -1.2999866009
49.0172450522 -29.5805258647 -1.2999866009
49.0478790256 -29.4640886995 -1.2999866009
49.0461557694 -29.3627279007 -1.2999866009
49.0108076451 -29.3778888137 -1.2999866009
49.0477211377 -29.2092602551 -1.2999866009
49.0181793764 -29.2621127610 -1.2999866009
55.0207010034 -26.5939281588 -1.2999866009
54.9902742286 -26.5850183345 -1.2999866009
54.9750412067 -26.5806309672 -1.2999866009
54.9597952729 -26.5762886812 -1.2999866009
54.9292652030 -26.5677395044 -1.2999866009
54.9139813342 -26.5635326884 -1.2999866009
52.2631514093 -26.5180699830 -1.2999866009
52.2169270024 -26.5292474843 -1.2999866009
52.1554522213 -26.5447880913 -1.2999866009
52.1094691636 -26.5569203104 -1.2999866009
52.0941656275 -26.5610550085 -1.2999866009
51.0047147057 -26.9896538635 -1.2999866009
55.0885294107 -26.5891912302 -1.2999866009
55.0580734236 -26.5798801932 -1.2999866009
52.2575741994 -26.4945491409 -1.2999866009
52.0571181929 -26.5461711004 -1.2999866009
52.0264607390 -26.5547956631 -1.2999866009
51.9958548474 -26.5636014547 -1.2999866009
55.1871038403 -26.5952376020 -1.2999866009
55.1719001876 -26.5902679324 -1.2999866009
55.1414491115 -26.5804636271 -1.2999866009
51.9124776689 -26.5632984312 -1.2999866009
55.2707812200 -26.5979079114 -1.2999866009
55.2555851005 -26.5926906974 -1.2999866009
51.8593685929 -26.5545417186 -1.2999866009
51.8440591147 -26.5594162698 -1.2999866009
51.8134837526 -26.5693011297 -1.2999866009
51.7753275145 -26.5564327335 -1.2999866009
51.7600239980 -26.5615558852 -1.2999866009
51.7447357037 -26.5667242849 -1.2999866009
51.7294627653 -26.5719378877 -1.2999866009
55.4086246788 -26.5959421622 -1.2999866009
55.3782030302 -26.5847372160 -1.2999866009
55.3629674794 -26.5792022864 -1.2999866009
51.8602291168 -26.5035805587 -1.2999866009
51.9308530492 -26.4567361918 -1.2999866009
51.6369721919 -26.5531887933 -1.2999866009
51.5758212959 -26.5755900190 -1.2999866009
55.5323455949 -26.5916141295 -1.2999866009
55.5171297127 -26.5856231883 -1.2999866009
55.5717458775 -26.5813046249 -1.2999866009
51.5743201236 -26.5245753452 -1.2999866009
51.4363708686 -26.5776710059 -1.2999866009
55.6570566941 -26.5902265213 -1.2999866009
55.6418361615 -26.5838666681 -1.2999866009
51.4273882750 -26.5552288960 -1.2999866009
51.3967954314 -26.5675789939 -1.2999866009
51.3662761905 -26.5801098731 -1.2999866009
55.7273645132 -26.5939371729 -1.2999866009
51.2959516554 -26.5834889468 -1.2999866009
51.2807302736 -26.5900300606 -1.2999866009
55.7369803335 -26.5717590016 -1.2999866009
55.8230043270 -26.5833826975 -1.2999866009
55.7925011201 -26.5697263618 -1.2999866009
51.2003626746 -26.5724835990 -1.2999866009
51.1698758890 -26.5861765546 -1.2999866009
51.1546630092 -26.5930906115 -1.2999866009
56.1009665133 -26.6636766199 -1.2999866009
51.0581920275 -26.5846519282 -1.2999866009
49.0529144733 -28.1705698683 -1.2999866009
56.5097949071 -26.8668370421 -1.2999866009
56.4953889074 -26.8579534248 -1.2999866009
56.4664983853 -26.8403142307 -1.2999866009
56.4229681933 -26.8141766961 -1.2999866009
56.3938199409 -26.7969667335 -1.2999866009
56.3792077596 -26.7884264968 -1.2999866009
56.3499079262 -26.7714758862 -1.2999866009
56.3205083201 -26.7546989200 -1.2999866009
56.3057714238 -26.7463757373 -1.2999866009
56.1420733253 -26.6577161114 -1.2999866009
56.0969354529 -26.6344648577 -1.2999866009
55.3973469940 -26.3348240918 -1.2999866009
55.3813720712 -26.3292336244 -1.2999866009
56.7922147254 -27.0238147962 -1.2999866009
56.6515096506 -26.9284853147 -1.2999866009
56.4644884727 -26.8108531159 -1.2999866009
55.3893229238 -26.3064055884 -1.2999866009
50.9609629745 -26.5779522022 -1.2999866009
55.1537115542 -26.2047602586 -1.2999866009
50.9197041980 -26.5714394317 -1.2999866009
50.9044488177 -26.5790936062 -1.2999866009
56.9036677675 -27.0438741403 -1.2999866009
55.0122916331 -26.1393494560 -1.2999866009
54.8518235228 -26.0735416751 -1.2999866009
54.7226014629 -26.0194891550 -1.2999866009
50.7643529972 -26.5698511393 -1.2999866009
50.7530358417 -26.5484909597 -1.2999866009
50.8345348035 -26.4790045051 -1.2999866009
50.6921921319 -26.4713318378 -1.2999866009
50.5484036730 -26.4673287680 -1.2999866009
50.2102900030 -26.4995383971 -1.2999866009
49.2811856834 -26.5420037099 -1.2999866009
49.4435740259 -26.2629111188 -1.2999866009
49.3951962583 -26.2991208355 -1.2999866009
49.4454296744 -26.2314776559 -1.2999866009
49.4129560973 -26.2555593526 -1.2999866009
49.3484392060 -26.3042970057 -1.2999866009
48.7949978754 -26.7762815471 -1.2999866009
48.5657823872 -27.0044187057 -1.2999866009
48.5101856550 -27.0631280871 -1.2999866009
48.4689461196 -27.1075895906 -1.2999866009
49.6128394442 -26.0825769184 -1.2999866009
49.5628546463 -26.1172916008 -1.2999866009
49.4802375641 -26.1761307501 -1.2999866009
48.7053116556 -26.8291216894 -1.2999866009
48.6763868946 -26.8575717131 -1.2999866009
48.4374433987 -27.1061840397 -1.2999866009
49.7173687338 -25.9831161859 -1.2999866009
49.7003782477 -25.9943296603 -1.2999866009
49.5991386769 -26.0626614908 -1.2999866009
49.3190700978 -26.2658939250 -1.2999866009
48.5733254842 -26.9270624778 -1.2999866009
48.5027934648 -27.0004485701 -1.2999866009
49.7898293156 -25.9074162792 -1.2999866009
49.7554324550 -25.9294660636 -1.2999866009
50.2189083532 -25.6279454847 -1.2999866009
50.3608263534 -25.4995970468 -1.2999866009
50.1416014043 -25.6149186321 -1.2999866009
50.5175617993 -25.3963801775 -1.2999866009
50.4884736244 -25.3833879399 -1.2999866009
47.7650871385 -27.6713684497 -1.2999866009
47.7292747360 -27.7224183329 -1.2999866009
50.7061204164 -25.2583279438 -1.2999866009
50.7929305549 -25.1953862159 -1.2999866009
52.4451938344 -30.4720603766 -1.2999906399
49.0480513743 -30.2810929815 -1.2999986278
49.0557678495 -30.1626251844 -1.2999986883
49.0477468651 -30.1906293104 -1.2999986883
49.0534271200 -30.0857593394 -1.2999987488
55.2007058659 -26.5898674699 -1.2999992330
55.1860789130 -26.5857013954 -1.2999992330
55.1714397002 -26.5815786082 -1.2999992330
55.1421250071 -26.5734630400 -1.2999992330
52.7176225669 -26.5031648976 -1.2999992330
52.5545666461 -26.5405559744 -1.2999992330
52.5103157252 -26.5516725920 -1.2999992330
52.4955875566 -26.5554653451 -1.2999992330
55.2660190576 -26.5838056926 -1.2999992935
55.1632378988 -26.5542023921 -1.2999992935
52.5191306915 -26.5244876122 -1.2999992935
52.4452009364 -26.5437591572 -1.2999992935
52.4157102045 -26.5517735950 -1.2999992935
49.0399005826 -29.4916044885 -1.2999992935
55.3609539155 -26.5878376897 -1.2999993540
55.3463202571 -26.5831975813 -1.2999993540
55.3316729364 -26.5786007822 -1.2999993540
52.3649493626 -26.5408717135 -1.2999993540
55.4562098716 -26.5936878802 -1.2999994145
55.4415931023 -26.5887659618 -1.2999994145
52.3880282156 -26.5092680886 -1.2999994145
52.2843207027 -26.5392719180 -1.2999994145
52.2400690284 -26.5527868673 -1.2999994145
52.2253453385 -26.5573790542 -1.2999994145
55.5371576993 -26.5961643065 -1.2999994750
55.5225479015 -26.5910029190 -1.2999994750
55.3312836460 -26.5278557362 -1.2999994750
52.1443623012 -26.5580356829 -1.2999994750
52.2406163625 -26.5020214997 -1.2999995355
52.1220147859 -26.5399769467 -1.2999995355
52.0630591264 -26.5600045125 -1.2999995355
55.6561015375 -26.5882844365 -1.2999995961
52.0108871544 -26.5527113043 -1.2999995961
51.9814569876 -26.5632951316 -1.2999995961
49.0469053369 -29.1883553350 -1.2999995961
55.7086598203 -26.5825520357 -1.2999996566
55.6940090046 -26.5768833735 -1.2999996566
51.9732094084 -26.5405726159 -1.2999996566
51.9289815282 -26.5568484521 -1.2999996566
55.8053614047 -26.5950993893 -1.2999997171
55.7761156104 -26.5832330908 -1.2999997171
51.8468119963 -26.5623240033 -1.2999997171
51.8321182397 -26.5680794738 -1.2999997171
49.0463071800 -29.0824277311 -1.2999997171
55.8584500262 -26.5909323959 -1.2999997776
51.8085255262 -26.5514097548 -1.2999997776
51.7937996508 -26.5572785314 -1.2999997776
55.9263899707 -26.5936333732 -1.2999998381
55.9117709830 -26.5873205773 -1.2999998381
53.1385211146 -26.1883688749 -1.2999998381
51.9185624779 -26.4833596021 -1.2999998381
51.7552852124 -26.5467580198 -1.2999998381
51.7258242974 -26.5588541782 -1.2999998381
49.0479899663 -28.9757474776 -1.2999998381
51.6870560962 -26.5488452254 -1.2999998986
51.6429128991 -26.5676601860 -1.2999998986
55.8271010387 -26.4995467935 -1.2999999591
51.6185934921 -26.5518521441 -1.2999999591
56.1896223465 -26.6353820724 -1.3000000197
51.4911810833 -26.5825804510 -1.3000000197
51.4516429837 -26.5743667461 -1.3000000802
51.4223507254 -26.5882588707 -1.3000000802
49.0419854602 -28.7883347279 -1.3000000802
51.3972481072 -26.5734903085 -1.3000001407
51.1889972579 -26.5971792098 -1.3000003222
51.0785524043 -26.6016511206 -1.3000004433
50.8579933994 -26.5883116922 -1.3000007458
50.8017339902 -26.5937918007 -1.3000008063
50.6467512667 -26.6046026136 -1.3000009879
50.4625907023 -26.6097474875 -1.3000012299
50.4344606948 -26.5996013177 -1.3000012905
50.4198833908 -26.6095346158 -1.3000012905
50.1033010008 -26.5980916125 -1.3000017746
49.0705803842 -27.4243298355 -1.3000020166
49.4764584727 -26.1664062733 -1.3000035900
48.3696885172 -27.2469782336 -1.3000036505
49.6736351274 -25.9537004500 -1.3000037110
49.5104311946 -26.0777473590 -1.3000037110
49.4943141953 -26.0904163867 -1.3000037110
48.3634777363 -27.2159209080 -1.3000037110
49.9459152263 -25.7339241015 -1.3000037716
49.7592998860 -25.8618979426 -1.3000037716
49.5769468748 -25.9958754353 -1.3000037716
50.1239130860 -25.5915103787 -1.3000038321
50.0713356335 -25.6242350552 -1.3000038321
50.0190506647 -25.6574250384 -1.3000038321
48.1625802201 -27.3989196020 -1.3000038321
49.9406111794 -25.6506094615 -1.3000039531
47.7986906550 -27.8529492151 -1.3000039531
48.0551321710 -27.4234767459 -1.3000040136
47.4787738486 -28.2720192083 -1.3000041346
47.4190346587 -28.3360198743 -1.3000041952
47.2656564887 -28.5438229239 -1.3000043162
51.4143897438 -24.6869592729 -1.3000044977
50.0761602795 -25.2252557810 -1.3000046793
52.3923943446 -30.3696229320 -1.3000013319
52.3795941037 -30.3431315916 -1.3000015307
52.3807242204 -29.9952960140 -1.3000031214
52.9807034195 -26.4755939965 -1.3000263849
52.6981184688 -26.5461487286 -1.3000263849
52.0787479154 -26.5299059465 -1.3000281744
49.0456381476 -30.0318590823 -1.3000281744
49.0311499724 -30.0909430489 -1.3000281744
49.0173619205 -30.1501943101 -1.3000281744
49.0784211233 -32.6635543907 -1.3000281744
49.0076388375 -30.0853250584 -1.3000283733
49.0892811747 -32.7874041606 -1.3000283733
51.8912483319 -26.5581675830 -1.3000285721
51.8532156597 -26.5489513796 -1.3000287709
49.0501542767 -29.7468673464 -1.3000287709
51.7729705167 -26.5598784342 -1.3000289698
49.0872346705 -33.0146784543 -1.3000289698
49.0923706366 -33.0292972082 -1.3000289698
49.0975498252 -33.0439007049 -1.3000289698
49.0470911074 -29.5993092749 -1.3000291686
49.0747791429 -33.0520143546 -1.3000291686
51.6958474736 -26.5435637560 -1.3000293674
49.0550516132 -29.5029564123 -1.3000293674
49.0497994111 -29.5176857347 -1.3000293674
49.0093549947 -29.6360664693 -1.3000293674
49.1010066833 -33.1920584496 -1.3000293674
49.0538367381 -29.4357751274 -1.3000295663
49.0429784832 -29.4652576081 -1.3000295663
49.0484621658 -29.1253934108 -1.3000305604
49.0639101684 -28.9731007853 -1.3000309581
49.0435818726 -29.0172772914 -1.3000309581
51.1173289727 -26.5883854176 -1.3000313558
49.0623303061 -28.8093317803 -1.3000315546
51.0359793975 -26.5824195782 -1.3000317534
49.0641849535 -28.6991977178 -1.3000319523
50.8024338677 -26.5921239091 -1.3000327476
49.0373427758 -28.3966672536 -1.3000333441
49.2663563182 -26.3544853460 -1.3000422916
49.1913380929 -26.3940319700 -1.3000424905
48.8164736098 -26.7958123141 -1.3000424905
48.7246227918 -26.9047583058 -1.3000424905
48.6731557805 -26.9678595912 -1.3000424905
48.7059811737 -26.8893691747 -1.3000426893
49.8216397931 -25.7811200323 -1.3000428881
49.7085634471 -25.8694707758 -1.3000428881
48.0875021821 -27.5839952875 -1.3000434846
47.8167281571 -27.9555664678 -1.3000438823
52.6725616733 -30.3623354592 -1.2999981724
52.6317272962 -30.3345493800 -1.2999985182
52.3911782001 -30.5199617845 -1.2999997285
53.0359068215 -26.5486278798 -1.3000190931
53.0227432993 -26.5521843491 -1.3000190931
52.9964481049 -26.5594140298 -1.3000190931
52.9767704756 -26.5398173968 -1.3000192660
52.9372358996 -26.5511286956 -1.3000192660
52.8776556356 -26.5436260905 -1.3000194389
52.8381587627 -26.5558168279 -1.3000194389
52.8309271767 -26.5327508476 -1.3000196118
52.7781635033 -26.5496366716 -1.3000196118
52.7650040931 -26.5539555878 -1.3000196118
52.8298223840 -26.4824524932 -1.3000199576
52.6307999385 -26.5490785032 -1.3000199576
52.5084857843 -26.5431106856 -1.3000203034
52.4821459074 -26.5533830453 -1.3000203034
52.4246534436 -26.5242523934 -1.3000206492
52.3718176542 -26.5459460319 -1.3000206492
52.3096654869 -26.5460682659 -1.3000208221
52.2241884067 -26.5308792283 -1.3000211679
52.1846041451 -26.5488696227 -1.3000211679
52.0981441270 -26.5360110552 -1.3000215137
52.0717694280 -26.5487112582 -1.3000215137
52.0216049554 -26.5463996735 -1.3000216866
51.9712302010 -26.5446295652 -1.3000218595
51.9206508397 -26.5434044758 -1.3000220324
51.8057252073 -26.5497598514 -1.3000223782
51.8339362575 -26.5070804426 -1.3000225511
51.7295958097 -26.5366022863 -1.3000227240
51.6648867547 -26.5455742014 -1.3000228969
49.0586771127 -29.6010975795 -1.3000244530
49.0504896906 -29.6317266459 -1.3000244530
49.0464639701 -29.6470592100 -1.3000244530
49.0346591921 -29.6931274154 -1.3000244530
49.0562181488 -32.3903134963 -1.3000244530
49.0773435729 -32.4667069200 -1.3000244530
49.0950559981 -32.5275914761 -1.3000244530
49.0523366668 -29.5334002378 -1.3000246259
49.0437488354 -29.5640680012 -1.3000246259
49.0395229979 -29.5794208020 -1.3000246259
49.0904003260 -32.5954255092 -1.3000246259
49.0607028859 -29.4194070638 -1.3000247988
49.0334599705 -29.5114295642 -1.3000247988
49.0352428304 -32.4953151301 -1.3000247988
49.0768833114 -32.6331142724 -1.3000247988
49.0817361228 -32.6483556270 -1.3000247988
49.0665869933 -29.3204060278 -1.3000249717
49.0616402597 -29.3356923353 -1.3000249717
49.0518825592 -29.3663085158 -1.3000249717
49.0786635927 -32.7168153179 -1.3000249717
49.0940999102 -32.7624768870 -1.3000249717
51.0471359150 -26.5706470787 -1.3000251446
49.0486133937 -29.2975899090 -1.3000251446
49.0435992444 -29.3129294855 -1.3000251446
49.0515121448 -29.2132348494 -1.3000253175
49.0862933211 -32.8851042564 -1.3000253175
49.0918915233 -32.9003166720 -1.3000253175
49.0921610657 -32.9696483521 -1.3000254904
50.9387717708 -26.5599806186 -1.3000256633
49.0754624885 -32.9935593932 -1.3000256633
49.0933548804 -33.0392384725 -1.3000256633
48.9959668692 -32.8482279666 -1.3000258362
49.0893254712 -33.2190524833 -1.3000261820
49.0555592706 -28.7378650064 -1.3000265278
48.8088284074 -32.8245426667 -1.3000270465
48.8364033093 -32.9045475827 -1.3000270465
48.8950876844 -33.0632902193 -1.3000270465
48.9453998566 -33.1889912063 -1.3000270465
49.2242822874 -33.7681504695 -1.3000270465
49.2490428803 -33.8124783542 -1.3000270465
49.2741958833 -33.8565847570 -1.3000270465
49.2997393154 -33.9004662041 -1.3000270465
49.3083402079 -33.9150427652 -1.3000270465
49.3697485027 -34.0163573880 -1.3000270465
49.0519463421 -28.5137438472 -1.3000272194
49.0446134199 -28.5290769939 -1.3000272194
48.7491518839 -32.7191008326 -1.3000272194
48.7594170334 -32.7515065840 -1.3000272194
48.8250173025 -32.9446142600 -1.3000272194
49.3762785712 -34.0723094583 -1.3000272194
49.0525184602 -28.4572210607 -1.3000273923
49.0081997844 -28.5495403750 -1.3000273923
49.0312952288 -28.2332967837 -1.3000282568
48.9803853411 -28.2261091280 -1.3000286026
49.0437051587 -28.0600869049 -1.3000287755
49.0092787636 -28.1216779764 -1.3000287755
49.0709322041 -27.8703221218 -1.3000292942
49.0525047186 -27.9009089745 -1.3000292942
49.0455241905 -27.7276212954 -1.3000299858
49.0348232871 -27.6993334615 -1.3000301587
49.0251347045 -27.4503011115 -1.3000311961
49.2324500201 -26.3771239945 -1.3000348269
49.1780968128 -26.4365995668 -1.3000348269
49.4687404317 -26.1002785045 -1.3000349998
49.4254433359 -26.1427389105 -1.3000349998
49.4110949181 -26.1569775597 -1.3000349998
48.7863934659 -26.8717704606 -1.3000349998
48.7499697984 -26.9202559329 -1.3000349998
48.6902244552 -27.0017772235 -1.3000349998
48.6784204449 -27.0181870244 -1.3000349998
48.6666650295 -27.0346316720 -1.3000349998
48.6549583117 -27.0511110222 -1.3000349998
48.6316913786 -27.0841732537 -1.3000349998
48.6086204599 -27.1173725615 -1.3000349998
48.5630698893 -27.1841777530 -1.3000349998
49.5844873895 -25.9574498028 -1.3000351727
49.5104104888 -26.0267335710 -1.3000351727
49.4664590821 -26.0688270747 -1.3000351727
48.5657741659 -27.1370899050 -1.3000351727
48.5543709796 -27.1538672604 -1.3000351727
48.4869986109 -27.2552330784 -1.3000351727
48.4759452581 -27.2722429491 -1.3000351727
48.4322364739 -27.3406071734 -1.3000351727
48.4214359128 -27.3577786670 -1.3000351727
49.7352177866 -25.7906300723 -1.3000353456
49.6738897139 -25.8441977208 -1.3000353456
49.1654086183 -26.3428527316 -1.3000353456
48.4446146375 -27.2762040611 -1.3000353456
48.3581115522 -27.4141851822 -1.3000353456
49.9557669132 -25.5773254535 -1.3000355185
49.8918994814 -25.6282983949 -1.3000355185
49.8760272145 -25.6411594334 -1.3000355185
49.7039781679 -25.7857009907 -1.3000355185
49.3599373780 -26.1055779135 -1.3000355185
48.3057759093 -27.4540369447 -1.3000355185
50.0380601075 -25.4830469491 -1.3000356914
48.2126236985 -27.5655146835 -1.3000356914
50.1581972412 -25.3341137111 -1.3000360372
48.1102023973 -27.6496681542 -1.3000360372
47.8879999385 -27.9780388263 -1.3000363830
47.1386772628 -29.3052228671 -1.3000382849
47.0296410054 -29.4583565337 -1.3000388036
52.6608337644 -30.3164479718 -1.2998838343
52.3710659871 -30.2853713342 -1.2998661986
53.4899594375 -26.5562696495 -1.2997339309
53.4411770372 -26.5670769320 -1.2997339309
53.4725932051 -26.5353011805 -1.2997324613
53.3868793458 -26.5549563897 -1.2997324613
53.3746683765 -26.5579090184 -1.2997324613
53.3321643214 -26.5435476298 -1.2997309916
53.2279967423 -26.5461870904 -1.2997295220
53.2035344901 -26.5530686135 -1.2997295220
53.1846351056 -26.5333329413 -1.2997280523
53.1111513206 -26.5551826988 -1.2997280523
53.0305630066 -26.5553543842 -1.2997265827
52.9740266692 -26.5487090871 -1.2997251131
52.8682440154 -26.5604128481 -1.2997236434
52.7411676798 -26.5571513101 -1.2997207041
52.6710575354 -26.5594910452 -1.2997192345
52.7110011882 -26.5171297028 -1.2997177649
52.6128596197 -26.5577643884 -1.2997177649
52.5568929701 -26.5293233327 -1.2997148256
52.4978879749 -26.5291513326 -1.2997133559
52.3773909088 -26.5589487907 -1.2997118863
52.3423387910 -26.5491769099 -1.2997104166
52.2226779593 -26.5556726840 -1.2997074774
52.1292230803 -26.4683369990 -1.2997001292
51.9810130275 -26.5508356056 -1.2997001292
51.8827662840 -26.4964403008 -1.2996942506
51.6718416557 -26.5426753419 -1.2996898417
51.5212707143 -26.5565814976 -1.2996854328
49.0801791572 -32.2598145503 -1.2996545703
49.0943697273 -32.3067756372 -1.2996545703
49.0991924612 -32.3224011190 -1.2996545703
49.0551366453 -29.1081816690 -1.2996531006
49.0883747646 -32.4466499062 -1.2996516310
49.0988940823 -32.4779195552 -1.2996516310
49.0182794047 -29.0627139719 -1.2996501614
49.0976919631 -32.5483149617 -1.2996501614
49.0974196736 -32.6189888200 -1.2996486917
49.1031659772 -32.6346039135 -1.2996486917
49.0610566504 -28.7789902493 -1.2996472221
49.0388845629 -28.8420467632 -1.2996472221
49.0334582449 -28.8578515399 -1.2996472221
49.0863099994 -32.6586507898 -1.2996472221
49.0921736788 -32.6742985742 -1.2996472221
49.0554912459 -28.7235175152 -1.2996457524
49.0439838375 -28.7550468752 -1.2996457524
49.0383001358 -28.7708369480 -1.2996457524
49.0625168849 -28.6363072833 -1.2996442828
49.0409770341 -28.3698707003 -1.2996369346
49.0396345022 -28.3127783820 -1.2996354650
49.0326425093 -28.3285832560 -1.2996354650
49.0256973007 -28.3444087444 -1.2996354650
49.0854922817 -33.1564628356 -1.2996354650
49.0388866352 -28.2554807310 -1.2996339953
49.0883125388 -33.3289249631 -1.2996310560
49.0325725884 -28.0982208225 -1.2996295864
49.0185163167 -28.0718264423 -1.2996281167
49.0932296591 -33.4447874404 -1.2996281167
48.8137643246 -32.8926386998 -1.2996266471
49.1561044822 -33.6117359258 -1.2996266471
49.2088840006 -33.7039698378 -1.2996266471
49.2632921897 -33.7952524815 -1.2996266471
49.2817872317 -33.8254636575 -1.2996266471
49.3288039744 -33.9005082553 -1.2996266471
49.3964811208 -34.0043849885 -1.2996266471
48.7281590205 -32.7353171913 -1.2996251775
48.7654511085 -32.8352844019 -1.2996251775
49.0174175922 -27.9124092585 -1.2996237078
49.3761384611 -34.0608511834 -1.2996237078
49.4991269932 -34.2362756237 -1.2996237078
49.6282639909 -34.4072245901 -1.2996237078
49.7380334322 -34.6183813172 -1.2996207685
49.0084269216 -27.7239893539 -1.2996178293
49.0198938381 -27.6050533761 -1.2996148900
49.3792627094 -26.1692006861 -1.2995810882
49.3393907207 -26.2137474141 -1.2995810882
49.2999156293 -26.2586462295 -1.2995810882
49.2350142341 -26.3342503882 -1.2995810882
49.5392464887 -25.9634392335 -1.2995796186
49.5253025397 -25.9777764442 -1.2995796186
49.4837260174 -26.0210346887 -1.2995796186
49.3479401576 -26.1678619520 -1.2995796186
49.2555024469 -26.2730002445 -1.2995796186
48.6086095134 -27.1611620282 -1.2995796186
48.5878665065 -27.1953626344 -1.2995796186
48.5168669872 -27.3160185882 -1.2995796186
49.7222621550 -25.7495312388 -1.2995781490
49.7076846266 -25.7633279921 -1.2995781490
49.5925466150 -25.8752420510 -1.2995781490
49.5079487097 -25.9609484954 -1.2995781490
49.4111923829 -26.0628180401 -1.2995781490
48.4368397796 -27.4089202215 -1.2995781490
49.8541944125 -25.5958943449 -1.2995766793
49.8241689564 -25.6227530474 -1.2995766793
48.2995506223 -27.5640286496 -1.2995752097
48.2451292656 -27.6724174154 -1.2995752097
50.0224596181 -25.3883588547 -1.2995737400
48.0896833549 -27.8908438484 -1.2995722704
48.0732664727 -27.9281018254 -1.2995722704
50.4680520858 -24.9632250368 -1.2995693311
47.9650668563 -28.0597759699 -1.2995693311
47.8969653919 -28.1652669255 -1.2995678615
48.3189549676 -26.7591130360 -1.2995516954
53.4377657738 -26.5526264571 -1.2981341198
53.3413645372 -26.5549239484 -1.2981225701
53.2444983033 -26.5596714889 -1.2981110205
53.0831416166 -26.5641591638 -1.2980879212
53.0298888717 -26.5582256106 -1.2980763715
52.7687309329 -26.5617525764 -1.2980301729
49.0395351350 -28.8789927475 -1.2973256443
49.0352146468 -28.8950608671 -1.2973256443
48.9923835987 -31.6291062915 -1.2973256443
49.0840015128 -32.0534335738 -1.2973140947
49.0388337104 -28.5458508567 -1.2972794457
49.1027237893 -32.3314571474 -1.2972794457
49.0317421922 -28.4176272965 -1.2972563464
49.0322751650 -28.3450701813 -1.2972447968
49.0276517759 -28.2883444740 -1.2972332471
49.0362240481 -28.1991992343 -1.2972216975
49.0981192482 -32.6462629968 -1.2972216975
49.0217942090 -28.0429851775 -1.2971870486
49.0420903556 -27.7620328309 -1.2971408500
49.1080812469 -33.0672497722 -1.2971408500
49.1954753105 -33.6625416510 -1.2970369031
48.7801556134 -32.9433004997 -1.2970253535
49.4244144782 -34.0425700350 -1.2970253535
49.4574044005 -34.0871934618 -1.2970253535
49.5359113157 -34.1901633883 -1.2970253535
48.3989340217 -32.2113366295 -1.2969791549
49.2500225860 -34.0067084407 -1.2969676052
48.2472955822 -31.9400305848 -1.2969445059
49.3672803355 -26.1356915256 -1.2968521087
49.2569666184 -26.2729977927 -1.2968521087
48.7722080657 -26.9839646022 -1.2968521087
48.7425825075 -27.0346539532 -1.2968521087
48.7230825518 -27.0685920534 -1.2968521087
49.5280491423 -25.9119247386 -1.2968405591
49.5630835182 -25.8374104249 -1.2968290094
48.1530330838 -27.9359808572 -1.2967828108
49.2769613743 -25.1922620048 -1.2965171689
52.6421890699 -30.7375087196 -0.9950109436
52.3810899784 -30.0548500620 -0.9947085005
53.0388983553 -26.5583660213 -0.9906557626
53.0089834706 -26.5448755963 -0.9905952740
52.9783775231 -26.5582433632 -0.9905952740
52.7324205946 -26.5415304931 -0.9902928309
52.6916189565 -26.5626871303 -0.9902928309
52.6958142371 -33.4400506071 -0.9902928309
52.7366416565 -33.4611574496 -0.9902928309
52.4637348508 -33.4490886995 -0.9899903877
52.0108199388 -26.5594129021 -0.9893855015
49.0470636137 -28.5254319331 -0.9858771613
49.0217468713 -28.6224434542 -0.9858771613
49.0136910825 -28.6548785957 -0.9858771613
48.9575074269 -31.0913374446 -0.9858771613
48.9777449413 -31.1895342657 -0.9858771613
49.0035535920 -31.3036215470 -0.9858771613
49.0359343019 -31.4333198659 -0.9858771613
49.0416380720 -28.4544269255 -0.9858166726
49.0168335332 -31.4556787863 -0.9858166726
49.0389594021 -31.5366173446 -0.9858166726
49.0575205168 -31.6011270442 -0.9858166726
49.0670869943 -31.6332984049 -0.9858166726
49.0467960251 -28.3507962537 -0.9857561840
49.0371326418 -28.3830879503 -0.9857561840
49.0323726358 -28.3992550968 -0.9857561840
49.0202779395 -31.5593805543 -0.9857561840
49.0587060614 -31.6886115042 -0.9857561840
49.0687901056 -31.7207743196 -0.9857561840
49.0436418725 -28.2791152666 -0.9856956954
49.0236583815 -28.3437976060 -0.9856956954
49.0665718302 -31.7924903698 -0.9856956954
49.0718973245 -31.8085555122 -0.9856956954
49.0414237621 -28.2071297090 -0.9856352068
49.0598025373 -31.8484138243 -0.9856352068
49.0708320065 -31.8805673558 -0.9856352068
49.0346541011 -28.1510110455 -0.9855747181
49.0292075805 -28.1671865394 -0.9855747181
49.0184582083 -28.1995855086 -0.9855747181
49.0592568915 -31.9207009901 -0.9855747181
49.0715498406 -32.0254105247 -0.9855142295
49.0733456310 -32.0982169888 -0.9854537409
49.0446046931 -27.8430627816 -0.9853327636
49.0382471624 -27.8592101873 -0.9853327636
49.0536655394 -32.1802460605 -0.9853327636
49.0865040096 -32.2605606033 -0.9853327636
49.0481391071 -27.7695090448 -0.9852722750
49.0350366099 -27.8018029688 -0.9852722750
49.0285570670 -27.8179788591 -0.9852722750
