40.4169286952 -18.3992134462 -2.5001763315
35.8706341779 -18.4593679976 -2.5001763430
35.8294776578 -18.4683266928 -2.5001763545
35.7562889711 -18.4631901148 -2.5001763660
40.5725003062 -18.4087799161 -2.5001763660
40.6039424220 -18.3940820970 -2.5001763660
35.7306562765 -18.4783459714 -2.5001763776
40.6719312143 -18.4152390235 -2.5001763891
40.7034098042 -18.3999528247 -2.5001763891
40.7455493518 -18.4061308501 -2.5001764006
40.7878526148 -18.4119954645 -2.5001764122
40.8193099859 -18.3960234926 -2.5001764122
35.4562408685 -18.4839717076 -2.5001764352
35.3976111026 -18.4818687982 -2.5001764467
41.2570958824 -18.2335255669 -2.5001764467
41.3328697892 -18.1863266094 -2.5001764467
35.3547739777 -18.4873048586 -2.5001764583
40.5066329606 -18.6501416326 -2.5001764583
41.3306424695 -18.2163171698 -2.5001764583
41.3458017404 -18.2067496337 -2.5001764583
41.3609326424 -18.1971372955 -2.5001764583
41.4211699178 -18.1582416111 -2.5001764583
41.5697128538 -18.0579081652 -2.5001764583
40.1986479979 -18.7990240151 -2.5001764698
40.2324054719 -18.7865312019 -2.5001764698
41.6276908027 -18.0466616693 -2.5001764698
35.2686259931 -18.4972189124 -2.5001764813
35.2093147136 -18.4931543046 -2.5001764928
41.6999158959 -18.0543568599 -2.5001764928
42.1396914668 -17.7041848156 -2.5001764928
39.8781352782 -18.9823293931 -2.5001765044
41.9031533061 -17.9314523170 -2.5001765044
33.8170032420 -18.2522093285 -2.5001767695
33.8323015637 -18.2648683391 -2.5001767695
33.8630102151 -18.2900503181 -2.5001767695
33.8784202760 -18.3025730661 -2.5001767695
34.4234625282 -18.7004970258 -2.5001767695
34.4400843124 -18.7113600586 -2.5001767695
34.5573263603 -18.7860179218 -2.5001767695
33.4880443039 -17.9937096459 -2.5001767810
33.5025793761 -18.0073429076 -2.5001767810
33.6501235711 -18.1412878900 -2.5001767810
34.6295374292 -18.8585606786 -2.5001767810
33.2715737797 -17.8152962521 -2.5001767925
33.5006959024 -18.0386374277 -2.5001767925
34.7899162381 -18.9798702566 -2.5001767925
34.8248383211 -18.9993741518 -2.5001767925
34.9302883428 -19.0566414302 -2.5001767925
34.9479614491 -19.0660036223 -2.5001767925
35.1516300837 -19.1960105417 -2.5001768041
35.1592605770 -19.2265130145 -2.5001768156
35.3878742016 -19.3573700776 -2.5001768271
32.6582200724 -17.2546628284 -2.5001768386
35.4716331059 -19.4191773961 -2.5001768386
35.5566281559 -19.4798739271 -2.5001768502
32.2066763256 -16.7725122539 -2.5001768847
30.4111030885 -13.4928975749 -2.5001772421
37.5584098069 -15.0239287021 -2.4999320671
34.0540621904 -13.8920059270 -2.4999333465
34.0525592276 -13.9856562856 -2.4999333638
34.0671527315 -14.2074221779 -2.4999333984
34.0623612707 -14.2697319367 -2.4999334157
34.0586095345 -14.3324433867 -2.4999334330
34.0585667889 -14.4699660412 -2.4999334676
34.0628978045 -14.4809169833 -2.4999334676
34.0581867140 -14.5337798567 -2.4999334849
34.0558150396 -14.6514160569 -2.4999335194
34.0248721263 -14.7585260009 -2.4999335713
36.3762971730 -18.4625193778 -2.4999346433
36.4085723023 -18.4706260545 -2.4999346433
39.3675183613 -18.4022283315 -2.4999346433
36.3218100975 -18.4733751583 -2.4999346606
36.2185167050 -18.4702030479 -2.4999346779
36.1310243701 -18.4699282313 -2.4999346951
39.6686896472 -18.4059077992 -2.4999347124
39.7164881399 -18.3887802651 -2.4999347124
39.9742072783 -18.3927088358 -2.4999347816
40.0153271953 -18.4018340642 -2.4999347989
35.6394673805 -18.4800861550 -2.4999348162
35.5658928172 -18.4770101414 -2.4999348335
40.2934253434 -18.3840765341 -2.4999348680
35.0236710482 -18.4709833251 -2.4999349891
41.1832889470 -18.2748555211 -2.4999351101
41.3831249554 -18.1394505501 -2.4999351101
41.7096437419 -17.9236359102 -2.4999351274
40.1498506735 -18.8693253670 -2.4999351447
39.8327056504 -19.0399041030 -2.4999351793
42.3005024423 -17.4875545108 -2.4999351793
42.3836693063 -17.4366673584 -2.4999351966
34.3853150041 -18.4740355058 -2.4999352138
33.9214887977 -18.3383406052 -2.4999353176
33.7046412010 -18.2057706948 -2.4999353349
33.8286941610 -18.3003417622 -2.4999353349
34.5825467178 -18.7851171302 -2.4999353349
34.7373740276 -18.8677267685 -2.4999353349
34.7785617230 -18.9159180405 -2.4999353522
34.9368015557 -18.9932633028 -2.4999353522
32.8190040061 -17.5162209760 -2.4999354040
34.0601779845 -14.4794338375 -2.5000261466
34.0645811859 -14.4893465655 -2.5000261466
34.0478166922 -14.5690173972 -2.5000261581
34.0692676972 -14.6688668256 -2.5000261639
34.0463187343 -14.7304588522 -2.5000261754
34.0617005149 -14.8113165462 -2.5000261812
34.0724997249 -14.8311141171 -2.5000261812
34.0523533388 -14.8942925549 -2.5000261927
34.0541456838 -14.9460648135 -2.5000261984
40.9501817414 -14.8230246995 -2.5000262215
40.9552051394 -14.8656251667 -2.5000262273
40.9495061060 -15.0262604382 -2.5000262445
40.9522043116 -15.0697840570 -2.5000262503
34.0927244634 -15.4448087097 -2.5000262561
40.9509311953 -15.3455544131 -2.5000262849
40.9499567946 -15.3904085626 -2.5000262907
40.9513759589 -15.5154931639 -2.5000263079
36.0753480505 -18.4591387341 -2.5000266134
36.1562976589 -18.4783303607 -2.5000266134
36.1725211480 -18.4820248907 -2.5000266134
38.8579883761 -18.4319016523 -2.5000266134
38.8901242405 -18.4232594072 -2.5000266134
38.9222084120 -18.4144271868 -2.5000266134
38.9702352890 -18.4008233305 -2.5000266134
36.0047706615 -18.4663341653 -2.5000266192
36.0209593267 -18.4704769920 -2.5000266192
36.0371601763 -18.4745719117 -2.5000266192
38.4568547475 -18.5475419978 -2.5000266192
39.0250365065 -18.4099620363 -2.5000266192
39.0570396451 -18.4003318623 -2.5000266192
39.1121749955 -18.4085957045 -2.5000266249
35.8139679072 -18.4640138153 -2.5000266307
35.8301505432 -18.4687210813 -2.5000266307
35.8787810090 -18.4825553660 -2.5000266307
39.1996240737 -18.4058311218 -2.5000266307
39.2156197810 -18.4005232591 -2.5000266307
35.7261390598 -18.4628586333 -2.5000266365
35.7747215955 -18.4776161924 -2.5000266365
39.2553463477 -18.4126516371 -2.5000266365
39.2873613681 -18.4016588257 -2.5000266365
39.3033443492 -18.3960914385 -2.5000266365
35.6379960553 -18.4602965963 -2.5000266422
35.6703562690 -18.4707044101 -2.5000266422
35.6865593253 -18.4758364760 -2.5000266422
39.3273636498 -18.4132690470 -2.5000266422
39.3753642945 -18.3960697109 -2.5000266422
35.5818995940 -18.4672492748 -2.5000266480
35.5980928165 -18.4726430267 -2.5000266480
35.6143019238 -18.4779888525 -2.5000266480
35.4931654980 -18.4623702149 -2.5000266537
39.5201805820 -18.3931657320 -2.5000266537
39.5609988792 -18.4030722060 -2.5000266595
39.5929518750 -18.3902712192 -2.5000266595
35.3958291665 -18.4787442338 -2.5000266653
39.6340169747 -18.3996400482 -2.5000266653
39.6659483868 -18.3864071219 -2.5000266653
35.2900876554 -18.4646079368 -2.5000266710
35.3062743411 -18.4708649328 -2.5000266710
39.7232153998 -18.3884243848 -2.5000266710
35.2326910338 -18.4680057173 -2.5000266768
35.1427153979 -18.4574755930 -2.5000266826
35.1750675898 -18.4708137029 -2.5000266826
35.1172232869 -18.4730281419 -2.5000266883
39.8962670136 -18.3909000041 -2.5000266883
39.9122155039 -18.3835314109 -2.5000266883
35.0429673495 -18.4676573326 -2.5000266941
39.9702945636 -18.3829809347 -2.5000266941
40.0285598422 -18.3818222144 -2.5000266998
40.0551039213 -18.3957760593 -2.5000267056
40.1296919017 -18.3857258234 -2.5000267114
34.7925297384 -18.4596601300 -2.5000267171
40.2315068010 -18.3878066855 -2.5000267229
40.2474446740 -18.3794464059 -2.5000267229
40.3339726072 -18.3880455271 -2.5000267344
34.5715253590 -18.4572766716 -2.5000267402
34.4080999964 -18.4520220055 -2.5000267575
34.4242533098 -18.4608881355 -2.5000267575
40.6007322873 -18.3757536929 -2.5000267632
34.2756281267 -18.4607152499 -2.5000267748
34.1866184776 -18.4648448282 -2.5000267863
33.7637773019 -18.2511933741 -2.5000267978
33.7793393470 -18.2619664059 -2.5000267978
33.8262157391 -18.2940086313 -2.5000267978
33.8733746421 -18.3256335932 -2.5000267978
34.5273094952 -18.7062618950 -2.5000267978
33.5498846572 -18.1263040141 -2.5000268036
33.5650781929 -18.1377103254 -2.5000268036
33.6878275646 -18.2273326899 -2.5000268036
33.7969471326 -18.3033506257 -2.5000268036
33.8758417947 -18.3562577233 -2.5000268036
34.5673875722 -18.7533189275 -2.5000268036
34.5844314794 -18.7617125378 -2.5000268036
34.6357111347 -18.7865903428 -2.5000268036
40.9129442026 -18.3810560883 -2.5000268036
33.1798089797 -17.8575492810 -2.5000268094
33.2960367053 -17.9563668249 -2.5000268094
33.4445561436 -18.0759758566 -2.5000268094
34.9033862566 -18.9337890522 -2.5000268094
40.9739479906 -18.3699381602 -2.5000268094
33.1495173934 -17.8631874052 -2.5000268151
33.7697239933 -18.3433036208 -2.5000268151
35.0892173766 -19.0348647781 -2.5000268151
40.6123028696 -18.6205882191 -2.5000268151
41.1296287195 -18.2930367710 -2.5000268151
41.1764913995 -18.2598480780 -2.5000268151
41.1920466130 -18.2486929230 -2.5000268151
41.2385133083 -18.2149520523 -2.5000268151
41.2539354399 -18.2036136217 -2.5000268151
41.2693239629 -18.1922296192 -2.5000268151
41.2999996446 -18.1693252976 -2.5000268151
33.0904017061 -17.8431976599 -2.5000268209
40.3706601390 -18.7784744778 -2.5000268209
40.4218606935 -18.7520020893 -2.5000268209
40.4388750894 -18.7430771150 -2.5000268209
40.5907954368 -18.6604986958 -2.5000268209
40.6742293203 -18.6128830845 -2.5000268209
41.4212028415 -18.1067612070 -2.5000268209
41.4513702053 -18.0829598148 -2.5000268209
41.5410200275 -18.0104906197 -2.5000268209
41.5706157252 -17.9859820337 -2.5000268209
41.5853590690 -17.9736621859 -2.5000268209
41.6439660701 -17.9239482828 -2.5000268209
41.6730479525 -17.8988321480 -2.5000268209
40.2086976247 -18.8852531166 -2.5000268266
40.2261071339 -18.8769581342 -2.5000268266
40.2434920289 -18.8686116876 -2.5000268266
41.3444399935 -18.1963722242 -2.5000268266
41.7179424219 -17.8916981735 -2.5000268266
41.7468322071 -17.8661449343 -2.5000268266
41.8325874214 -17.7884659774 -2.5000268266
32.6425532522 -17.4740728803 -2.5000268324
42.0715991126 -17.5909847677 -2.5000268324
32.4812311766 -17.3324501859 -2.5000268382
42.1699274111 -17.5242527982 -2.5000268382
39.8284085216 -19.1291486556 -2.5000268439
39.8465411819 -19.1219775699 -2.5000268439
41.9951657000 -17.7346845568 -2.5000268439
42.3067338820 -17.4122204946 -2.5000268439
32.2438013722 -17.1244098342 -2.5000268497
32.8093054955 -17.7468564376 -2.5000268497
39.6357096991 -19.2272431685 -2.5000268497
42.1778707952 -17.5858571110 -2.5000268497
39.4765520547 -19.3071722862 -2.5000268555
42.2088862881 -17.5884620297 -2.5000268555
42.4974069212 -17.2668646411 -2.5000268555
39.3335946819 -19.3773754500 -2.5000268612
39.4089687076 -19.3542072008 -2.5000268612
42.8498416253 -16.8917536777 -2.5000268670
42.6536627576 -17.1906815173 -2.5000268727
37.6123546035 -14.7623155960 -2.4999992552
37.3604508946 -14.8716836900 -2.4999992033
37.5963276306 -14.9436085052 -2.4999990736
34.0578013160 -15.1790002357 -2.4999972323
40.9433334214 -14.2252969461 -2.4999968432
40.9484115798 -14.2899065958 -2.4999968173
40.9557300631 -14.2669188522 -2.4999968173
40.9593382714 -14.2554088440 -2.4999968173
40.9406120370 -14.3893562857 -2.4999967914
40.9485190347 -14.3664129463 -2.4999967914
40.9562901534 -14.3434232280 -2.4999967914
40.9512564881 -14.4318286215 -2.4999967654
40.9594145801 -14.4088215626 -2.4999967654
40.9398272789 -14.5320444603 -2.4999967395
40.9485784815 -14.5091032665 -2.4999967395
40.9529031463 -14.4976133543 -2.4999967395
40.9489284094 -14.5752403523 -2.4999967136
40.9511969209 -14.6970004951 -2.4999966617
40.9984651511 -14.5813803917 -2.4999966617
40.9444247593 -14.8314341483 -2.4999966098
40.9471126000 -15.0460628214 -2.4999965061
40.9383489373 -15.1146484314 -2.4999964801
40.9472575484 -15.1490555065 -2.4999964542
40.9431516938 -15.2066128283 -2.4999964283
40.9391999856 -15.3108590675 -2.4999963764
35.5900609299 -18.4437816021 -2.4999951834
35.6060485307 -18.4481259380 -2.4999951834
35.6220489129 -18.4524229607 -2.4999951834
35.6861754534 -18.4691371735 -2.4999951834
38.5210844425 -18.4497801533 -2.4999951834
38.5370769636 -18.4454539653 -2.4999951834
38.5530566171 -18.4410804875 -2.4999951834
35.4876254980 -18.4399251286 -2.4999951575
35.5036021389 -18.4445725039 -2.4999951575
35.5836877109 -18.4670993499 -2.4999951575
38.5915302584 -18.4554595396 -2.4999951575
38.6235348012 -18.4463429934 -2.4999951575
35.4487906005 -18.4536491019 -2.4999951315
35.4648080092 -18.4584112978 -2.4999951315
35.4808394354 -18.4631260905 -2.4999951315
38.5980837547 -18.4787272633 -2.4999951315
38.6462764326 -18.4649224026 -2.4999951315
38.6623131995 -18.4602258079 -2.4999951315
38.6783360028 -18.4554817940 -2.4999951315
38.7422847783 -18.4360323839 -2.4999951315
35.4257956583 -18.4719793702 -2.4999951056
38.7814787712 -18.4490664562 -2.4999951056
38.8612722640 -18.4231117481 -2.4999951056
35.2902131940 -18.4545990059 -2.4999950797
35.3062341066 -18.4598302983 -2.4999950797
35.3222704242 -18.4650141751 -2.4999950797
38.9486585091 -18.4187956902 -2.4999950797
35.2024684314 -18.4505868339 -2.4999950537
35.2184778592 -18.4560777088 -2.4999950537
35.1304492060 -18.4509095873 -2.4999950278
35.1464599037 -18.4566135066 -2.4999950278
39.0286638150 -18.4415900750 -2.4999950278
35.0261970289 -18.4383047094 -2.4999950019
35.0581624773 -18.4502821721 -2.4999950019
38.8107068754 -18.5412352277 -2.4999950019
39.1169095953 -18.4345755500 -2.4999950019
39.1328545314 -18.4284868700 -2.4999950019
39.1646900209 -18.4161681396 -2.4999950019
34.9536658768 -18.4362917001 -2.4999949759
35.0016254750 -18.4548306747 -2.4999949759
39.2212947864 -18.4197767430 -2.4999949759
34.8968576514 -18.4397569373 -2.4999949500
34.9128363796 -18.4461519116 -2.4999949500
34.9448502387 -18.4587999166 -2.4999949500
39.2462514055 -18.4357919600 -2.4999949500
39.2940375327 -18.4162366657 -2.4999949500
34.8398222204 -18.4426370103 -2.4999949241
34.8718165620 -18.4557170531 -2.4999949241
34.7665909732 -18.4381478320 -2.4999948981
39.4083784526 -18.4201849485 -2.4999948981
34.6931555083 -18.4326787627 -2.4999948722
34.7091141892 -18.4396763557 -2.4999948722
34.7250935005 -18.4466267093 -2.4999948722
34.7410933022 -18.4535297629 -2.4999948722
39.3378888834 -18.4765357884 -2.4999948722
39.5076283969 -18.4289982401 -2.4999948462
39.5553439410 -18.4071236391 -2.4999948462
34.5935441654 -18.4409392597 -2.4999948203
39.5814416818 -18.4216369925 -2.4999948203
39.5973463109 -18.4141741992 -2.4999948203
34.5195022867 -18.4331553009 -2.4999947944
34.4771929827 -18.4397865728 -2.4999947684
34.4931736348 -18.4474229909 -2.4999947684
34.5091768068 -18.4550121019 -2.4999947684
39.6659154307 -18.4350564499 -2.4999947684
39.7136785049 -18.4117769018 -2.4999947684
39.7084034422 -18.4412976002 -2.4999947425
34.3601102233 -18.4361910791 -2.4999947166
34.3172729270 -18.4416257876 -2.4999946906
34.2582992911 -18.4384577460 -2.4999946647
39.9598584803 -18.4208944426 -2.4999946388
39.9757592570 -18.4123122272 -2.4999946388
33.7543796509 -18.2596208979 -2.4999945610
33.7698305030 -18.2693963169 -2.4999945610
33.8008186211 -18.2888098221 -2.4999945610
33.8787866597 -18.3365385324 -2.4999945610
33.9101701068 -18.3553062412 -2.4999945610
33.9416640408 -18.3738879466 -2.4999945610
34.0847243704 -18.4551865419 -2.4999945610
34.4431161324 -18.6376518391 -2.4999945610
34.4928827936 -18.6607137270 -2.4999945610
33.3634484765 -18.0200198911 -2.4999945350
33.4077765164 -18.0526875452 -2.4999945350
33.4523927179 -18.0849605265 -2.4999945350
33.5727512514 -18.1690730674 -2.4999945350
33.5879350413 -18.1793861722 -2.4999945350
33.6031492728 -18.1896543154 -2.4999945350
33.6183938127 -18.1998774073 -2.4999945350
33.6950664608 -18.2503139788 -2.4999945350
33.8506075911 -18.3477577321 -2.4999945350
34.4661400838 -18.6750230884 -2.4999945350
34.4995158396 -18.6903098931 -2.4999945350
34.5665357530 -18.7202897852 -2.4999945350
34.5833457933 -18.7276606839 -2.4999945350
34.6170309195 -18.7422531390 -2.4999945350
34.7185960326 -18.7848312087 -2.4999945350
40.1977504338 -18.3983007160 -2.4999945350
33.2028197805 -17.9272711454 -2.4999945091
33.2317936948 -17.9500452642 -2.4999945091
33.3048135167 -18.0062271284 -2.4999945091
33.3638226814 -18.0503911834 -2.4999945091
33.5135955106 -18.1577197804 -2.4999945091
33.8066186381 -18.3492358756 -2.4999945091
34.7778368462 -18.8346942648 -2.4999945091
34.8121518151 -18.8481341723 -2.4999945091
34.8637718568 -18.8679127870 -2.4999945091
34.8810172922 -18.8744037616 -2.4999945091
34.8982818536 -18.8808436927 -2.4999945091
34.9155653900 -18.8872325239 -2.4999945091
32.9880789283 -17.7814326420 -2.4999944832
33.0728478055 -17.8530729835 -2.4999944832
33.2023516681 -17.9576844911 -2.4999944832
34.9593822918 -18.9288509752 -2.4999944832
35.0817379695 -18.9712211704 -2.4999944832
32.7923964272 -17.6388239233 -2.4999944572
32.8060150586 -17.6514477788 -2.4999944572
32.9864062943 -17.8118470884 -2.4999944572
35.0740649184 -18.9941440753 -2.4999944572
35.1093180614 -19.0058286074 -2.4999944572
40.3300323644 -18.4038345202 -2.4999944572
32.6679301427 -17.5537034671 -2.4999944313
32.7759370565 -17.6565277194 -2.4999944313
35.2976157434 -19.0895520634 -2.4999944313
40.4188748936 -18.4058442489 -2.4999944054
32.4240181129 -17.3735161913 -2.4999943794
32.4756024089 -17.4281465202 -2.4999943794
40.4634852208 -18.4063408188 -2.4999943794
35.9811748699 -19.3959515789 -2.4999942757
40.6272475562 -18.4154612916 -2.4999942757
40.7790553717 -18.4001953591 -2.4999941979
40.8245777925 -18.3979263842 -2.4999941719
40.5185342313 -18.7135803590 -2.4999940682
40.5520321779 -18.6930584926 -2.4999940682
40.5854081239 -18.6723388002 -2.4999940682
40.6352407375 -18.6408899264 -2.4999940682
40.6517893456 -18.6303088455 -2.4999940682
41.1948438242 -18.2420830679 -2.4999940682
41.2102102409 -18.2298483249 -2.4999940682
41.2408341608 -18.2052427370 -2.4999940682
41.2560913960 -18.1928721074 -2.4999940682
41.2713119698 -18.1804563984 -2.4999940682
41.3167523931 -18.1429398823 -2.4999940682
41.3318249930 -18.1303449455 -2.4999940682
41.3768183223 -18.0922933836 -2.4999940682
41.3917408379 -18.0795209825 -2.4999940682
41.4214721936 -18.0538440296 -2.4999940682
40.2924326722 -18.8727871528 -2.4999940423
40.3440556894 -18.8439303784 -2.4999940423
41.6131147905 -17.9138034779 -2.4999940423
41.6418618315 -17.8868197027 -2.4999940423
41.6561753590 -17.8732641540 -2.4999940423
40.1471894815 -18.9780493047 -2.4999940163
40.1647376034 -18.9689104925 -2.4999940163
40.1822586143 -18.9597198098 -2.4999940163
40.1997523608 -18.9504773370 -2.4999940163
40.2172186899 -18.9411831550 -2.4999940163
41.6871483153 -17.8771437062 -2.4999940163
41.8002833723 -17.7664531736 -2.4999940163
41.8281553636 -17.7383646250 -2.4999940163
39.9089914638 -19.1224011963 -2.4999939904
39.9269676470 -19.1139663853 -2.4999939904
39.9449187998 -19.1054784345 -2.4999939904
39.9807453862 -19.0883434107 -2.4999939904
41.9145624639 -17.6841455480 -2.4999939904
41.9961986500 -17.5973723846 -2.4999939904
42.0230668737 -17.5681276946 -2.4999939904
39.7374714148 -19.2260026579 -2.4999939645
39.7557548203 -19.2180747810 -2.4999939645
40.1340258994 -19.0392146062 -2.4999939645
41.6186985362 -18.0074173131 -2.4999939645
39.6549614731 -19.2871602407 -2.4999939385
39.7286826846 -19.2560967219 -2.4999939385
42.2560939714 -17.3748011557 -2.4999939385
39.5525600619 -19.3546066527 -2.4999939126
42.1834852928 -17.4971987896 -2.4999939126
42.4133789916 -17.2185537119 -2.4999939126
42.4624303837 -17.1549961305 -2.4999939126
39.3349871917 -19.4616490257 -2.4999938867
39.2167232784 -19.5531489252 -2.4999938348
39.1418937116 -19.6534284063 -2.4999937570
40.9411809697 -14.0069968695 -2.4999896540
40.9461987127 -13.9820854383 -2.4999896540
40.9403265381 -14.1241849386 -2.4999895877
40.9596697338 -14.0368614359 -2.4999895877
40.9394210927 -14.2294952933 -2.4999895214
40.9579809535 -14.1546703095 -2.4999895214
40.9483596038 -14.3793433801 -2.4999893889
40.9695775873 -14.3043361512 -2.4999893889
40.9410384534 -14.4860779060 -2.4999893226
40.9394995027 -14.5682907696 -2.4999892563
40.9478380783 -14.5433794630 -2.4999892563
40.9495461872 -14.6135078388 -2.4999891900
40.9591198051 -14.6590145814 -2.4999891237
40.9504402120 -15.1235129042 -2.4999886598
40.9485155624 -15.1837949181 -2.4999885935
40.9548405220 -15.2800970378 -2.4999884610
40.9610786499 -15.5739810637 -2.4999880633
38.2186939062 -18.4208543427 -2.4999864064
35.2193205162 -18.4379766103 -2.4999863401
35.2349804858 -18.4424315162 -2.4999863401
35.1655660201 -18.4475150179 -2.4999862738
38.3885261334 -18.4207341514 -2.4999862738
35.0644633999 -18.4419145046 -2.4999862075
38.4427106914 -18.4288340970 -2.4999862075
38.4583295122 -18.4237536718 -2.4999862075
38.5128097263 -18.4311443503 -2.4999861412
34.9240052222 -18.4467003369 -2.4999860750
35.0025961275 -18.4728779108 -2.4999860750
34.7667209966 -18.4419850088 -2.4999859424
38.6935071469 -18.4442050027 -2.4999859424
42.3270098812 -13.9324535169 -2.4999859424
38.7803723062 -18.4371745518 -2.4999858761
38.8518211348 -18.4350192858 -2.4999858099
34.5117736531 -18.4452037224 -2.4999856773
34.4552942860 -18.4474914741 -2.4999856110
34.4866970001 -18.4608750107 -2.4999856110
39.2799284194 -18.4311741743 -2.4999853459
34.1697958391 -18.4500554566 -2.4999852796
33.6249173022 -18.2070694627 -2.4999851471
33.7152239792 -18.2614370895 -2.4999851471
34.5182675867 -18.6569114480 -2.4999851471
33.3462549080 -18.0543679256 -2.4999850808
33.9026374461 -18.3949599733 -2.4999850808
34.7735232205 -18.7783622004 -2.4999850808
34.8830877750 -18.8407197055 -2.4999850145
32.8372174491 -17.7562890468 -2.4999848820
33.6047958240 -18.3080605047 -2.4999848820
39.9025120806 -18.4244270285 -2.4999845506
40.5502514389 -18.7265779116 -2.4999828936
41.2571083491 -18.1705771104 -2.4999828936
41.4037308916 -18.0345702168 -2.4999828936
40.2946503218 -18.9215052862 -2.4999828273
40.3117184500 -18.9109443330 -2.4999828273
40.3287552623 -18.9003329354 -2.4999828273
41.4781479023 -17.9962415706 -2.4999828273
41.5352009216 -17.9397565441 -2.4999828273
41.6334211082 -17.8392976674 -2.4999828273
41.6610999143 -17.8102236395 -2.4999828273
41.6748746917 -17.7956253436 -2.4999828273
40.1343543359 -19.0452615498 -2.4999827611
41.8996803953 -17.6186773888 -2.4999826948
41.9128875002 -17.6033741668 -2.4999826948
42.0040616435 -17.4951670976 -2.4999826948
39.9275689606 -19.2144477429 -2.4999826285
42.1370082715 -17.3681923349 -2.4999826285
40.3627168289 -18.9930937692 -2.4999825622
39.3764681082 -19.5786575483 -2.4999823634
43.4640371751 -15.6912285881 -2.4999817006
37.3603039420 -14.6781157266 -2.4999994108
37.6136242990 -14.7284386488 -2.4999992033
40.9356109001 -13.2969644206 -2.4999963505
40.9436509565 -14.6155247920 -2.4999961430
40.9661494283 -14.5350837260 -2.4999961430
40.9469330763 -14.6893054848 -2.4999961171
40.9510001593 -14.6759165353 -2.4999961171
40.9550276177 -14.6625156132 -2.4999961171
40.9629635195 -14.6356783204 -2.4999961171
40.9533031011 -14.7500723808 -2.4999960911
40.9575499158 -14.7366643217 -2.4999960911
40.9741399875 -14.6829082185 -2.4999960911
40.9543980174 -14.8245940542 -2.4999960652
40.9676806734 -14.7843198305 -2.4999960652
40.9675373490 -14.9343892753 -2.4999960133
40.9706332342 -14.9964644099 -2.4999959874
40.9571741789 -15.0991490510 -2.4999959614
40.9525309982 -15.1752304743 -2.4999959355
40.9580453921 -15.2247665465 -2.4999959096
40.9615116425 -15.3380008172 -2.4999958577
35.0987248006 -18.4504436056 -2.4999954946
35.1291738516 -18.4581878720 -2.4999954946
35.1444154255 -18.4619924160 -2.4999954946
35.2360951391 -18.4838713588 -2.4999954946
37.7260201609 -18.4558196806 -2.4999954946
37.7564550365 -18.4480198912 -2.4999954946
37.7868432333 -18.4400401754 -2.4999954946
37.8171836875 -18.4318808124 -2.4999954946
34.9860140573 -18.4452025561 -2.4999954687
35.0012178447 -18.4494306495 -2.4999954687
35.0164340731 -18.4536137488 -2.4999954687
35.0621560719 -18.4658927184 -2.4999954687
37.8843394277 -18.4382725272 -2.4999954687
37.8995100335 -18.4339268802 -2.4999954687
37.9298123476 -18.4251010496 -2.4999954687
37.9902576762 -18.4069123311 -2.4999954687
34.9185399213 -18.4510419522 -2.4999954427
34.9642429517 -18.4641897787 -2.4999954427
37.9822004636 -18.4346535817 -2.4999954427
38.0125056299 -18.4253385140 -2.4999954427
40.9556736538 -16.1661599852 -2.4999954427
34.8659636869 -18.4606288828 -2.4999954168
38.0652338854 -18.4340506168 -2.4999954168
38.1106622148 -18.4192739687 -2.4999954168
34.7673535131 -18.4551965353 -2.4999953909
38.0726090501 -18.4570710909 -2.4999953909
38.1939967891 -18.4165917205 -2.4999953909
38.2241913885 -18.4060239107 -2.4999953909
34.6836611258 -18.4530474081 -2.4999953649
34.6988894427 -18.4581698819 -2.4999953649
38.2927123311 -18.4070486809 -2.4999953649
34.5996718249 -18.4495436787 -2.4999953390
34.6301242859 -18.4602405258 -2.4999953390
34.6453741155 -18.4655213397 -2.4999953390
38.3765850511 -18.4014054863 -2.4999953390
34.5306117343 -18.4502963545 -2.4999953131
34.5610698571 -18.4614017712 -2.4999953131
38.4305680813 -18.4063591599 -2.4999953131
38.4606980011 -18.3943918940 -2.4999953131
34.4612797263 -18.4501314648 -2.4999952871
38.4847922028 -18.4107540856 -2.4999952871
38.5149471755 -18.3984659347 -2.4999952871
34.3916878833 -18.4490426938 -2.4999952612
34.4221410203 -18.4609700526 -2.4999952612
38.3566730618 -18.4864800044 -2.4999952612
34.3522908142 -18.4593644721 -2.4999952353
34.2669772224 -18.4504691524 -2.4999952093
38.7091951694 -18.3938513989 -2.4999952093
34.2271114164 -18.4598616035 -2.4999951834
34.2423618885 -18.4663346040 -2.4999951834
34.1718013387 -18.4623249624 -2.4999951575
33.8451067476 -18.3341387419 -2.4999951315
33.8748896404 -18.3493018692 -2.4999951315
33.9347219471 -18.3790981863 -2.4999951315
33.9647692666 -18.3937303331 -2.4999951315
38.8601982957 -18.4037475524 -2.4999951315
38.9053263979 -18.3819172344 -2.4999951315
33.5545935826 -18.2022471616 -2.4999951056
34.5903627410 -18.6766510084 -2.4999951056
34.6540183073 -18.6979585990 -2.4999951056
34.6699712455 -18.7031676899 -2.4999951056
34.7019230009 -18.7134441832 -2.4999951056
38.9159493888 -18.4036309937 -2.4999951056
38.9310130049 -18.3962338095 -2.4999951056
33.2707960175 -18.0535244908 -2.4999950797
33.3413325790 -18.0996262342 -2.4999950797
33.3697368340 -18.1177739630 -2.4999950797
34.8721244612 -18.7898336010 -2.4999950797
34.8883482280 -18.7943970925 -2.4999950797
38.9568059437 -18.4104426270 -2.4999950797
33.0765277071 -17.9484339635 -2.4999950537
33.1455311889 -17.9974205054 -2.4999950537
33.2715340064 -18.0830038374 -2.4999950537
33.3140357618 -18.1107824103 -2.4999950537
34.9634996195 -18.8398669643 -2.4999950537
39.0581040826 -18.3861230041 -2.4999950537
35.3170994957 -18.9705164528 -2.4999950019
39.2240907795 -18.4070907965 -2.4999949500
39.2508643493 -18.4199343713 -2.4999949241
39.2659747283 -18.4115463768 -2.4999949241
40.9480042636 -17.0411489647 -2.4999948981
39.4776036895 -18.4290244388 -2.4999947944
39.7512746833 -18.4294079966 -2.4999946388
39.7796428669 -18.4397695913 -2.4999946128
40.1320905466 -18.4318535904 -2.4999944054
40.2508593055 -18.4345410908 -2.4999943275
40.5273612166 -18.7710732914 -2.4999938607
41.1872724989 -18.2062451135 -2.4999938607
41.2017422738 -18.1921298084 -2.4999938607
41.2161702299 -18.1779717609 -2.4999938607
41.2449001804 -18.1495279344 -2.4999938607
40.3944702122 -18.8981062684 -2.4999938348
40.4109901064 -18.8863331886 -2.4999938348
40.5256441321 -18.8025605685 -2.4999938348
40.6225207057 -18.7288788569 -2.4999938348
41.2186475022 -18.2094083656 -2.4999938348
41.2475633989 -18.1809493325 -2.4999938348
41.4451901251 -17.9770164478 -2.4999938348
41.4864294346 -17.9322625815 -2.4999938348
41.5000874108 -17.9172635149 -2.4999938348
41.5542738289 -17.8568651948 -2.4999938348
41.5810980878 -17.8264266538 -2.4999938348
40.1214253543 -19.1110664980 -2.4999938089
40.1898339186 -19.0668975745 -2.4999938089
40.2577150667 -19.0219223011 -2.4999938089
40.3250592943 -18.9761469749 -2.4999938089
41.5992809712 -17.8423551827 -2.4999938089
41.6393191697 -17.7962391493 -2.4999938089
41.7311385689 -17.6872666766 -2.4999938089
41.6709441793 -17.7965006678 -2.4999937829
41.9024069377 -17.5108264850 -2.4999937829
41.9711090685 -17.4601805069 -2.4999937570
42.0678154777 -17.3277290122 -2.4999937570
39.8250565328 -19.3729185854 -2.4999937310
40.2467292894 -19.1163012189 -2.4999937310
39.9443645968 -19.3324506938 -2.4999937051
42.2013938853 -17.2201311036 -2.4999937051
42.4641851122 -16.8962984777 -2.4999936532
42.5989113407 -16.7095123289 -2.4999936273
38.9430274128 -19.9963195384 -2.4999935236
34.8608828477 -18.4487300193 -2.5000115131
34.8754670518 -18.4525082707 -2.5000115131
34.9046686713 -18.4599352630 -2.5000115131
37.3951276491 -18.4576634282 -2.5000115131
37.4097271915 -18.4539448860 -2.5000115131
37.4243156699 -18.4501831720 -2.5000115131
37.4680134450 -18.4386393301 -2.5000115131
37.5617841194 -18.4376191099 -2.5000115621
34.7021079479 -18.4549831398 -2.5000116111
37.5684751747 -18.4608476497 -2.5000116111
37.6268319916 -18.4436632307 -2.5000116111
37.6413891050 -18.4392593264 -2.5000116111
37.6559331273 -18.4348123788 -2.5000116111
40.9650595545 -15.3101897530 -2.5000116111
34.6221545081 -18.4561946985 -2.5000116601
34.6367618387 -18.4606791188 -2.5000116601
37.6776345177 -18.4534074429 -2.5000116601
37.7213509310 -18.4396154114 -2.5000116601
37.7358956567 -18.4349319207 -2.5000116601
37.7649432263 -18.4254359644 -2.5000116601
40.9605964186 -15.3900277191 -2.5000116601
37.8161905510 -18.4337561688 -2.5000117090
34.4612183199 -18.4547358487 -2.5000117580
37.9922013357 -18.4220382505 -2.5000118070
40.9614237474 -15.6407412250 -2.5000118560
38.0676494786 -18.4448792276 -2.5000119050
38.1547453952 -18.4099870370 -2.5000119050
34.2087398412 -18.4652049173 -2.5000119540
38.2748540651 -18.4116607158 -2.5000120030
33.7140895762 -18.2959903831 -2.5000120520
33.7565650803 -18.3173787884 -2.5000120520
33.8994899630 -18.3859357609 -2.5000120520
40.9567869403 -15.9343516392 -2.5000121010
38.4783930612 -18.3984246382 -2.5000121499
40.9547543579 -16.0958113339 -2.5000122479
38.5388877975 -18.4497717156 -2.5000122969
40.9606760531 -16.1357570445 -2.5000122969
38.5494465145 -18.4715168019 -2.5000123459
40.9504983170 -16.2043381513 -2.5000123459
40.9555698991 -16.2446319765 -2.5000123949
40.9438917305 -16.3135177484 -2.5000124439
39.1917194348 -18.3634389022 -2.5000127868
39.6561439157 -18.3704648973 -2.5000133257
40.6582130988 -18.6838218850 -2.5000150892
40.7038569401 -18.6435698172 -2.5000150892
40.4079312835 -18.9231220453 -2.5000151382
40.4398203847 -18.8978088847 -2.5000151382
40.4715591666 -18.8723075005 -2.5000151382
40.5188830621 -18.8337044593 -2.5000151382
41.2404781777 -18.1462603722 -2.5000151382
41.3750675042 -17.9935364908 -2.5000151382
41.3882766613 -17.9780465974 -2.5000151382
40.2442519275 -19.0783953378 -2.5000151872
40.2934136880 -19.0418014055 -2.5000151872
41.5239075314 -17.8520606512 -2.5000151872
41.6936023924 -17.6729285105 -2.5000152362
40.0206200617 -19.2948866060 -2.5000152852
40.0547154255 -19.2718584021 -2.5000152852
41.9038704850 -17.4193266073 -2.5000152852
41.9153787116 -17.4022749315 -2.5000152852
40.1023809260 -19.2685400366 -2.5000153342
42.0148486803 -17.2950454519 -2.5000153342
42.0809154124 -17.1902787746 -2.5000153342
39.6969251611 -19.5555890703 -2.5000153832
39.7680864626 -19.5131432037 -2.5000153832
39.6912550777 -19.5869382379 -2.5000154321
39.7091851727 -19.5764223945 -2.5000154321
42.3513499396 -16.8673175750 -2.5000154811
38.8412009216 -20.1923862116 -2.5000157751
37.3958751307 -14.6201818937 -2.5000056732
37.3665589221 -14.7154486579 -2.5000057366
37.4143766670 -14.6365507025 -2.5000057366
37.3311707044 -14.8100396290 -2.5000058000
37.3668962525 -14.7589188965 -2.5000058000
37.3812422839 -14.7372501306 -2.5000058000
37.3924873750 -14.7197638233 -2.5000058000
37.3415587560 -14.8769549574 -2.5000059268
37.3630720141 -14.9280101868 -2.5000060536
37.6146793481 -14.7242045012 -2.5000063072
37.4699499302 -15.2121951349 -2.5000067509
34.6162605857 -18.4538837234 -2.5000139147
34.6439462395 -18.4614507153 -2.5000139147
34.6994494295 -18.4760926498 -2.5000139147
34.7272650228 -18.4831670799 -2.5000139147
37.0995158518 -18.4809992858 -2.5000139147
37.1273184693 -18.4738740310 -2.5000139147
37.1550784448 -18.4665844114 -2.5000139147
37.1827948066 -18.4591306819 -2.5000139147
37.2242854518 -18.4476429543 -2.5000139147
37.2380928100 -18.4437319432 -2.5000139147
34.5404605391 -18.4574517787 -2.5000139781
34.5681686294 -18.4654671667 -2.5000139781
34.5820403365 -18.4694133515 -2.5000139781
37.2724322933 -18.4589961069 -2.5000139781
37.3001017063 -18.4508482055 -2.5000139781
34.5058771979 -18.4724330231 -2.5000140415
37.3486165323 -18.4614258867 -2.5000140415
37.4390201340 -18.4581157057 -2.5000141049
37.4804916821 -18.4443541620 -2.5000141049
37.5573871697 -18.4433943971 -2.5000141683
37.6207947445 -18.4462597764 -2.5000142317
37.6621539198 -18.4308855519 -2.5000142317
37.6706769949 -18.4535061724 -2.5000142951
37.7258742918 -18.4323349787 -2.5000142951
37.7623012400 -18.4439706172 -2.5000143585
37.7760953808 -18.4384680741 -2.5000143585
40.9619693259 -15.0632957722 -2.5000148657
40.9694840622 -15.0333787611 -2.5000148657
40.9518659935 -12.4539758412 -2.5000148657
40.9439432937 -12.4241642723 -2.5000148657
38.3078630047 -18.4345353486 -2.5000149291
38.3627912232 -18.4058260020 -2.5000149291
40.9534240760 -15.1890145474 -2.5000149291
40.9575755055 -15.1740863277 -2.5000149291
40.9616827564 -15.1591458926 -2.5000149291
40.9697645792 -15.1292288994 -2.5000149291
40.9466143518 -12.3432226331 -2.5000149291
40.9423474439 -12.3283270093 -2.5000149291
40.9380364907 -12.3134440730 -2.5000149291
38.2773252271 -18.4772262581 -2.5000149925
38.4015769846 -18.4125173640 -2.5000149925
38.4152752838 -18.4051238653 -2.5000149925
39.8876699620 -17.2220845994 -2.5000149925
40.9639260312 -15.2404419580 -2.5000149925
40.9682295463 -15.2254824466 -2.5000149925
40.9890823056 -15.1504975346 -2.5000149925
40.9479874695 -12.2619072159 -2.5000149925
40.9389284950 -12.2321219551 -2.5000149925
40.9343329649 -12.2172495536 -2.5000149925
38.4679392221 -18.4038529818 -2.5000150559
39.9364925158 -17.2022991557 -2.5000150559
40.2599507137 -16.7806080874 -2.5000150559
40.9556419112 -15.3519896505 -2.5000150559
40.9648647682 -15.3221050219 -2.5000150559
40.9480521965 -12.1802387823 -2.5000150559
40.9433031466 -12.1653396183 -2.5000150559
40.9385100430 -12.1504545679 -2.5000150559
38.5070875124 -18.4097157175 -2.5000151193
39.6896946738 -17.5074889369 -2.5000151193
40.9547805800 -15.4339951729 -2.5000151193
40.9596567006 -15.4190618685 -2.5000151193
40.9644886243 -15.4041142050 -2.5000151193
40.9692763091 -15.3891523131 -2.5000151193
40.9879838256 -15.3291650832 -2.5000151193
40.9418067972 -12.0833432249 -2.5000151193
40.9367711400 -12.0684629598 -2.5000151193
38.5601001561 -18.4074544936 -2.5000151827
40.9577121142 -15.5013906740 -2.5000151827
40.9627875899 -15.4864484027 -2.5000151827
40.9678188416 -15.4714911825 -2.5000151827
40.9442163381 -12.0159270431 -2.5000151827
40.9389812411 -12.0010399451 -2.5000151827
40.9511232517 -11.9631249587 -2.5000152460
40.9457319264 -11.9482176599 -2.5000152460
40.9348170987 -11.9184512337 -2.5000152460
40.9292936918 -11.9035923669 -2.5000152460
38.6117152422 -18.4335001678 -2.5000153094
40.9553725036 -15.6520063287 -2.5000153094
40.9718029360 -15.6071496310 -2.5000153094
38.9487293053 -18.2500489264 -2.5000153728
40.9554072603 -15.7202673535 -2.5000153728
40.9611302230 -15.7053309427 -2.5000153728
40.9343341061 -11.7822004666 -2.5000153728
40.9545300065 -15.7887903435 -2.5000154362
40.9604556764 -15.7738562279 -2.5000154362
40.9448498669 -11.7434484129 -2.5000154362
40.9388087261 -11.7285606331 -2.5000154362
40.9265944548 -11.6988390113 -2.5000154362
38.7864744778 -18.4131385470 -2.5000154996
38.8001729305 -18.4046064492 -2.5000154996
38.8274938179 -18.3874208730 -2.5000154996
40.9588636826 -15.8426341308 -2.5000154996
38.3171654333 -18.7003429890 -2.5000155630
40.9436375151 -15.9414764207 -2.5000155630
40.9500149057 -15.9265738590 -2.5000155630
40.9563481839 -15.9116524971 -2.5000155630
40.9626372944 -15.8967124655 -2.5000155630
38.9218110448 -18.3842122259 -2.5000156264
40.9593972517 -15.9659689211 -2.5000156264
37.5560709543 -19.0804421474 -2.5000157532
39.0166660194 -18.3792131028 -2.5000157532
40.9569695291 -16.0902027568 -2.5000157532
40.9637868207 -16.0752601059 -2.5000157532
37.2351666286 -19.2194333170 -2.5000158800
40.9515436874 -16.2152654971 -2.5000158800
40.9439923114 -16.2855352995 -2.5000159434
39.2078590005 -18.3637779099 -2.5000160068
40.9581594442 -16.3112582191 -2.5000160068
40.9338172329 -16.4116924960 -2.5000160702
40.9415856507 -16.3968169271 -2.5000160702
35.8721649451 -19.4752624195 -2.5000161336
40.9315585829 -16.4675914860 -2.5000161336
39.3601788307 -18.3717973547 -2.5000162604
40.9335098830 -16.5650315574 -2.5000162604
40.9336683339 -16.6631125753 -2.5000163872
40.9460398209 -16.6900619041 -2.5000164506
40.9527984821 -16.7741478105 -2.5000165774
40.9307290946 -16.9034851847 -2.5000167042
40.9325978624 -16.9460341820 -2.5000167676
39.8540941931 -18.3460807292 -2.5000170211
40.9267063830 -17.2188539542 -2.5000171479
40.9203599213 -17.4370286812 -2.5000174649
40.9180636560 -17.4809825212 -2.5000175283
40.9400169155 -18.1853441324 -2.5000187328
40.9640096469 -18.3402498103 -2.5000190498
40.6465131641 -18.7362284468 -2.5000191766
40.6611592367 -18.7221926044 -2.5000191766
40.6757637246 -18.7081134978 -2.5000191766
40.7048474358 -18.6798259847 -2.5000191766
41.1466828635 -18.2045831040 -2.5000191766
41.1727792778 -18.1735182878 -2.5000191766
41.2244184596 -18.1109281937 -2.5000191766
40.4224801916 -18.9730668104 -2.5000192400
40.4988208684 -18.9057438175 -2.5000192400
40.5290769237 -18.8784996990 -2.5000192400
40.5591712640 -18.8510770522 -2.5000192400
40.6632127936 -18.7537057937 -2.5000192400
40.8082965819 -18.6109137592 -2.5000192400
40.8225712431 -18.5963998805 -2.5000192400
41.2431552321 -18.1262013283 -2.5000192400
41.2559941236 -18.1104031799 -2.5000192400
40.2663308912 -19.1359106711 -2.5000193034
40.3763329150 -19.0445418465 -2.5000193034
40.3918922166 -19.0313038972 -2.5000193034
40.4228929988 -19.0046902070 -2.5000193034
41.3384893905 -18.0457847404 -2.5000193034
41.4623391764 -17.8833294103 -2.5000193034
41.4865294215 -17.8504026878 -2.5000193034
41.4985513858 -17.8338858013 -2.5000193034
41.5461490722 -17.7674647967 -2.5000193034
40.1206466740 -19.2816399406 -2.5000193668
40.2656590906 -19.1675757932 -2.5000193668
40.8427151022 -18.6448652922 -2.5000193668
40.8857099153 -18.6008905110 -2.5000193668
40.9141555848 -18.5713627624 -2.5000193668
41.1353316179 -18.3291888326 -2.5000193668
41.7043954279 -17.5781429528 -2.5000193668
39.9868235334 -19.4113845638 -2.5000194302
40.0366544789 -19.3749751558 -2.5000194302
41.5974714276 -17.7785829707 -2.5000194302
41.8240592288 -17.4352343283 -2.5000194302
41.8562806017 -17.3825983022 -2.5000194302
41.8775014588 -17.3473496535 -2.5000194302
39.7977983170 -19.5726294188 -2.5000194936
39.8660886887 -19.5262107920 -2.5000194936
39.9169434069 -19.4908683163 -2.5000194936
41.6991401769 -17.6734359243 -2.5000194936
41.7673618595 -17.5700595644 -2.5000194936
41.9193328322 -17.3242596625 -2.5000194936
42.0920584331 -17.0655136339 -2.5000195570
39.5031139392 -19.8443218576 -2.5000196838
42.2754450568 -16.8087925914 -2.5000196838
39.2902580534 -20.0205265219 -2.5000198106
39.0961931348 -20.1488444128 -2.5000198740
42.5555154601 -16.4724592166 -2.5000200008
37.3838787346 -14.6405893331 -2.5000016110
37.6544928691 -18.4430643250 -2.5000023314
38.5879018620 -18.4278466831 -2.5000024351
40.9533908775 -15.4367978774 -2.5000024813
40.9426738694 -12.6687976322 -2.5000024813
40.9428953836 -15.5668783984 -2.5000024870
40.9602056706 -15.5049867938 -2.5000024870
40.9401572784 -12.5696538244 -2.5000024870
40.9339427127 -15.6818086551 -2.5000024928
40.9424943747 -15.7353397256 -2.5000024985
40.9540796409 -12.4475694995 -2.5000024985
40.9492483226 -12.4320964320 -2.5000024985
40.9441049987 -12.2623420622 -2.5000025101
40.9450585999 -12.1924799134 -2.5000025158
40.9522619330 -11.9413161445 -2.5000025389
40.9199525121 -16.3434757170 -2.5000025446
40.9489484397 -11.8701810609 -2.5000025446
40.9446808506 -11.7988272385 -2.5000025504
40.9157217944 -16.4708981304 -2.5000025562
40.9298174415 -16.4401228779 -2.5000025562
40.9463699141 -11.7427145099 -2.5000025562
40.9160943692 -16.5272287362 -2.5000025619
40.8638062874 -11.4044225888 -2.5000025735
40.8399213335 -11.3588888034 -2.5000025735
40.8156332333 -11.3135687766 -2.5000025735
41.2181789369 -12.1673275526 -2.5000025792
41.1282342831 -11.9253615444 -2.5000025792
40.7953450911 -11.2266940641 -2.5000025792
40.5827729680 -18.8404809871 -2.5000028155
40.6248899276 -18.7971483931 -2.5000028155
40.7624720873 -18.6500387168 -2.5000028155
40.8162763903 -18.5900661245 -2.5000028155
41.1725224387 -18.1530309171 -2.5000028155
41.2792021181 -18.0064645894 -2.5000028155
41.3023763305 -17.9735119903 -2.5000028155
40.2186059974 -19.2496742838 -2.5000028270
41.5431036360 -17.6964803582 -2.5000028270
41.5956658862 -17.6572605971 -2.5000028328
40.0123677551 -19.5452986680 -2.5000028501
39.6439918247 -19.8443763223 -2.5000028559
37.3737938125 -14.8900210408 -2.4999992033
37.3540512358 -15.1001258945 -2.4999991514
37.4263105222 -15.2383849825 -2.4999990218
37.4275953810 -15.2922531472 -2.4999989958
37.4406497998 -15.2649341102 -2.4999989958
36.6774953851 -18.4504317704 -2.4999966876
36.7014636036 -18.4439099201 -2.4999966876
36.7134331384 -18.4405958468 -2.4999966876
36.7078793892 -18.4672159918 -2.4999966617
36.7199178395 -18.4638828374 -2.4999966617
36.7319463771 -18.4605140857 -2.4999966617
36.7799592959 -18.4466837000 -2.4999966617
36.8828526282 -18.4403439719 -2.4999966358
36.8948108206 -18.4364933327 -2.4999966358
36.9022541069 -18.4594918711 -2.4999966098
36.9142688574 -18.4555837550 -2.4999966098
36.9502430079 -18.4436463968 -2.4999966098
37.0060264810 -18.4500501707 -2.4999965839
37.0180128472 -18.4458351185 -2.4999965839
37.0501354980 -18.4600429344 -2.4999965579
37.0621512315 -18.4556973560 -2.4999965579
37.1100840402 -18.4379601702 -2.4999965579
37.1546175771 -18.4468298436 -2.4999965320
37.1994277964 -18.4552256538 -2.4999965061
37.3499367048 -18.4449493965 -2.4999964542
37.3716214029 -18.4618519564 -2.4999964283
37.4655965059 -18.4459602419 -2.4999964023
37.5118289148 -18.4509684497 -2.4999963764
37.5822799699 -18.4437402680 -2.4999963505
37.6879315005 -18.4444740969 -2.4999962986
37.8064200701 -18.4360025486 -2.4999962467
37.9256711770 -18.4241668701 -2.4999961949
38.0582192858 -18.4295389670 -2.4999961171
38.2042344702 -18.4231350619 -2.4999960392
38.3653391582 -18.4316840565 -2.4999959355
38.4787021060 -18.4407346132 -2.4999958577
40.9238357087 -15.8376726544 -2.4999952612
40.9322716488 -15.8060737563 -2.4999952612
40.9485819483 -15.7427289976 -2.4999952612
40.9525423184 -15.7268629989 -2.4999952612
40.9540420824 -13.0712245550 -2.4999952612
40.9420739848 -13.0236485042 -2.4999952612
40.9379908515 -13.0078136544 -2.4999952612
40.9385117767 -15.8756631952 -2.4999952353
40.9428654343 -15.8598264042 -2.4999952353
40.9572412485 -12.9858513843 -2.4999952353
40.9530462381 -12.9699718323 -2.4999952353
40.9445153859 -12.9382503045 -2.4999952353
40.9401796186 -12.9224086062 -2.4999952353
40.9546352974 -12.8842104742 -2.4999952093
40.9410075313 -12.8366365233 -2.4999952093
40.9316880333 -12.8049885541 -2.4999952093
40.9287375195 -16.0791850869 -2.4999951834
40.9386022425 -16.0475529612 -2.4999951834
40.9434643807 -16.0317151505 -2.4999951834
40.9733878437 -12.8617167146 -2.4999951834
40.9642161618 -12.8298767336 -2.4999951834
40.9453084791 -12.7663623444 -2.4999951834
40.9355731402 -12.7346901592 -2.4999951834
40.9262039975 -16.1656103686 -2.4999951575
40.9314154251 -16.1498087177 -2.4999951575
40.9365800858 -16.1339917195 -2.4999951575
40.9563693364 -12.6407439557 -2.4999951315
40.9458906033 -12.6090085294 -2.4999951315
40.9405808734 -12.5931642036 -2.4999951315
40.9226741741 -16.3235383751 -2.4999951056
40.9581102299 -12.5695530248 -2.4999951056
40.9361227037 -12.5061291080 -2.4999951056
40.9221294462 -16.3950176277 -2.4999950797
40.9280195198 -16.3792270263 -2.4999950797
40.9338628562 -16.3634190700 -2.4999950797
40.9532770027 -12.4821938576 -2.4999950797
40.9327948813 -16.4351616951 -2.4999950537
40.9388036617 -16.4193393677 -2.4999950537
40.9447656104 -16.4034993345 -2.4999950537
40.9369963190 -16.4913366351 -2.4999950278
40.9553804688 -16.4437771766 -2.4999950278
40.9576899811 -12.3543140403 -2.4999950278
40.9331556766 -12.2909101641 -2.4999950278
40.9406199505 -16.5477460493 -2.4999950019
40.9532566296 -16.5160354225 -2.4999950019
40.9430469045 -12.2503285620 -2.4999950019
40.9436619514 -16.6043840907 -2.4999949759
40.9501712747 -16.5885288761 -2.4999949759
40.9566336668 -16.5726544752 -2.4999949759
40.9526442864 -12.2095565493 -2.4999949759
40.9396145690 -12.1778507081 -2.4999949759
40.9527960724 -16.6453821326 -2.4999949500
40.9594266353 -16.6294997183 -2.4999949500
40.9506056697 -12.0797606188 -2.4999949241
40.9437303080 -12.0639046606 -2.4999949241
40.9562766223 -16.7597382460 -2.4999948981
40.9378085744 -11.9907753138 -2.4999948981
40.9713558462 -16.7854160969 -2.4999948722
40.9382117648 -11.9332796225 -2.4999948722
40.9528321776 -11.9072898037 -2.4999948462
40.9454466063 -11.8914280138 -2.4999948462
40.9380141453 -11.8755881411 -2.4999948462
40.9645015529 -16.9169097975 -2.4999948203
40.9372122798 -11.8177070204 -2.4999948203
40.9637136154 -16.9749861211 -2.4999947944
40.9513068386 -11.7913330656 -2.4999947944
40.9435782530 -11.7754762952 -2.4999947944
40.9855089733 -16.9854406729 -2.4999947684
40.9898965414 -17.0865528920 -2.4999947166
40.9444367270 -11.6160576363 -2.4999947166
40.9627370556 -17.1931762542 -2.4999946906
41.1360225178 -11.9606347790 -2.4999946906
40.8457221388 -11.3846219334 -2.4999946906
40.8187906545 -11.3380735773 -2.4999946906
40.7914471403 -11.2917660561 -2.4999946906
40.7165332126 -11.1694844220 -2.4999946906
41.2867155837 -12.2677378577 -2.4999946647
41.2740242397 -12.2340545203 -2.4999946647
41.2611338358 -12.2004468586 -2.4999946647
41.2144564032 -12.0834329490 -2.4999946647
41.1581574562 -11.9509198533 -2.4999946647
40.7080441243 -11.1110390493 -2.4999946647
40.6983041703 -11.0959048706 -2.4999946647
40.6086422255 -10.9610126153 -2.4999946647
40.5882317235 -10.9313638574 -2.4999946647
40.5779607820 -10.9165848916 -2.4999946647
40.5676461667 -10.9018363738 -2.4999946647
40.5364411817 -10.8577747975 -2.4999946647
40.5259527771 -10.8431493595 -2.4999946647
41.3463830934 -12.3611772398 -2.4999946388
41.3403384813 -12.3441492691 -2.4999946388
41.3219027865 -12.2931736857 -2.4999946388
41.3093613136 -12.2592817237 -2.4999946388
40.6183700268 -10.9324661234 -2.4999946388
40.4706555504 -10.7271293220 -2.4999946388
40.4597809607 -10.7126990615 -2.4999946388
40.4269017357 -10.6696021763 -2.4999946388
40.9585627209 -17.3545844084 -2.4999946128
40.9709262844 -17.3821860964 -2.4999945869
40.9797363673 -17.3662468258 -2.4999945869
41.4825035617 -12.6220136959 -2.4999945869
40.7886597018 -11.1025994256 -2.4999945869
40.2345898728 -10.3582430449 -2.4999945869
40.9652478387 -17.4417586994 -2.4999945610
40.2287734930 -10.3148561462 -2.4999945610
40.1923727321 -10.2738249892 -2.4999945610
40.1432746915 -10.2196223491 -2.4999945610
41.7074613261 -13.1138388209 -2.4999944832
40.9936220391 -17.5858648461 -2.4999944572
41.7423013700 -13.1634573389 -2.4999944572
40.9675357357 -17.7225506009 -2.4999944054
41.8788021292 -13.5381619079 -2.4999943794
40.9683286553 -17.9017168291 -2.4999943016
40.9878448482 -17.9601215763 -2.4999942497
40.6362531794 -18.8191021219 -2.4999939904
40.6493153842 -18.8041465878 -2.4999939904
40.6882357533 -18.7590490609 -2.4999939904
40.7522087627 -18.6831246812 -2.4999939904
40.7900510786 -18.6371187990 -2.4999939904
41.1230993267 -18.1921186562 -2.4999939904
41.1896013094 -18.0932675810 -2.4999939904
41.2221917504 -18.0434033131 -2.4999939904
41.2436723121 -18.0100006365 -2.4999939904
41.2755216765 -17.9596597977 -2.4999939904
41.2860386984 -17.9428169522 -2.4999939904
