49.2768278781 -11.2021411750 -2.4944899082
49.2891231262 -11.2174592224 -2.4944899082
49.3638412761 -11.3085976269 -2.4944899082
48.7210756858 -10.4390015758 -2.4944899082
48.7513465502 -10.4898083087 -2.4944899082
48.7717771024 -10.5235293559 -2.4944899082
48.8342607486 -10.6239590122 -2.4944899082
48.8554835303 -10.6571871632 -2.4944899082
48.8769025295 -10.6902891716 -2.4944899082
49.3326733298 -11.3089362829 -2.4944899082
49.3833851881 -11.3693210406 -2.4944899082
49.5132594651 -11.5176209521 -2.4944899082
49.5264869250 -11.5322382117 -2.4944899082
49.5530712764 -11.5613550239 -2.4944899082
48.6506294182 -10.3657043751 -2.4944899082
49.1536724368 -11.1233247431 -2.4944899082
49.6027222133 -11.6500677101 -2.4944899082
49.6712393284 -11.7214231263 -2.4944899082
49.6989404278 -11.7496802235 -2.4944899082
49.7408043230 -11.7917573427 -2.4944899082
48.4432735406 -10.0270454515 -2.4944899082
48.4609716241 -10.0625972612 -2.4944899082
48.4788797344 -10.0980437408 -2.4944899082
49.6817286682 -11.7666534557 -2.4944899082
49.8375993977 -11.9196538922 -2.4944899082
48.3359759961 -9.8578129871 -2.4944899082
48.3442985949 -9.8759201265 -2.4944899082
48.3611043025 -9.9120601501 -2.4944899082
48.3953556892 -9.9840387537 -2.4944899082
48.2491199303 -9.7216257085 -2.4944899082
50.0565615661 -12.1825970397 -2.4944899082
50.0869843816 -12.2085663699 -2.4944899082
50.1329053533 -12.2471817464 -2.4944899082
50.4534875952 -12.5881622543 -2.4944899082
47.9709574398 -9.2676434181 -2.4944899082
47.9908626962 -9.3251531561 -2.4944899082
50.8876124709 -12.9628150206 -2.4944899082
51.1120572353 -13.1480729839 -2.4944899082
53.7509803978 -10.9166450924 -2.5009002686
53.7880963237 -10.9218130402 -2.5009002686
53.8376527874 -10.9281908804 -2.5009002686
53.6110992670 -10.9186854611 -2.5009002686
53.7351081805 -10.9387660200 -2.5009002686
53.4828198924 -10.9186131320 -2.5009002686
53.5695905224 -10.9357109803 -2.5009002686
53.3910142432 -10.9232826967 -2.5009002686
53.4406158948 -10.9343588937 -2.5009002686
53.4654650002 -10.9396767039 -2.5009002686
53.3234466526 -10.9320912342 -2.5009002686
53.1933678479 -10.9231350010 -2.5009002686
53.2057563473 -10.9265437368 -2.5009002686
53.1247882909 -10.9287418740 -2.5009002686
53.0062295581 -10.9176012861 -2.5009002686
53.0433832969 -10.9293784421 -2.5009002686
52.7263702806 -10.9208489942 -2.5009002686
52.7511519574 -10.9303927578 -2.5009002686
52.3613613758 -10.9479827125 -2.5009002686
52.3385181394 -10.9638998277 -2.5009002686
49.0665168334 -6.6389585647 -2.5009002686
49.0707286082 -5.2754422668 -2.5009002686
49.0579663253 -5.3223669665 -2.5009002686
49.0456209754 -5.3694030764 -2.5009002686
49.0771073221 -8.2213559636 -2.5009002686
49.0859817598 -8.2525372381 -2.5009002686
49.0562091443 -5.2376377103 -2.5009002686
49.0511414392 -5.1682220895 -2.5009002686
49.0465239894 -5.1839094603 -2.5009002686
49.0590980996 -4.9813764048 -2.5009002686
49.0539278917 -4.9970410560 -2.5009002686
49.0511753275 -8.4684969485 -2.5009002686
49.0563206875 -8.4841697790 -2.5009002686
49.0738025355 -4.8640778506 -2.5009002686
49.0682852730 -4.8796995166 -2.5009002686
49.0545004750 -8.5545519160 -2.5009002686
49.0566087090 -4.8403214000 -2.5009002686
49.0480450091 -8.6095391853 -2.5009002686
49.0648718594 -8.6565338971 -2.5009002686
49.0536486109 -8.6961638782 -2.5009002686
49.0594674400 -8.7118283961 -2.5009002686
49.0724748579 -4.5954502006 -2.5009002686
49.0503629733 -8.8231509818 -2.5009002686
49.0754187627 -8.8857348031 -2.5009002686
49.0566566271 -8.9667805631 -2.5009002686
49.0699416049 -8.9980697845 -2.5009002686
49.0565713127 -4.3855810942 -2.5009002686
49.0459412750 -9.0642746265 -2.5009002686
49.0598032479 -9.0956255373 -2.5009002686
49.0699832076 -4.2973827639 -2.5009002686
49.0556422267 -4.3286748631 -2.5009002686
49.0733361700 -9.1838053786 -2.5009002686
49.0676603901 -9.3400744053 -2.5009002686
49.2494937928 -3.7452914154 -2.5009002686
49.2058038135 -3.8210847387 -2.5009002686
49.0693805594 -9.3977405748 -2.5009002686
49.3574038599 -3.5235247527 -2.5009002686
49.3290830031 -3.5679743584 -2.5009002686
49.3197305150 -3.5828465295 -2.5009002686
49.2736302303 -3.6576187934 -2.5009002686
48.8353608174 -4.5371852210 -2.5009002686
48.8288775905 -4.5535136710 -2.5009002686
48.8097181201 -4.6026130913 -2.5009002686
48.7935239625 -4.5774736534 -2.5009002686
48.7500014534 -4.6930266689 -2.5009002686
49.0664605853 -9.4979643979 -2.5009002686
49.5592379807 -3.1483512901 -2.5009002686
49.5275797218 -3.1910245049 -2.5009002686
48.6803052869 -4.8184114995 -2.5009002686
48.6690537070 -4.8519999452 -2.5009002686
49.5186552409 -3.1623949475 -2.5009002686
48.5629555477 -5.1164672561 -2.5009002686
49.0653590475 -9.5988517891 -2.5009002686
49.7893303085 -2.7857682092 -2.5009002686
49.0698098570 -9.6573501821 -2.5009002686
48.4456463842 -5.3813592607 -2.5009002686
49.2264646124 -11.1087643988 -2.5009002686
48.7595895524 -10.5363175170 -2.5009002686
49.2735283596 -11.2000504553 -2.5009002686
49.3805614353 -11.3189708554 -2.5009002686
49.4765012754 -11.4209234820 -2.5009002686
49.5182607122 -11.4640051764 -2.5009002686
48.5550215584 -10.2629640162 -2.5009002686
48.6185145848 -10.3652920956 -2.5009002686
49.5859386277 -11.5662537325 -2.5009002686
49.6578869028 -11.6362154204 -2.5009002686
48.3831312220 -10.0139892428 -2.5009002686
48.4522641899 -10.1368742492 -2.5009002686
48.4826687431 -10.1890960371 -2.5009002686
49.7291679979 -11.7365020547 -2.5009002686
49.9095174752 -11.8974155295 -2.5009002686
49.9090860284 -11.9289007622 -2.5009002686
48.1083564326 -9.6311164704 -2.5009002686
47.9650176797 -9.4264689587 -2.5009002686
47.9730016466 -9.4453506484 -2.5009002686
53.0312396080 -10.9307432200 -2.5014681816
53.3770473693 -11.0304465892 -2.5014681816
52.8715321593 -10.9369737285 -2.5014681816
52.8982786828 -10.9447105128 -2.5014681816
52.9519067078 -10.9597086858 -2.5014681816
52.8245080818 -10.9482121372 -2.5014681816
52.8379090728 -10.9522393662 -2.5014681816
52.8916304090 -10.9679513333 -2.5014681816
52.6624321935 -10.9471058556 -2.5014681816
52.6758306211 -10.9516125392 -2.5014681816
52.6892423216 -10.9560795682 -2.5014681816
52.6143743703 -10.9561789202 -2.5014681816
52.4636682116 -10.9526859500 -2.5014681816
52.4415856129 -10.9701117771 -2.5014681816
52.3386018986 -10.9552558028 -2.5014681816
52.3789219610 -10.9715303419 -2.5014681816
52.2393172375 -10.9660558171 -2.5014681816
52.1893116606 -10.9706666747 -2.5014681816
52.1256066659 -10.9686516583 -2.5014681816
52.0616702729 -10.9657631222 -2.5014681816
52.1020944871 -10.9844948604 -2.5014681816
51.9465824514 -10.9640066690 -2.5014681816
49.0498808748 -5.0960013644 -2.5014681816
49.0459864836 -5.1112202293 -2.5014681816
49.0643878039 -7.7992958107 -2.5014681816
49.0726374025 -7.8296118542 -2.5014681816
49.0768294259 -7.8447514405 -2.5014681816
49.0593927863 -4.9680992450 -2.5014681816
49.0508921626 -4.9984943913 -2.5014681816
49.0384787745 -5.0441800790 -2.5014681816
49.0577986071 -7.8664324619 -2.5014681816
49.0620996174 -7.8816157829 -2.5014681816
49.0888471546 -7.9724424849 -2.5014681816
49.0934616259 -7.9875334948 -2.5014681816
49.0492794452 -4.9158164954 -2.5014681816
49.0404696762 -4.9462723907 -2.5014681816
49.0750358236 -8.0097817638 -2.5014681816
49.0893449710 -8.0551346097 -2.5014681816
49.0942040583 -8.0702237852 -2.5014681816
49.0861173746 -8.1230515734 -2.5014681816
49.0911773868 -8.1381499995 -2.5014681816
49.0962820407 -8.1532333912 -2.5014681816
49.0581480610 -8.1155178057 -2.5014681816
49.0890475556 -8.2063777984 -2.5014681816
49.0943540490 -8.2214671919 -2.5014681816
51.2680017387 -10.9680305192 -2.5014681816
49.0629065842 -4.6353443676 -2.5014681816
49.0524372094 -4.6657245489 -2.5014681816
49.0878212650 -8.2748954307 -2.5014681816
49.0561879421 -4.5817459159 -2.5014681816
49.0454015784 -4.6121667850 -2.5014681816
49.0875050622 -8.3436910292 -2.5014681816
49.0932177597 -8.3587843849 -2.5014681816
49.0989750810 -8.3738607754 -2.5014681816
49.0225945286 -4.6041559324 -2.5014681816
49.1059901125 -8.4579736054 -2.5014681816
49.0501821085 -4.4585562849 -2.5014681816
49.0444020381 -4.4737770478 -2.5014681816
49.0896283332 -8.4820680871 -2.5014681816
49.0984079050 -8.5667041611 -2.5014681816
49.0532873033 -4.3191249042 -2.5014681816
49.0434862453 -4.2794764086 -2.5014681816
49.0997935847 -8.6914152818 -2.5014681816
50.9579451338 -10.9623994268 -2.5014681816
49.0981621902 -8.7465631456 -2.5014681816
49.1112911213 -8.8320229562 -2.5014681816
49.2127056380 -3.7535773895 -2.5014681816
49.1892379379 -3.7978760964 -2.5014681816
49.1815028476 -3.8126883978 -2.5014681816
49.1661642881 -3.8423813216 -2.5014681816
49.0292964262 -4.1288161051 -2.5014681816
48.9327418971 -4.3601060461 -2.5014681816
49.1038738106 -8.8725381412 -2.5014681816
49.3939576105 -3.3941438183 -2.5014681816
49.3236975152 -3.5085425344 -2.5014681816
49.2895875884 -3.5663573892 -2.5014681816
49.2153573161 -3.6978892708 -2.5014681816
48.8023582723 -4.6512991064 -2.5014681816
48.7919878511 -4.6832204998 -2.5014681816
49.1190846477 -8.9583496414 -2.5014681816
49.4655002042 -3.2400430677 -2.5014681816
49.3116219110 -3.4816846497 -2.5014681816
49.1154768984 -3.8353275704 -2.5014681816
48.7537097865 -4.7240198670 -2.5014681816
48.7388722937 -4.7723536900 -2.5014681816
48.7104870022 -4.8694068324 -2.5014681816
48.7014085874 -4.9018679498 -2.5014681816
48.6969414391 -4.9181185082 -2.5014681816
49.6119775102 -2.9919581344 -2.5014681816
48.6354265369 -5.0591980700 -2.5014681816
48.5923445702 -5.1361376398 -2.5014681816
48.5775443040 -5.2024922609 -2.5014681816
49.1085594985 -9.0966394388 -2.5014681816
48.5539203186 -5.1973695081 -2.5014681816
49.0899344022 -9.1645526387 -2.5014681816
49.0980753462 -9.1796352163 -2.5014681816
49.0872669434 -9.5478908402 -2.5014681816
49.0615650143 -10.3227496509 -2.5014681816
49.0747063264 -10.4581208853 -2.5014681816
48.8657749681 -10.7002133342 -2.5014681816
49.2801108594 -11.1700336570 -2.5014681816
49.2941835469 -11.1845448834 -2.5014681816
49.3224573940 -11.2134421306 -2.5014681816
49.3509017121 -11.2421715945 -2.5014681816
49.3795155055 -11.2707322694 -2.5014681816
48.6736791765 -10.4903462111 -2.5014681816
48.7839873682 -10.6358201111 -2.5014681816
48.7964819261 -10.6518012980 -2.5014681816
49.4937843232 -11.4147462742 -2.5014681816
49.5681711977 -11.4836971311 -2.5014681816
49.6435697452 -11.5515402352 -2.5014681816
48.4335140191 -10.1871210298 -2.5014681816
48.4671710933 -10.2380812813 -2.5014681816
48.4784904540 -10.2550014083 -2.5014681816
49.7506674579 -11.6762111115 -2.5014681816
49.7818421783 -11.7023990416 -2.5014681816
48.3146998443 -10.0451654612 -2.5014681816
48.3254491923 -10.0625374698 -2.5014681816
48.3362498827 -10.0798776040 -2.5014681816
48.3471018212 -10.0971857118 -2.5014681816
49.9572689491 -11.8747052906 -2.5014681816
49.8141079977 -11.7916933069 -2.5014681816
50.1227769537 -12.0291763771 -2.5014681816
50.1560334226 -12.0531566049 -2.5014681816
48.1274867666 -9.8223488802 -2.5014681816
50.1252492311 -12.0607983789 -2.5014681816
50.1586927431 -12.0847634265 -2.5014681816
50.2091223939 -12.1203389581 -2.5014681816
50.2598657717 -12.1554655538 -2.5014681816
47.9866637035 -9.6638647073 -2.5014681816
47.8716910815 -9.4894485080 -2.5014681816
47.6835407892 -9.2540631057 -2.5014681816
47.5190983721 -8.9798578606 -2.5014681816
52.6156323224 -7.2160192235 -2.4986352921
49.0532817389 -7.4396191424 -2.4986352921
49.0436092691 -4.7970109951 -2.4986352921
49.0260799175 -7.4311075202 -2.4986352921
52.2399225647 -10.9592898566 -2.4986352921
49.0451461154 -4.7028326987 -2.4986352921
49.0366885065 -4.7320505448 -2.4986352921
49.0325245628 -4.7466781043 -2.4986352921
49.0472910800 -7.5984041616 -2.4986352921
49.0576680139 -4.5791399007 -2.4986352921
49.0439482640 -4.6228790524 -2.4986352921
49.0553582733 -7.7075189600 -2.4986352921
49.0887264888 -7.8091402383 -2.4986352921
49.0584735009 -4.4988404385 -2.4986352921
49.0758052133 -7.8459598123 -2.4986352921
49.0504408896 -4.4473549935 -2.4986352921
49.0454347048 -4.4619431167 -2.4986352921
49.0377770712 -4.4102083471 -2.4986352921
49.0326610553 -4.4248340947 -2.4986352921
49.0560277602 -7.9348014815 -2.4986352921
49.0830091011 -8.0074241706 -2.4986352921
49.0941019024 -8.0363601707 -2.4986352921
49.0306508842 -4.3582055868 -2.4986352921
51.8725697795 -10.9688842997 -2.4986352921
49.0955132359 -8.1699340153 -2.4986352921
49.0465583642 -4.1802442098 -2.4986352921
49.0731802815 -8.1791846600 -2.4986352921
49.1362769369 -3.9103614190 -2.4986352921
49.0913357333 -8.3432230830 -2.4986352921
49.0890580007 -8.3966176669 -2.4986352921
51.5647052706 -10.9579437387 -2.4986352921
49.1079775119 -8.4935482032 -2.4986352921
49.1002303718 -8.5329472478 -2.4986352921
49.1012000304 -8.6955679008 -2.4986352921
49.1087606056 -8.7099872815 -2.4986352921
51.2282311262 -10.9695883157 -2.4986352921
51.0917341484 -10.9738224000 -2.4986352921
49.1277466916 -9.4017197952 -2.4986352921
50.6181026353 -10.9549388951 -2.4986352921
48.8019617299 -10.6436024715 -2.4986352921
49.2944221543 -11.1546166764 -2.4986352921
48.6140611936 -10.4563595648 -2.4986352921
48.6268326404 -10.4722122861 -2.4986352921
48.6396509265 -10.4880271578 -2.4986352921
48.6654275677 -10.5195427991 -2.4986352921
48.6783856972 -10.5352432929 -2.4986352921
48.7044410070 -10.5665289399 -2.4986352921
48.8239615072 -10.7053842618 -2.4986352921
49.4900002610 -11.3626136980 -2.4986352921
49.5054487388 -11.3758712679 -2.4986352921
49.5209363673 -11.3890830803 -2.4986352921
49.5364630110 -11.4022490197 -2.4986352921
49.5520285340 -11.4153689710 -2.4986352921
48.5193101201 -10.3752567693 -2.4986352921
48.5570488557 -10.4235453023 -2.4986352921
48.5824454463 -10.4555507737 -2.4986352921
48.5952146389 -10.4714970236 -2.4986352921
49.1579857219 -11.0911502099 -2.4986352921
49.5678336428 -11.4600682722 -2.4986352921
49.6468990590 -11.5247355476 -2.4986352921
49.8078558037 -11.6505267638 -2.4986352921
48.4257537250 -10.2921435505 -2.4986352921
48.4751902016 -10.3575664223 -2.4986352921
48.5380687067 -10.4385149123 -2.4986352921
49.7444067904 -11.6324242793 -2.4986352921
49.7932539399 -11.6697912611 -2.4986352921
49.8260021044 -11.6944611166 -2.4986352921
49.8753965828 -11.7311015428 -2.4986352921
49.9251142794 -11.7673021779 -2.4986352921
48.2740011323 -10.1230870711 -2.4986352921
48.3095116632 -10.1735625138 -2.4986352921
50.0795679553 -11.9047726839 -2.4986352921
50.1308188459 -11.9391545736 -2.4986352921
48.1386611711 -9.9658249890 -2.4986352921
49.7476171586 -11.6958262210 -2.4986352921
49.7970268383 -11.7331622159 -2.4986352921
50.2212075981 -12.0269152588 -2.4986352921
53.9694413721 -10.8983716890 -2.5008041859
52.4866345659 -10.9487575824 -2.5008041859
52.2804549519 -10.9440213444 -2.5008041859
55.5197942021 -10.9051260914 -2.5008041859
51.6806834618 -10.9414938447 -2.5008041859
48.9053726061 -10.7896418799 -2.5008041859
52.5833079615 -7.0949685954 -2.4996050863
52.5789199396 -7.1206083613 -2.4996050921
49.0246300978 -7.0035908219 -2.4996057952
49.0361821348 -7.0426084717 -2.4996057952
49.0480799766 -7.0815220672 -2.4996057952
49.0491756283 -7.3119416280 -2.4996058125
49.0538998778 -7.3248849240 -2.4996058125
49.0379591995 -7.4196926649 -2.4996058240
49.0565570438 -7.5934273020 -2.4996058355
49.0463745345 -7.6905205565 -2.4996058471
49.0701202782 -8.0149792228 -2.4996058759
49.0693566693 -8.0650031695 -2.4996058817
49.0703577145 -8.2162115937 -2.4996058989
49.0149327034 -8.2653117763 -2.4996059162
52.1309732399 -10.9460204815 -2.4996059854
52.2239047822 -10.9681988150 -2.4996059854
54.8862800978 -10.9027688525 -2.4996059854
54.9016011239 -10.8984292264 -2.4996059854
52.0322146624 -10.9455512825 -2.4996059912
54.9389639099 -10.9128227938 -2.4996059912
54.9696516181 -10.9037863672 -2.4996059912
49.0942231345 -8.9965313253 -2.4996059969
51.9176259192 -10.9387729963 -2.4996059969
52.0104624365 -10.9647389977 -2.4996059969
55.0533709820 -10.9034661334 -2.4996059969
51.7491665227 -10.9378722705 -2.4996060084
55.2064439472 -10.9040593203 -2.4996060084
51.6644555073 -10.9353866305 -2.4996060142
51.6953340201 -10.9457229004 -2.4996060142
55.2910901429 -10.8999173287 -2.4996060142
51.5948732471 -10.9369737986 -2.4996060200
55.3453620304 -10.9058409499 -2.4996060200
51.5095855294 -10.9319920155 -2.4996060257
51.5404466690 -10.9432446076 -2.4996060257
51.5713738426 -10.9543144179 -2.4996060257
55.4700117646 -10.9099915517 -2.4996060315
55.5403845422 -10.9078396837 -2.4996060373
55.5557177068 -10.9015650762 -2.4996060373
51.2984225755 -10.9277864795 -2.4996060430
55.6109911720 -10.9047457796 -2.4996060430
51.2583771884 -10.9374230599 -2.4996060488
55.6511372405 -10.9139539223 -2.4996060488
51.1159453182 -10.9288368225 -2.4996060603
55.7934692352 -10.9038462809 -2.4996060603
51.0752407764 -10.9371095445 -2.4996060661
55.8496030976 -10.9045396393 -2.4996060661
56.1297332110 -10.8189187111 -2.4996060776
56.1448007525 -10.8109010927 -2.4996060776
56.1748643536 -10.7947323142 -2.4996060776
56.1898601499 -10.7865812956 -2.4996060776
56.2496002484 -10.7535346940 -2.4996060776
56.2793226164 -10.7367468906 -2.4996060776
55.3893387360 -11.1728486288 -2.4996060834
55.4537053703 -11.1492471275 -2.4996060834
56.4243283047 -10.6797248110 -2.4996060834
55.2511020337 -11.2461106134 -2.4996060891
56.5522141188 -10.6574457155 -2.4996060949
50.7344137864 -10.9334131145 -2.4996061007
50.6347981799 -10.9356394326 -2.4996061122
50.3043754382 -10.9429180106 -2.4996061525
50.1738759912 -10.9482439772 -2.4996061698
49.7773614137 -10.9766586007 -2.4996062274
49.7479842454 -10.9856533867 -2.4996062332
48.7027990509 -10.6251831193 -2.4996063254
48.7173259835 -10.6391365631 -2.4996063254
48.7758445701 -10.6945187794 -2.4996063254
49.4279868804 -11.2325699824 -2.4996063254
49.4606627716 -11.2561327506 -2.4996063254
49.4934774962 -11.2795017848 -2.4996063254
49.5595188462 -11.3256553864 -2.4996063254
49.5761141540 -11.3370714332 -2.4996063254
48.4863424222 -10.4420848391 -2.4996063312
48.7298874174 -10.6844711532 -2.4996063312
49.6630737762 -11.4247077948 -2.4996063312
48.2769757517 -10.2494437226 -2.4996063370
48.3309141387 -10.3100636483 -2.4996063370
48.3445105181 -10.3251185736 -2.4996063370
49.7177462749 -11.4891761498 -2.4996063370
49.7862528892 -11.5326614205 -2.4996063370
48.1527430807 -10.1418380029 -2.4996063427
49.6194700309 -11.4538207081 -2.4996063427
49.9299580216 -11.6483386209 -2.4996063427
48.1342165553 -10.1573654990 -2.4996063485
48.0375208080 -10.0779266000 -2.4996063542
50.1014380224 -11.8013891616 -2.4996063542
50.1194382657 -11.8112000320 -2.4996063542
50.0240371813 -11.8138460083 -2.4996063658
47.6589779389 -9.6920600052 -2.4996063715
50.6433602825 -12.1469201852 -2.4996063715
52.5601151612 -7.0787539825 -2.5001743258
49.0531981802 -7.1546056103 -2.5001756399
49.0619662294 -8.6052064451 -2.5001759741
53.0222101065 -10.9209932267 -2.5001761125
53.0379893389 -10.9212117476 -2.5001761125
53.1011106614 -10.9216190302 -2.5001761125
53.1326720252 -10.9215425800 -2.5001761125
53.1642323842 -10.9212794035 -2.5001761125
51.4525841491 -10.9385211060 -2.5001762393
54.8915418522 -10.8945828841 -2.5001762393
51.3819776870 -10.9416188334 -2.5001762508
55.0886439108 -10.9015522168 -2.5001762738
55.1758216887 -10.8941347219 -2.5001762854
51.0404889846 -10.9492300681 -2.5001763084
55.4738305160 -10.9005490793 -2.5001763430
50.5991465033 -10.9718787596 -2.5001764006
55.1817455063 -11.3051897495 -2.5001764698
55.2829054370 -11.2674123326 -2.5001764698
54.9058836917 -11.4486180035 -2.5001764928
49.9584763532 -10.9914698401 -2.5001765505
49.8982941922 -10.9841258972 -2.5001765620
49.4400881271 -11.2113543366 -2.5001767695
49.5068944265 -11.2543133461 -2.5001767695
50.1592643917 -11.7265072925 -2.5001768156
50.5476840293 -12.0023241537 -2.5001768617
52.4999532510 -7.0772743515 -2.4999317559
49.0583960301 -6.5075955279 -2.4999333638
49.0643548644 -6.5294937000 -2.4999333638
49.0410488615 -6.5359097354 -2.4999333811
49.0534322241 -6.5798737196 -2.4999333811
49.0566092802 -6.5908415801 -2.4999333811
49.0239078802 -6.5644638530 -2.4999333984
49.0513473023 -6.7368506679 -2.4999334157
49.0549887338 -6.7478240092 -2.4999334157
49.0586626104 -6.7587865304 -2.4999334157
49.0547253788 -6.8214866076 -2.4999334330
49.0625413625 -6.8434010029 -2.4999334330
49.0585744183 -6.9699722401 -2.4999334676
49.0677209990 -7.4010947919 -2.4999335886
49.0575097533 -7.4340562730 -2.4999336059
49.0662737980 -7.7459821863 -2.4999337096
51.3763048024 -10.9625255766 -2.4999346433
51.4085799317 -10.9706322534 -2.4999346433
54.2073753472 -10.9473442611 -2.4999346433
54.3675259907 -10.9022345304 -2.4999346433
51.2895278514 -10.9647613180 -2.4999346606
51.3703467500 -10.9859528448 -2.4999346606
54.4702585665 -10.8959438680 -2.4999346606
54.4861796378 -10.8908688918 -2.4999346606
51.2346793238 -10.9747531636 -2.4999346779
51.1310319995 -10.9699344302 -2.4999346951
54.6288298459 -10.8942569994 -2.4999346951
54.6367479847 -10.9170964031 -2.4999347124
54.6686972766 -10.9059139981 -2.4999347124
54.7164957693 -10.8887864640 -2.4999347124
51.0197436949 -10.9861843712 -2.4999347297
54.7725967592 -10.8938810587 -2.4999347297
54.7885104055 -10.8879117205 -2.4999347297
50.8989486276 -10.9717995586 -2.4999347470
54.8448681584 -10.8922656151 -2.4999347470
50.7697250432 -10.9774607211 -2.4999347816
50.7859034475 -10.9833322358 -2.4999347816
50.6804822053 -10.9699723758 -2.4999347989
50.6233068305 -10.9737876916 -2.4999348162
55.1460271574 -10.8982529174 -2.4999348335
55.1619521025 -10.8911788854 -2.4999348335
50.4921026689 -10.9729617370 -2.4999348508
50.5244550171 -10.9862994678 -2.4999348508
50.4342462989 -10.9748345888 -2.4999348680
55.3356056129 -10.8908227775 -2.4999348853
55.3515077488 -10.8831879706 -2.4999348853
50.3017487134 -10.9695252962 -2.4999349026
55.4097651346 -10.8816838710 -2.4999349026
50.1580913518 -10.9828790718 -2.4999349545
55.5537967020 -10.8900903239 -2.4999349545
55.5696957165 -10.8818100716 -2.4999349545
50.0828849225 -10.9733795261 -2.4999349718
55.7587203022 -10.8896516200 -2.4999350237
49.8612099295 -10.9686795691 -2.4999350409
55.8620892701 -10.8866325774 -2.4999350582
49.7736406208 -10.9763826983 -2.4999350755
55.6044430653 -11.1086354859 -2.4999351101
56.2607714877 -10.7236932875 -2.4999351101
56.2915481187 -10.7029059989 -2.4999351101
56.3374811237 -10.6713845681 -2.4999351101
56.3679469362 -10.6501443551 -2.4999351101
56.4284989068 -10.6071250560 -2.4999351101
55.3633375382 -11.2512012674 -2.4999351274
55.4647994506 -11.2041397024 -2.4999351274
55.4816278694 -11.1961213459 -2.4999351274
55.5152131797 -11.1799354644 -2.4999351274
56.5328244776 -10.5606295220 -2.4999351274
56.5774853576 -10.5269725016 -2.4999351274
56.6512507737 -10.4700009797 -2.4999351274
56.6805196417 -10.4469079246 -2.4999351274
56.7096513712 -10.4236421091 -2.4999351274
55.1498583029 -11.3693315659 -2.4999351447
55.2017504191 -11.3479157489 -2.4999351447
55.2190053044 -11.3406749099 -2.4999351447
55.2534504385 -11.3260402617 -2.4999351447
55.0015936457 -11.4534248363 -2.4999351620
55.0367096513 -11.4400744952 -2.4999351620
55.1241487347 -11.4057917631 -2.4999351620
57.0672577965 -10.1794781462 -2.4999351620
49.4589914593 -10.9624529361 -2.4999351793
54.9570953270 -11.4957554931 -2.4999351793
57.1524781161 -10.1328271945 -2.4999351793
57.2739480052 -10.0143298757 -2.4999351793
49.3691778404 -10.9640270593 -2.4999352138
54.6315199939 -11.6558343884 -2.4999352138
54.6678399992 -11.6446699848 -2.4999352138
54.3876610231 -11.7747388294 -2.4999352484
49.1425163108 -10.9619524964 -2.4999353003
48.7965183063 -10.7459609212 -2.4999353176
49.4087377310 -11.1578215227 -2.4999353176
48.4782285376 -10.5206583073 -2.4999353349
48.5079401529 -10.5459187098 -2.4999353349
48.5378006973 -10.5710028864 -2.4999353349
48.8600620098 -10.8235299512 -2.4999353349
49.4636858502 -11.2180390364 -2.4999353349
49.5825543472 -11.2851233291 -2.4999353349
49.6510947027 -11.3223474951 -2.4999353349
49.6682982389 -11.3315266115 -2.4999353349
49.7200707135 -11.3587580538 -2.4999353349
48.4774080509 -10.5517271707 -2.4999353522
48.5524256150 -10.6145562156 -2.4999353522
48.9730111188 -10.9342046646 -2.4999353522
49.6396838666 -11.3436577767 -2.4999353522
49.7436882540 -11.3981660794 -2.4999353522
49.8662263993 -11.4594140766 -2.4999353522
48.0997277070 -10.2385346801 -2.4999353695
48.3286074355 -10.4538589099 -2.4999353695
48.8156261298 -10.8508392948 -2.4999353695
50.0155921055 -11.5564177127 -2.4999353695
50.1413486870 -11.6120017915 -2.4999353695
50.4260854943 -11.8040403407 -2.4999354213
47.9196610055 -10.1940827546 -2.4999354386
47.4057934745 -9.6360159182 -2.4999354559
52.5399997948 -12.8973280323 -2.4999359054
49.0545719075 -7.1391219188 -2.5000261639
49.0703555984 -7.6125647739 -2.5000262157
55.9609487344 -7.3020651130 -2.5000262215
49.0680675856 -7.6981469243 -2.5000262273
55.9522233851 -7.5697816728 -2.5000262503
49.0942932133 -8.0671085450 -2.5000262734
55.9509502688 -7.8455520289 -2.5000262849
49.0413316115 -8.1563535616 -2.5000262964
51.0753671240 -10.9591363499 -2.5000266134
51.1077128330 -10.9669566628 -2.5000266134
51.1239028963 -10.9707950217 -2.5000266134
53.9222274855 -10.9144248026 -2.5000266134
51.0047897350 -10.9663317811 -2.5000266192
51.0209784002 -10.9704746079 -2.5000266192
54.0730387820 -10.8954434300 -2.5000266192
50.9014794130 -10.9637696340 -2.5000266249
50.9338555774 -10.9726186438 -2.5000266249
50.9500631506 -10.9769712792 -2.5000266249
50.9662835288 -10.9812759506 -2.5000266249
54.1441875989 -10.8984476297 -2.5000266249
50.7978183404 -10.9592563145 -2.5000266307
50.8463661069 -10.9733780713 -2.5000266307
50.8625763094 -10.9779895130 -2.5000266307
54.1836318081 -10.9110892589 -2.5000266307
50.7909637150 -10.9824371124 -2.5000266365
54.2873804416 -10.9016564415 -2.5000266365
54.3033634227 -10.8960890543 -2.5000266365
54.3193298645 -10.8904744109 -2.5000266365
50.6380151288 -10.9602942121 -2.5000266422
50.6541875386 -10.9655220509 -2.5000266422
50.6703753425 -10.9707020259 -2.5000266422
50.6865783988 -10.9758340918 -2.5000266422
54.3273827233 -10.9132666628 -2.5000266422
54.3753833680 -10.8960673267 -2.5000266422
54.4476662688 -10.8950941618 -2.5000266480
54.4636291362 -10.8890526489 -2.5000266480
50.5417719469 -10.9791929188 -2.5000266537
54.5201996555 -10.8931633478 -2.5000266537
50.4203567930 -10.9619754462 -2.5000266595
54.4324654361 -10.9523767007 -2.5000266595
50.3472706139 -10.9606217883 -2.5000266653
50.3796378541 -10.9727497386 -2.5000266653
54.6659674602 -10.8864047378 -2.5000266653
54.6912901241 -10.9019937025 -2.5000266710
54.7072723356 -10.8952314759 -2.5000266710
54.7232344732 -10.8884220007 -2.5000266710
50.2165322016 -10.9615286770 -2.5000266768
50.2651230242 -10.9808089327 -2.5000266768
54.7487601732 -10.9037573737 -2.5000266768
54.7647473505 -10.8968251326 -2.5000266768
54.8803158689 -10.8982190023 -2.5000266883
54.8962860871 -10.8908976199 -2.5000266883
50.0268103780 -10.9606190568 -2.5000266941
55.0285789157 -10.8818198302 -2.5000266998
49.9100654199 -10.9613565813 -2.5000267056
49.7335167202 -10.9578862028 -2.5000267229
49.7496859642 -10.9657897220 -2.5000267229
55.2315258745 -10.8878043013 -2.5000267229
55.2474637474 -10.8794440217 -2.5000267229
49.6743105033 -10.9554955069 -2.5000267287
55.2747006584 -10.8923932688 -2.5000267287
55.2906519174 -10.8839052504 -2.5000267287
55.3934299387 -10.8830640060 -2.5000267402
52.5750121289 -11.6986363965 -2.5000267517
55.6007513607 -10.8757513088 -2.5000267632
48.7949522661 -10.7726909710 -2.5000267978
48.8262348126 -10.7940062471 -2.5000267978
48.8891754888 -10.8360797063 -2.5000267978
49.4599630785 -11.1717110605 -2.5000267978
49.4935947231 -11.1890849258 -2.5000267978
49.7044426704 -11.3190486085 -2.5000268036
48.2813998672 -10.4441630495 -2.5000268094
48.3402391779 -10.4927077400 -2.5000268094
48.3550384360 -10.5047348615 -2.5000268094
48.5201454643 -10.6341174401 -2.5000268094
49.8858509939 -11.4263358308 -2.5000268094
49.9385797410 -11.4485323933 -2.5000268094
49.9738407769 -11.4630697568 -2.5000268094
49.9915033937 -11.4702601436 -2.5000268094
48.0214780680 -10.2479552968 -2.5000268151
48.0780139535 -10.2995892386 -2.5000268151
48.1928987206 -10.4008322663 -2.5000268151
48.3398207863 -10.5235167257 -2.5000268151
50.0535486452 -11.5210064935 -2.5000268151
50.1071109376 -11.5417111053 -2.5000268151
50.1250056066 -11.5485069108 -2.5000268151
50.1429203006 -11.5552497509 -2.5000268151
56.1609223286 -10.7709547849 -2.5000268151
56.2075878330 -10.7374894174 -2.5000268151
56.2230767766 -10.7262424277 -2.5000268151
56.3609608730 -10.6229718180 -2.5000268151
50.1704614781 -11.5912622397 -2.5000268209
55.5404193447 -11.1884715044 -2.5000268209
56.4212219150 -10.6067588229 -2.5000268209
56.5558550751 -10.4982558299 -2.5000268209
56.6147551747 -10.4488895356 -2.5000268209
47.8489961249 -10.1504943936 -2.5000268266
50.3075170431 -11.6655065453 -2.5000268266
50.4357150775 -11.7077867490 -2.5000268266
55.1738244467 -11.4016860149 -2.5000268266
55.2087166982 -11.3852507324 -2.5000268266
56.6156673580 -10.4797767811 -2.5000268266
56.6889210343 -10.4170776597 -2.5000268266
56.8041747836 -10.3145255486 -2.5000268266
56.8608835173 -10.2622338824 -2.5000268266
50.4468346277 -11.7366652469 -2.5000268324
54.7739034458 -11.6503372533 -2.5000268439
56.9529503869 -10.2751568210 -2.5000268439
56.9951847735 -10.2346821726 -2.5000268439
54.5511044696 -11.7823150294 -2.5000268555
52.5694702348 -13.2462443054 -2.5000271206
52.5196613844 -7.0632143842 -2.4999994886
52.4158053963 -7.1151155409 -2.4999994626
55.9484192091 -6.7899051652 -2.4999968173
55.9629200446 -6.7438867819 -2.4999968173
55.9553601783 -6.9203296948 -2.4999967654
55.9674440411 -6.8857652099 -2.4999967654
55.9485861109 -7.0091018360 -2.4999967395
55.9579426434 -7.0522431267 -2.4999967136
55.9363593010 -7.2314071772 -2.4999966617
55.9705221149 -7.1509192247 -2.4999966617
55.9432751963 -7.2755528948 -2.4999966358
55.9783506006 -7.1949122788 -2.4999966358
55.9387474354 -7.4554506851 -2.4999965579
55.9443925240 -7.4439879245 -2.4999965579
55.9489620015 -7.4891656501 -2.4999965320
55.9589124097 -7.5230680985 -2.4999965061
55.9383565667 -7.6146470008 -2.4999964801
55.9495473713 -7.6951344871 -2.4999964283
55.9415215682 -8.0821839436 -2.4999962208
55.9666940439 -8.1318131212 -2.4999961689
55.9508973492 -8.3249190066 -2.4999960652
50.5900685593 -10.9437801715 -2.4999951834
50.6060561601 -10.9481245075 -2.4999951834
50.6220565423 -10.9524215302 -2.4999951834
50.6540950906 -10.9608734860 -2.4999951834
50.6861830828 -10.9691357430 -2.4999951834
53.5530642465 -10.9410790570 -2.4999951834
50.4876331274 -10.9399236981 -2.4999951575
50.5036097683 -10.9445710734 -2.4999951575
50.5196000870 -10.9491711666 -2.4999951575
50.5516211983 -10.9582293461 -2.4999951575
53.5915378878 -10.9554581091 -2.4999951575
53.6235424306 -10.9463415628 -2.4999951575
50.4168060249 -10.9439812369 -2.4999951315
50.4487982299 -10.9536476714 -2.4999951315
50.4808470648 -10.9631246600 -2.4999951315
53.6783436322 -10.9554803635 -2.4999951315
53.7422924077 -10.9360309534 -2.4999951315
50.3296793331 -10.9420006533 -2.4999951056
50.3456628091 -10.9471152755 -2.4999951056
50.3937030371 -10.9621751386 -2.4999951056
53.8294086336 -10.9336338051 -2.4999951056
53.8612798934 -10.9231103175 -2.4999951056
50.2422519169 -10.9386196640 -2.4999950797
50.2582257739 -10.9439929271 -2.4999950797
50.2742154560 -10.9493189131 -2.4999950797
53.8689269232 -10.9460419162 -2.4999950797
53.9168188845 -10.9298348291 -2.4999950797
53.9327506765 -10.9243380969 -2.4999950797
53.9726179505 -10.9359956317 -2.4999950537
50.0984864098 -10.9393583557 -2.4999950278
50.1304568354 -10.9509081568 -2.4999950278
50.1464675331 -10.9566120761 -2.4999950278
50.1624950339 -10.9622686080 -2.4999950278
54.0605862802 -10.9298861121 -2.4999950278
50.0581701067 -10.9502807416 -2.4999950019
50.0741792646 -10.9561985009 -2.4999950019
54.0369262152 -10.9643085486 -2.4999950019
54.1646976503 -10.9161667091 -2.4999950019
49.9696417350 -10.9425172100 -2.4999949759
49.9856283144 -10.9486968862 -2.4999949759
49.8238618388 -10.9360246319 -2.4999949241
49.8398298498 -10.9426355798 -2.4999949241
49.8558173473 -10.9491992625 -2.4999949241
51.3565084026 -11.3403457274 -2.4999949241
54.3351917722 -10.9252393368 -2.4999949241
54.4083860820 -10.9201835179 -2.4999948981
54.4242871728 -10.9132326833 -2.4999948981
49.7091218186 -10.9396749251 -2.4999948722
49.7411009316 -10.9535283324 -2.4999948722
54.4817770195 -10.9141462568 -2.4999948722
54.5076360263 -10.9289968096 -2.4999948462
49.5935517948 -10.9409378292 -2.4999948203
49.5354707665 -10.9406651589 -2.4999947944
49.5674587772 -10.9555459268 -2.4999947944
54.6554287283 -10.9132787874 -2.4999947944
49.4187475523 -10.9382944083 -2.4999947425
49.4507235798 -10.9538657914 -2.4999947425
54.5637275035 -11.0097077657 -2.4999947425
54.7721199021 -10.9096595161 -2.4999947425
49.3920824538 -10.9521079416 -2.4999947166
54.7989312462 -10.9231870068 -2.4999947166
49.3332673489 -10.9497338395 -2.4999946906
54.8894912769 -10.9035767880 -2.4999946906
54.9916422058 -10.9036815815 -2.4999946388
48.7389654134 -10.7497983848 -2.4999945610
48.7543872803 -10.7596194674 -2.4999945610
48.8631443415 -10.8270837011 -2.4999945610
48.8787942891 -10.8365371018 -2.4999945610
48.8944721331 -10.8459441658 -2.4999945610
49.4596898842 -11.1453867664 -2.4999945610
48.4524003473 -10.5849590960 -2.4999945350
48.4823028371 -10.6062538976 -2.4999945350
48.4973011965 -10.6168348626 -2.4999945350
48.6336761570 -10.7100539278 -2.4999945350
48.7724843279 -10.7996095848 -2.4999945350
49.5329890825 -11.2053975376 -2.4999945350
49.6001851940 -11.2349803926 -2.4999945350
49.6508094194 -11.2566446157 -2.4999945350
49.7016239091 -11.2778587240 -2.4999945350
55.1818977637 -10.9075382522 -2.4999945350
55.1977580632 -10.8982992854 -2.4999945350
48.2028274098 -10.4272697149 -2.4999945091
48.2463386821 -10.4613665109 -2.4999945091
48.5136031400 -10.6577183499 -2.4999945091
49.8121594445 -11.3481327418 -2.4999945091
48.0444580230 -10.3293587542 -2.4999944832
55.2540394723 -10.9212747478 -2.4999944832
47.8471018082 -10.1890754252 -2.4999944572
50.2154912477 -11.5396265301 -2.4999944572
55.3141627456 -10.9134633461 -2.4999944572
50.2261829966 -11.5681953683 -2.4999944313
47.5451156972 -9.9652560022 -2.4999944054
50.4169297715 -11.6482194747 -2.4999944054
47.2673410613 -9.7360850562 -2.4999943535
50.7106219007 -11.7942984511 -2.4999943275
51.2390476811 -11.9833943997 -2.4999942238
55.5520398073 -11.1930570621 -2.4999940682
55.5687431035 -11.1827218990 -2.4999940682
55.6186685305 -11.1514205766 -2.4999940682
55.6352483669 -11.1408884959 -2.4999940682
56.2713195992 -10.6804549678 -2.4999940682
56.2865033785 -10.6679942879 -2.4999940682
56.3618657184 -10.6050201548 -2.4999940682
56.4510587450 -10.5279901949 -2.4999940682
55.2751759711 -11.3823027002 -2.4999940423
55.2924403015 -11.3727857223 -2.4999940423
55.3096764035 -11.3632177151 -2.4999940423
55.3612138313 -11.3342083567 -2.4999940423
55.3783355135 -11.3244370738 -2.4999940423
55.5142531541 -11.2444522594 -2.4999940423
55.5647285492 -11.2136320739 -2.4999940423
56.4224330611 -10.5849978057 -2.4999940423
56.5112611874 -10.5068960395 -2.4999940423
56.5551519240 -10.4672570110 -2.4999940423
56.5697037833 -10.4539576365 -2.4999940423
56.5842162370 -10.4406152732 -2.4999940423
56.5986891581 -10.4272300377 -2.4999940423
56.6131224199 -10.4138020474 -2.4999940423
56.7130342275 -10.3186188935 -2.4999940423
55.0943916157 -11.5051522900 -2.4999940163
55.1120201484 -11.4961695674 -2.4999940163
55.1471971109 -11.4780478741 -2.4999940163
56.5860379107 -10.4717770519 -2.4999940163
56.7440509201 -10.3221316877 -2.4999940163
56.7862928098 -10.2804340567 -2.4999940163
56.8281629930 -10.2383631945 -2.4999940163
56.8558683152 -10.2101102375 -2.4999940163
54.9449264292 -11.6054770040 -2.4999939904
54.9628523945 -11.5969359875 -2.4999939904
56.9145700933 -10.1841441175 -2.4999939904
56.9282828809 -10.1697827577 -2.4999939904
56.9419531250 -10.1553808960 -2.4999939904
56.9827074018 -10.1119335603 -2.4999939904
57.0230745031 -10.0681262641 -2.4999939904
54.9372759431 -11.6358334606 -2.4999939645
54.6364817707 -11.7947882199 -2.4999939385
54.6549691025 -11.7871588102 -2.4999939385
54.7102945512 -11.7639429176 -2.4999939385
56.9217357598 -10.2463896556 -2.4999939385
54.2283373199 -12.0238270549 -2.4999938607
54.2666515472 -12.0109242911 -2.4999938607
54.1395306769 -12.0781324766 -2.4999938348
55.9412000432 -6.5069992536 -2.4999896540
55.9534678367 -6.4446661036 -2.4999896540
55.9558106849 -6.4321780813 -2.4999896540
55.9626174368 -6.3946731961 -2.4999896540
55.9394401662 -6.7294976774 -2.4999895214
55.9833426108 -6.5418470780 -2.4999895214
55.9393923178 -6.8228716305 -2.4999894551
55.9496669022 -6.7854970642 -2.4999894551
55.9591540841 -6.8418892252 -2.4999893889
55.9410575269 -6.9860802902 -2.4999893226
55.9489096766 -6.9611613175 -2.4999893226
55.9538866879 -7.1010308187 -2.4999891900
55.9501159693 -7.1839929949 -2.4999891237
55.9542386155 -7.2423313671 -2.4999890575
55.9477051611 -7.3259456319 -2.4999889912
55.9518146865 -7.5036859403 -2.4999887924
55.9620825502 -7.5985295356 -2.4999886598
55.9485346359 -7.6837973023 -2.4999885935
55.9605145829 -7.6588218813 -2.4999885935
55.9519583079 -7.7318381723 -2.4999885272
55.9507612136 -7.8410616737 -2.4999883947
55.9401344060 -8.0619470612 -2.4999881296
55.9543517610 -8.0370147206 -2.4999881296
50.3197284134 -10.9406574378 -2.4999864064
50.3353958672 -10.9448153637 -2.4999864064
53.2187129797 -10.9208567269 -2.4999864064
53.2498922338 -10.9119751937 -2.4999864064
50.2349995593 -10.9424339004 -2.4999863401
50.2506726389 -10.9468424618 -2.4999863401
50.2663586912 -10.9512046401 -2.4999863401
50.2977691649 -10.9597896952 -2.4999863401
53.2722217953 -10.9306739251 -2.4999863401
53.3034581948 -10.9214756439 -2.4999863401
50.1655850936 -10.9475174021 -2.4999862738
53.3573116911 -10.9304382330 -2.4999862738
53.3729356238 -10.9256104830 -2.4999862738
53.3885452069 -10.9207365356 -2.4999862738
53.3957840871 -10.9438002277 -2.4999862075
53.4583485857 -10.9237560560 -2.4999862075
49.9787376031 -10.9396032617 -2.4999861412
53.4658598594 -10.9467324797 -2.4999861412
53.5284541480 -10.9258589336 -2.4999861412
49.9083530587 -10.9413278754 -2.4999860750
49.9240242957 -10.9467027211 -2.4999860750
53.5832207916 -10.9325344920 -2.4999860750
49.8220258517 -10.9364945135 -2.4999860087
49.8847540904 -10.9587372209 -2.4999860087
53.6225830121 -10.9442645309 -2.4999860087
53.7248353148 -10.9325162904 -2.4999859424
53.7803913797 -10.9371769360 -2.4999858761
53.7960333956 -10.9310976102 -2.4999858761
53.8518402083 -10.9350216700 -2.4999858099
49.6151347652 -10.9613404538 -2.4999857436
53.9391492343 -10.9254104857 -2.4999857436
49.5117927265 -10.9452061066 -2.4999856773
53.9641422137 -10.9411377873 -2.4999856773
54.0362848113 -10.9365323105 -2.4999856110
54.0675424985 -10.9228134734 -2.4999856110
54.0773228476 -10.9449195823 -2.4999855447
49.3260368647 -10.9432076680 -2.4999854785
49.2689298201 -10.9435550377 -2.4999854122
49.2116278373 -10.9433042544 -2.4999853459
49.2273079692 -10.9507401306 -2.4999853459
48.6099796943 -10.6978551127 -2.4999851471
48.7455579590 -10.7792047710 -2.4999851471
48.4339143767 -10.6137077388 -2.4999850808
49.7402561991 -11.2666724517 -2.4999850808
48.2168880604 -10.4924171436 -2.4999850145
49.7655985942 -11.3011951106 -2.4999850145
49.8326460900 -11.3240799603 -2.4999850145
54.5222056702 -10.9444087874 -2.4999850145
50.1935781833 -11.4824035972 -2.4999848820
54.7133515340 -10.9227396558 -2.4999848157
47.4605949169 -9.9777330710 -2.4999847494
50.4965366434 -11.6034073035 -2.4999847494
55.4839764096 -11.2713558600 -2.4999828936
55.5005995333 -11.2602355594 -2.4999828936
55.5996408640 -11.1924855553 -2.4999828936
56.3015357439 -10.6302336901 -2.4999828936
56.4181895263 -10.5207346676 -2.4999828936
56.4325880892 -10.5068540799 -2.4999828936
55.1916113755 -11.4838089127 -2.4999828273
55.2260867148 -11.4632451974 -2.4999828273
55.4471426888 -11.3246509487 -2.4999828273
55.0291441897 -11.6047007214 -2.4999827611
56.8283317359 -10.1634641737 -2.4999827611
56.8682172000 -10.1180692209 -2.4999827611
54.9342004976 -11.6836171526 -2.4999826948
56.9652805690 -10.0417749868 -2.4999826948
54.7102170009 -11.8240011549 -2.4999826285
54.7284783349 -11.8151673565 -2.4999826285
54.8012599574 -11.7792931263 -2.4999826285
57.0993487916 -9.9159850509 -2.4999826285
54.6655780403 -11.8720463732 -2.4999825622
53.8843587616 -12.3611392528 -2.4999820983
57.3530138962 -9.9045954120 -2.4999820983
57.8990538915 -9.0664359063 -2.4999820983
55.9353298104 -5.7569213695 -2.4999963505
55.9575422864 -7.2366686132 -2.4999960911
55.9617494190 -7.2232480500 -2.4999960911
55.9498834751 -7.3379966962 -2.4999960652
55.9676730440 -7.2843241221 -2.4999960652
55.9727835840 -7.3457375162 -2.4999960392
55.9578264634 -7.4612526920 -2.4999960133
55.9571665495 -7.5991533425 -2.4999959614
55.9630279345 -7.7745511206 -2.4999958836
55.9534039039 -8.0806905283 -2.4999957540
50.0987171712 -10.9504478972 -2.4999954946
52.6497281176 -10.9745344913 -2.4999954946
52.8474677079 -10.9235463795 -2.4999954946
52.9079003542 -10.9063320198 -2.4999954946
49.9337536485 -10.9554739122 -2.4999954427
49.8202884981 -10.9466133147 -2.4999954168
49.8354971713 -10.9513316255 -2.4999954168
53.1106545854 -10.9192782602 -2.4999954168
53.1559499914 -10.9040990431 -2.4999954168
53.1710183047 -10.8989500499 -2.4999954168
53.2090942748 -10.9113344375 -2.4999953909
55.9621126810 -8.7458681955 -2.4999953909
49.6836534964 -10.9530516997 -2.4999953649
49.6988818133 -10.9581741734 -2.4999953649
49.7141252167 -10.9632515766 -2.4999953649
53.2927047017 -10.9070529724 -2.4999953649
53.3615009327 -10.9071668412 -2.4999953390
53.3765774217 -10.9014097778 -2.4999953390
49.4612720969 -10.9501357563 -2.4999952871
49.4764927609 -10.9559160871 -2.4999952871
49.3522831848 -10.9593687637 -2.4999952353
53.6241283728 -10.9049224756 -2.4999952353
49.2669695930 -10.9504734440 -2.4999952093
49.2974333521 -10.9631386079 -2.4999952093
53.6941319420 -10.9005967078 -2.4999952093
53.7643399633 -10.8953248841 -2.4999951834
49.1565554072 -10.9556475401 -2.4999951575
49.1870517105 -10.9689658609 -2.4999951575
48.8154064568 -10.8188039659 -2.4999951315
48.8898069685 -10.8568215807 -2.4999951315
53.9053187685 -10.8819215259 -2.4999951315
48.4825082612 -10.6592926974 -2.4999951056
49.5586229894 -11.1657194226 -2.4999951056
49.6699636161 -11.2031719814 -2.4999951056
48.3555136560 -10.6087253964 -2.4999950797
48.3697292046 -10.6177782545 -2.4999950797
48.6007263045 -10.7568467667 -2.4999950797
48.9437235715 -10.9372632465 -2.4999950797
49.7912043928 -11.2663016554 -2.4999950797
53.9718819017 -10.9029288434 -2.4999950797
48.1455235595 -10.4974247970 -2.4999950537
48.2292728145 -10.5548534706 -2.4999950537
49.9798633647 -11.3441642242 -2.4999950537
54.0280049993 -10.9016291612 -2.4999950537
50.1885950467 -11.4191595642 -2.4999950278
50.3003452307 -11.4672248061 -2.4999950019
50.5452006770 -11.5592411459 -2.4999949500
54.2089861347 -10.9153592018 -2.4999949500
54.3773670851 -10.9317661625 -2.4999948462
55.6554842798 -11.1724228181 -2.4999938607
56.1436058990 -10.7483376323 -2.4999938607
56.2876706904 -10.6065490273 -2.4999938607
56.3159768032 -10.5776833850 -2.4999938607
55.5093639213 -11.3146774736 -2.4999938348
55.7022342307 -11.1661761690 -2.4999938348
56.3755729499 -10.5507915933 -2.4999938348
56.4174696756 -10.5066525677 -2.4999938348
56.4313479997 -10.4918571484 -2.4999938348
56.4451824957 -10.4770207394 -2.4999938348
56.4727195189 -10.4472254713 -2.4999938348
56.5000797814 -10.4172678064 -2.4999938348
55.1898262892 -11.5669018660 -2.4999938089
56.6126648619 -10.3270269657 -2.4999938089
56.6920561948 -10.2342061384 -2.4999938089
55.4057911524 -11.4493298741 -2.4999937829
56.9023993083 -10.0108307765 -2.4999937829
54.8310875484 -11.8417845096 -2.4999937570
54.9022463495 -11.8010347562 -2.4999937570
56.2104042868 -10.8182471447 -2.4999937570
56.9340325071 -10.0092585146 -2.4999937570
56.9587935362 -9.9765792323 -2.4999937570
54.8250489034 -11.8729228769 -2.4999937310
55.6654470706 -11.3178963573 -2.4999937310
54.6736459700 -11.9827306579 -2.4999937051
54.9265194186 -11.8428457505 -2.4999937051
55.0153974476 -11.7903656287 -2.4999937051
57.2129344901 -9.7030244503 -2.4999937051
54.4734321997 -12.1377646074 -2.4999936532
55.0936039165 -11.7994734913 -2.4999936532
57.6513557545 -9.2144315446 -2.4999935754
52.7068229319 -10.9442553788 -2.5000116601
49.5857454923 -10.9701513275 -2.5000117090
52.8452602767 -10.9237847047 -2.5000117090
49.2467410687 -10.9540158086 -2.5000119050
53.1348688527 -10.9442016045 -2.5000119540
48.8749415064 -10.9011877208 -2.5000121010
53.7092820833 -10.8906811831 -2.5000123459
53.8185919307 -10.8867839211 -2.5000124439
55.2607057586 -11.5662453779 -2.5000151872
55.4549357818 -11.4166970735 -2.5000151872
55.1225249641 -11.7251983809 -2.5000152852
52.4100506141 -7.2371888308 -2.5000058634
49.6162453269 -10.9539099494 -2.5000139147
49.6439309807 -10.9614769413 -2.5000139147
52.2242701930 -10.9476691804 -2.5000139147
52.3414989710 -10.9383459971 -2.5000139781
49.4781137267 -10.9640752022 -2.5000140415
52.3347410899 -10.9656899956 -2.5000140415
52.3762837285 -10.9528534373 -2.5000140415
52.4528422742 -10.9535956507 -2.5000141049
52.4666661639 -10.9490084561 -2.5000141049
52.4804764233 -10.9443803880 -2.5000141049
52.4942729317 -10.9397114869 -2.5000141049
52.5792855014 -10.9612925821 -2.5000142317
52.6844844856 -10.9483008547 -2.5000142951
52.7622859812 -10.9439968433 -2.5000143585
52.7760801220 -10.9384943002 -2.5000143585
52.8036192692 -10.9273669181 -2.5000143585
52.8310921012 -10.9160767999 -2.5000143585
55.9619540671 -7.5633219983 -2.5000148657
55.9399005787 -4.9093024218 -2.5000148657
55.9534088172 -7.6890407735 -2.5000149291
55.9697493204 -7.6292551254 -2.5000149291
55.9815398297 -7.5842912924 -2.5000149291
55.9591351736 -4.8880105512 -2.5000149291
55.9380212319 -4.8134702990 -2.5000149291
55.9524355757 -4.7768460406 -2.5000149925
55.9434647511 -4.7470341120 -2.5000149925
53.4679239634 -10.9038792079 -2.5000150559
55.9648495094 -7.8221312479 -2.5000150559
55.9527418924 -4.6951781558 -2.5000150559
55.9432878878 -4.6653658443 -2.5000150559
55.9384947842 -4.6504807940 -2.5000150559
55.9596414418 -7.9190880945 -2.5000151193
55.9467831550 -4.5982645473 -2.5000151193
55.9336868695 -4.4861946247 -2.5000151827
55.9597367342 -8.0691125164 -2.5000152460
55.9497920512 -8.1669521665 -2.5000153094
55.9608782792 -8.1370965454 -2.5000153094
55.9663551060 -8.1221442693 -2.5000153094
55.9717876772 -8.1071758570 -2.5000153094
53.7064034228 -10.9055132656 -2.5000153728
55.9496248793 -8.2352129955 -2.5000153728
55.9553920015 -8.2202935796 -2.5000153728
55.9460397887 -4.3119926459 -2.5000153728
55.9402013313 -4.2971010011 -2.5000153728
55.9545147477 -8.2888165695 -2.5000154362
55.9448346081 -4.2434746390 -2.5000154362
55.9327083122 -4.2137170152 -2.5000154362
55.9265791960 -4.1988652373 -2.5000154362
55.9527193034 -8.3575894620 -2.5000154996
55.9611791827 -4.2194646318 -2.5000154996
55.9427100516 -4.1747111267 -2.5000154996
55.9563329252 -8.4116787231 -2.5000155630
55.9569542703 -8.5902289829 -2.5000157532
55.9442970292 -8.7301975440 -2.5000158800
55.9506287933 -8.8262094167 -2.5000160068
55.9394771111 -8.9527485801 -2.5000161336
55.9334946243 -9.0650577835 -2.5000162604
55.9417166480 -9.0501824529 -2.5000162604
55.9320002209 -9.2618289123 -2.5000165140
55.9791721333 -9.2292959935 -2.5000165774
55.9246036370 -9.5035914110 -2.5000168310
55.9341229615 -9.4887404627 -2.5000168310
55.9450781731 -10.7162156748 -2.5000187962
55.5726482712 -11.3057806341 -2.5000191766
55.6170815192 -11.2641960736 -2.5000191766
55.6318103762 -11.2502471280 -2.5000191766
55.7048321770 -11.1798522108 -2.5000191766
55.7337480206 -11.1513931238 -2.5000191766
56.0806265003 -10.7815911478 -2.5000191766
56.2115628944 -10.6266591593 -2.5000191766
55.3606806669 -11.5261338694 -2.5000192400
55.4836172696 -11.4193248565 -2.5000192400
55.5441291154 -11.3648368578 -2.5000192400
