19.4679819407 4.1300686016 -2.4944899082
18.6814086873 2.7036849655 -2.4944899082
18.7717542142 -3.0235297731 -2.4944899082
19.6299794611 -4.1787318437 -2.4944899082
19.6436830040 -4.1930030518 -2.4944899082
23.0107502773 0.3813286349 -2.5008997917
23.0170573719 0.2828507851 -2.5008997917
23.7881211192 -3.4218138150 -2.5008997917
23.6111240626 -3.4186862359 -2.5008997917
23.6358774549 -3.4229956836 -2.5008997917
23.7227060047 -3.4369239241 -2.5008997917
23.4704784364 -3.4160248099 -2.5008997917
23.5075998974 -3.4236822997 -2.5008997917
23.6318018752 -3.4468226627 -2.5008997917
23.3910390388 -3.4232834715 -2.5008997917
23.3110660232 -3.4290313983 -2.5008997917
23.2430063838 -3.4365506272 -2.5008997917
23.1248130864 -3.4287426488 -2.5008997917
22.7176409802 -3.4433819923 -2.5008997917
22.4089709762 -3.4435370018 -2.5008997917
22.3613861714 -3.4479834874 -2.5008997917
22.2655285930 -3.4553277117 -2.5008997917
21.9971566231 -3.4506254201 -2.5008997917
21.8487718909 -3.4487884271 -2.5008997917
19.0664530449 2.2089279990 -2.5008997917
19.0579911209 2.1776322587 -2.5008997917
19.0905129151 -0.7681088246 -2.5008997917
19.0606924093 2.2780204704 -2.5008997917
19.0160510576 -0.5863403098 -2.5008997917
19.0811587683 -0.8217005280 -2.5008997917
19.0691013848 -0.9453717020 -2.5008997917
19.0643394193 2.5342721085 -2.5008997917
19.0539526873 2.5029581692 -2.5008997917
19.0615371836 -0.9998280949 -2.5008997917
19.0679473958 2.6909731609 -2.5008997917
19.0536734064 -1.1961646531 -2.5008997917
19.0518731807 2.7861551344 -2.5008997917
19.0486715180 -1.2516910348 -2.5008997917
19.0693935801 2.9606011749 -2.5008997917
19.0694053549 -1.8977413496 -2.5008997917
19.2919623846 3.8723710961 -2.5008997917
19.1847971585 3.6908314228 -2.5008997917
18.8419171139 2.9791232041 -2.5008997917
19.4749869064 4.1944136576 -2.5008997917
18.7321079842 2.7571786483 -2.5008997917
18.7262335158 2.7405455842 -2.5008997917
18.7146323180 2.7072276867 -2.5008997917
18.6525742240 2.5974932663 -2.5008997917
19.0653838430 -2.0988525639 -2.5008997917
19.0778026642 -2.3181048169 -2.5008997917
18.6185393803 -2.8652928704 -2.5008997917
19.4175709855 -3.8940656016 -2.5008997917
19.4869909395 -3.9665367134 -2.5008997917
18.5032201910 -2.7237605460 -2.5008997917
19.7737428634 -4.2773298215 -2.5008997917
18.3913873737 -2.5786514075 -2.5008997917
18.4516349513 -2.6839131672 -2.5008997917
19.7703734840 -4.3718713820 -2.5008997917
18.0864498705 -2.1412834064 -2.5008997917
23.1462984996 -3.4836217573 -2.5014681816
22.9116422897 -3.4485190536 -2.5014681816
22.9922154331 -3.4705398365 -2.5014681816
22.8378823699 -3.4522388893 -2.5014681816
22.4012489689 -3.4543929217 -2.5014681816
22.2258512912 -3.4602573079 -2.5014681816
19.0577779294 2.4344019484 -2.5014681816
19.0537935664 2.4192063904 -2.5014681816
19.0498541720 2.4039991124 -2.5014681816
19.0810395136 -0.3598780829 -2.5014681816
21.4401950755 -3.4615811611 -2.5014681816
19.0593660834 2.5319012319 -2.5014681816
19.0577719042 -0.3664319851 -2.5014681816
19.0404429733 2.5537280861 -2.5014681816
19.0489659397 2.6672190971 -2.5014681816
19.0396649121 2.6367600517 -2.5014681816
19.0402209458 2.7201359269 -2.5014681816
19.0576227263 2.8494737612 -2.5014681816
19.0524105065 2.8342759279 -2.5014681816
19.0561612392 2.9182545610 -2.5014681816
19.0507455597 2.9030521034 -2.5014681816
19.0989483782 -0.8738602986 -2.5014681816
19.0556116772 2.9873165665 -2.5014681816
19.1019741271 -1.1364798986 -2.5014681816
19.0864180895 -1.1612443435 -2.5014681816
19.0404212601 3.2756123353 -2.5014681816
19.2445789701 3.8051607516 -2.5014681816
19.1834687095 3.7430276751 -2.5014681816
18.7104602993 2.6305936444 -2.5014681816
19.5223154759 4.3848890880 -2.5014681816
19.1085327956 -1.5966389619 -2.5014681816
19.0808681404 -1.8474669657 -2.5014681816
18.7536969077 -3.0568933656 -2.5014681816
18.7659581199 -3.0729644235 -2.5014681816
18.7906228988 -3.1049973755 -2.5014681816
18.8154767637 -3.1368838416 -2.5014681816
18.8784329520 -3.2159518200 -2.5014681816
19.2941568440 -3.6845444066 -2.5014681816
19.3224306911 -3.7134416538 -2.5014681816
19.3938589398 -3.7849485216 -2.5014681816
18.6377485577 -2.9412081924 -2.5014681816
18.7591136482 -3.1037467269 -2.5014681816
19.3624624639 -3.7878910196 -2.5014681816
19.5233899229 -3.9424581105 -2.5014681816
18.4334873162 -2.6871205530 -2.5014681816
18.4446560746 -2.7041404667 -2.5014681816
18.4558751320 -2.7211272667 -2.5014681816
18.4671443904 -2.7380808044 -2.5014681816
18.3470751183 -2.5971852350 -2.5014681816
19.8452079821 -4.2858395732 -2.5014681816
19.8610998635 -4.2986763668 -2.5014681816
18.2304637244 -2.4525940370 -2.5014681816
18.2620475021 -2.5053652442 -2.5014681816
18.0778027596 -2.2322709914 -2.5014681816
18.1992069054 -2.4472019667 -2.5014681816
18.2307440624 -2.5002507731 -2.5014681816
20.0943579256 -4.5683066682 -2.5014681816
17.9866370007 -2.1638642305 -2.5014681816
18.0059368769 -2.2005238186 -2.5014681816
17.6908598391 -1.8892232056 -2.5014681816
17.6340768663 -1.8218648291 -2.5014681816
19.0513834593 2.6383878748 -2.4986352921
19.0476027077 2.6238043186 -2.4986352921
19.0401707092 2.5946039729 -2.4986352921
19.0365195273 2.5799874389 -2.4986352921
19.0571386442 0.0458107735 -2.4986352921
19.0610271794 0.0312555858 -2.4986352921
19.0599395189 2.7612933485 -2.4986352921
19.0436207132 2.7029855478 -2.4986352921
19.0396489040 2.6883787454 -2.4986352921
19.0318350006 2.6591302121 -2.4986352921
19.0456261499 -0.0042317025 -2.4986352921
19.0494511507 2.8117538751 -2.4986352921
19.0409071471 2.7825611760 -2.4986352921
19.0603774594 -0.1421199654 -2.4986352921
19.0738398024 -0.1857145581 -2.4986352921
22.1603955623 -3.4556491996 -2.4986352921
22.2174214583 -3.4768357404 -2.4986352921
22.2317167914 -3.4820268269 -2.4986352921
19.0484898218 2.8917107151 -2.4986352921
22.1090399736 -3.4618499935 -2.4986352921
19.0488202161 2.9720135374 -2.4986352921
19.0808640493 -0.3604614900 -2.4986352921
22.0574317583 -3.4675162271 -2.4986352921
19.0893749190 -0.4555166686 -2.4986352921
19.0947463303 -0.4699743021 -2.4986352921
19.0481502317 3.1189939688 -2.4986352921
19.0613494925 -0.4493612757 -2.4986352921
19.0467314304 3.1856376921 -2.4986352921
19.0955246800 -0.6699374724 -2.4986352921
19.0465698083 3.3197523331 -2.4986352921
19.0407734784 3.3051515560 -2.4986352921
19.0293105203 3.2758988815 -2.4986352921
19.0494890110 -0.6209934417 -2.4986352921
19.0672015162 -0.6646658059 -2.4986352921
19.1758759815 3.7284838397 -2.4986352921
19.1688699841 3.7142637852 -2.4986352921
19.0848716333 -0.8287572182 -2.4986352921
19.0957457242 -0.9110777310 -2.4986352921
21.5789590279 -3.4650691836 -2.4986352921
19.0941910338 -0.9646897514 -2.4986352921
19.1002418159 -1.0329507048 -2.4986352921
19.1073213340 -1.0473736655 -2.4986352921
21.4174942958 -3.4634865554 -2.4986352921
19.1026959891 -1.2501453744 -2.4986352921
19.1275095784 -1.5398599596 -2.4986352921
18.6783971413 -3.0352467499 -2.4986352921
18.4820128484 -2.8266386849 -2.4986352921
18.5068373998 -2.8590898583 -2.4986352921
18.5952260830 -2.9715004807 -2.4986352921
19.4279708848 -3.8407512199 -2.4986352921
19.6151696266 -3.9990124858 -2.4986352921
18.4135272780 -2.7757002464 -2.4986352921
18.5002093157 -2.8900608088 -2.4986352921
19.3966412962 -3.8453975247 -2.4986352921
19.7444182345 -4.1324277364 -2.4986352921
19.7932653839 -4.1697947181 -2.4986352921
18.2857996308 -2.6399506668 -2.4986352921
18.7969897395 -3.2841662897 -2.4986352921
19.5056563321 -4.0026545189 -2.4986352921
20.0868383393 -4.4679363288 -2.4986352921
20.2607112962 -4.5805216592 -2.4986352921
19.6688946286 -4.1962374155 -2.4986352921
17.8809798817 -2.1859591869 -2.4986352921
17.7447413420 -2.1914345403 -2.4986352921
19.0369454982 0.3324866150 -2.5008041859
19.0444772631 0.3047913570 -2.5008041859
19.0592736794 3.0162365711 -2.5008041859
19.0509270874 2.9886264441 -2.5008041859
19.0408127799 0.2289959110 -2.5008041859
19.0319411136 3.0094325973 -2.5008041859
19.0299413925 0.1805460542 -2.5008041859
19.0341362913 0.1666728005 -2.5008041859
19.0426491155 0.1389638244 -2.5008041859
19.0469669665 0.1251283444 -2.5008041859
19.0371662239 0.0762593723 -2.5008041859
19.0335807477 -0.0640108136 -2.5008041859
19.0384990740 -0.0778722313 -2.5008041859
19.0534997774 -0.1193683403 -2.5008041859
19.0410576465 -0.1554106642 -2.5008041859
19.0462463174 -0.1692495640 -2.5008041859
23.8956096192 -3.4014863555 -2.5008041859
19.0599008764 -0.6882635647 -2.5008041859
22.4866345659 -3.4487556751 -2.5008041859
22.5015504711 -3.4523875254 -2.5008041859
22.5314141861 -3.4595187752 -2.5008041859
22.5613195693 -3.4664732164 -2.5008041859
25.0984774659 -3.4119679620 -2.5008041859
25.1280565947 -3.4037356270 -2.5008041859
22.3912013894 -3.4494119717 -2.5008041859
22.4061196536 -3.4533261278 -2.5008041859
22.4210494313 -3.4571961358 -2.5008041859
25.1494468216 -3.4228030287 -2.5008041859
25.1790891622 -3.4142689522 -2.5008041859
25.2086804935 -3.4055596510 -2.5008041859
25.2234567070 -3.4011393862 -2.5008041859
22.2804549519 -3.4440194370 -2.5008041859
22.3102730281 -3.4524589086 -2.5008041859
22.3252006598 -3.4566124521 -2.5008041859
25.2304189036 -3.4242881033 -2.5008041859
25.2452504240 -3.4198034504 -2.5008041859
25.2896644790 -3.4060865223 -2.5008041859
25.3709877434 -3.4053060111 -2.5008041859
19.0807324435 -0.9391048702 -2.5008041859
22.1622324498 -3.4592893089 -2.5008041859
22.1771809348 -3.4638807533 -2.5008041859
22.2071183246 -3.4729308810 -2.5008041859
25.4082343266 -3.4183714827 -2.5008041859
25.4230475666 -3.4133608455 -2.5008041859
25.4378459194 -3.4083064100 -2.5008041859
19.0006548268 -0.8396401881 -2.5008041859
19.0595096567 -0.9506776227 -2.5008041859
22.0354706041 -3.4438918366 -2.5008041859
22.0652922130 -3.4537807200 -2.5008041859
25.5050049043 -3.4104210514 -2.5008041859
21.9829698308 -3.4515809407 -2.5008041859
22.0577517137 -3.4767475691 -2.5008041859
25.5131219377 -3.4331905277 -2.5008041859
25.5576442471 -3.4170958631 -2.5008041859
21.9152682165 -3.4534109672 -2.5008041859
25.6253685666 -3.4176194283 -2.5008041859
19.0821862671 -1.1377880414 -2.5008041859
21.8323621520 -3.4487744639 -2.5008041859
25.7081697523 -3.4113843381 -2.5008041859
19.0858659630 -1.1912962242 -2.5008041859
21.7939555467 -3.4600919381 -2.5008041859
25.7319474592 -3.4279270348 -2.5008041859
21.6806834618 -3.4414919373 -2.5008041859
21.6955814060 -3.4475079686 -2.5008041859
21.7104970814 -3.4534799027 -2.5008041859
25.8301029209 -3.4137378422 -2.5008041859
21.6268144094 -3.4454993511 -2.5008041859
21.5876346716 -3.4552806812 -2.5008041859
21.5034786499 -3.4452857548 -2.5008041859
19.0862021730 -1.4199227351 -2.5008041859
21.4340301589 -3.4406904153 -2.5008041859
21.4489268112 -3.4474360952 -2.5008041859
21.4638433532 -3.4541376785 -2.5008041859
21.3941628787 -3.4490131631 -2.5008041859
21.4539695737 -3.4762022148 -2.5008041859
21.3242889501 -3.4429430662 -2.5008041859
19.1161318448 -1.7205578274 -2.5008041859
21.0875978684 -3.4326789179 -2.5008041859
21.0465672070 -3.4383482444 -2.5008041859
19.1175289644 -1.8451576635 -2.5008041859
20.7374879368 -3.4308275843 -2.5008041859
20.6953545651 -3.4337912015 -2.5008041859
19.1325809189 -2.2536311829 -2.5008041859
20.2221989687 -3.4145279344 -2.5008041859
19.9742562213 -3.4141260505 -2.5008041859
19.8858576675 -3.4077891547 -2.5008041859
19.7375183515 -3.4145765137 -2.5008041859
19.5877486619 -3.4176494778 -2.5008041859
18.8479518194 -3.2323077981 -2.5008041859
18.9053726061 -3.2896399726 -2.5008041859
18.9198334878 -3.3038665397 -2.5008041859
18.9488811888 -3.3321910294 -2.5008041859
19.2946771337 -3.6452906486 -2.5008041859
18.7456229154 -3.1617428204 -2.5008041859
18.9174602863 -3.3353572702 -2.5008041859
19.2790712468 -3.6637511897 -2.5008041859
19.2946371821 -3.6768706518 -2.5008041859
19.3258851410 -3.7029711487 -2.5008041859
19.3415668912 -3.7159519552 -2.5008041859
19.4046758241 -3.7674095888 -2.5008041859
19.4205478501 -3.7801570363 -2.5008041859
19.5326981273 -3.8680667467 -2.5008041859
19.5650731000 -3.8927554489 -2.5008041859
19.5813152199 -3.9050278638 -2.5008041859
18.5080458584 -2.9368305887 -2.5008041859
18.5214648047 -2.9522340639 -2.5008041859
18.5349292584 -2.9675977760 -2.5008041859
18.6860077677 -3.1339360467 -2.5008041859
19.5994782984 -3.9488220595 -2.5008041859
19.6818752849 -4.0091870590 -2.5008041859
19.7484300882 -4.0565974773 -2.5008041859
18.3576739519 -2.7959433967 -2.5008041859
18.5987950873 -3.0752163716 -2.5008041859
19.8527380217 -4.1577136266 -2.5008041859
19.9039129652 -4.1918231632 -2.5008041859
18.2236625161 -2.6663932701 -2.5008041859
18.5258716283 -3.0303379072 -2.5008041859
18.7074154272 -3.2266888838 -2.5008041859
18.8082585818 -3.3294832405 -2.5008041859
18.0684567258 -2.4994319899 -2.5008041859
20.1216977626 -4.3863516090 -2.5008041859
20.1571287741 -4.4075465207 -2.5008041859
17.8952325534 -2.2924608825 -2.5008041859
20.3244025111 -4.5314939959 -2.5008041859
17.9570742302 -2.4260941968 -2.5008041859
17.7865172197 -2.2145359058 -2.5008041859
17.2064972954 -1.4057654333 -2.5008041859
22.9434917560 0.5223627923 -2.4996050229
19.0510536445 -0.0804912874 -2.4996058355
19.0626611231 -0.1677084804 -2.4996058413
19.0540939917 -0.2653319964 -2.4996058528
19.0668166702 -0.4026460829 -2.4996058644
19.0714421381 -0.4651548874 -2.4996058701
22.1464495266 -3.4498319583 -2.4996059854
22.1928993023 -3.4609899499 -2.4996059854
22.2084043399 -3.4646176217 -2.4996059854
24.8402561930 -3.4155161287 -2.4996059854
24.9016163827 -3.3984298225 -2.4996059854
19.0943070178 -1.4563784884 -2.4996059912
24.9543297057 -3.4083278715 -2.4996059912
24.9696668769 -3.4037869632 -2.4996059912
21.9640018271 -3.4519625651 -2.4996059969
22.0259946232 -3.4689068854 -2.4996059969
25.0380496505 -3.4082552961 -2.4996059969
25.0533862407 -3.4034667294 -2.4996059969
25.1221000170 -3.4068358998 -2.4996060027
25.1374320407 -3.4017987032 -2.4996060027
19.0959826933 -1.6176636924 -2.4996060142
25.2757782693 -3.4054097232 -2.4996060142
21.5794679263 -3.4315319529 -2.4996060200
21.6257776267 -3.4477223088 -2.4996060200
25.3300323962 -3.4114938646 -2.4996060200
21.5559173279 -3.4488029809 -2.4996060257
25.3999004680 -3.4112079619 -2.4996060257
21.3690734919 -3.4301263664 -2.4996060373
25.5096781233 -3.4202532830 -2.4996060373
25.6110064308 -3.4047463756 -2.4996060430
21.2429720109 -3.4309857961 -2.4996060488
21.2738318603 -3.4438158713 -2.4996060488
25.6665032663 -3.4073522576 -2.4996060488
21.1313752137 -3.4356510106 -2.4996060603
21.0444393345 -3.4231053415 -2.4996060661
25.8496183564 -3.4045402353 -2.4996060661
25.9059500993 -3.4046437106 -2.4996060718
26.1146572765 -3.3268923179 -2.4996060776
26.1448160113 -3.3109016887 -2.4996060776
26.1598597694 -3.3028395329 -2.4996060776
26.2496155072 -3.2535352901 -2.4996060776
19.1098854507 -2.0856001255 -2.4996060834
20.9056871528 -3.4379506890 -2.4996060834
25.4054717646 -3.6670202786 -2.4996060834
26.1107396804 -3.3562439998 -2.4996060834
26.4682278375 -3.1529301253 -2.4996060834
26.4973511655 -3.1348506986 -2.4996060834
25.7906787530 -3.5641229478 -2.4996060949
20.6769964468 -3.4306908961 -2.4996061064
20.6348134387 -3.4356400286 -2.4996061122
20.4764724536 -3.4312106484 -2.4996061295
20.4336645735 -3.4346265643 -2.4996061352
20.2764901373 -3.4543681083 -2.4996061583
19.9848428408 -3.4708766789 -2.4996061986
19.4117166137 -3.7207168016 -2.4996063254
19.4443226590 -3.7443761279 -2.4996063254
18.5709193540 -3.0290287048 -2.4996063312
18.7446048750 -3.1983448013 -2.4996063312
19.5958684014 -3.8797731651 -2.4996063312
19.6294122546 -3.9023402038 -2.4996063312
19.6799769046 -3.9358176701 -2.4996063312
19.6968975636 -3.9468769433 -2.4996063312
18.3718518435 -2.8551080298 -2.4996063370
18.4131724164 -2.8997868778 -2.4996063370
19.7519505219 -4.0110207091 -2.4996063370
19.8379831542 -4.0647423428 -2.4996063370
19.8726171098 -4.0858737121 -2.4996063370
18.2054321827 -2.7039360363 -2.4996063427
18.2993660709 -2.8110911878 -2.4996063427
18.9076652559 -3.4111471750 -2.4996063427
19.8600878594 -4.1065462341 -2.4996063427
18.7247536231 -3.2790712063 -2.4996063485
20.0772654471 -4.2604695393 -2.4996063485
17.7937296539 -2.2990895774 -2.4996063600
20.3637761223 -4.4646206824 -2.4996063600
17.6906349650 -2.1953402589 -2.4996063658
17.9102665380 -2.4950080837 -2.4996063658
22.6260480454 0.5261026795 -2.5001742682
19.0594137362 0.7865823458 -2.5001755707
19.0498166122 0.7320437465 -2.5001755822
19.0533278009 0.7200560128 -2.5001755822
19.0483300226 0.6531047260 -2.5001755938
19.0596704952 0.6171628633 -2.5001755938
19.0635214792 0.6052047819 -2.5001755938
19.0604203648 0.5378048385 -2.5001756053
19.0499678474 0.4939887308 -2.5001756168
19.0443222801 0.4378638175 -2.5001756283
19.0625377507 0.3214594391 -2.5001756399
19.0498812436 0.1620637027 -2.5001756745
23.0695436757 -3.4215054136 -2.5001761125
23.1011049394 -3.4216156923 -2.5001761125
23.1957849118 -3.4208261721 -2.5001761125
23.2115629004 -3.4205312111 -2.5001761125
23.2588906645 -3.4193663033 -2.5001761125
24.5870661303 -3.4123351794 -2.5001762047
24.6342669938 -3.3989637748 -2.5001762047
21.6086442208 -3.4340223166 -2.5001762162
21.6244681904 -3.4384223470 -2.5001762162
21.5228694840 -3.4345020874 -2.5001762277
24.8211654216 -3.3923610461 -2.5001762277
21.4525784271 -3.4385177681 -2.5001762393
21.3661396104 -3.4364981034 -2.5001762508
24.9150123461 -3.4121540706 -2.5001762508
25.0016960997 -3.4075535673 -2.5001762623
21.2240187909 -3.4394918871 -2.5001762738
21.3352493187 -3.4772701745 -2.5001762738
25.0886381888 -3.4015488789 -2.5001762738
25.2318223826 -3.3979749015 -2.5001762969
25.2475238644 -3.3916570734 -2.5001762969
21.0246298868 -3.4430991195 -2.5001763084
21.0722440468 -3.4613411267 -2.5001763084
20.9433710664 -3.4629792769 -2.5001763315
25.4169267878 -3.3992043863 -2.5001763315
25.4326310968 -3.3923389805 -2.5001763315
20.8706322705 -3.4593589377 -2.5001763430
25.4895328220 -3.3935120152 -2.5001763430
20.8454045810 -3.4750224346 -2.5001763545
25.5151967655 -3.4084500023 -2.5001763545
25.5466379860 -3.3940912045 -2.5001763545
25.6039405147 -3.3940730371 -2.5001763660
20.6889290036 -3.4862674825 -2.5001763891
20.3976091952 -3.4818597383 -2.5001764467
26.1034934821 -3.3245266782 -2.5001764467
26.1344278878 -3.3066887883 -2.5001764467
26.1498553796 -3.2977012893 -2.5001764467
26.2112974586 -3.2612961058 -2.5001764467
25.3909269726 -3.6986890899 -2.5001764583
26.3911069032 -3.1777694902 -2.5001764583
26.5697109465 -3.0578991053 -2.5001764583
25.2324035646 -3.7865221420 -2.5001764698
25.3499602859 -3.7412291510 -2.5001764698
25.4000498572 -3.7210745374 -2.5001764698
26.4794532369 -3.1487058207 -2.5001764698
26.6569701304 -3.0257182666 -2.5001764698
20.2366651548 -3.4803403427 -2.5001764813
25.0192810675 -3.8870940225 -2.5001764813
25.0706781293 -3.8698682574 -2.5001764813
26.8596191672 -2.9347264884 -2.5001764928
24.5197501938 -4.1281631940 -2.5001765274
18.7713319908 -3.2139524832 -2.5001767695
18.7865173685 -3.2267467593 -2.5001767695
18.8170013346 -3.2522002686 -2.5001767695
18.4880423965 -2.9937005860 -2.5001767810
18.5464237713 -3.0479748151 -2.5001767810
18.6054432570 -3.1015544491 -2.5001767810
19.5107759357 -3.7853733923 -2.5001767810
19.5954499567 -3.8378947223 -2.5001767810
19.6124774625 -3.8482483784 -2.5001767810
18.2855801126 -2.8295615935 -2.5001767925
19.7204193915 -3.9402352879 -2.5001767925
19.7377490924 -3.9502188140 -2.5001767925
19.7899143308 -3.9798611967 -2.5001767925
19.8950236945 -4.0377513505 -2.5001767925
19.9479595418 -4.0659945624 -2.5001767925
18.0754417983 -2.6422296598 -2.5001768041
19.7431345478 -3.9811502160 -2.5001768041
17.9639529080 -2.5529879719 -2.5001768156
20.0868194824 -4.1912310332 -2.5001768156
20.2035990976 -4.2742823703 -2.5001768271
20.3138687411 -4.3247839981 -2.5001768271
20.4155405107 -4.3955585090 -2.5001768386
17.5340980558 -2.1695826752 -2.5001768617
20.6237661905 -4.5321188634 -2.5001768617
22.1087973560 0.5152339169 -2.4999317732
19.0566835151 1.0970226274 -2.4999333465
19.0583884007 0.9924060218 -2.4999333638
19.0643472350 0.9705078497 -2.4999333638
19.0671527315 0.7925731730 -2.4999333984
19.0623612707 0.7302634141 -2.4999334157
19.0683380771 0.5716153472 -2.4999334503
19.0500020368 0.5519693900 -2.4999334676
19.0686696137 0.2619418004 -2.4999335367
19.0672623266 0.1535107159 -2.4999335713
19.0860472608 -0.3241037077 -2.4999337269
19.0741509592 -0.4396108382 -2.4999337788
21.5325656670 -3.4503422733 -2.4999346087
21.5647659900 -3.4575246263 -2.4999346087
21.6131447400 -3.4679406410 -2.4999346087
24.2268093529 -3.3920503282 -2.4999346087
24.2491360116 -3.4110015162 -2.4999346260
24.3129229128 -3.3930346204 -2.4999346260
24.3288360709 -3.3884250617 -2.4999346260
24.3993844372 -3.3926436435 -2.4999346433
21.3056587848 -3.4690936677 -2.4999346606
21.2185167050 -3.4702076970 -2.4999346779
21.2346716944 -3.4747516139 -2.4999346779
24.5732634878 -3.3876960092 -2.4999346779
21.1310243701 -3.4699328805 -2.4999346951
21.1471789294 -3.4747356167 -2.4999346951
21.1795303165 -3.4841976202 -2.4999346951
24.4366037480 -3.4570964249 -2.4999346951
24.6128904984 -3.3997523962 -2.4999346951
21.0432038746 -3.4682591229 -2.4999347124
24.7164881399 -3.3887849142 -2.4999347124
21.0035482010 -3.4810030361 -2.4999347297
24.7247432163 -3.4115047073 -2.4999347297
24.7725891298 -3.3938795090 -2.4999347297
20.6232992011 -3.4737861419 -2.4999348162
25.1619444731 -3.3911773357 -2.4999348335
25.2355393890 -3.3843699753 -2.4999348508
20.4666031107 -3.4885130348 -2.4999348680
25.2934253434 -3.3840811833 -2.4999348680
20.1419094056 -3.4751488277 -2.4999349545
20.0398335738 -3.4790664572 -2.4999349891
25.7587126729 -3.3896500703 -2.4999350237
25.9341825861 -3.4005799017 -2.4999350928
25.6704659365 -3.5746166724 -2.4999351101
26.2298647814 -3.2442965777 -2.4999351101
26.3374734943 -3.1713830184 -2.4999351101
26.3679393068 -3.1501428053 -2.4999351101
25.2781511152 -3.7890370543 -2.4999351274
25.3633299088 -3.7511997176 -2.4999351274
26.5774777282 -3.0269709518 -2.4999351274
25.1671691377 -3.8622425898 -2.4999351447
25.3562502859 -3.7809156550 -2.4999351447
26.8116789158 -2.8713867979 -2.4999351447
26.8546494052 -2.8352624851 -2.4999351447
25.0015860163 -3.9534232866 -2.4999351620
25.0191538923 -3.9467740860 -2.4999351620
25.1066940076 -3.9127501645 -2.4999351620
24.7148114746 -4.1044990403 -2.4999351966
24.9120137347 -4.0377609972 -2.4999351966
18.8120128965 -3.2576690014 -2.4999353176
19.4421951030 -3.6775640193 -2.4999353176
18.5979567576 -3.1206375059 -2.4999353349
18.8443571265 -3.3119605988 -2.4999353349
19.6339107658 -3.8131159779 -2.4999353349
18.2867824948 -2.8832446246 -2.4999353522
18.6436534034 -3.1884746646 -2.4999353522
18.2559834993 -2.8877355355 -2.4999353695
19.9264763698 -4.0151248917 -2.4999353695
20.1317980961 -4.1342098606 -2.4999353867
17.9133406064 -2.6176218948 -2.4999354040
17.6955409275 -2.4138357717 -2.4999354213
19.0559776211 0.4709549303 -2.5000261523
21.1238838228 -3.4707952601 -2.5000266134
23.8579883761 -3.4318995066 -2.5000266134
23.9862171861 -3.3961919175 -2.5000266134
21.0047706615 -3.4663320195 -2.5000266192
24.0730197085 -3.3954436684 -2.5000266192
20.8139679072 -3.4640116695 -2.5000266307
20.7747215955 -3.4776140467 -2.5000266365
20.5255405147 -3.4736327129 -2.5000266537
24.5201805820 -3.3931635862 -2.5000266537
24.5929518750 -3.3902690734 -2.5000266595
20.3634261913 -3.4667099389 -2.5000266653
24.6340169747 -3.3996379025 -2.5000266653
24.7232153998 -3.3884222391 -2.5000266710
24.9122155039 -3.3835292652 -2.5000266883
25.0285598422 -3.3818200686 -2.5000266998
25.2746815849 -3.3923935072 -2.5000267287
18.8419041663 -3.3045946257 -2.5000267978
18.3850161573 -2.9978915915 -2.5000268036
19.7735153384 -3.8506941867 -2.5000268036
19.9033862566 -3.9337869065 -2.5000268094
19.9209625569 -3.9411857822 -2.5000268094
18.2219726896 -2.9257162399 -2.5000268151
25.5455251237 -3.6580440892 -2.5000268151
25.6786327199 -3.5823405345 -2.5000268151
26.2999996446 -3.1693231519 -2.5000268151
26.3457577457 -3.1346273841 -2.5000268151
26.3760913083 -3.1112718626 -2.5000268151
25.4897588259 -3.7159986052 -2.5000268209
25.5740246581 -3.6698712935 -2.5000268209
26.4813962241 -3.0589782132 -2.5000268209
26.5706157252 -2.9859798879 -2.5000268209
25.2261071339 -3.8769559884 -2.5000268266
25.2434920289 -3.8686095418 -2.5000268266
26.8489742212 -2.8062348214 -2.5000268324
27.1295536064 -2.5662844995 -2.5000268382
27.2495480202 -2.4391163780 -2.5000268382
22.9044649795 0.5251651787 -2.4999994108
19.0452054708 -0.1611631030 -2.4999972323
25.9362594968 0.7517863749 -2.4999968432
25.9433315140 0.7747015042 -2.4999968432
25.9520859146 0.7215803139 -2.4999968173
25.9593363641 0.7445896063 -2.4999968173
25.9629105079 0.7561102379 -2.4999968173
25.9406101297 0.6106421646 -2.4999967914
25.9429605141 0.5452114386 -2.4999967654
25.9398253716 0.4679539900 -2.4999967395
25.9529012390 0.5023850960 -2.4999967395
25.9434134695 0.3468162552 -2.4999966876
25.9511950135 0.3029979552 -2.4999966617
25.9483785580 0.2359194923 -2.4999966358
25.9444228520 0.1685643020 -2.4999966098
25.9444630517 -0.1031876802 -2.4999964801
25.9447811365 -0.2529053914 -2.4999964023
25.9465539149 -0.3929473515 -2.4999963245
25.9389809441 -0.4514646068 -2.4999962986
25.9415120315 -0.5821869238 -2.4999962208
25.9556638253 -0.7764362212 -2.4999960911
20.7241295191 -3.4537489626 -2.4999952093
23.4029933353 -3.4552691557 -2.4999952093
23.4190026060 -3.4512922729 -2.4999952093
23.4350000423 -3.4472680493 -2.4999952093
23.4509855042 -3.4431965199 -2.4999952093
23.4829199455 -3.4349116869 -2.4999952093
20.6060466233 -3.4481274877 -2.4999951834
20.6380600291 -3.4566741823 -2.4999951834
20.7343957842 -3.4811757928 -2.4999951834
23.5370750562 -3.4454555150 -2.4999951834
20.5036002315 -3.4445740536 -2.4999951575
23.3660649766 -3.5139536232 -2.4999951575
23.5755059933 -3.4599483162 -2.4999951575
23.6075373646 -3.4509264851 -2.4999951575
23.6395147990 -3.4417153035 -2.4999951575
20.4008219720 -3.4390800632 -2.4999951315
20.4167964882 -3.4439842171 -2.4999951315
20.4327854419 -3.4488410941 -2.4999951315
20.4648061019 -3.4584128475 -2.4999951315
23.6462745253 -3.4649239523 -2.4999951315
23.7103372508 -3.4458532251 -2.4999951315
23.7422828709 -3.4360339337 -2.4999951315
20.3296697963 -3.4420036336 -2.4999951056
20.3456532723 -3.4471182557 -2.4999951056
23.8453425094 -3.4283986118 -2.4999951056
23.8612703567 -3.4231132978 -2.4999951056
20.2582162371 -3.4439959073 -2.4999950797
20.2742059193 -3.4493218933 -2.4999950797
20.3062321993 -3.4598318480 -2.4999950797
20.3222685169 -3.4650157248 -2.4999950797
23.6111888401 -3.5252642605 -2.4999950797
23.9327411398 -3.4243410771 -2.4999950797
20.2024665241 -3.4505883837 -2.4999950537
23.9566419622 -3.4416132277 -2.4999950537
24.0044911406 -3.4246278087 -2.4999950537
20.1624854972 -3.4622715882 -2.4999950278
20.0261951215 -3.4383062591 -2.4999950019
20.0421689878 -3.4443186304 -2.4999950019
20.0741697279 -3.4562014811 -2.4999950019
24.0689657884 -3.4525597607 -2.4999950019
24.1009448101 -3.4406185850 -2.4999950019
24.1328526241 -3.4284884197 -2.4999950019
24.1646881135 -3.4161696893 -2.4999950019
19.9536639694 -3.4362932499 -2.4999949759
19.8968557441 -3.4397584871 -2.4999949500
19.9128344722 -3.4461534613 -2.4999949500
19.8878407053 -3.4621875833 -2.4999949241
24.3510986026 -3.4185079823 -2.4999949241
19.7665890658 -3.4381493817 -2.4999948981
19.7091122819 -3.4396779054 -2.4999948722
19.6514279851 -3.4406095666 -2.4999948462
19.6674103048 -3.4477305568 -2.4999948462
24.5076264896 -3.4289997898 -2.4999948462
24.5394584452 -3.4144637624 -2.4999948462
19.4187380156 -3.4382973885 -2.4999947425
19.4347145135 -3.4461067278 -2.4999947425
24.7721103654 -3.4096624963 -2.4999947425
19.3601083160 -3.4361926289 -2.4999947166
24.8148299764 -3.4150838361 -2.4999947166
19.3013082864 -3.4334705985 -2.4999946906
19.1991643237 -3.4346681541 -2.4999946388
19.2151310464 -3.4431270480 -2.4999946388
18.7389558766 -3.2498013651 -2.4999945610
18.7698285956 -3.2693978666 -2.4999945610
18.4226148314 -3.0634907341 -2.4999945350
18.5123212540 -3.1273743936 -2.4999945350
18.6031473654 -3.1896558652 -2.4999945350
18.6950645534 -3.2503155285 -2.4999945350
18.7104881334 -3.2602664473 -2.4999945350
18.7724747912 -3.2996125650 -2.4999945350
18.8192679386 -3.3286393132 -2.4999945350
19.5162355799 -3.6978807297 -2.4999945350
19.6677171027 -3.7637690614 -2.4999945350
19.7016143723 -3.7778617043 -2.4999945350
18.2028178731 -2.9272726951 -2.4999945091
18.3342508688 -3.0283979859 -2.4999945091
18.3786543956 -3.0613244056 -2.4999945091
18.4533039917 -3.1153219432 -2.4999945091
19.7094465462 -3.8072081261 -2.4999945091
19.8293370603 -3.8547794846 -2.4999945091
19.9155634826 -3.8872340737 -2.4999945091
25.2258414251 -3.4098497533 -2.4999945091
18.0444484862 -2.8293617344 -2.4999944832
18.1588729089 -2.9231990975 -2.4999944832
19.9768056677 -3.9350604000 -2.4999944832
19.9942492387 -3.9412167007 -2.4999944832
20.0466881511 -3.9593756206 -2.4999944832
20.1800267416 -4.0285724978 -2.4999944572
17.6679282353 -2.5537050169 -2.4999944313
17.6947013593 -2.5796502604 -2.4999944313
17.7759351491 -2.6565292691 -2.4999944313
17.6110308952 -2.5316502205 -2.4999944054
17.8563251699 -2.7624230570 -2.4999944054
20.3447773094 -4.1282747719 -2.4999944054
17.4368516205 -2.3872324870 -2.4999943794
17.8402358994 -2.7804638623 -2.4999943794
17.3934989522 -2.3762043526 -2.4999943535
17.1996464523 -2.1946982299 -2.4999943275
25.7041733706 -3.3929477157 -2.4999942497
21.0868318339 -4.4620099280 -2.4999942238
25.8245758852 -3.3979279340 -2.4999941719
25.6352388302 -3.6408914761 -2.4999940682
26.1485264540 -3.2785153594 -2.4999940682
26.1794393747 -3.2542738505 -2.4999940682
26.1948419168 -3.2420846176 -2.4999940682
26.2560894886 -3.1928736572 -2.4999940682
26.3016406937 -3.1554917263 -2.4999940682
26.3468583614 -3.1177070260 -2.4999940682
26.3618561816 -3.1050231351 -2.4999940682
26.4066235977 -3.0667060435 -2.4999940682
25.2405536927 -3.9011862153 -2.4999940423
25.3612042946 -3.8342113370 -2.4999940423
25.4295165445 -3.7948229117 -2.4999940423
25.6648393505 -3.6506569642 -2.4999940423
25.7474084127 -3.5968245463 -2.4999940423
25.7638261721 -3.5859118404 -2.4999940423
26.1789174898 -3.2854392672 -2.4999940423
26.3018564307 -3.1866607657 -2.4999940423
26.4521867543 -3.0591421968 -2.4999940423
26.4965434457 -3.0200252789 -2.4999940423
26.5259209614 -2.9937293086 -2.4999940423
26.5696942466 -2.9539606167 -2.4999940423
26.6131128832 -2.9138050276 -2.4999940423
26.6418599241 -2.8868212524 -2.4999940423
25.1120106117 -3.9961725477 -2.4999940163
25.7277083710 -3.6387339591 -2.4999940163
26.5714237302 -2.9851276479 -2.4999940163
26.6728212685 -2.8907924112 -2.4999940163
26.8002814650 -2.7664547233 -2.4999940163
26.7324779626 -2.8671023925 -2.4999939904
26.8453626791 -2.7553419791 -2.4999939904
26.9419435882 -2.6553838762 -2.4999939904
26.9961967426 -2.5973739343 -2.4999939904
27.0230649663 -2.5681292444 -2.4999939904
26.9731772762 -2.6575054627 -2.4999939645
27.1075627787 -2.5103623877 -2.4999939645
27.2303635467 -2.4054294454 -2.4999939385
24.5151637594 -4.3692052780 -2.4999939126
25.0045623294 -4.1841676913 -2.4999938867
26.9000328836 -2.8375642518 -2.4999938867
24.5979922772 -4.4146241882 -2.4999938348
22.2175398839 0.5202728133 -2.4999973026
25.9386206656 0.9805619944 -2.4999894156
25.9411847844 0.9930064684 -2.4999894156
25.9462025274 1.0179178995 -2.4999894156
25.9432043147 0.8882683892 -2.4999893493
25.9596735485 0.9631419020 -2.4999893493
25.9530027479 0.7269869276 -2.4999892167
25.9563169248 0.7394750560 -2.4999892167
25.9628343799 0.7644804512 -2.4999892167
25.9519921500 0.6331348274 -2.4999891504
25.9603958709 0.5763088777 -2.4999890842
25.9447091500 0.1026288184 -2.4999886865
25.9459058573 0.0433746120 -2.4999886202
25.9627137181 0.0213114564 -2.4999885539
25.9504440267 -0.1235095664 -2.4999884214
25.9524475987 -0.3897466507 -2.4999880900
20.3197131547 -3.4406517157 -2.4999861679
23.2186977209 -3.4208510049 -2.4999861679
23.2498769750 -3.4119694716 -2.4999861679
20.2663434324 -3.4511989181 -2.4999861017
20.1812582560 -3.4521255598 -2.4999860354
23.3572964323 -3.4304325110 -2.4999860354
23.3729203650 -3.4256047609 -2.4999860354
20.0644672146 -3.4419111667 -2.4999859691
23.4270807249 -3.4338649588 -2.4999859691
23.4427145061 -3.4288307591 -2.4999859691
19.9787223443 -3.4395975397 -2.4999859028
19.9943881716 -3.4447641827 -2.4999859028
23.4971726189 -3.4363825676 -2.4999859028
19.9240090369 -3.4466969991 -2.4999858365
23.5832055328 -3.4325287699 -2.4999858365
23.5911909419 -3.4553447407 -2.4999857703
23.6382314261 -3.4386462777 -2.4999857703
19.7823986189 -3.4477754306 -2.4999857040
23.7960181368 -3.4310918881 -2.4999856377
19.6397333621 -3.4450948240 -2.4999855714
19.6711186887 -3.4573872216 -2.4999855714
19.5680360994 -3.4423294400 -2.4999855052
23.9391339755 -3.4254047637 -2.4999855052
19.4961124617 -3.4386060899 -2.4999854389
19.5117774678 -3.4452003846 -2.4999854389
19.5274619124 -3.4517483105 -2.4999854389
23.9954131523 -3.4278399674 -2.4999854389
24.0110266239 -3.4211245640 -2.4999854389
19.4552981007 -3.4474881363 -2.4999853726
23.9892322052 -3.4567575000 -2.4999853726
19.3829276241 -3.4422599100 -2.4999853063
19.4300177033 -3.4629079385 -2.4999853063
19.2845951844 -3.4508156812 -2.4999851738
19.3002972340 -3.4580356288 -2.4999851738
19.2116125785 -3.4432985323 -2.4999851075
19.1697996538 -3.4500521187 -2.4999850412
24.3530367765 -3.4223162271 -2.4999850412
24.3950840599 -3.4283100610 -2.4999849749
18.6099644355 -3.1978493906 -2.4999849087
18.6549159467 -3.2253666583 -2.4999849087
18.7152277939 -3.2614337516 -2.4999849087
18.8678374087 -3.3484574733 -2.4999849087
18.9450908414 -3.3902669797 -2.4999849087
19.4532238999 -3.6303153163 -2.4999849087
19.5345820873 -3.6634358995 -2.4999849087
19.5672610333 -3.6763465859 -2.4999849087
18.3899472711 -3.0842277459 -2.4999848424
18.6122699530 -3.2276642639 -2.4999848424
18.6423868697 -3.2460392854 -2.4999848424
19.5748800392 -3.7052635849 -2.4999848424
24.5109297902 -3.4230130282 -2.4999848424
18.2025528930 -2.9819885459 -2.4999847761
18.3179666734 -3.0641791093 -2.4999847761
18.3617434343 -3.0942929570 -2.4999847761
18.5394708847 -3.2108282924 -2.4999847761
19.8999444175 -3.8461641487 -2.4999847761
19.9603862471 -3.8905540979 -2.4999847098
17.8920399709 -2.8020609841 -2.4999846435
18.0314226243 -2.9136335552 -2.4999846435
20.2627246021 -4.0002059858 -2.4999846435
17.6070174230 -2.5844995220 -2.4999845773
20.1009040710 -3.9822686315 -2.4999845773
25.6160149102 -3.6810177213 -2.4999826552
26.1672301538 -3.2500751721 -2.4999826552
26.1823082622 -3.2369359190 -2.4999826552
26.2273084561 -3.1972513439 -2.4999826552
26.3455690113 -3.0894896534 -2.4999826552
25.2432633515 -3.9528812195 -2.4999825889
25.3627381579 -3.8789558410 -2.4999825889
25.3965901898 -3.8573814269 -2.4999825889
25.6134501728 -3.7123095234 -2.4999825889
25.7440705792 -3.6189295050 -2.4999825889
25.8085429611 -3.5710868754 -2.4999825889
26.4637843414 -3.0102536974 -2.4999825889
26.4781517170 -2.9962382327 -2.4999825889
26.5634796099 -2.9112585238 -2.4999825889
25.1691980802 -4.0250320601 -2.4999825226
25.7257975584 -3.6621451089 -2.4999825226
26.5380621349 -2.9710655129 -2.4999825226
26.6647936649 -2.8414454461 -2.4999825226
27.0169067407 -2.4795522995 -2.4999824564
25.8032843120 -3.6654043573 -2.4999823901
26.8374893685 -2.7258093945 -2.4999823901
27.0227115407 -2.5105474813 -2.4999823901
24.8120600075 -4.3009060160 -2.4999823238
24.8665562975 -4.2733397279 -2.4999823238
25.0998004838 -4.1483384584 -2.4999823238
24.0543446683 -4.7786710478 -2.4999819261
28.0663129650 -1.3003301233 -2.4999817936
25.9355308592 1.6629819034 -2.4999963505
25.9351692170 1.7564258186 -2.4999963505
25.9550805706 0.4246403410 -2.4999961430
25.9588105294 0.4380528881 -2.4999961430
25.9625007952 0.4514764103 -2.4999961430
25.9490185489 0.2365266980 -2.4999960911
25.9533050084 0.2499221356 -2.4999960911
25.9659263695 0.2901837079 -2.4999960911
25.9495481371 0.0871348888 -2.4999960392
25.9636142916 0.1273695313 -2.4999960392
25.9503351728 -0.0501625523 -2.4999959874
25.9676952206 -0.0722969002 -2.4999959614
25.9693096139 -0.1979070429 -2.4999959096
25.9748239937 -0.4253039878 -2.4999958058
25.9582575630 -0.5163421283 -2.4999957799
25.9682440637 -0.6049874973 -2.4999957280
22.8171855949 -3.4318862961 -2.4999954946
22.8474772446 -3.4235475716 -2.4999954946
22.8777190295 -3.4150297775 -2.4999954946
20.0316645167 -3.4577573011 -2.4999954687
20.0469052274 -3.4618503029 -2.4999954687
20.0621579792 -3.4658982020 -2.4999954687
20.0774226387 -3.4699009630 -2.4999954687
22.8387533164 -3.4510454230 -2.4999954687
22.9146696250 -3.4295418585 -2.4999954687
22.9600638221 -3.4161015785 -2.4999954687
22.9902595836 -3.4069178147 -2.4999954687
23.0427570621 -3.4158497975 -2.4999954427
19.8202980349 -3.4466145068 -2.4999954168
19.8659655942 -3.4606343664 -2.4999954168
19.8812155408 -3.4652175230 -2.4999954168
19.8964789785 -3.4697555474 -2.4999954168
23.0955359384 -3.4242497897 -2.4999954168
23.1106641221 -3.4192794523 -2.4999954168
23.1257775364 -3.4142643848 -2.4999954168
23.1559595282 -3.4041002351 -2.4999954168
25.9590552795 -1.2059476336 -2.4999954168
19.7369303996 -3.4453171543 -2.4999953909
23.1788780827 -3.4218140720 -2.4999953909
23.1939986964 -3.4165972041 -2.4999953909
19.6836630332 -3.4530528918 -2.4999953649
19.7141347535 -3.4632527687 -2.4999953649
23.2322461228 -3.4288216575 -2.4999953649
23.2776214229 -3.4125630926 -2.4999953649
25.9648748450 -1.2859284182 -2.4999953649
19.5996737322 -3.4495491623 -2.4999953390
19.6453760229 -3.4655268233 -2.4999953390
19.5306136417 -3.4503018382 -2.4999953131
19.5610717644 -3.4614072548 -2.4999953131
23.4606999085 -3.3943973776 -2.4999953131
19.4612816337 -3.4501369484 -2.4999952871
19.5069945903 -3.4673427385 -2.4999952871
19.4221429277 -3.4609755362 -2.4999952612
23.5241374496 -3.4208300677 -2.4999952612
23.5543513141 -3.4083089721 -2.4999952612
19.3370623873 -3.4532221754 -2.4999952353
19.3828076152 -3.4715302201 -2.4999952353
23.6241379095 -3.4049236677 -2.4999952353
23.6392066102 -3.3983897146 -2.4999952353
19.2822016428 -3.4568297474 -2.4999952093
23.6639707890 -3.4139461759 -2.4999952093
23.6941414788 -3.4005978999 -2.4999952093
19.2118820667 -3.4533490013 -2.4999951834
19.1718032461 -3.4623304460 -2.4999951575
19.1315410965 -3.4710169886 -2.4999951315
18.3968750494 -3.1063432335 -2.4999951056
18.4395789445 -3.1330085731 -2.4999951056
18.5836031523 -3.2191368543 -2.4999951056
18.6273006745 -3.2441406450 -2.4999951056
18.7153527815 -3.2929799610 -2.4999951056
18.9090210248 -3.3933910999 -2.4999951056
18.9693725616 -3.4227804950 -2.4999951056
19.4480912554 -3.6259706867 -2.4999951056
18.2427755230 -3.0347980030 -2.4999950797
18.3697387413 -3.1177794466 -2.4999950797
19.7428366775 -3.7516075720 -2.4999950797
19.7750737119 -3.7614521325 -2.4999950797
19.7912139295 -3.7663028475 -2.4999950797
19.8397196889 -3.7805682234 -2.4999950797
19.8883501353 -3.7944025761 -2.4999950797
19.9635015268 -3.8398724480 -2.4999950537
19.9798729015 -3.8441654163 -2.4999950537
19.9962569039 -3.8484099363 -2.4999950537
20.0290622183 -3.8567534835 -2.4999950537
24.0430717273 -3.3939016746 -2.4999950537
18.5767871243 -3.2988455788 -2.4999950278
20.0231731865 -3.8801981969 -2.4999950278
20.0561660999 -3.8883819420 -2.4999950278
24.0843144501 -3.3997341356 -2.4999950278
18.2449066160 -3.1233605494 -2.4999950019
24.1407849978 -3.3972381493 -2.4999950019
17.9375334608 -2.9360854372 -2.4999949759
20.5452102137 -4.0592423380 -2.4999949500
24.2089956715 -3.4153603939 -2.4999949500
20.5415635564 -4.0831387221 -2.4999949241
24.3501933161 -3.4195078669 -2.4999948722
24.5051862813 -3.4406948585 -2.4999947684
24.8384673230 -3.4298954956 -2.4999945869
25.0142499288 -3.4267927273 -2.4999944832
25.3705114285 -3.4348290773 -2.4999942497
25.4456891473 -3.4376379621 -2.4999941979
25.6122742917 -3.4280785304 -2.4999940941
25.6733299705 -3.4404391202 -2.4999940423
26.1436154358 -3.2483388244 -2.4999938607
26.2449020878 -3.1495334180 -2.4999938607
26.2592038309 -3.1352478880 -2.4999938607
26.2734632523 -3.1209201133 -2.4999938607
26.3018546311 -3.0921383319 -2.4999938607
25.7338710685 -3.6407655631 -2.4999938348
26.2763123237 -3.1523252050 -2.4999938348
26.3895915654 -3.0361211111 -2.4999938348
26.4174792123 -3.0066537598 -2.4999938348
26.4727290556 -2.9472266634 -2.4999938348
26.5272718621 -2.8871499854 -2.4999938348
26.5542757362 -2.8568706785 -2.4999938348
25.3250612017 -3.9761524586 -2.4999938089
25.3752113434 -3.9412997807 -2.4999938089
25.5401083987 -3.8219354983 -2.4999938089
25.6534012231 -3.7355032253 -2.4999938089
26.5992828786 -2.8423606663 -2.4999938089
26.6393210771 -2.7962446329 -2.4999938089
26.7051369085 -2.7186008267 -2.4999938089
26.7311404762 -2.6872721603 -2.4999938089
24.9780737622 -4.2281957016 -2.4999937829
25.0478782244 -4.1857148039 -2.4999937829
25.0825907359 -4.1641653594 -2.4999937829
25.1344189348 -4.1314570672 -2.4999937829
25.2201476861 -4.0759252948 -2.4999937829
26.4944874068 -2.9949585060 -2.4999937829
26.6309043219 -2.8429028287 -2.4999937829
26.7367623268 -2.7183945705 -2.4999937829
26.8269488866 -2.6074211873 -2.4999937829
26.8774461593 -2.5431770042 -2.4999937829
24.8310970851 -4.3417857017 -2.4999937570
24.8667367585 -4.3215160757 -2.4999937570
24.9022558862 -4.3010359483 -2.4999937570
24.9199698567 -4.2907171702 -2.4999937570
26.5261316682 -2.9962896689 -2.4999937570
26.5675387808 -2.9508167500 -2.4999937570
26.9090881065 -2.5417919224 -2.4999937570
26.9588030730 -2.4765804244 -2.4999937570
27.0875077416 -2.3417568045 -2.4999937310
27.1112750814 -2.3081724992 -2.4999937310
25.2254710281 -4.1590970837 -2.4999937051
27.2244415932 -2.1858806106 -2.4999937051
27.2923573644 -2.0823030175 -2.4999937051
24.7032317760 -4.4944451712 -2.4999936792
24.4839360756 -4.6595420280 -2.4999936273
27.5479243799 -1.8004912936 -2.4999936273
24.2662928934 -4.7863138043 -2.4999936014
27.5375788715 -1.8668701225 -2.4999936014
19.9192858310 -3.4635811971 -2.5000112747
22.4243156699 -3.4501804301 -2.5000112747
22.4680134450 -3.4386365883 -2.5000112747
25.9603519741 -0.1798844731 -2.5000112747
19.7816908291 -3.4524885990 -2.5000113237
19.7962865064 -3.4565010982 -2.5000113237
19.8108939896 -3.4604704032 -2.5000113237
19.8401438620 -3.4682792920 -2.5000113237
19.8547859953 -3.4721188075 -2.5000113237
22.4596675790 -3.4658897224 -2.5000113237
22.5326680259 -3.4459101537 -2.5000113237
25.9580172982 -0.2591313824 -2.5000113237
25.9682193890 -0.2306278541 -2.5000113237
19.7021079479 -3.4549803980 -2.5000113727
22.5830833781 -3.4566135584 -2.5000113727
22.6122619142 -3.4480213113 -2.5000113727
25.9597442522 -0.3244366248 -2.5000113727
19.6221545081 -3.4561919567 -2.5000114216
19.6513823711 -3.4651175666 -2.5000114216
19.6806625294 -3.4738700983 -2.5000114216
19.6953218991 -3.4781813640 -2.5000114216
22.6922202340 -3.4488504711 -2.5000114216
22.7213509310 -3.4396126696 -2.5000114216
25.9661057393 -0.3757725558 -2.5000114216
22.8742094673 -3.4136398212 -2.5000114706
22.8385677764 -3.4516522371 -2.5000115196
25.9596507661 -0.5220045167 -2.5000115196
19.4387531756 -3.4725833361 -2.5000115686
23.0211681363 -3.4110233875 -2.5000115686
19.3428510130 -3.4642240967 -2.5000116176
23.0443504266 -3.4279972146 -2.5000116176
25.9551306301 -0.6549758951 -2.5000116176
25.9614237474 -0.6407384832 -2.5000116176
23.1402726283 -3.4159069283 -2.5000116666
23.1547453952 -3.4099842952 -2.5000116666
23.1692005786 -3.4040188749 -2.5000116666
25.9580060983 -0.7075766292 -2.5000116666
19.1941209952 -3.4594515689 -2.5000117156
25.9536779505 -0.7746293554 -2.5000117156
19.1412860850 -3.4643429676 -2.5000117646
19.1705705881 -3.4761134139 -2.5000117646
23.2893136740 -3.4053372433 -2.5000117646
18.7282269666 -3.3031589829 -2.5000118135
18.7849868110 -3.3314252037 -2.5000118135
18.9283147983 -3.3991353847 -2.5000118135
19.2058776292 -3.5159779146 -2.5000118135
25.9632787789 -0.8666659057 -2.5000118135
23.2597207998 -3.4971082178 -2.5000119115
23.4888229422 -3.4202290710 -2.5000119605
25.9410077419 -1.0702223436 -2.5000119605
23.5138013146 -3.4350515698 -2.5000120095
25.9699065692 -1.0673097251 -2.5000120095
25.9683913757 -1.1214983828 -2.5000120585
23.7092515657 -3.3906789182 -2.5000121075
25.9584165595 -1.1901092971 -2.5000121075
23.8185614131 -3.3867816562 -2.5000122055
23.8734676684 -3.3839498733 -2.5000122544
23.9285332627 -3.3805251604 -2.5000123034
23.9405459065 -3.4015020922 -2.5000123524
25.9439774108 -1.5465279895 -2.5000124504
25.9617964179 -1.5180849943 -2.5000124504
24.1917194348 -3.3634361604 -2.5000125484
24.3025313149 -3.3786570384 -2.5000126953
24.3312185408 -3.3598933242 -2.5000126953
25.9334941343 -1.9516942812 -2.5000128913
25.9344097220 -2.1939291291 -2.5000131852
24.9449435831 -3.3953341482 -2.5000134791
25.6122138405 -3.7236645625 -2.5000148508
25.6275861944 -3.7104281336 -2.5000148508
25.4398203847 -3.8978061429 -2.5000148998
25.4715591666 -3.8723047586 -2.5000148998
25.4873718405 -3.8594837614 -2.5000148998
25.5031465183 -3.8466160435 -2.5000148998
25.5188830621 -3.8337017175 -2.5000148998
25.5502411970 -3.8077336939 -2.5000148998
25.5814451475 -3.7815805995 -2.5000148998
26.0872852193 -3.3095738366 -2.5000148998
26.1436057885 -3.2507638124 -2.5000148998
26.2404781777 -3.1462576304 -2.5000148998
26.2813285333 -3.1008594551 -2.5000148998
26.3083375832 -3.0703933739 -2.5000148998
25.7512362443 -3.6660827626 -2.5000149488
25.2915249068 -4.0734145423 -2.5000149978
26.2486232275 -3.2090295656 -2.5000149978
26.2900303280 -3.1635566357 -2.5000149978
26.5555690771 -2.8512346243 -2.5000149978
26.6936023924 -2.6729257687 -2.5000149978
26.7544114722 -2.5904114048 -2.5000149978
26.7664264606 -2.5738011072 -2.5000149978
24.9347908240 -4.3515683413 -2.5000150468
25.0035214379 -4.3063222202 -2.5000150468
25.0376847741 -4.2833949773 -2.5000150468
25.3059872712 -4.0927839846 -2.5000150468
26.7739766170 -2.6046078970 -2.5000150468
26.9268364459 -2.3851865451 -2.5000150468
25.3038902496 -4.1244795326 -2.5000150957
26.7392247975 -2.7329447111 -2.5000151447
26.9088350641 -2.4977326725 -2.5000151447
27.0905564949 -2.2205911631 -2.5000151447
24.9743070433 -4.4123752977 -2.5000151937
26.8081575945 -2.6807730000 -2.5000151937
27.2596868035 -1.9831845302 -2.5000151937
26.9367542773 -2.5423412459 -2.5000152427
24.4596951788 -4.7712555034 -2.5000152917
22.2104684919 -3.4515364687 -2.5000136763
22.2242873592 -3.4476663193 -2.5000136763
22.2380947174 -3.4437553082 -2.5000136763
22.2518904457 -3.4398034695 -2.5000136763
19.5543105639 -3.4615033292 -2.5000137397
22.2724342007 -3.4590194719 -2.5000137397
22.3139201218 -3.4467362672 -2.5000137397
22.4039319925 -3.4440882726 -2.5000138031
22.4177279802 -3.4396458558 -2.5000138031
22.5793026676 -3.4612897211 -2.5000139933
22.7258761992 -3.4323583437 -2.5000140567
22.7623031474 -3.4439939822 -2.5000141201
22.8311092673 -3.4160739389 -2.5000141201
25.9542796293 -0.0931911650 -2.5000146273
25.9575774128 -0.1741096927 -2.5000146906
25.9657477002 -0.1442167379 -2.5000146906
25.9380383980 2.6865325620 -2.5000146906
25.9507521412 -0.2852665581 -2.5000147540
25.9612470320 2.6932923393 -2.5000147540
25.9524527418 2.7231568205 -2.5000147540
25.9434819172 2.7529687490 -2.5000147540
25.9694117606 -0.3071657412 -2.5000148174
25.9527590585 2.8048247052 -2.5000148174
25.9433050539 2.8346370167 -2.5000148174
25.9596586079 -0.4190852335 -2.5000148808
25.9389831485 2.9989366899 -2.5000149442
25.9337040357 3.0138082364 -2.5000149442
25.9544339800 -0.5840425852 -2.5000150076
25.9407123496 3.1346426128 -2.5000150710
25.9554091677 -0.7202907186 -2.5000151344
25.9611321303 -0.7053543077 -2.5000151344
25.9485620921 -0.8037302295 -2.5000151978
25.9545319138 -0.7888137085 -2.5000151978
25.9604575837 -0.7738795929 -2.5000151978
25.9327254784 3.2862858458 -2.5000151978
25.9511179634 -1.1601185308 -2.5000155782
25.9370387335 -1.2450790469 -2.5000156416
25.9365549817 -1.3004418396 -2.5000157050
25.9315604902 -1.4676148510 -2.5000158952
25.9499117981 -1.5352800041 -2.5000160220
25.9169313757 -2.1472270482 -2.5000167827
25.6611611440 -3.7222159695 -2.5000189382
