49.5557499936 -26.2966025920 -2.4939662091
49.5725557130 -26.3073124763 -2.4939662091
49.6062618292 -26.3285828681 -2.4939662091
48.3645323899 -25.3617323374 -2.4939445017
48.4067946850 -25.4043208153 -2.4939445017
48.4351788021 -25.4325040447 -2.4939445017
48.4780663744 -25.4744627885 -2.4939445017
48.4924447709 -25.4883642531 -2.4939445017
48.8649158713 -25.8217479207 -2.4939445017
49.5934218040 -26.3490637997 -2.4939445017
49.6785368096 -26.4015517596 -2.4939445017
49.7471819585 -26.4426321392 -2.4939445017
48.3613941535 -25.3929718225 -2.4939227942
48.1095914436 -25.1606037802 -2.4939010868
48.1365388504 -25.1905496292 -2.4939010868
48.8031123018 -25.8331080126 -2.4939010868
49.9328787615 -26.6034372571 -2.4939010868
47.9721006866 -25.0395273341 -2.4938793793
48.4421151937 -25.5405748550 -2.4938793793
48.9125654683 -25.9541949576 -2.4938793793
49.8858715841 -26.6052643207 -2.4938793793
50.0284056077 -26.6816467011 -2.4938793793
50.1727071768 -26.7546348719 -2.4938793793
50.4187100093 -26.9486470427 -2.4938142569
50.3896653788 -27.0150956901 -2.4937491345
49.0529858521 -21.4659533490 -2.4939104548
49.0643200892 -21.5107896550 -2.4939104548
49.0498229000 -21.5505974983 -2.4938727945
49.0452951565 -21.6245273802 -2.4938351343
49.0485480898 -21.6357710376 -2.4938351343
49.0618919993 -21.6806479650 -2.4938351343
49.0527215076 -21.7326635983 -2.4937974740
49.0562942949 -21.7438848141 -2.4937974740
49.0599002610 -21.7550954118 -2.4937974740
49.0405605911 -21.7737992517 -2.4937598138
49.0576844081 -22.0345088732 -2.4936468330
49.0621500866 -22.0457140871 -2.4936468330
49.0594370400 -22.1651060472 -2.4935715125
49.0552532358 -22.2744914630 -2.4934961920
49.0596517296 -22.3961931301 -2.4934208715
49.0503756094 -22.4852586933 -2.4933455510
49.0691727290 -23.4558018488 -2.4925546857
51.4816707399 -25.9618435096 -2.4912742370
51.5621516650 -25.9814547258 -2.4912742370
54.3644191711 -25.9217488175 -2.4912742370
54.4122036518 -25.9080772152 -2.4912742370
54.4439917544 -25.8987274558 -2.4912742370
51.3631228865 -25.9557083487 -2.4912365768
51.4274202670 -25.9728957300 -2.4912365768
54.5536158632 -25.9156410301 -2.4911989165
51.2534826138 -25.9749013990 -2.4911612563
51.1659966202 -25.9738213400 -2.4911235960
54.7440054284 -25.9028817128 -2.4911235960
51.0460365636 -25.9607746873 -2.4910859358
51.0942980503 -25.9765503323 -2.4910859358
51.1426976364 -25.9918970625 -2.4910859358
54.7839373166 -25.9143157746 -2.4910859358
54.8316393131 -25.8969214768 -2.4910859358
50.9901012252 -25.9674459820 -2.4910482755
54.8718699437 -25.9077136930 -2.4910482755
54.8877678230 -25.9017025477 -2.4910482755
50.9178130755 -25.9678649513 -2.4910106153
54.9441367586 -25.9059082642 -2.4910106153
50.6993852971 -25.9633809771 -2.4908976345
50.7476835637 -25.9822328550 -2.4908976345
55.1305462736 -25.9083054321 -2.4908976345
55.1464447716 -25.9015290728 -2.4908976345
50.6582581078 -25.9730014761 -2.4908599743
50.6743675565 -25.9794546710 -2.4908599743
50.5847264847 -25.9690309001 -2.4908223140
50.5109835654 -25.9640790932 -2.4907846538
55.3029996449 -25.9116072329 -2.4907846538
50.4370423121 -25.9581405147 -2.4907469935
55.3926779669 -25.8965461976 -2.4907469935
50.3950299474 -25.9658162264 -2.4907093332
50.3367532304 -25.9657797374 -2.4906716730
55.4772254439 -25.9094923345 -2.4906716730
55.4931259360 -25.9016904303 -2.4906716730
50.2782847875 -25.9651352432 -2.4906340127
50.3104828151 -25.9802421375 -2.4906340127
55.5674311810 -25.8915711773 -2.4906340127
55.5942781430 -25.9050277600 -2.4905963525
55.6371545525 -25.9101443020 -2.4905586922
50.1017914989 -25.9595200568 -2.4905210320
50.0426187711 -25.9564101842 -2.4904833717
55.7393027206 -25.9108857156 -2.4904833717
55.7985683863 -25.9062037074 -2.4904457115
49.9398387985 -25.9569402226 -2.4904080512
55.5003180905 -26.1665117610 -2.4902950705
56.3630287921 -25.6728345670 -2.4902950705
56.5284697322 -25.5557462521 -2.4902950705
55.2228357708 -26.3150856264 -2.4902574102
55.2911152668 -26.2865779332 -2.4902574102
55.3251273244 -26.2720216131 -2.4902574102
56.5576605205 -25.5642953082 -2.4902574102
56.6021864349 -25.5311739953 -2.4902574102
56.6757374902 -25.4750979132 -2.4902574102
56.7772985120 -25.3947769106 -2.4902574102
49.6882485354 -25.9547556866 -2.4902197499
55.0939383443 -26.3922399275 -2.4902197499
56.8356680715 -25.3783814354 -2.4902197499
49.6439219880 -25.9567833889 -2.4901820897
54.9099526929 -26.4850559344 -2.4901820897
49.5834185973 -25.9488428576 -2.4901444294
54.8114495209 -26.5436965818 -2.4901444294
56.9666720630 -25.3314623775 -2.4901444294
49.5388223420 -25.9500664007 -2.4901067692
54.6575690978 -26.6170098248 -2.4901067692
57.4841036304 -24.8693261371 -2.4901067692
49.4940977862 -25.9509511884 -2.4900691089
54.5193752467 -26.6814579407 -2.4900691089
54.5257146218 -26.7047848819 -2.4900314487
48.9277568404 -25.8298068133 -2.4897301667
48.5608862958 -25.5694513267 -2.4896925064
48.5758111471 -25.5821106924 -2.4896925064
48.6057728689 -25.6072966961 -2.4896925064
48.6358830752 -25.6323049953 -2.4896925064
48.7118012812 -25.6940425573 -2.4896925064
48.7424228495 -25.7184220386 -2.4896925064
49.4169768614 -26.1871859761 -2.4896925064
49.4505036900 -26.2073847710 -2.4896925064
49.5348384420 -26.2570108748 -2.4896925064
49.5517929573 -26.2667861056 -2.4896925064
49.6028289649 -26.2958102741 -2.4896925064
49.6369951985 -26.3149076044 -2.4896925064
49.6712738205 -26.3338024617 -2.4896925064
48.3107611507 -25.3786308471 -2.4896548461
48.5005109138 -25.5494808830 -2.4896548461
48.5602020224 -25.6005684574 -2.4896548461
49.7983866765 -26.4288170789 -2.4896548461
49.8158482726 -26.4378119345 -2.4896548461
48.1803789695 -25.2871665376 -2.4896171859
48.2086026233 -25.3146972128 -2.4896171859
49.9993107898 -26.5551800681 -2.4896171859
48.0380248548 -25.1780293169 -2.4895795256
48.0656053076 -25.2064041169 -2.4895795256
48.0933531526 -25.2346152451 -2.4895795256
47.8581422649 -25.0205690775 -2.4895418654
50.3240733669 -26.7504808221 -2.4895418654
50.3609169612 -26.7653030709 -2.4895418654
50.9855759782 -27.1805396819 -2.4892405834
45.4123381320 -22.2471516920 -2.4881107757
49.0408775731 -22.0417429410 -2.5082915216
49.0613322314 -22.1437158860 -2.5083445468
49.0226507316 -22.1748579061 -2.5084505972
49.0580731855 -22.2465097741 -2.5084505972
55.9402546172 -22.3042653405 -2.5085036224
55.9613613173 -22.2634378100 -2.5085036224
49.0468907182 -22.3299656546 -2.5085566476
49.0523188486 -22.3401739355 -2.5085566476
49.0577771532 -22.3503661143 -2.5085566476
55.9454150480 -22.3461379689 -2.5085566476
55.9562764281 -22.3257241589 -2.5085566476
55.9456274133 -22.5895457401 -2.5088217735
49.0754796959 -22.8863701022 -2.5091399247
55.9443620670 -22.9850603346 -2.5092990003
52.6885256800 -25.9281459606 -2.5118972349
51.2149313551 -25.9510779074 -2.5122684112
51.2310619043 -25.9548568881 -2.5122684112
51.2472035619 -25.9585881351 -2.5122684112
51.2633561866 -25.9622716158 -2.5122684112
51.2956937716 -25.9694951500 -2.5122684112
51.3118784490 -25.9730351402 -2.5122684112
53.8249009703 -25.9417549008 -2.5122684112
53.9052400077 -25.9215707036 -2.5122684112
53.9532970387 -25.9088905938 -2.5122684112
51.1124239042 -25.9508288554 -2.5123214364
51.1608505621 -25.9629322697 -2.5123214364
53.9274040261 -25.9407735359 -2.5123214364
54.0397513155 -25.9100611142 -2.5123214364
51.0256464704 -25.9530375872 -2.5123744616
51.0417836449 -25.9573764981 -2.5123744616
51.1064585760 -25.9742542120 -2.5123744616
51.1388698001 -25.9824057954 -2.5123744616
54.0141950247 -25.9423622682 -2.5123744616
54.1265566031 -25.9098524274 -2.5123744616
50.9385014237 -25.9538667088 -2.5124274868
50.9546414323 -25.9584634070 -2.5124274868
50.9707949680 -25.9630123400 -2.5124274868
50.9869618897 -25.9675134680 -2.5124274868
50.8671493977 -25.9581613644 -2.5124805120
54.2851348926 -25.9105604204 -2.5124805120
54.3728732215 -25.9064144094 -2.5125335372
50.6912044741 -25.9533504225 -2.5125865624
54.4128719282 -25.9180365818 -2.5125865624
50.6350660150 -25.9599542663 -2.5126395876
50.6512253593 -25.9654485547 -2.5126395876
50.6674008860 -25.9708950167 -2.5126395876
54.4370041517 -25.9351263267 -2.5126395876
54.5011781224 -25.9118317719 -2.5126395876
54.5171781958 -25.9058896119 -2.5126395876
50.5463641739 -25.9545237600 -2.5126926128
54.5256275046 -25.9285378271 -2.5126926128
54.5737219349 -25.9103518519 -2.5126926128
50.4574166670 -25.9476588410 -2.5127456380
50.4896819033 -25.9596508398 -2.5127456380
50.5058409861 -25.9655752019 -2.5127456380
50.5220175235 -25.9714517367 -2.5127456380
54.5662915695 -25.9390590888 -2.5127456380
50.4166006975 -25.9580591035 -2.5127986632
54.6554260859 -25.9303781427 -2.5127986632
54.6875156116 -25.9175336104 -2.5127986632
54.7355060107 -25.8979114024 -2.5127986632
54.7607776960 -25.9135827392 -2.5128516884
54.7767818131 -25.9068726291 -2.5128516884
54.7927660105 -25.9001152053 -2.5128516884
54.8182415565 -25.9155336137 -2.5129047136
54.8342511932 -25.9086535066 -2.5129047136
50.1959521109 -25.9474509211 -2.5129577388
54.8919307043 -25.9098384400 -2.5129577388
50.1542143448 -25.9559279263 -2.5130107640
54.8695258492 -25.9460589205 -2.5130107640
50.0056237050 -25.9428291249 -2.5131168144
49.9046036738 -25.9489801915 -2.5132228647
49.7275506119 -25.9425616381 -2.5133819403
55.4035197420 -25.9017259800 -2.5134349655
49.5213654186 -25.9429826947 -2.5135940411
49.4613865667 -25.9374312385 -2.5136470663
55.5943099691 -25.9064526456 -2.5136470663
55.6703174072 -25.8903032488 -2.5137000915
55.7145289041 -25.8922190487 -2.5137531167
49.2683141638 -25.9377195486 -2.5138591671
55.8033490487 -25.8950435646 -2.5138591671
55.5575643048 -26.1482189648 -2.5140712679
56.1718420482 -25.7696423467 -2.5140712679
56.2029540671 -25.7478290014 -2.5140712679
56.2339364864 -25.7258319688 -2.5140712679
56.2955081929 -25.6812899276 -2.5140712679
56.3260953249 -25.6587464782 -2.5140712679
48.6209458054 -25.6486477761 -2.5141242931
48.6667888867 -25.6828735603 -2.5141242931
48.6821371881 -25.6941915807 -2.5141242931
48.7283820355 -25.7278725323 -2.5141242931
48.8374356458 -25.8048557489 -2.5141242931
48.9004601982 -25.8478270097 -2.5141242931
49.5061565410 -26.2090705412 -2.5141242931
49.5569382015 -26.2354185080 -2.5141242931
49.5739171361 -26.2441008882 -2.5141242931
55.4848831593 -26.2142434453 -2.5141242931
55.5186376105 -26.1964865982 -2.5141242931
56.4014947049 -25.6323633201 -2.5141242931
56.4468868835 -25.5975417388 -2.5141242931
56.5069256926 -25.5504889506 -2.5141242931
56.5367352619 -25.5266969735 -2.5141242931
56.6106388015 -25.4664490994 -2.5141242931
48.2640690138 -25.3912557219 -2.5141773183
48.2930807696 -25.4162340399 -2.5141773183
48.3515450775 -25.4656735664 -2.5141773183
49.5800116236 -26.2743038897 -2.5141773183
49.6657335110 -26.3168668714 -2.5141773183
49.7520755448 -26.3581573376 -2.5141773183
55.3251198936 -26.3217634765 -2.5141773183
56.6407792945 -25.4728455641 -2.5141773183
56.7428560370 -25.3860508107 -2.5141773183
56.8289042180 -25.3099864441 -2.5141773183
48.3213201187 -25.4718827130 -2.5142303435
49.8817189628 -26.4436737802 -2.5142303435
54.9674339344 -26.5082554506 -2.5142303435
55.0029369157 -26.4935548613 -2.5142303435
55.0206556357 -26.4861258628 -2.5142303435
56.9581000360 -25.2237952705 -2.5142303435
57.0549519590 -25.1304835255 -2.5142303435
47.9485146426 -25.1668119892 -2.5142833687
48.1027519427 -25.3124359165 -2.5142833687
50.1751777906 -26.5903815188 -2.5142833687
54.8152030773 -26.5943961540 -2.5142833687
57.1536694109 -25.0658501987 -2.5142833687
47.7950936234 -25.0469323635 -2.5143363939
47.8085645098 -25.0608317987 -2.5143363939
50.3118590165 -26.6664806314 -2.5143363939
54.7330611422 -26.6506877668 -2.5143363939
57.3825140620 -24.8566730493 -2.5143363939
47.6710428398 -24.9506962237 -2.5143894190
47.8183958540 -25.1054619079 -2.5143894190
47.9566590340 -25.2419309935 -2.5143894190
50.4323957740 -26.7334186200 -2.5143894190
54.6313914802 -26.7122086732 -2.5143894190
54.3861466406 -26.8414489048 -2.5144954694
54.1849702042 -26.9228235050 -2.5145484946
53.9858573935 -27.0213663146 -2.5146545450
53.4616336277 -27.2654983672 -2.5149726962
49.0590229707 -22.6724112633 -2.5072007484
55.9370696504 -21.6870821248 -2.5075701295
55.9425557514 -21.7503287149 -2.5076163021
55.9461483325 -21.7391138282 -2.5076163021
55.9497077223 -21.7278883630 -2.5076163021
55.9601864332 -21.6941494797 -2.5076163021
55.9431796402 -21.8252061006 -2.5076624747
55.9582366325 -21.7802708521 -2.5076624747
55.9463689551 -21.8892726345 -2.5077086474
55.9503725408 -21.8780458597 -2.5077086474
55.9442598540 -21.9649358844 -2.5077548200
55.9526814831 -21.9424816945 -2.5077548200
55.9361673476 -22.0521470002 -2.5078009926
55.9451050886 -22.0297391619 -2.5078009926
55.9402128371 -22.1060888688 -2.5078471653
55.9530860385 -22.1378850915 -2.5078933379
55.9374650961 -22.2921382490 -2.5079856832
55.9381449126 -22.3472533175 -2.5080318558
55.9435033239 -22.3360488670 -2.5080318558
55.9435694493 -22.3914252884 -2.5080780285
55.9490585056 -22.3802045979 -2.5080780285
55.9420982994 -22.6041522905 -2.5082627190
55.9446450421 -22.6494889599 -2.5083088917
55.9530710196 -22.6838020038 -2.5083550643
55.9537946870 -23.0079599696 -2.5086782728
55.9443036466 -23.0661967836 -2.5087244454
55.9477734251 -23.3545924511 -2.5090476539
50.7069355462 -25.9407995388 -2.5107098688
50.7229472060 -25.9450542285 -2.5107098688
50.7389713818 -25.9492615342 -2.5107098688
50.7550079336 -25.9534214190 -2.5107098688
53.5097413179 -25.9639983124 -2.5107098688
53.5258093404 -25.9599616942 -2.5107098688
53.5579092108 -25.9517459501 -2.5107098688
53.5739407778 -25.9475668961 -2.5107098688
50.6204827008 -25.9420748103 -2.5107560414
50.6364985114 -25.9465852375 -2.5107560414
50.6685698099 -25.9554638607 -2.5107560414
50.6846250173 -25.9598319790 -2.5107560414
50.7328671854 -25.9726511031 -2.5107560414
53.6122368588 -25.9624121726 -2.5107560414
53.6282997407 -25.9580723610 -2.5107560414
53.7244010477 -25.9310373931 -2.5107560414
50.5496930577 -25.9467385142 -2.5108022141
50.5978243421 -25.9607555994 -2.5108022141
53.7632159503 -25.9448175911 -2.5108022141
53.7792261237 -25.9400312330 -2.5108022141
53.8431231283 -25.9204128252 -2.5108022141
50.4785794077 -25.9504814596 -2.5108483867
50.5428311296 -25.9699171055 -2.5108483867
53.8983270877 -25.9282044544 -2.5108483867
50.4071536674 -25.9532966433 -2.5108945593
50.4553487645 -25.9685784273 -2.5108945593
53.9697834423 -25.9300888721 -2.5108945593
53.9857491416 -25.9246915144 -2.5108945593
50.3033641016 -25.9443276181 -2.5109407320
53.9292955244 -25.9689759941 -2.5109407320
54.0574958326 -25.9254252547 -2.5109407320
54.0734473523 -25.9197684483 -2.5109407320
50.2313461128 -25.9448408119 -2.5109869046
50.2473718083 -25.9505023635 -2.5109869046
53.9367995239 -25.9919547482 -2.5109869046
54.0495058334 -25.9538533002 -2.5109869046
54.0975624398 -25.9368112301 -2.5109869046
54.1295153377 -25.9252132078 -2.5109869046
50.1750828308 -25.9502799440 -2.5110330773
54.1858305385 -25.9300854979 -2.5110330773
54.2017952825 -25.9240490339 -2.5110330773
54.2177420998 -25.9179653697 -2.5110330773
50.1025334358 -25.9491025301 -2.5110792499
50.1185723018 -25.9551451142 -2.5110792499
50.1507033081 -25.9670878130 -2.5110792499
54.2263917075 -25.9405378626 -2.5110792499
54.2423871941 -25.9343813656 -2.5110792499
54.2583643986 -25.9281775779 -2.5110792499
54.2743231813 -25.9219265539 -2.5110792499
50.0137218634 -25.9406586002 -2.5111254225
50.0297361393 -25.9469639420 -2.5111254225
49.9567035670 -25.9438581625 -2.5111715952
49.9727275574 -25.9503321606 -2.5111715952
54.3721985347 -25.9346878070 -2.5111715952
54.3881760778 -25.9281000125 -2.5111715952
54.4041340631 -25.9214649825 -2.5111715952
54.4200723509 -25.9147827749 -2.5111715952
49.9154926644 -25.9531133786 -2.5112177678
54.4454360754 -25.9303047393 -2.5112177678
49.8099836334 -25.9347217862 -2.5112639404
49.8259812386 -25.9416298485 -2.5112639404
49.8580374048 -25.9553038508 -2.5112639404
54.5188792529 -25.9249420793 -2.5112639404
54.5507545551 -25.9108516130 -2.5112639404
49.7523021072 -25.9358059784 -2.5113101131
54.6084440744 -25.9113549024 -2.5113101131
49.6944175640 -25.9362902881 -2.5113562857
49.7104203148 -25.9435402088 -2.5113562857
49.7746436804 -25.9720655559 -2.5113562857
49.6363361237 -25.9361712043 -2.5114024584
49.6523387763 -25.9435929410 -2.5114024584
54.7084807509 -25.9181348484 -2.5114024584
49.5356043249 -25.9418761710 -2.5114948036
54.8411100346 -25.9073149142 -2.5114948036
54.8838116003 -25.9128759947 -2.5115409763
49.3751674107 -25.9429369404 -2.5116333215
55.0128642306 -25.9276456088 -2.5116794942
49.2292469529 -25.9480726487 -2.5117718395
55.2190298818 -25.9247672592 -2.5118641847
55.2508918959 -25.9065344697 -2.5118641847
48.7668787084 -25.7583749613 -2.5119103574
48.8134085767 -25.7882209412 -2.5119103574
48.8289771663 -25.7980776937 -2.5119103574
48.8445748459 -25.8078883484 -2.5119103574
48.9072537301 -25.8466682778 -2.5119103574
48.9387641510 -25.8657794426 -2.5119103574
48.4344640760 -25.5574935972 -2.5119565300
48.4493517905 -25.5684723456 -2.5119565300
48.4642719170 -25.5794070054 -2.5119565300
48.5393541496 -25.6334156401 -2.5119565300
48.5544659963 -25.6440837725 -2.5119565300
48.6304949575 -25.6967513273 -2.5119565300
48.7072945759 -25.7482886234 -2.5119565300
48.7382264494 -25.7685845355 -2.5119565300
48.8631384142 -25.8479275904 -2.5119565300
49.3804968831 -26.1351001953 -2.5119565300
49.5811634898 -26.2299751501 -2.5119565300
49.5980355091 -26.2375588119 -2.5119565300
49.6487851354 -26.2600098718 -2.5119565300
55.3389195738 -25.9111065763 -2.5119565300
48.1999021537 -25.4063650080 -2.5120027026
48.3311074171 -25.5098762844 -2.5120027026
48.3606353470 -25.5324020187 -2.5120027026
48.3754491592 -25.5435992756 -2.5120027026
48.4650217070 -25.6098581250 -2.5120027026
48.4951388194 -25.6315898275 -2.5120027026
48.6015501079 -25.7062396649 -2.5120027026
49.7587403195 -26.3329830705 -2.5120027026
49.7759162778 -26.3400409771 -2.5120027026
49.7931130396 -26.3470480433 -2.5120027026
49.8275683712 -26.3609094094 -2.5120027026
49.8621051083 -26.3745666837 -2.5120027026
49.8794036263 -26.3813186366 -2.5120027026
47.9575303536 -25.2318956263 -2.5120488753
49.9228621868 -26.4238752774 -2.5120488753
49.9927542278 -26.4498532872 -2.5120488753
47.9135860493 -25.2249304302 -2.5120950479
50.1256879545 -26.5222169784 -2.5120950479
47.7598595081 -25.1149317496 -2.5121412206
47.8557306047 -25.2049169109 -2.5121412206
55.5772211433 -25.9065591360 -2.5121873932
50.3551296932 -26.6706207782 -2.5122335658
50.4461445702 -26.6965435344 -2.5122335658
55.6829348148 -25.8957184011 -2.5122797385
50.7105304250 -26.8133164767 -2.5123259111
55.7280214808 -25.8948573905 -2.5123259111
55.6114695297 -26.1418239984 -2.5126029469
56.1574421120 -25.7662257054 -2.5126029469
56.1883497172 -25.7424437288 -2.5126029469
56.2191160794 -25.7184793086 -2.5126029469
56.2344459575 -25.7064289441 -2.5126029469
56.2954069911 -25.6577755881 -2.5126029469
56.3407476335 -25.6208140643 -2.5126029469
55.3366478076 -26.3297593980 -2.5126491196
56.2494128258 -25.7254111991 -2.5126491196
56.3862586081 -25.6145272377 -2.5126491196
56.4012802459 -25.6019828902 -2.5126491196
56.5053835137 -25.5129359622 -2.5126491196
56.5931312868 -25.4349081102 -2.5126491196
55.1221299294 -26.4694866213 -2.5126952922
55.1396862229 -26.4606780542 -2.5126952922
55.1572163821 -26.4518175910 -2.5126952922
55.1921976848 -26.4339412867 -2.5126952922
55.2096485221 -26.4249256020 -2.5126952922
55.3826607642 -26.3319449154 -2.5126952922
56.8233238702 -25.2503173009 -2.5126952922
54.9732017141 -26.5683178830 -2.5127414648
55.0088754922 -26.5515282323 -2.5127414648
55.0266749751 -26.5430543334 -2.5127414648
56.3562949208 -25.7017762457 -2.5127414648
56.8960506166 -25.2117091721 -2.5127414648
56.9374090172 -25.1694348385 -2.5127414648
56.9511115797 -25.1552620359 -2.5127414648
56.9647721566 -25.1410487606 -2.5127414648
56.9919668754 -25.1125012899 -2.5127414648
54.8029540390 -26.6712793837 -2.5127876375
54.9475285067 -26.6068583698 -2.5127876375
54.6475205865 -26.7620825436 -2.5128338101
54.7027262250 -26.7397016011 -2.5128338101
54.7394187005 -26.7245091747 -2.5128338101
54.7942872777 -26.7013141676 -2.5128338101
57.2658083905 -24.8798053184 -2.5128338101
54.4411380397 -26.8921747652 -2.5129261554
57.8240554082 -24.2993644552 -2.5130185007
53.9775862695 -27.1657041259 -2.5131570186
52.2848065269 -22.3639169372 -2.4961934210
52.3689858845 -22.3644708809 -2.4961422286
52.4075612974 -22.3773012875 -2.4960910361
52.4047287425 -22.4037239002 -2.4960398437
52.4676503764 -22.3817229571 -2.4960398437
55.9438621718 -21.3896688817 -2.4911253677
55.9609103278 -21.2917860709 -2.4911253677
55.9628783335 -21.2795231550 -2.4911253677
55.9721737609 -21.2181242025 -2.4911253677
55.9773147563 -21.1812212020 -2.4911253677
55.9402559990 -21.5287431727 -2.4910741753
55.9429250571 -21.5165403192 -2.4910741753
55.9481548204 -21.4921111926 -2.4910741753
55.9507154799 -21.4798851333 -2.4910741753
55.9557282425 -21.4554105575 -2.4910741753
55.9581803018 -21.4431622552 -2.4910741753
55.9653189347 -21.4063745772 -2.4910741753
55.9410838268 -21.6318280747 -2.4910229828
55.9440578251 -21.6196223213 -2.4910229828
55.9469957035 -21.6074078237 -2.4910229828
55.9527629982 -21.5829530235 -2.4910229828
55.9555923641 -21.5707129349 -2.4910229828
55.9583855093 -21.5584645301 -2.4910229828
55.9959203283 -21.3738135614 -2.4910229828
55.9393292887 -21.7354576401 -2.4909717904
55.9705067348 -21.6130260146 -2.4909717904
55.9659629897 -21.7294986993 -2.4909205979
55.9756423915 -21.6926306787 -2.4909205979
55.9395590899 -21.9075513592 -2.4908694054
55.9433487341 -21.8953489099 -2.4908694054
55.9508196489 -21.8709106469 -2.4908694054
55.9430359443 -21.9759366191 -2.4908182130
55.9470278693 -21.9637235854 -2.4908182130
55.9509836485 -21.9514987963 -2.4908182130
55.9587866312 -21.9270143799 -2.4908182130
55.9660015527 -21.9834807222 -2.4907670205
55.9421653784 -22.1260482014 -2.4907158281
55.9466013644 -22.1138370862 -2.4907158281
55.9682383978 -22.0525876160 -2.4907158281
55.9599073699 -22.2164124670 -2.4906134432
55.9433252298 -22.3232329831 -2.4905622507
55.9451221403 -22.3814286415 -2.4905110582
55.9461165501 -22.4399039157 -2.4904598658
55.9621011812 -22.4031840463 -2.4904598658
55.9463021095 -22.4986479260 -2.4904086733
55.9518402948 -22.4864229433 -2.4904086733
55.9628080535 -22.4619240966 -2.4904086733
55.9442220086 -22.6168980831 -2.4903062884
55.9413030892 -22.7838180606 -2.4901527110
55.9562590673 -22.8073017411 -2.4901015186
55.9579611698 -22.8554342578 -2.4900503261
55.9528557684 -22.9645446957 -2.4899479412
55.9597721320 -22.9522982876 -2.4899479412
55.9666522381 -22.9400314732 -2.4899479412
55.9594361623 -23.0499232227 -2.4898455563
55.9491776020 -23.3847201724 -2.4894872091
55.9552767745 -23.5881427607 -2.4892312468
55.9601268592 -23.7044296621 -2.4890776694
55.9526461246 -23.8340595888 -2.4889240921
50.3259232897 -25.9436105207 -2.4883097826
50.3574433940 -25.9523359819 -2.4883097826
50.3732226669 -25.9566287427 -2.4883097826
50.3890145694 -25.9608748068 -2.4883097826
50.2404921647 -25.9441610514 -2.4882585901
50.2562477663 -25.9487998109 -2.4882585901
53.3990074565 -25.9422200165 -2.4882585901
53.4304655500 -25.9327641040 -2.4882585901
53.4461734799 -25.9279663951 -2.4882585901
53.4618671485 -25.9231222403 -2.4882585901
50.1547201705 -25.9433439423 -2.4882073977
50.2178202812 -25.9626340019 -2.4882073977
53.5005113171 -25.9363390740 -2.4882073977
53.5319328405 -25.9262827335 -2.4882073977
50.0528969993 -25.9359555177 -2.4881562052
50.0843765924 -25.9462964281 -2.4881562052
50.1001391940 -25.9513969963 -2.4881562052
53.5865923949 -25.9337839195 -2.4881562052
53.6023026585 -25.9285243548 -2.4881562052
49.9979783847 -25.9429701346 -2.4881050127
50.0295004398 -25.9536358391 -2.4881050127
50.0610850451 -25.9641148620 -2.4881050127
53.6729646294 -25.9298403621 -2.4881050127
49.9113013533 -25.9382482484 -2.4880538203
49.9270409041 -25.9438608397 -2.4880538203
49.9427969892 -25.9494268460 -2.4880538203
53.7124581113 -25.9415345483 -2.4880538203
53.7596057083 -25.9244992552 -2.4880538203
49.8400897619 -25.9379916027 -2.4880026278
49.9031485672 -25.9610048901 -2.4880026278
53.7205715365 -25.9643052530 -2.4880026278
53.7836700400 -25.9414010352 -2.4880026278
53.8151165559 -25.9296693440 -2.4880026278
49.8001081875 -25.9488139149 -2.4879514354
49.7126303128 -25.9408875207 -2.4879002429
49.7441450405 -25.9532414767 -2.4879002429
53.8795882493 -25.9568167848 -2.4879002429
49.6406686777 -25.9379939401 -2.4878490504
49.6564086603 -25.9444071130 -2.4878490504
53.9673397739 -25.9481341396 -2.4878490504
53.9830908221 -25.9417481924 -2.4878490504
49.5999595616 -25.9473460982 -2.4877978580
49.5432889094 -25.9497007231 -2.4877466655
49.5590639490 -25.9564019116 -2.4877466655
54.1433971188 -25.9264616160 -2.4877466655
49.4549029252 -25.9375884778 -2.4876954731
49.4864026454 -25.9514672933 -2.4876954731
54.1688569979 -25.9416639390 -2.4876954731
49.3978010871 -25.9384255397 -2.4876442806
49.4135434092 -25.9455571569 -2.4876442806
49.3562424737 -25.9459672690 -2.4875930882
49.3720072874 -25.9532217911 -2.4875930882
49.2830033359 -25.9383068115 -2.4875418957
49.2987458091 -25.9457780217 -2.4875418957
49.3145103145 -25.9532026302 -2.4875418957
54.5300720047 -25.9302641347 -2.4873883183
48.9263164034 -25.8638802890 -2.4873371259
54.5882782474 -25.9273999766 -2.4873371259
48.3860752456 -25.5569485981 -2.4872859334
48.5038511663 -25.6367408600 -2.4872859334
48.6234822541 -25.7137238152 -2.4872859334
48.6385632558 -25.7231469907 -2.4872859334
48.7296286290 -25.7787454602 -2.4872859334
48.8062604935 -25.8238369251 -2.4872859334
48.8990865155 -25.8764432142 -2.4872859334
49.5070954730 -26.1705265794 -2.4872859334
48.2415591590 -25.4833565101 -2.4872347410
48.2848561194 -25.5148904186 -2.4872347410
48.3284312205 -25.5460388492 -2.4872347410
48.3576341167 -25.5665891024 -2.4872347410
48.5054440727 -25.6667291875 -2.4872347410
48.5804436954 -25.7151486814 -2.4872347410
49.7305126033 -26.2840657642 -2.4872347410
49.8820221041 -26.3375881231 -2.4872347410
54.6737665384 -25.9368165143 -2.4872347410
54.6894810161 -25.9283408786 -2.4872347410
47.9863481242 -25.3162368437 -2.4871835485
48.3732226514 -25.6068576911 -2.4871835485
50.0106480162 -26.4048374731 -2.4871835485
47.8197192863 -25.2073655125 -2.4871323560
48.0130601732 -25.3689091991 -2.4871323560
50.1586864511 -26.4741179440 -2.4871323560
50.1760101190 -26.4789963808 -2.4871323560
54.7913129625 -25.9274398263 -2.4871323560
47.6166115237 -25.0555075532 -2.4870811636
54.8346034993 -25.9307627106 -2.4870811636
50.2680406743 -26.5539682363 -2.4870299711
54.9653238304 -25.9387618040 -2.4869275862
55.1858768502 -25.9454360055 -2.4866716239
55.2173226973 -25.9254083173 -2.4866716239
55.7429108756 -25.9149216046 -2.4860573144
55.7886802535 -25.9109297033 -2.4860061220
55.8188842090 -25.9184438986 -2.4859549295
56.1419165131 -25.7533732079 -2.4858013521
55.3678688588 -26.3448681132 -2.4857501597
55.3847873899 -26.3343374118 -2.4857501597
55.4016746953 -26.3237567084 -2.4857501597
55.4185306271 -26.3131260956 -2.4857501597
55.4353550380 -26.3024456664 -2.4857501597
55.4521477805 -26.2917155144 -2.4857501597
55.4689087079 -26.2809357333 -2.4857501597
55.4856376734 -26.2701064175 -2.4857501597
56.2332108477 -25.7070894365 -2.4857501597
56.2632282264 -25.6808695401 -2.4857501597
56.3523422807 -25.6011507491 -2.4857501597
56.3817308056 -25.5742278852 -2.4857501597
56.3963652075 -25.5607013687 -2.4857501597
56.4689334992 -25.4924226865 -2.4857501597
56.4976767118 -25.4648119327 -2.4857501597
55.1570983976 -26.4981916055 -2.4856989672
55.1918150362 -26.4783245062 -2.4856989672
55.2091291258 -26.4683140199 -2.4856989672
55.2436680880 -26.4481396122 -2.4856989672
55.2780870871 -26.4277612135 -2.4856989672
55.3294880207 -26.3968126946 -2.4856989672
56.3833852503 -25.6055352784 -2.4856989672
56.5858684470 -25.4121781892 -2.4856989672
56.6422333384 -25.3554090995 -2.4856989672
56.6701628996 -25.3267754437 -2.4856989672
55.0285183343 -26.5968883673 -2.4856477748
55.0990102908 -26.5584636307 -2.4856477748
55.1165618525 -26.5487273270 -2.4856477748
56.7842709435 -25.2417315465 -2.4856477748
56.8788947548 -25.1378785890 -2.4856477748
54.8791549944 -26.7018662578 -2.4855965823
56.9634286100 -25.0783354316 -2.4855965823
54.8357453198 -26.7504916797 -2.4855453899
57.1498848713 -24.8922668643 -2.4855453899
57.2124843354 -24.8129164508 -2.4855453899
54.7734229940 -26.8075981292 -2.4854941974
54.9551319623 -26.7174320231 -2.4854941974
57.3296165653 -24.6984306457 -2.4854941974
57.3731659667 -24.6800017843 -2.4854430049
57.5337569351 -24.4937915132 -2.4853918125
57.5679061474 -24.4429013468 -2.4853918125
55.9389945155 -20.8897531856 -2.4971513790
55.9399027320 -20.8503589577 -2.4971513790
55.9404613111 -20.8109582213 -2.4971513790
55.9395176777 -20.6664833190 -2.4971513790
55.9506913192 -22.1425810387 -2.4970125758
55.9442128097 -22.2420437772 -2.4969971532
55.9583102313 -22.2760562716 -2.4969817306
55.9647723071 -22.4721980896 -2.4969354629
55.9515359735 -22.6352435191 -2.4969046177
55.9570409783 -22.6220682874 -2.4969046177
55.9679339437 -22.5956692579 -2.4969046177
55.9502237891 -22.7598018820 -2.4968737725
55.9677271966 -22.7202343607 -2.4968737725
55.9538778736 -23.1371933315 -2.4967658144
55.9467339433 -23.2013283305 -2.4967503918
50.1013906222 -25.9406348926 -2.4965653208
53.0126819440 -25.9087006636 -2.4965653208
50.1258468585 -25.9721933303 -2.4965498982
53.0347733303 -25.9273750607 -2.4965498982
53.0957173866 -25.9088592542 -2.4965498982
49.9350034670 -25.9432658773 -2.4965344757
53.1486476454 -25.9175225289 -2.4965344757
53.2323430058 -25.9154931874 -2.4965190531
49.8132228510 -25.9557178037 -2.4965036305
53.3011112302 -25.9174588272 -2.4965036305
53.3163372183 -25.9121096701 -2.4965036305
49.6982122743 -25.9424978906 -2.4964882079
49.6442071783 -25.9490567875 -2.4964727853
53.5090953249 -25.9178707721 -2.4964573627
49.5354294247 -25.9605122173 -2.4964419401
53.6245506637 -25.8975105085 -2.4964419401
49.4102862713 -25.9635640229 -2.4964110950
53.8301986708 -25.9137750778 -2.4963802498
49.1824355760 -25.9455502628 -2.4963648272
53.9315236990 -25.8934570675 -2.4963648272
48.6943018460 -25.7536508132 -2.4963339821
48.8130711151 -25.8186577827 -2.4963339821
48.8280244689 -25.8265854923 -2.4963339821
48.9031394061 -25.8655586251 -2.4963339821
49.6589827200 -26.2101639855 -2.4963185595
48.2784414270 -25.5539678231 -2.4963031369
48.1801488065 -25.5158387128 -2.4962877143
49.9382155798 -26.3470136913 -2.4962877143
50.3451641654 -26.4945851851 -2.4962568691
54.2509809956 -25.9219806177 -2.4962568691
54.6213998758 -25.9338113289 -2.4961334884
54.7077959280 -25.9376036950 -2.4961026433
56.1296693459 -25.7612282779 -2.4956399657
56.2030189434 -25.6922144094 -2.4956399657
56.2609586732 -25.6362269116 -2.4956399657
55.3735410865 -26.3974366848 -2.4956245431
55.5871229254 -26.2443665952 -2.4956245431
56.4342855440 -25.4954950421 -2.4956245431
56.4482495779 -25.4808792350 -2.4956245431
56.5447786955 -25.3774209559 -2.4956245431
55.1155865273 -26.5949209034 -2.4956091206
55.2524649473 -26.5077436962 -2.4956091206
56.6439289389 -25.3031551957 -2.4956091206
56.7367361838 -25.1956833177 -2.4956091206
54.9889373540 -26.6996716712 -2.4955936980
54.8771832535 -26.7917177308 -2.4955782754
56.6666569096 -25.3504330221 -2.4955782754
56.9787255648 -24.9724153867 -2.4955782754
57.1322669724 -24.8060446218 -2.4955628528
57.1678830891 -24.7559065522 -2.4955628528
57.1757881064 -24.7866241929 -2.4955474302
53.3590237505 -27.7695222116 -2.4953623592
55.9600739027 -22.2812975683 -2.5026759084
55.9639391661 -22.2672547069 -2.5026759084
55.9465389388 -22.4142186563 -2.5026891150
55.9591901539 -22.3721709579 -2.5026891150
51.1516803896 -25.9392513689 -2.5027023216
51.1810951963 -25.9395383239 -2.5027023216
51.2105111858 -25.9396512461 -2.5027023216
51.2987559553 -25.9389458061 -2.5027023216
49.9166247936 -25.9422450295 -2.5027947678
49.9313462444 -25.9460637653 -2.5027947678
49.9755774735 -25.9572584487 -2.5027947678
52.4896628496 -25.9483166142 -2.5027947678
52.5043910031 -25.9445238116 -2.5027947678
53.6352890966 -25.5034805126 -2.5027947678
55.9615642158 -22.9427965725 -2.5027947678
50.0142877276 -25.9915711542 -2.5028079744
52.5547776556 -25.9562298266 -2.5028079744
52.5989957957 -25.9441426276 -2.5028079744
49.7859610707 -25.9566081134 -2.5028211810
52.5906767790 -25.9715233834 -2.5028211810
53.9375784228 -25.3856259973 -2.5028211810
49.7200989009 -25.9625093452 -2.5028343876
49.5801182237 -25.9439126499 -2.5028475941
52.9143596662 -25.9221902096 -2.5028475941
52.9663072450 -25.9297080452 -2.5028608007
55.9382785957 -23.2869414582 -2.5028608007
53.0478884622 -25.9259344216 -2.5028740073
55.9530637681 -23.3116225046 -2.5028740073
53.1297393723 -25.9208281408 -2.5028872139
49.2442896467 -25.9509394249 -2.5029136271
48.7525815312 -25.8358252695 -2.5029664535
53.7560183659 -25.9041574197 -2.5030192799
53.7963705050 -25.9104636311 -2.5030324865
54.0179444263 -25.8997954179 -2.5030853129
54.0470756338 -25.8831252828 -2.5030853129
56.9073826382 -19.6533870323 -2.5031777591
55.9236618053 -24.6263410758 -2.5032437920
54.7666223078 -25.8774620801 -2.5032966184
55.6337133555 -26.2116284275 -2.5037324361
56.1379240389 -25.7414378942 -2.5037324361
56.1940651469 -25.6828520682 -2.5037324361
56.2079917999 -25.6681021351 -2.5037324361
56.2495091099 -25.6236060559 -2.5037324361
55.3629249223 -26.4586636281 -2.5037456427
55.3791502028 -26.4463689637 -2.5037456427
55.4916989122 -26.3589699716 -2.5037456427
56.1975975012 -25.7142339160 -2.5037456427
56.2255927170 -25.6846714690 -2.5037456427
56.4695415004 -25.4113054839 -2.5037456427
55.2126930497 -26.5986605522 -2.5037588493
55.3937778517 -26.4656138850 -2.5037588493
55.6178257240 -26.2878820985 -2.5037588493
56.5273652070 -25.3799430836 -2.5037588493
55.5056654956 -26.4095625096 -2.5037720559
55.3023786887 -26.6534196387 -2.5038116757
54.2190063601 -27.3999394317 -2.5038645020
54.6425974033 -27.2121428274 -2.5038777086
57.7123402485 -23.9460757544 -2.5038909152
52.3297345555 -25.9459263993 -2.5006065341
49.5498008174 -25.9543265367 -2.5006094416
49.5638291561 -25.9585021991 -2.5006094416
49.6341527552 -25.9787570434 -2.5006094416
52.3645261675 -25.9609800487 -2.5006094416
52.3925852378 -25.9526368799 -2.5006094416
52.4698123821 -25.9540984795 -2.5006123492
52.4838272698 -25.9496362206 -2.5006123492
55.9392273330 -21.3215541064 -2.5006123492
55.9399842358 -21.2774363636 -2.5006123492
55.9401495277 -21.2627291711 -2.5006123492
55.9403495886 -21.2333136409 -2.5006123492
55.9403756139 -21.2038974420 -2.5006123492
55.9402276026 -21.1744816039 -2.5006123492
55.9390962134 -21.1009503444 -2.5006123492
53.0846881020 -25.9261619909 -2.5006356099
55.9424246071 -22.6070961330 -2.5006356099
55.9529830895 -19.8595876726 -2.5006356099
55.9489540717 -19.8448482309 -2.5006356099
55.9487938864 -22.6726472971 -2.5006385175
55.9470566707 -19.7498467362 -2.5006385175
53.1606222864 -25.9446555210 -2.5006414251
53.2025160385 -25.9250142879 -2.5006414251
55.9497740022 -22.7532858698 -2.5006414251
55.9543050810 -22.7385432599 -2.5006414251
55.9569945141 -19.6986948729 -2.5006414251
55.9524895287 -19.6839442686 -2.5006414251
55.9494532676 -22.8342709334 -2.5006443326
55.9542239163 -22.8195289180 -2.5006443326
55.9846057994 -19.7065006594 -2.5006443326
55.9475239240 -19.5882224302 -2.5006443326
55.9426921826 -19.5735003250 -2.5006443326
55.9578004277 -22.8860917256 -2.5006472402
55.9627243351 -22.8713247910 -2.5006472402
55.9607509350 -19.5511528231 -2.5006472402
55.9558094771 -19.5363917522 -2.5006472402
55.9508243749 -19.5216453636 -2.5006472402
55.9604966050 -22.9529628603 -2.5006501478
55.9480166589 -19.4400251831 -2.5006501478
55.9460824482 -23.0643779788 -2.5006530554
55.9438795711 -19.3581195544 -2.5006530554
53.4797986619 -25.9206675197 -2.5006559630
55.9349666501 -23.1612545571 -2.5006559630
55.9463991155 -23.1318364632 -2.5006559630
55.9882401610 -19.4089416506 -2.5006559630
55.9609250748 -19.2671670769 -2.5006588706
53.5725230260 -25.9253198536 -2.5006617781
55.9443183721 -23.2675374502 -2.5006617781
55.9658917549 -19.2139552201 -2.5006617781
55.9356109909 -23.3504592637 -2.5006646857
55.9450348385 -23.3894912244 -2.5006675933
55.9514479485 -23.3747598502 -2.5006675933
53.7337726014 -25.9168381995 -2.5006705009
53.7739230042 -25.9211592415 -2.5006734085
55.9370975352 -23.5814427960 -2.5006763161
53.8685981982 -25.9203073273 -2.5006792237
55.9375705704 -23.6908210729 -2.5006821312
54.1008171415 -25.9149912485 -2.5006937616
55.9447000488 -23.9380728189 -2.5006966692
55.9291522550 -24.0646138648 -2.5007024843
54.3221184719 -25.8793672719 -2.5007053919
55.9134092394 -24.2334524546 -2.5007112071
54.6454902056 -25.8778679978 -2.5007286526
55.6600134618 -26.2155997256 -2.5008391408
55.7334728092 -26.1456615251 -2.5008391408
56.1782631514 -25.6731830746 -2.5008391408
56.1914308145 -25.6577517767 -2.5008391408
56.2306591078 -25.6112251160 -2.5008391408
55.4183034465 -26.4635550050 -2.5008420484
55.4492824729 -26.4371358684 -2.5008420484
55.5260414760 -26.3702902283 -2.5008420484
56.3266912701 -25.5323046228 -2.5008420484
56.4643409542 -25.3556897041 -2.5008420484
55.2601868166 -26.6244893319 -2.5008449559
55.3870100397 -26.5214160897 -2.5008449559
56.5324364153 -25.3046871552 -2.5008449559
55.0632885896 -26.8049977102 -2.5008478635
56.1796712191 -25.7823196300 -2.5008478635
56.7284982969 -25.0672892202 -2.5008478635
54.8758699298 -26.9668033390 -2.5008507711
56.8163038046 -24.9775320822 -2.5008507711
56.8494709230 -24.9254868104 -2.5008507711
56.8713251736 -24.8906273251 -2.5008507711
55.4016034744 -26.6034704376 -2.5008536787
57.2027428470 -24.5077958219 -2.5008624014
57.4218670058 -24.1725197381 -2.5008682166
52.5997490426 -22.3590149771 -2.4999639023
52.1222992219 -25.9564130938 -2.4998979414
52.1354768679 -25.9523885328 -2.4998979414
52.2821269135 -25.9557827431 -2.4998967311
52.2953019956 -25.9512853856 -2.4998967311
52.3295900387 -25.9649923815 -2.4998961260
52.3559804978 -25.9556777430 -2.4998961260
52.4301603542 -25.9543579470 -2.4998955208
52.4782764314 -25.9620079725 -2.4998949157
52.5794192645 -25.9480356998 -2.4998943105
52.6771046197 -25.9596395444 -2.4998931002
52.6902893826 -25.9539737546 -2.4998931002
52.7034573275 -25.9482689867 -2.4998931002
52.7790098215 -25.9411838812 -2.4998924951
53.0177885634 -25.9338563846 -2.4998900745
53.0681770361 -25.9351796271 -2.4998894693
53.1187652738 -25.9359560573 -2.4998888642
53.1695475245 -25.9361822417 -2.4998882591
53.3361048512 -25.9259495234 -2.4998864436
55.3909093083 -24.2106639034 -2.4998803921
55.9412930109 -22.8989606755 -2.4998803921
55.9454094500 -22.8836522178 -2.4998803921
55.9535063830 -22.8529991060 -2.4998803921
55.9574868060 -22.8376547200 -2.4998803921
55.9598509658 -20.1710793454 -2.4998803921
55.9518991539 -20.1403882672 -2.4998803921
55.9478551906 -20.1250605046 -2.4998803921
55.9437659026 -20.1097447718 -2.4998803921
55.9476331188 -22.9666580489 -2.4998797870
55.9519497913 -22.9513305398 -2.4998797870
55.9587596316 -20.0727416474 -2.4998797870
55.9545155273 -20.0573938862 -2.4998797870
55.9415110675 -20.0114268712 -2.4998797870
55.9345671596 -23.0959406043 -2.4998791819
55.9392663304 -23.0806511810 -2.4998791819
55.9439202518 -23.0653479237 -2.4998791819
55.9665097054 -22.9886288166 -2.4998791819
55.9466881737 -19.9433624438 -2.4998791819
55.9420613950 -19.9280509582 -2.4998791819
55.9480863920 -23.1337497730 -2.4998785767
55.9604977390 -19.9056583486 -2.4998785767
55.9412720460 -19.8443347032 -2.4998785767
55.9493338641 -19.7909217716 -2.4998779716
55.9269481061 -23.3479910959 -2.4998773664
55.9323929212 -23.3327231084 -2.4998773664
55.9431469362 -23.3021391472 -2.4998773664
55.9484560420 -23.2868234412 -2.4998773664
55.9537198180 -23.2714920969 -2.4998773664
55.9568532551 -19.7372359710 -2.4998773664
55.9463347326 -19.7065702213 -2.4998773664
55.9330262645 -23.4020524196 -2.4998767613
55.9529881662 -19.6525766795 -2.4998767613
55.9475011632 -19.6372478298 -2.4998767613
55.9327387795 -23.4716521853 -2.4998761561
55.9646913757 -19.6136877585 -2.4998761561
55.9477488722 -19.5676479111 -2.4998761561
55.9254617270 -23.5567747878 -2.4998755510
55.9315241684 -23.5415102837 -2.4998755510
55.9761151077 -19.5745959882 -2.4998755510
55.9529710377 -19.5131107272 -2.4998755510
55.9470714692 -19.4977825383 -2.4998755510
55.9576313622 -19.4583293687 -2.4998749458
55.9454627210 -19.4276638968 -2.4998749458
54.2229511521 -25.9079188854 -2.4998743407
55.9262891720 -23.6819524379 -2.4998743407
55.9288984710 -23.7372558228 -2.4998737355
55.9459510297 -19.3020225961 -2.4998737355
55.9103781894 -23.8385008412 -2.4998731304
55.9183957910 -23.8790196538 -2.4998725252
55.9502900586 -19.1907995522 -2.4998725252
55.9515872869 -19.1348699913 -2.4998719201
55.8160986228 -18.8062696616 -2.4998713150
55.7838745609 -18.7467315775 -2.4998713150
55.9182337442 -24.0474279482 -2.4998707098
56.2405688215 -19.7485531663 -2.4998707098
56.2031353743 -19.6356230055 -2.4998707098
56.1920113651 -19.6035019464 -2.4998707098
55.8050651111 -18.7350999025 -2.4998707098
55.7886202716 -18.7053497215 -2.4998707098
55.7552040018 -18.6461438390 -2.4998707098
55.7296833381 -18.6020011750 -2.4998707098
55.7124523611 -18.5726993074 -2.4998707098
56.3225430616 -19.9373216113 -2.4998701047
56.3084585353 -19.8880932866 -2.4998701047
56.3036666776 -19.8717118608 -2.4998701047
55.8014184103 -18.6786919750 -2.4998701047
50.0623129404 -27.2504723344 -2.4998694995
55.9127095918 -24.2174911860 -2.4998688944
55.9178470650 -24.2592969719 -2.4998682892
55.9259877275 -24.2440519195 -2.4998682892
55.9187398201 -24.3586209585 -2.4998670789
55.9141966018 -24.4161336114 -2.4998664738
55.9447327323 -24.7877639220 -2.4998610275
55.9459648698 -24.8751854848 -2.4998598172
55.9705255457 -25.3479338513 -2.4998525554
55.6285749195 -26.2687717157 -2.4998440834
55.7262791248 -26.1671155290 -2.4998440834
55.7538059646 -26.1377013997 -2.4998440834
55.7811582987 -26.1081249271 -2.4998440834
55.8083351698 -26.0783871466 -2.4998440834
55.8218575092 -26.0634580910 -2.4998440834
56.1698664081 -25.6457138484 -2.4998440834
56.1943006969 -25.6136844331 -2.4998440834
55.4434957189 -26.4835370336 -2.4998434782
56.2859791341 -25.5309972400 -2.4998434782
56.3449990786 -25.4489492479 -2.4998434782
56.3566570787 -25.4324353974 -2.4998434782
55.3554699870 -26.5972389526 -2.4998428731
55.5188843925 -26.4453035563 -2.4998428731
56.1584316665 -25.7392247787 -2.4998428731
56.4794982561 -25.2956602484 -2.4998428731
56.4907022111 -25.2787491957 -2.4998428731
56.5240132364 -25.2278182150 -2.4998428731
56.5350163076 -25.2107757757 -2.4998428731
55.1086772206 -26.8401358117 -2.4998422679
55.2027754294 -26.7622627302 -2.4998422679
55.2647333099 -26.7094248033 -2.4998422679
55.2801247513 -26.6961010592 -2.4998422679
56.5881652214 -25.1723547818 -2.4998422679
56.5990039410 -25.1551228120 -2.4998422679
56.6205282179 -25.1205630612 -2.4998422679
56.6418476510 -25.0858765703 -2.4998422679
56.7254212093 -24.9932974706 -2.4998416628
56.7663412766 -24.9225667297 -2.4998416628
56.7964805280 -24.8692036329 -2.4998416628
54.9127619006 -27.0540039669 -2.4998410576
56.5848795847 -25.2672428923 -2.4998410576
56.6070674488 -25.2327647435 -2.4998410576
56.8175810102 -24.8809979082 -2.4998410576
56.8275568398 -24.8630885599 -2.4998410576
54.6758889874 -27.2523693638 -2.4998404525
56.8784044057 -24.8207283304 -2.4998404525
56.7027543771 -25.1714376447 -2.4998398473
54.7201724050 -27.2806971079 -2.4998392422
54.4372020879 -27.4926523661 -2.4998386371
54.3245195798 -27.5882063798 -2.4998380319
54.0436633076 -27.7710662267 -2.4998374268
54.3186231664 -27.6196087407 -2.4998374268
54.5512874735 -27.4785890437 -2.4998374268
54.0362243151 -27.8021874508 -2.4998368216
54.2028399980 -27.7129629128 -2.4998368216
57.7380484293 -23.3849584660 -2.4998337959
52.1418050727 -22.5402553102 -2.4999973246
52.2710124254 -22.5485787240 -2.4999961575
52.5814239827 -22.3149916664 -2.4999940568
51.7167482886 -25.9438099619 -2.4999723494
51.8086719852 -25.9434692890 -2.4999721159
51.9132463920 -25.9372775872 -2.4999718825
51.9694277170 -25.9446785867 -2.4999716491
52.1645673464 -25.9532589573 -2.4999709489
52.5043519917 -25.9433072549 -2.4999697818
52.6698754296 -25.9448137470 -2.4999690816
53.7467701732 -25.9281001812 -2.4999637131
55.9297169432 -23.2685209114 -2.4999604453
55.9469419339 -20.3345107173 -2.4999602119
55.9380852469 -20.3030271575 -2.4999602119
55.9306583844 -23.4390361822 -2.4999599784
55.9448551053 -23.3918528855 -2.4999599784
55.9522532536 -20.2648442327 -2.4999599784
55.9476420844 -20.2490804959 -2.4999599784
55.9188739868 -23.5561715895 -2.4999597450
55.9290782186 -23.5247977046 -2.4999597450
55.9420636795 -20.1475593307 -2.4999597450
55.9449312759 -20.0772120830 -2.4999595116
55.9209269078 -23.8393687487 -2.4999588114
55.9386767388 -23.7922560488 -2.4999588114
55.9577754292 -23.9444013815 -2.4999581111
55.9649141138 -19.6401307534 -2.4999578777
55.9503792854 -24.0890578272 -2.4999576443
55.9476825668 -19.5361194722 -2.4999576443
55.9409157179 -19.5203724447 -2.4999576443
55.9590144216 -24.1301638612 -2.4999574109
55.9603569307 -24.1872561801 -2.4999571775
55.9433824115 -19.4063787761 -2.4999571775
55.9538965524 -24.2603399115 -2.4999569441
55.9437233710 -19.3490772589 -2.4999569441
55.9470144801 -19.1337260918 -2.4999560104
55.8696628404 -18.9347632038 -2.4999557770
55.8525261295 -18.9037613509 -2.4999557770
55.8177039615 -18.8420645143 -2.4999557770
56.2281545406 -19.6481540888 -2.4999555436
56.2021140771 -19.5819605303 -2.4999555436
56.1954817210 -19.5654606478 -2.4999555436
55.7757450829 -18.7226642763 -2.4999555436
55.7011093095 -18.6015545548 -2.4999555436
56.3416972398 -19.8912992079 -2.4999553102
55.9034295147 -18.8958609932 -2.4999553102
56.3759393224 -19.9176060472 -2.4999550768
55.6034269266 -18.3664652011 -2.4999550768
56.4678927126 -20.1335818174 -2.4999548433
56.4578381451 -20.0990196545 -2.4999548433
56.5837639600 -20.3832978526 -2.4999543765
56.6888988688 -20.6400042643 -2.4999539097
55.9546103099 -25.5221591003 -2.4999508753
55.7000749826 -26.2413882323 -2.4999485412
56.3498799231 -25.3602313349 -2.4999485412
55.3476780568 -26.6497950992 -2.4999483078
55.3619573722 -26.6357918682 -2.4999483078
55.4186585242 -26.5793583800 -2.4999483078
55.4607440047 -26.5365951333 -2.4999483078
56.6604335034 -24.9607540150 -2.4999478409
56.6881058789 -24.9070344504 -2.4999478409
54.8828513266 -27.1881599056 -2.4999473741
54.7346050728 -27.3628025019 -2.4999469073
57.0202607741 -24.4121857771 -2.4999469073
52.1443849431 -22.4236613465 -2.5000113576
52.1410451798 -22.5574276151 -2.5000113317
52.1523189420 -22.5096259371 -2.5000113317
52.1657166713 -22.4421879491 -2.5000113317
52.1721150303 -22.4034214128 -2.5000113317
52.1811057235 -22.4904558000 -2.5000113058
51.4551371562 -25.9499931165 -2.5000089198
51.4888018204 -25.9416413782 -2.5000089198
51.5285233874 -25.9563734640 -2.5000088938
51.5510112125 -25.9504045407 -2.5000088938
51.5734633299 -25.9443026763 -2.5000088938
51.7555092768 -25.9403251899 -2.5000088420
51.7667091367 -25.9366859639 -2.5000088420
51.7629454582 -25.9633260266 -2.5000088160
51.7854703142 -25.9559700618 -2.5000088160
51.8303874955 -25.9408589870 -2.5000088160
51.9701187328 -25.9417710791 -2.5000087642
52.2861173225 -25.9397914821 -2.5000086345
52.4856735364 -25.9498427919 -2.5000085307
52.5081059721 -25.9382111611 -2.5000085307
52.7226098738 -25.9304157802 -2.5000084270
52.7683660949 -25.9316174483 -2.5000084011
55.9581742410 -23.5345720330 -2.5000071043
55.9802888547 -20.8602717773 -2.5000071043
55.9564966917 -20.7637583605 -2.5000071043
55.9439591745 -20.7156638082 -2.5000071043
55.9396852149 -20.6996572501 -2.5000071043
55.9498684911 -20.6452369072 -2.5000070784
55.9453861701 -20.6292131764 -2.5000070784
55.9567725492 -23.7238623275 -2.5000070525
55.9749863785 -23.6595507278 -2.5000070525
55.9794208331 -23.6434395048 -2.5000070525
56.1523648750 -22.7079284355 -2.5000070525
