40.9485102829 -30.2925715805 -2.4999884610
40.9507421401 -30.3410545211 -2.4999883947
40.9542424745 -30.4877274193 -2.4999881959
40.9538790213 -30.5864727741 -2.4999880633
40.9528782070 -30.6361172507 -2.4999879970
40.9512791143 -30.8239042264 -2.4999877319
41.6904286489 -28.7683787390 -2.4999877319
35.3197093400 -33.4406502852 -2.4999864064
35.3353767937 -33.4448082111 -2.4999864064
38.2030847107 -33.4252211268 -2.4999864064
38.2342901016 -33.4164318663 -2.4999864064
38.2498731603 -33.4119680411 -2.4999864064
35.2506535654 -33.4468353093 -2.4999863401
35.2977500914 -33.4597825427 -2.4999863401
35.3134742379 -33.4640053443 -2.4999863401
38.2722027218 -33.4306667725 -2.4999863401
38.3034391213 -33.4214684913 -2.4999863401
35.1812544413 -33.4521241293 -2.4999862738
38.3416544718 -33.4352125910 -2.4999862738
38.3885261334 -33.4207293830 -2.4999862738
38.4041212301 -33.4158092810 -2.4999862738
35.0644633999 -33.4419097362 -2.4999862075
35.0801356961 -33.4468227203 -2.4999862075
35.0958224573 -33.4516893213 -2.4999862075
35.1115235461 -33.4565094969 -2.4999862075
38.4114283053 -33.4388514583 -2.4999862075
38.4270769102 -33.4338635283 -2.4999862075
34.9787185296 -33.4395961092 -2.4999861412
38.5128097263 -33.4311395820 -2.4999861412
38.5284350745 -33.4258517810 -2.4999861412
34.9083339853 -33.4413207229 -2.4999860750
34.9240052222 -33.4466955685 -2.4999860750
38.5832017181 -33.4325273394 -2.4999860750
34.8376640950 -33.4421175993 -2.4999860087
34.8533379984 -33.4477014958 -2.4999860087
38.6068837314 -33.4498235489 -2.4999860087
38.6935071469 -33.4442002344 -2.4999859424
34.7111878722 -33.4469067050 -2.4999858761
34.7425826763 -33.4587762994 -2.4999858761
38.7647123750 -33.4432028107 -2.4999858761
38.7960143221 -33.4310904576 -2.4999858761
34.6240642938 -33.4388776160 -2.4999858099
38.8361672666 -33.4412589127 -2.4999858099
34.5680322848 -33.4423280095 -2.4999857436
38.9078593558 -33.4383625071 -2.4999857436
34.4552942860 -33.4474867058 -2.4999856110
39.0675234250 -33.4228063208 -2.4999856110
34.4142968582 -33.4560702757 -2.4999855447
39.1242325475 -33.4239003649 -2.4999855447
34.2689107466 -33.4435478851 -2.4999854122
34.2845913697 -33.4508142506 -2.4999854122
39.3950802452 -33.4283086305 -2.4999852133
33.6099606208 -33.1978479601 -2.4999851471
33.7152239792 -33.2614323211 -2.4999851471
33.7303682941 -33.2703373890 -2.4999851471
33.7455388855 -33.2791976184 -2.4999851471
33.7607356207 -33.2880129316 -2.4999851471
33.7912069904 -33.3055085016 -2.4999851471
34.5509081975 -33.6699139798 -2.4999851471
39.4529195088 -33.4259662582 -2.4999851471
33.3607882893 -33.0643606084 -2.4999850808
33.6574821490 -33.2551584669 -2.4999850808
34.6408020321 -33.7304102094 -2.4999850808
34.7568715261 -33.7725359822 -2.4999850808
39.4953047303 -33.4312057968 -2.4999850808
39.5109259755 -33.4230115977 -2.4999850808
33.2025490783 -32.9819871154 -2.4999850145
33.2744550652 -33.0336765226 -2.4999850145
33.5996149744 -33.2482609725 -2.4999850145
34.8158398293 -33.8184259976 -2.4999850145
32.9487211804 -32.8171817136 -2.4999849482
39.5961923695 -33.4322843759 -2.4999849482
32.3969816060 -32.4140597348 -2.4999847494
39.7565093719 -33.4259850669 -2.4999847494
32.2672379543 -32.3136090330 -2.4999846831
35.4562425512 -34.1196187653 -2.4999846831
35.7503998509 -34.2239788764 -2.4999845506
40.3611367205 -33.4165899196 -2.4999838878
40.3904767882 -33.4257049958 -2.4999838215
40.4060778443 -33.4148627399 -2.4999838215
40.4171380690 -33.8153367146 -2.4999828936
40.4673013892 -33.7824197852 -2.4999828936
40.5005804598 -33.7602284069 -2.4999828936
40.5337276562 -33.7378405268 -2.4999828936
40.6160110955 -33.6810162908 -2.4999828936
41.1823044475 -33.2369344885 -2.4999828936
41.2719508848 -33.1571675496 -2.4999828936
41.3162396616 -33.1166905537 -2.4999828936
41.3309225465 -33.1031110759 -2.4999828936
41.3601674838 -33.0758221138 -2.4999828936
41.3747292802 -33.0621128684 -2.4999828936
41.4469264543 -32.9929238069 -2.4999828936
40.2604207154 -33.9424707218 -2.4999828273
40.2946503218 -33.9215005178 -2.4999828273
40.3117184500 -33.9109395646 -2.4999828273
40.3627343432 -33.8789544105 -2.4999828273
40.3965863751 -33.8573799964 -2.4999828273
41.5352009216 -32.9397517758 -2.4999828273
41.5634757952 -32.9112570933 -2.4999828273
41.5775498890 -32.8969471451 -2.4999828273
41.6055707748 -32.8682026610 -2.4999828273
41.6472820129 -32.8247763549 -2.4999828273
40.0643185355 -34.0850889482 -2.4999827611
40.0818715957 -34.0752086423 -2.4999827611
40.1168896491 -34.0552924718 -2.4999827611
40.1517892589 -34.0351694713 -2.4999827611
40.2557652314 -33.9735665695 -2.4999827611
41.5948092901 -32.9138719304 -2.4999827611
41.7609467120 -32.7383229704 -2.4999827611
41.7745083714 -32.7234296242 -2.4999827611
41.8283126624 -32.6634570212 -2.4999827611
40.0761445800 -34.1061716414 -2.4999826948
41.9391656126 -32.5726460825 -2.4999826948
42.0169029260 -32.4795508690 -2.4999826948
42.1119363419 -32.4000849644 -2.4999826285
39.5546037944 -34.4231042720 -2.4999825622
39.6839626225 -34.3633372621 -2.4999825622
39.4051565247 -34.5405973224 -2.4999824297
43.0285473597 -31.3750452726 -2.4999820320
40.9550786632 -29.5753560827 -2.4999961430
40.9588086221 -29.5619435356 -2.4999961430
40.9624988878 -29.5485200134 -2.4999961430
40.9661494283 -29.5350856334 -2.4999961430
40.9590154160 -29.6491047431 -2.4999961171
40.9490166416 -29.7634697257 -2.4999960911
40.9617570484 -29.7232456658 -2.4999960911
40.9479720988 -29.9880515552 -2.4999960133
40.9578340928 -29.9612503078 -2.4999960133
40.9503332654 -30.0501589761 -2.4999959874
40.9605626665 -30.0233426723 -2.4999959874
40.9571741789 -30.0991509583 -2.4999959614
40.9624536086 -30.0857299205 -2.4999959614
40.9580453921 -30.2247684539 -2.4999959096
40.9517024262 -30.5297452874 -2.4999957799
40.9614266542 -30.6184198105 -2.4999957280
35.0987248006 -33.4504455130 -2.4999954946
35.1139435988 -33.4543401647 -2.4999954946
35.1749320035 -33.4694680665 -2.4999954946
37.6497357470 -33.4745321072 -2.4999954946
37.7412433670 -33.4519442013 -2.4999954946
37.8171836875 -33.4318827198 -2.4999954946
37.8626025290 -33.4193074635 -2.4999954946
37.8777171222 -33.4150262012 -2.4999954946
37.9079079836 -33.4063296356 -2.4999954946
34.9860140573 -33.4452044634 -2.4999954687
35.0164340731 -33.4536156561 -2.4999954687
37.8387514090 -33.4510418467 -2.4999954687
37.9902576762 -33.4069142384 -2.4999954687
40.9603013029 -31.1131114408 -2.4999954687
34.9033317290 -33.4465711828 -2.4999954427
34.9185399213 -33.4510438595 -2.4999954427
38.0729479793 -33.4061732208 -2.4999954427
38.0880227986 -33.4012697762 -2.4999954427
34.8507273648 -33.4560025415 -2.4999954168
34.8659636869 -33.4606307901 -2.4999954168
37.9892343399 -33.4577825266 -2.4999954168
38.1257756291 -33.4142608085 -2.4999954168
38.1559576208 -33.4040966589 -2.4999954168
38.1710259341 -33.3989476657 -2.4999954168
40.9761206333 -31.1790559343 -2.4999954168
34.7369284923 -33.4453135780 -2.4999953909
34.7673535131 -33.4551984427 -2.4999953909
34.7825878213 -33.4600733298 -2.4999953909
38.2091019042 -33.4113320533 -2.4999953909
38.2241913885 -33.4060258181 -2.4999953909
34.6836611258 -33.4530493155 -2.4999953649
34.7446643790 -33.4732686098 -2.4999953649
34.7599522413 -33.4782105364 -2.4999953649
38.2625104695 -33.4180237730 -2.4999953649
38.3077887843 -33.4014970370 -2.4999953649
34.5996718249 -33.4495455860 -2.4999953390
38.3615085621 -33.4071644570 -2.4999953390
38.4606980011 -33.3943938014 -2.4999953131
34.4612797263 -33.4501333721 -2.4999952871
38.4998787768 -33.4046342186 -2.4999952871
40.9528147037 -31.4337574682 -2.4999952871
38.5694284271 -33.4019778694 -2.4999952612
38.4724113882 -33.4677971321 -2.4999952353
34.2821997355 -33.4568261711 -2.4999952093
38.6790640982 -33.4072907743 -2.4999952093
34.2576314422 -33.4727643699 -2.4999951834
38.7342068640 -33.4090862425 -2.4999951834
38.7895584008 -33.4103028795 -2.4999951575
33.8154140862 -33.3188015817 -2.4999951315
33.8451067476 -33.3341406493 -2.4999951315
33.8748896404 -33.3493037766 -2.4999951315
38.8903052452 -33.3892404029 -2.4999951315
33.6272987671 -33.2441370687 -2.4999951056
33.6859040253 -33.2768703584 -2.4999951056
33.8191543906 -33.3479696504 -2.4999951056
33.9693706543 -33.4227769188 -2.4999951056
34.4166595901 -33.6141903831 -2.4999951056
34.6380808484 -33.6927042465 -2.4999951056
34.7019230009 -33.7134460905 -2.4999951056
38.9310130049 -33.3962357169 -2.4999951056
40.9546761038 -31.7204184895 -2.4999951056
33.4125432876 -33.1446815791 -2.4999950797
33.4988640672 -33.1973480792 -2.4999950797
34.7912120222 -33.7662992712 -2.4999950797
34.8073665185 -33.7711022194 -2.4999950797
34.8397177815 -33.7805646471 -2.4999950797
34.9962549965 -33.8484063601 -2.4999950537
39.0280126287 -33.4016267770 -2.4999950537
35.1222923838 -33.9041595550 -2.4999950278
39.1407830905 -33.3972345730 -2.4999950019
39.1672767595 -33.4104616018 -2.4999949759
39.2240907795 -33.4070927039 -2.4999949500
39.2659747283 -33.4115482841 -2.4999949241
39.4349910683 -33.4261760340 -2.4999948203
39.7361093429 -33.4392334254 -2.4999946388
39.7948096085 -33.4298191948 -2.4999946128
40.4133587925 -33.8548901231 -2.4999938607
40.4624293537 -33.8192586116 -2.4999938607
40.4949665531 -33.7952629457 -2.4999938607
40.5756834780 -33.7344352803 -2.4999938607
40.6713430361 -33.6598761923 -2.4999938607
40.7343743870 -33.6092319734 -2.4999938607
41.1727610316 -33.2203194600 -2.4999938607
41.2161702299 -33.1779736682 -2.4999938607
41.2592019236 -33.1352443117 -2.4999938607
41.2734613450 -33.1209165370 -2.4999938607
41.2876783198 -33.1065466431 -2.4999938607
41.3159844326 -33.0776810008 -2.4999938607
40.3779155633 -33.9098323351 -2.4999938348
40.4603398173 -33.8507233670 -2.4999938348
41.4313556291 -32.9918547643 -2.4999938348
41.5407942848 -32.8720267263 -2.4999938348
41.5677084691 -32.8416676694 -2.4999938348
41.5810980878 -32.8264285611 -2.4999938348
40.0697785732 -34.1436622065 -2.4999938089
40.1042419253 -34.1219839169 -2.4999938089
40.2068540234 -34.0557310147 -2.4999938089
40.2238410154 -34.0445122479 -2.4999938089
40.2407947460 -34.0332432796 -2.4999938089
40.2577150667 -34.0219242084 -2.4999938089
41.7697952515 -32.6399884956 -2.4999938089
41.8774442519 -32.5431734280 -2.4999937829
41.8839402270 -32.5741723567 -2.4999937570
42.0558989672 -32.3444120080 -2.4999937570
39.7349782711 -34.4225762556 -2.4999937310
40.2122970531 -34.1388245185 -2.4999937310
40.2081431695 -34.1703165891 -2.4999937051
42.2244396858 -32.1858770343 -2.4999937051
42.1388778432 -32.3529066520 -2.4999936792
42.5061660646 -31.8727173027 -2.4999936273
42.5582278038 -31.7823535143 -2.4999936273
42.6288568303 -31.6545716539 -2.4999936273
42.6513633839 -31.7144291604 -2.4999935754
43.2140244788 -30.8983119519 -2.4999933939
34.8754670518 -33.4525063633 -2.5000115131
35.0365986062 -33.4912116146 -2.5000115131
37.4534589242 -33.4425284532 -2.5000115131
40.9554221510 -30.1941215654 -2.5000115131
40.9652396623 -30.1656345286 -2.5000115131
34.8108939896 -33.4604712376 -2.5000115621
34.8255131508 -33.4643973137 -2.5000115621
34.8547859953 -33.4721196419 -2.5000115621
37.5035033732 -33.4540323680 -2.5000115621
40.9528530586 -30.2733612216 -2.5000115621
40.9682193890 -30.2306286885 -2.5000115621
34.7021079479 -33.4549812324 -2.5000116111
37.6268319916 -33.4436613233 -2.5000116111
40.9650595545 -30.3101878457 -2.5000116111
34.6221545081 -33.4561927912 -2.5000116601
34.6513823711 -33.4651184010 -2.5000116601
34.6660159773 -33.4695163210 -2.5000116601
34.6806625294 -33.4738709328 -2.5000116601
37.6776345177 -33.4534055356 -2.5000116601
37.6922202340 -33.4488513056 -2.5000116601
34.5418510450 -33.4561137159 -2.5000117090
37.8016489520 -33.4386752841 -2.5000117090
37.8597271141 -33.4187333967 -2.5000117090
37.8742094673 -33.4136406556 -2.5000117090
37.9403082863 -33.4155373316 -2.5000117580
40.9596507661 -30.5220053512 -2.5000117580
34.3948734302 -33.4572436901 -2.5000118070
37.9922013357 -33.4220363431 -2.5000118070
40.9578405187 -30.5883730108 -2.5000118070
34.3136338359 -33.4534739619 -2.5000118560
37.9861497161 -33.4501238367 -2.5000118560
38.0878269220 -33.4109526201 -2.5000118560
40.9614237474 -30.6407393176 -2.5000118560
34.2613130803 -33.4596094391 -2.5000119050
40.9580060983 -30.7075774636 -2.5000119050
34.2233756345 -33.4709103462 -2.5000119540
38.2074441201 -33.4142369413 -2.5000119540
34.1559196318 -33.4702506825 -2.5000120030
40.9552798202 -30.8276668520 -2.5000120030
33.7140895762 -33.2959884758 -2.5000120520
33.8134911638 -33.3453067969 -2.5000120520
33.9138926169 -33.3925563537 -2.5000120520
40.9563173193 -30.8809086510 -2.5000120520
38.3958853335 -33.4104360816 -2.5000121010
40.9639064863 -30.9201061979 -2.5000121010
33.8647150150 -33.4231038038 -2.5000121499
38.4510252686 -33.4914735606 -2.5000122969
40.9451190623 -31.1641981954 -2.5000122969
40.9683913757 -31.1214992173 -2.5000122969
38.7494072426 -33.3967489290 -2.5000123949
40.9474903893 -31.2588475221 -2.5000123949
40.9555698991 -31.2446300692 -2.5000123949
38.9285332627 -33.3805259948 -2.5000125418
38.9428979149 -33.3722716990 -2.5000125418
39.8430952404 -33.3822307554 -2.5000135706
39.9886910969 -33.3917478323 -2.5000137665
40.5658627878 -33.7631010295 -2.5000150892
40.4715591666 -33.8723055931 -2.5000151382
40.4873718405 -33.8594845958 -2.5000151382
40.5031465183 -33.8466168779 -2.5000151382
40.5188830621 -33.8337025519 -2.5000151382
40.5502411970 -33.8077345283 -2.5000151382
40.5658625137 -33.7946810579 -2.5000151382
40.6279595898 -33.7420067889 -2.5000151382
40.7199257356 -33.6616269545 -2.5000151382
41.2130214771 -33.1763217392 -2.5000151382
41.2813285333 -33.1008602895 -2.5000151382
41.3217743969 -33.0551013779 -2.5000151382
41.3485120138 -33.0243968064 -2.5000151382
41.3750675042 -32.9935345834 -2.5000151382
41.4014399386 -32.9625157895 -2.5000151382
41.4406533426 -32.9156964043 -2.5000151382
40.3097285350 -34.0295047458 -2.5000151872
40.3260069404 -34.0171617850 -2.5000151872
40.3584538574 -33.9923316704 -2.5000151872
40.4068473709 -33.9547276490 -2.5000151872
40.5026237523 -33.8782386479 -2.5000151872
41.4981864546 -32.8838040304 -2.5000151872
41.5999375979 -32.7559176418 -2.5000151872
41.6496711512 -32.6910804358 -2.5000151872
40.2089416533 -34.1341308664 -2.5000152362
41.7423474000 -32.6069869217 -2.5000152362
41.7664264606 -32.5738019417 -2.5000152362
40.0717118671 -34.2602668485 -2.5000152852
40.1224944465 -34.2251969504 -2.5000152852
39.8784609674 -34.4164223014 -2.5000153342
39.9306369489 -34.3830612475 -2.5000153342
42.0590999108 -32.2253291818 -2.5000153342
39.9699731173 -34.4439848340 -2.5000154811
42.3214044647 -31.9222582579 -2.5000154811
42.3414223061 -31.8856593658 -2.5000154811
39.8234983329 -34.5643476398 -2.5000155301
38.7310192617 -35.2617488955 -2.5000158240
34.6439462395 -33.4614697888 -2.5000139147
37.2380928100 -33.4437510167 -2.5000139147
37.2518885383 -33.4397991780 -2.5000139147
34.5404605391 -33.4574708522 -2.5000139781
34.5543086565 -33.4614990376 -2.5000139781
37.2308389993 -33.4709297371 -2.5000139781
37.3001017063 -33.4508672790 -2.5000139781
37.3139182145 -33.4467319756 -2.5000139781
37.4039300852 -33.4440839811 -2.5000140415
34.4710689241 -33.4871871070 -2.5000141049
37.4804916821 -33.4443732354 -2.5000141049
37.4604367439 -33.4765426012 -2.5000141683
37.5573871697 -33.4434134706 -2.5000141683
37.6621539198 -33.4309046253 -2.5000142317
37.6844997444 -33.4482937022 -2.5000142951
37.7258742918 -33.4323540522 -2.5000142951
37.7623012400 -33.4439896907 -2.5000143585
37.7898731836 -33.4329438231 -2.5000143585
37.8311073600 -33.4160696473 -2.5000143585
40.9503656786 -30.1081056919 -2.5000148657
40.9542777220 -30.0931868735 -2.5000148657
40.9768216680 -30.0034368874 -2.5000148657
40.9358443573 -27.3944191719 -2.5000148657
38.3353695779 -33.4202809929 -2.5000149291
40.9575755055 -30.1741054012 -2.5000149291
40.9657457928 -30.1442124464 -2.5000149291
40.9551863367 -30.2703415355 -2.5000149925
40.9682295463 -30.2255015200 -2.5000149925
40.9850005182 -30.1655381338 -2.5000149925
40.9479874695 -27.2619262894 -2.5000149925
38.4679392221 -33.4038720553 -2.5000150559
40.9556419112 -30.3520087240 -2.5000150559
40.9602754408 -30.3370732304 -2.5000150559
40.9527571512 -27.1951710033 -2.5000150559
40.9433031466 -27.1653586918 -2.5000150559
40.9336729278 -27.1356028351 -2.5000150559
40.9547805800 -30.4340142464 -2.5000151193
40.9787187943 -30.3592054419 -2.5000151193
40.9316914863 -27.0536167297 -2.5000151193
40.9577121142 -30.5014097475 -2.5000151827
40.9627875899 -30.4864674761 -2.5000151827
40.9678188416 -30.4715102560 -2.5000151827
40.9494073734 -27.0308486357 -2.5000151827
40.9337021283 -26.9861874721 -2.5000151827
38.6132763303 -33.4046345429 -2.5000152460
40.9544320727 -30.5840382937 -2.5000152460
40.9650277157 -30.5541567620 -2.5000152460
40.9348170987 -26.9184703072 -2.5000152460
40.9292936918 -26.9036114404 -2.5000152460
38.6529221621 -33.4093516557 -2.5000153094
38.6666099404 -33.4012146464 -2.5000153094
40.9553725036 -30.6520254022 -2.5000153094
40.9407104423 -26.8653530957 -2.5000153094
40.9293053350 -26.8356178289 -2.5000153094
40.9235368596 -26.8207756294 -2.5000153094
40.9611302230 -30.7053500162 -2.5000153728
40.9545300065 -30.7888094170 -2.5000154362
40.9604556764 -30.7738753014 -2.5000154362
40.9388087261 -26.7285797066 -2.5000154362
40.9265944548 -26.6988580848 -2.5000154362
38.8001729305 -33.4046255227 -2.5000154996
40.9649486132 -30.8277060333 -2.5000154996
40.9550822032 -26.7045214542 -2.5000154996
40.9301922236 -26.6449601234 -2.5000154996
40.9500149057 -30.9265929325 -2.5000155630
40.9563481839 -30.9116715706 -2.5000155630
38.9354233360 -33.3752989780 -2.5000156264
40.9463651753 -30.9958290069 -2.5000156264
40.9417796708 -31.0652781479 -2.5000156898
40.9485232410 -31.0503805405 -2.5000156898
40.9515436874 -31.2152845706 -2.5000158800
40.9365530743 -31.3004375481 -2.5000159434
40.9394923698 -31.4527414275 -2.5000161336
40.9380033129 -31.6065778738 -2.5000163238
40.9251894768 -32.3058139681 -2.5000172747
40.9180636560 -32.4810015947 -2.5000175283
40.9236263729 -32.5543905393 -2.5000176551
40.6611592367 -33.7222116779 -2.5000191766
40.7048474358 -33.6798450582 -2.5000191766
40.7337632794 -33.6513859713 -2.5000191766
40.7481579345 -33.6370923986 -2.5000191766
40.8194935139 -33.5649892582 -2.5000191766
41.1335658490 -33.2200765512 -2.5000191766
41.1986914455 -33.1423186936 -2.5000191766
41.2626598496 -33.0636061086 -2.5000191766
41.2879200540 -33.0318576013 -2.5000191766
40.4836325284 -33.9193177040 -2.5000192400
40.4988208684 -33.9057628910 -2.5000192400
40.8368029072 -33.5818629119 -2.5000192400
41.2559941236 -33.1104222534 -2.5000192400
41.3570114658 -32.9826839658 -2.5000192400
41.3941093695 -32.9341711695 -2.5000192400
41.4549778157 -32.8525910458 -2.5000192400
41.5027996560 -32.7866843157 -2.5000192400
40.1544605845 -34.2250012990 -2.5000193034
40.1866113883 -34.1997889443 -2.5000193034
40.6055421422 -33.8412183399 -2.5000193034
41.6045355181 -32.6836732534 -2.5000193034
41.6503481747 -32.6160087124 -2.5000193034
40.0552323576 -34.3311068107 -2.5000193668
40.0880126539 -34.3064796665 -2.5000193668
40.1531332757 -34.2566457223 -2.5000193668
40.2496972244 -34.1804587993 -2.5000193668
41.7709250060 -32.4747074050 -2.5000193668
39.9000267088 -34.5027183438 -2.5000194936
41.9711232826 -32.2349970666 -2.5000194936
39.7074569831 -34.6610610994 -2.5000195570
39.7767998183 -34.6157052438 -2.5000195570
39.8112687675 -34.5927204191 -2.5000195570
39.6328420096 -34.7370964499 -2.5000196204
42.1709705731 -31.9662459039 -2.5000196204
39.5924413787 -34.7905204194 -2.5000196838
40.2436227113 -34.3393961647 -2.5000196838
37.0941735603 -33.4478508885 -2.5000022853
37.1403868176 -33.4584916628 -2.5000022911
37.1792494180 -33.4457233569 -2.5000022911
37.2258474543 -33.4554734875 -2.5000022968
37.2388049237 -33.4510029179 -2.5000022968
37.2517491116 -33.4464940373 -2.5000022968
37.2727327682 -33.4647391355 -2.5000023026
37.4453336804 -33.4518869668 -2.5000023141
37.5412877917 -33.4652574745 -2.5000023256
37.5672418136 -33.4544116021 -2.5000023256
37.5801946479 -33.4489311309 -2.5000023256
37.5931312134 -33.4434123669 -2.5000023256
37.6286044713 -33.4544237416 -2.5000023314
37.6642732137 -33.4651675749 -2.5000023372
37.7290220366 -33.4359464666 -2.5000023372
37.7520906873 -33.4519165467 -2.5000023429
37.8400467456 -33.4369250320 -2.5000023487
37.9152378326 -33.4266937802 -2.5000023545
38.4456191547 -33.4329642925 -2.5000024179
40.9410822078 -30.4831751979 -2.5000024813
40.9628719282 -27.7461778651 -2.5000024813
40.9589239175 -27.7306774818 -2.5000024813
40.9508904240 -27.6997120911 -2.5000024813
40.9426738694 -27.6687947712 -2.5000024813
40.9384534776 -30.5823160958 -2.5000024870
40.9472915941 -30.5514219066 -2.5000024870
40.9926232976 -30.3806079454 -2.5000024870
40.9575806182 -27.6315108373 -2.5000024870
40.9489604451 -27.6005551295 -2.5000024870
40.9401572784 -27.5696509634 -2.5000024870
40.9480143988 -30.6354811497 -2.5000024928
40.9424943747 -30.7353368646 -2.5000024985
40.9540796409 -27.4475666385 -2.5000024985
40.9443712534 -27.4166348631 -2.5000024985
40.9298327135 -30.8509027672 -2.5000025043
40.9402600298 -30.8200548807 -2.5000025043
40.9624689381 -27.3938154486 -2.5000025043
40.9473604310 -27.3473671265 -2.5000025043
40.9422327338 -27.3319143740 -2.5000025043
40.9312146076 -30.9204894068 -2.5000025101
40.9144554757 -31.0365222154 -2.5000025158
40.9484858285 -30.9440398637 -2.5000025158
40.9546271198 -27.0122170772 -2.5000025331
40.9423430485 -26.9812896820 -2.5000025331
40.9176590307 -31.2877688354 -2.5000025389
40.9132133912 -31.3588421472 -2.5000025446
40.9332942113 -31.3126748032 -2.5000025446
40.9554420066 -26.8856528389 -2.5000025446
40.9489484397 -26.8701781999 -2.5000025446
40.9424091245 -26.8547228377 -2.5000025446
40.9147602884 -31.4147653597 -2.5000025504
40.9532405613 -26.7581792179 -2.5000025562
40.9160943692 -31.5272258752 -2.5000025619
40.9615014012 -26.7173535114 -2.5000025619
40.9545099480 -26.7018616840 -2.5000025619
40.9474726977 -26.6863906063 -2.5000025619
40.9084246440 -31.5991073061 -2.5000025677
41.1057684923 -26.9342818848 -2.5000025735
40.8950225296 -26.4654577545 -2.5000025735
40.8638062874 -26.4044197278 -2.5000025735
40.8479278724 -26.3740402967 -2.5000025735
40.8399213335 -26.3588859424 -2.5000025735
40.8156332333 -26.3135659156 -2.5000025735
40.7826252941 -26.2534778933 -2.5000025735
40.7658552772 -26.2235813979 -2.5000025735
41.2348745552 -27.2161834658 -2.5000025792
41.2293575351 -27.1998807685 -2.5000025792
41.2237923127 -27.1835944629 -2.5000025792
41.2068079217 -27.1348353207 -2.5000025792
40.8773128037 -26.3780209773 -2.5000025792
40.7265704750 -26.1074143403 -2.5000025792
40.7089372781 -26.0778520404 -2.5000025792
40.6821603177 -26.0337054904 -2.5000025792
40.6549926358 -25.9897983092 -2.5000025792
40.6274363722 -25.9461339551 -2.5000025792
40.9116266920 -31.7544336244 -2.5000025850
40.9225482554 -26.4128791058 -2.5000025850
40.7822519186 -26.1547746486 -2.5000025850
40.7473674243 -26.0950927259 -2.5000025850
40.6663118551 -25.9623455001 -2.5000025850
40.6570882432 -25.9477302002 -2.5000025850
40.9251155908 -31.7809346194 -2.5000025908
41.3436383495 -27.3992483889 -2.5000025908
40.9103466660 -31.9113075194 -2.5000026023
40.9060584876 -31.9690351441 -2.5000026080
40.9098681763 -32.0115727279 -2.5000026138
40.9382928071 -32.3415137265 -2.5000026599
40.9392728315 -32.3852777848 -2.5000026657
40.9701924926 -32.4267291802 -2.5000026772
40.9603671231 -32.5306280777 -2.5000026887
40.9748852266 -33.0538224369 -2.5000027637
40.5686487292 -33.8548390538 -2.5000028155
40.5827729680 -33.8404781260 -2.5000028155
40.6108936902 -33.8116312390 -2.5000028155
40.6388432525 -33.7826184851 -2.5000028155
40.6666206763 -33.7534408800 -2.5000028155
40.6804445323 -33.7387905772 -2.5000028155
40.7216552258 -33.6945952072 -2.5000028155
40.7489104250 -33.6649291993 -2.5000028155
41.2440762677 -33.0556321120 -2.5000028155
41.3138902256 -32.9569815587 -2.5000028155
41.3253551788 -32.9404200004 -2.5000028155
41.3367710897 -32.9238245991 -2.5000028155
41.3481378584 -32.9071955001 -2.5000028155
40.2935981204 -34.1510693862 -2.5000028213
40.3682040908 -34.0828845196 -2.5000028213
40.4417934200 -34.0136036601 -2.5000028213
40.4563878683 -33.9996172987 -2.5000028213
40.5143500090 -33.9432419643 -2.5000028213
40.5430799142 -33.9147980919 -2.5000028213
40.5573816345 -33.9005125390 -2.5000028213
41.4020388279 -32.8705412228 -2.5000028213
41.4794514157 -32.7520980488 -2.5000028213
41.5011172225 -32.7179651593 -2.5000028213
40.2491540181 -34.2229719082 -2.5000028270
40.2643686584 -34.2095544929 -2.5000028270
40.3548169524 -34.1281102099 -2.5000028270
41.5537969681 -32.6792390239 -2.5000028270
41.5644392589 -32.6619689933 -2.5000028270
41.5960589544 -32.6099710697 -2.5000028270
41.6168818495 -32.5751507784 -2.5000028270
41.7291249260 -32.4287476652 -2.5000028328
41.7798764721 -32.3868971805 -2.5000028386
39.8507674334 -34.6381808770 -2.5000028443
40.0296394358 -34.5008781064 -2.5000028443
39.6643613565 -34.8011520122 -2.5000028501
41.9276317281 -32.2098312299 -2.5000028501
41.9368837901 -32.1914573823 -2.5000028501
42.1466111018 -31.8565718387 -2.5000028616
42.2562520985 -31.6549300821 -2.5000028674
42.2014888698 -31.9718895669 -2.5000028847
36.7919366926 -33.4431564836 -2.4999966617
36.8948108206 -33.4365124061 -2.4999966358
37.1665937668 -33.4421943196 -2.4999965320
37.1874128575 -33.4599963966 -2.4999965061
37.2234152424 -33.4456348656 -2.4999965061
37.4076331703 -33.4458746775 -2.4999964283
38.2042344702 -33.4231541354 -2.4999960392
40.9280770476 -30.8218985176 -2.4999952612
40.9364194755 -30.7902748028 -2.4999952612
40.9206292431 -30.9388985663 -2.4999952353
40.9488042716 -27.9541238329 -2.4999952353
40.9251398016 -31.0088904718 -2.4999952093
40.9298875717 -30.9930926547 -2.4999952093
40.9546352974 -27.8842295477 -2.4999952093
40.9363711875 -27.8208247200 -2.4999952093
40.9316880333 -27.8050076276 -2.4999952093
40.9434643807 -31.0317342240 -2.4999951834
40.9404642327 -27.7505381255 -2.4999951834
40.9385397094 -27.6640971383 -2.4999951575
40.9361227037 -27.5061481814 -2.4999951056
40.9418602881 -27.4504985749 -2.4999950797
40.9360816182 -27.4346668651 -2.4999950797
40.9410855822 -27.3787521837 -2.4999950537
40.9350946769 -27.3629230795 -2.4999950537
40.9369963190 -31.4913557086 -2.4999950278
40.9393595612 -27.3067529208 -2.4999950278
40.9493707935 -27.2662007564 -2.4999950019
40.9436619514 -31.6044031642 -2.4999949759
40.9566336668 -31.5726735487 -2.4999949759
40.9461528757 -27.1937130661 -2.4999949759
40.9573743099 -31.8749394452 -2.4999948462
40.9570207568 -31.9328250403 -2.4999948203
40.9700945707 -32.0173529734 -2.4999947684
40.8097218252 -26.3226298705 -2.4999946906
40.7914471403 -26.2917851296 -2.4999946906
40.7165332126 -26.1695034955 -2.4999946906
41.2006759141 -27.0501994202 -2.4999946647
40.5882317235 -25.9313829309 -2.4999946647
40.4349668410 -25.6405167731 -2.4999946128
41.5030816377 -27.6919136057 -2.4999945869
40.5835636688 -33.8785549704 -2.4999939904
40.7267543746 -33.7136269870 -2.4999939904
41.2649548764 -32.9764905318 -2.4999939904
41.3172901769 -32.8921218546 -2.4999939904
40.5479755089 -33.9537154303 -2.4999939645
40.2287666496 -34.3117152659 -2.4999939385
40.3295547676 -34.2145527923 -2.4999939385
40.6328836185 -33.8959334838 -2.4999939385
41.8574147976 -32.1123046561 -2.4999938607
39.7546288568 -34.8418981658 -2.4999938348
42.0821560672 -31.7424342902 -2.4999937829
36.3809368636 -33.4485391263 -2.4999989201
36.4247883802 -33.4379895442 -2.4999989201
36.4855617380 -33.4474544854 -2.4999989057
36.6635171627 -33.4467567474 -2.4999988769
36.6854430341 -33.4398750082 -2.4999988769
36.9149270596 -33.4626202495 -2.4999988193
36.9698715663 -33.4414527926 -2.4999988193
36.9808225609 -33.4371219097 -2.4999988193
37.0227202131 -33.4463208808 -2.4999988049
37.0446372192 -33.4373139834 -2.4999988049
37.1197125226 -33.4316811041 -2.4999987905
37.1403488499 -33.4490419594 -2.4999987761
37.2051090876 -33.4465307561 -2.4999987616
37.2811032196 -33.4376919150 -2.4999987472
37.7568064567 -33.4271363888 -2.4999986176
40.9417011668 -29.8368300483 -2.4999979548
40.9419716570 -29.8207655469 -2.4999979548
40.9423700666 -29.7886344950 -2.4999979548
40.9424979827 -29.7725682257 -2.4999979548
40.9425783712 -29.7565016483 -2.4999979548
40.9424246427 -29.6922350697 -2.4999979548
40.9418103147 -29.6440387898 -2.4999979548
40.9415104929 -29.6279748091 -2.4999979548
40.9588495134 -31.0373835028 -2.4999978539
40.9405853847 -28.3630541784 -2.4999978539
40.9364961842 -28.3469994260 -2.4999978539
40.9583278825 -31.1398901757 -2.4999978395
40.9624529874 -31.1237707880 -2.4999978395
40.9473059770 -28.2927000594 -2.4999978395
40.9430086268 -28.2766257342 -2.4999978395
40.9386637447 -28.2605641916 -2.4999978395
40.9342713687 -28.2445155723 -2.4999978395
40.9603058606 -31.2266733847 -2.4999978251
40.9646876773 -31.2105477661 -2.4999978251
40.9690217723 -31.1944092558 -2.4999978251
40.9394562349 -28.1737620619 -2.4999978251
40.9348070790 -28.1577114780 -2.4999978251
40.9562159529 -31.3299345094 -2.4999978107
40.9655428637 -31.2976927705 -2.4999978107
40.9746788583 -31.2653964147 -2.4999978107
40.9339563465 -28.0705664300 -2.4999978107
40.9601097467 -31.4013097057 -2.4999977963
40.9650081700 -31.3851839031 -2.4999977963
40.9746618009 -31.3528891795 -2.4999977963
40.9368749196 -27.9991447091 -2.4999977963
40.9317092253 -27.9831025252 -2.4999977963
40.9527095284 -31.5052231012 -2.4999977819
40.9494725276 -27.9595644372 -2.4999977819
40.9343119183 -27.8393586812 -2.4999977675
40.9492859657 -31.6656066700 -2.4999977531
40.9772106536 -31.5849660494 -2.4999977531
40.9514658143 -27.8152719286 -2.4999977531
40.9451129818 -27.7266311562 -2.4999977387
40.9654939140 -31.7626549318 -2.4999977243
40.9435105119 -27.6538199526 -2.4999977243
40.9310885168 -27.6217177214 -2.4999977243
40.9574766283 -31.8518518071 -2.4999977098
40.9609529156 -31.9090487962 -2.4999976954
40.9307832023 -27.4914414632 -2.4999976954
40.9241156566 -27.4754195212 -2.4999976954
40.9353063445 -27.3184312585 -2.4999976522
40.9353181591 -27.2020743667 -2.4999976234
40.9767617130 -32.2406421009 -2.4999976090
40.9420615539 -27.1596631689 -2.4999976090
40.9344124986 -27.1436093151 -2.4999976090
40.9328946110 -27.0849614873 -2.4999975946
40.9573408913 -32.4494587872 -2.4999975658
40.9627740896 -32.4925354740 -2.4999975514
40.9460580859 -26.8967870585 -2.4999975369
40.9291571853 -26.8646830044 -2.4999975369
40.9284502017 -26.7615883096 -2.4999975081
40.9258695753 -26.6578911719 -2.4999974793
40.9706533814 -32.7866035439 -2.4999974649
41.2356904012 -27.1028281109 -2.4999974361
41.2278719328 -27.0859058986 -2.4999974361
41.1635291334 -26.9513758854 -2.4999974361
40.7849355665 -26.2879892347 -2.4999974361
40.7437518237 -26.2258307758 -2.4999974361
40.6484187671 -26.0877850099 -2.4999974361
40.6048756719 -26.0272558968 -2.4999974361
41.3478895140 -27.2983298415 -2.4999974217
41.2731954418 -27.1267654248 -2.4999974217
41.2576494451 -27.0927218913 -2.4999974217
40.5799888481 -25.9527838645 -2.4999974217
40.5234590735 -25.8782301811 -2.4999974217
41.3987532667 -27.3585057097 -2.4999974073
41.3916904255 -27.3411000092 -2.4999974073
41.3845761259 -27.3237152781 -2.4999974073
40.5080358707 -25.8189855028 -2.4999974073
40.4019559159 -25.6873587999 -2.4999974073
40.3476468181 -25.5854509764 -2.4999973929
40.2278265209 -25.4139680997 -2.4999973785
40.9538675930 -33.1470127434 -2.4999973640
40.9639301490 -33.1308977680 -2.4999973640
41.6613025957 -27.8867486780 -2.4999973640
41.6157889903 -27.7417380295 -2.4999973640
40.9540084486 -33.1921074922 -2.4999973496
41.7747027298 -28.1124244094 -2.4999973352
41.7698684715 -28.0939032837 -2.4999973352
40.9427459080 -33.2987389225 -2.4999973208
40.6262566302 -33.8566442879 -2.4999972776
40.7104531901 -33.7498521064 -2.4999972776
40.7575668895 -33.6880525820 -2.4999972776
40.7924204798 -33.6413394613 -2.4999972776
40.3916345867 -34.1681280618 -2.4999972632
40.5078544117 -34.0366411785 -2.4999972632
40.5583757158 -33.9772188200 -2.4999972632
40.5958033381 -33.9322620223 -2.4999972632
40.8578515344 -33.5927161968 -2.4999972632
41.2850290043 -32.9175251521 -2.4999972632
41.3222540008 -32.8489852477 -2.4999972632
41.3314333257 -32.8317818227 -2.4999972632
41.3496391026 -32.7972938869 -2.4999972632
41.3586653953 -32.7800096780 -2.4999972632
42.0100597530 -28.6348448996 -2.4999972632
40.4876868456 -34.0967418793 -2.4999972488
41.3980737071 -32.7563926150 -2.4999972488
41.5097938262 -32.5278326555 -2.4999972488
41.5234001211 -32.5558257822 -2.4999972344
41.6495819760 -32.3320073621 -2.4999972200
39.9276603842 -34.7602257461 -2.4999972056
39.9867840942 -34.7076178576 -2.4999972056
41.7603864945 -32.1211364327 -2.4999972056
41.8311639276 -31.9993792523 -2.4999971912
39.3526959097 -35.3887520841 -2.4999971191
42.1338127851 -31.4216876050 -2.4999971191
36.9396770444 -33.4571392982 -2.5000016292
36.9692419908 -33.4707021937 -2.5000016321
37.2702004626 -33.4329194704 -2.5000016436
37.3527130073 -33.4432068875 -2.5000016494
37.4582244593 -33.4667574693 -2.5000016580
37.5601974373 -33.4338972708 -2.5000016609
37.7080586424 -33.4254196072 -2.5000016695
37.4934064084 -26.5595753400 -2.5000016753
38.0229442573 -33.4091698061 -2.5000016897
37.7329532444 -26.5623995763 -2.5000016897
38.1808955555 -33.4081695209 -2.5000017012
38.3985923023 -26.5684500898 -2.5000017358
38.4341575031 -26.5038043201 -2.5000017445
40.9511478886 -31.4569443552 -2.5000018626
40.9591593943 -31.4246454704 -2.5000018626
40.9746084383 -31.3599083327 -2.5000018626
40.9783509250 -31.3436958392 -2.5000018626
40.9645824428 -28.7710430009 -2.5000018626
40.9567030190 -28.7387116406 -2.5000018626
40.9526916101 -28.7225635834 -2.5000018626
40.9486324499 -28.7064274634 -2.5000018626
40.9663549092 -31.4952228509 -2.5000018655
40.9761429731 -28.7167010878 -2.5000018655
40.9595491722 -28.6519525651 -2.5000018655
40.9466016769 -28.6035225047 -2.5000018655
40.9547525198 -31.6308564306 -2.5000018684
40.9637928847 -31.5985331759 -2.5000018684
40.9829295257 -28.6458129925 -2.5000018684
40.9610184497 -28.5648157510 -2.5000018684
40.9564926064 -28.5486556889 -2.5000018684
40.9472976062 -28.5163760829 -2.5000018684
40.9496261084 -31.7344889927 -2.5000018713
40.9592796881 -31.7021942538 -2.5000018713
40.9640347855 -31.6860256079 -2.5000018713
40.9687420323 -31.6698429664 -2.5000018713
40.9734013873 -31.6536464707 -2.5000018713
40.9780128098 -31.6374362627 -2.5000018713
40.9825762594 -31.6212124842 -2.5000018713
40.9705261305 -28.5096849738 -2.5000018713
40.9416751404 -28.4127692496 -2.5000018713
40.9476916444 -31.8223041323 -2.5000018741
40.9578648017 -31.7900193014 -2.5000018741
40.9678467731 -31.7576748478 -2.5000018741
40.9496479028 -28.3572001367 -2.5000018741
40.9445079448 -28.3410746191 -2.5000018741
40.9707255506 -31.8296372383 -2.5000018770
40.9623188441 -28.3175210864 -2.5000018770
40.9410027277 -28.2529640822 -2.5000018770
40.9672705203 -31.9180939173 -2.5000018799
40.9529213974 -28.2129309943 -2.5000018799
40.9473546508 -28.1967964244 -2.5000018799
40.9360780929 -28.1645770397 -2.5000018799
40.9451360118 -32.0552641884 -2.5000018828
40.9566874838 -32.0229904004 -2.5000018828
40.9736561709 -31.9744529891 -2.5000018828
40.9415262175 -28.1081196271 -2.5000018828
40.9356494698 -28.0920192247 -2.5000018828
40.9560797496 -32.0958167002 -2.5000018857
40.9523957639 -28.0675471663 -2.5000018857
40.9403544357 -28.0353002188 -2.5000018857
40.9342622802 -28.0192036015 -2.5000018857
40.9420953066 -32.2011569087 -2.5000018885
40.9606456962 -32.1527419788 -2.5000018885
40.9568575827 -28.0106136315 -2.5000018885
40.9519720627 -32.2422233636 -2.5000018914
40.9544024573 -27.9372860061 -2.5000018914
40.9415904253 -27.9050294662 -2.5000018914
40.9550302741 -32.2996390795 -2.5000018943
40.9443737393 -27.8475997679 -2.5000018943
40.9465648647 -27.7899495723 -2.5000018972
40.9397468904 -27.7738356569 -2.5000018972
40.9328812780 -27.7577419808 -2.5000018972
40.9454980266 -32.4474173079 -2.5000019001
40.9730499384 -32.3827702176 -2.5000019001
40.9411709582 -27.7159665014 -2.5000019001
40.9606433448 -32.4732022147 -2.5000019030
40.9491558585 -27.6740117504 -2.5000019030
40.9347862994 -27.6417908588 -2.5000019030
40.9613149919 -32.5314751433 -2.5000019058
40.9266727931 -27.5089682949 -2.5000019087
40.9455849853 -32.6808995191 -2.5000019116
40.9608379182 -32.6486121251 -2.5000019116
40.9253283100 -27.4503162356 -2.5000019116
40.9362091152 -32.7558483181 -2.5000019145
40.9233688163 -27.3914858581 -2.5000019145
40.9658143386 -32.7503266224 -2.5000019174
40.9392196493 -32.8579549288 -2.5000019202
40.9473937836 -32.8418405672 -2.5000019202
40.9423452865 -27.3215404345 -2.5000019202
40.9258905079 -27.2893660053 -2.5000019202
40.9306689083 -27.2460921781 -2.5000019231
40.9403905220 -32.9607297234 -2.5000019260
40.9218400038 -27.1269313310 -2.5000019289
40.9371376964 -33.1681545693 -2.5000019375
40.9642698429 -33.1197455564 -2.5000019375
40.9223235810 -26.9791798861 -2.5000019375
40.9489971521 -33.1962114680 -2.5000019404
40.9247490986 -26.9349933154 -2.5000019404
40.9420787637 -33.2566421188 -2.5000019433
40.9629705125 -33.2688023044 -2.5000019462
40.9189880507 -26.8301547990 -2.5000019462
40.9456817643 -33.3456746378 -2.5000019491
40.9202761644 -26.7855603078 -2.5000019491
40.9212257084 -26.7408370256 -2.5000019519
40.6183808960 -33.9204314388 -2.5000019548
40.6745233415 -33.8442490549 -2.5000019548
40.6856162703 -33.8289133974 -2.5000019548
40.7076657888 -33.7981439735 -2.5000019548
40.7403977742 -33.7517465869 -2.5000019548
40.7619897891 -33.7206544078 -2.5000019548
41.1274336140 -33.1236735818 -2.5000019548
41.1541635232 -33.0735775510 -2.5000019548
41.1891098461 -33.0064175986 -2.5000019548
40.5098121546 -34.1001635003 -2.5000019577
40.5569506278 -34.0405559454 -2.5000019577
40.6148764807 -33.9652689993 -2.5000019577
41.2617349661 -32.9155616827 -2.5000019577
41.2783707061 -32.8813997323 -2.5000019577
41.2948040412 -32.8471399571 -2.5000019577
41.3190732788 -32.7955694972 -2.5000019577
41.3507185366 -32.7264777182 -2.5000019577
41.3585019370 -32.7091466437 -2.5000019577
40.3450286107 -34.3345483524 -2.5000019606
40.3825351642 -34.2913480446 -2.5000019606
40.4927340281 -34.1597739697 -2.5000019606
41.3960387158 -32.6841557166 -2.5000019606
41.4188575732 -32.6316932739 -2.5000019606
41.4338111024 -32.5966067015 -2.5000019606
41.4412099573 -32.5790303924 -2.5000019606
41.4485567859 -32.5614322731 -2.5000019606
41.4774225586 -32.4908247761 -2.5000019606
40.2219150658 -34.5065732420 -2.5000019635
41.5140237031 -32.4642762964 -2.5000019635
41.5210307497 -32.4464632829 -2.5000019635
41.5348866078 -32.4107754615 -2.5000019635
41.5417352981 -32.3929009659 -2.5000019635
40.0791300353 -34.6886453781 -2.5000019663
40.1197894720 -34.6477908271 -2.5000019663
40.2395701428 -34.5230848602 -2.5000019663
41.5978945222 -32.3115093858 -2.5000019663
41.6044492897 -32.2934489357 -2.5000019663
41.6301332457 -32.2210156067 -2.5000019663
41.6426533702 -32.1846862440 -2.5000019663
41.2341173133 -27.0441301857 -2.5000019663
41.1977148166 -26.9764462808 -2.5000019663
41.1698887643 -26.9259686130 -2.5000019663
40.7230827748 -26.2317108238 -2.5000019663
40.6067755274 -26.0787910973 -2.5000019663
40.5948971236 -26.0636898273 -2.5000019663
40.5589946079 -26.0185977714 -2.5000019663
39.9995595126 -34.8000350080 -2.5000019692
40.0961879796 -34.7057731864 -2.5000019692
41.6465995702 -32.2471635353 -2.5000019692
41.6839755299 -32.1376600434 -2.5000019692
41.3602295463 -27.2391408877 -2.5000019692
41.3432799506 -27.2044955571 -2.5000019692
41.2912055121 -27.1011697135 -2.5000019692
40.8103842243 -26.3110904569 -2.5000019692
40.7539605731 -26.2329006078 -2.5000019692
40.5778385321 -26.0034570382 -2.5000019692
40.5291682508 -25.9436113821 -2.5000019692
40.5168903005 -25.9287402799 -2.5000019692
40.4922026946 -25.8991073616 -2.5000019692
40.4673402025 -25.8696210222 -2.5000019692
40.3789568706 -25.7675879967 -2.5000019692
39.8310308031 -34.9878073520 -2.5000019721
39.8887198097 -34.9361693130 -2.5000019721
39.9173341729 -34.9100952173 -2.5000019721
39.9740976116 -34.8574414370 -2.5000019721
41.7650917432 -31.9606586983 -2.5000019721
41.7760691468 -31.9235354325 -2.5000019721
41.4718446468 -27.4215934567 -2.5000019721
41.4639347102 -27.4039272804 -2.5000019721
41.3904036060 -27.2460066110 -2.5000019721
41.3819746081 -27.2285821203 -2.5000019721
41.3649621627 -27.1938083234 -2.5000019721
40.4098659020 -25.7660900590 -2.5000019721
40.3842178759 -25.7370931797 -2.5000019721
40.3324094082 -25.6795571803 -2.5000019721
40.2931082672 -25.6368096823 -2.5000019721
41.8309986704 -31.8181582174 -2.5000019750
41.5850781858 -27.6263062688 -2.5000019750
41.5630040225 -27.5723653778 -2.5000019750
41.5555396976 -27.5544288759 -2.5000019750
40.4789864054 -25.8087907100 -2.5000019750
40.2442456593 -25.5496446578 -2.5000019750
40.1902290125 -25.4937779972 -2.5000019750
40.7542371517 -26.1118235826 -2.5000019779
40.1110477251 -25.3803039471 -2.5000019779
39.4540628022 -35.3877750983 -2.5000019808
39.4697271002 -35.3760430302 -2.5000019808
41.9443780953 -31.5651887635 -2.5000019808
41.6937079808 -27.7723622265 -2.5000019808
40.0717560505 -25.3085667333 -2.5000019808
42.0128184740 -31.4797583733 -2.5000019865
39.7521625760 -24.9588081259 -2.5000019865
41.8890256728 -28.1215741636 -2.5000019894
42.0644915844 -28.4858600927 -2.5000019980
39.5292264658 -24.6306156633 -2.5000020009
42.3412012669 -29.1739552523 -2.5000020153
37.5890616907 -33.4458255258 -2.5000020605
37.6068485711 -33.4336582442 -2.5000020605
37.7144503539 -33.4166904387 -2.5000020721
36.8471595391 -26.5704763534 -2.5000021643
36.8242825294 -26.5628187441 -2.5000021643
36.8741978848 -26.5286016169 -2.5000021758
36.8510726568 -26.5207847726 -2.5000021758
36.7581214402 -26.4908895937 -2.5000021758
37.0663347114 -26.5735507912 -2.5000021816
36.9515036907 -26.5301361681 -2.5000021816
36.9168091814 -26.5177761361 -2.5000021816
37.0981589593 -26.5602111504 -2.5000021873
37.1874995105 -26.5710374869 -2.5000021931
37.2199303875 -26.5586626734 -2.5000021989
37.2084609678 -26.5537142783 -2.5000021989
37.2869910233 -26.5618757296 -2.5000022046
37.2640554316 -26.5516160801 -2.5000022046
37.3314106343 -26.5555715765 -2.5000022104
37.4439658411 -26.5556110909 -2.5000022219
37.5345513553 -26.5469700088 -2.5000022334
37.7413983672 -26.5486870378 -2.5000022565
37.8689666151 -26.5672091740 -2.5000022680
37.9158360830 -26.5674189709 -2.5000022738
38.2143313985 -26.5600005334 -2.5000023141
40.9524160130 -31.8779361524 -2.5000025274
40.9624587800 -29.0269539606 -2.5000025274
40.9540430922 -28.9949058665 -2.5000025274
40.9399185992 -32.0123596061 -2.5000025331
40.9643704860 -28.9405126889 -2.5000025331
40.9554433492 -28.9084547974 -2.5000025331
40.9509086951 -28.8924457980 -2.5000025331
40.9439763585 -32.0831866960 -2.5000025389
40.9584048395 -32.0351770374 -2.5000025389
40.9631195823 -32.0191455966 -2.5000025389
40.9724066935 -31.9870412246 -2.5000025389
40.9787110525 -28.9019012287 -2.5000025389
40.9649060418 -28.8537085937 -2.5000025389
40.9506738921 -28.8056403682 -2.5000025389
40.9471106185 -32.1543299021 -2.5000025446
40.9571978057 -32.1223178786 -2.5000025446
40.9621703321 -32.1062896271 -2.5000025446
40.9738216165 -28.7986748724 -2.5000025446
40.9591007223 -28.7505296933 -2.5000025446
40.9540988812 -28.7345105657 -2.5000025446
40.9545930910 -32.2097718645 -2.5000025504
40.9598243336 -32.1937509356 -2.5000025504
40.9565947211 -28.6630728231 -2.5000025504
40.9394575861 -32.3294864507 -2.5000025562
40.9450430323 -32.3135097715 -2.5000025562
40.9505811922 -32.2975166396 -2.5000025562
40.9615154594 -32.2654815770 -2.5000025562
40.9635799662 -28.6073709596 -2.5000025562
40.9526818648 -28.5753235756 -2.5000025562
40.9471617604 -28.5593242027 -2.5000025562
40.9393544681 -32.4015063255 -2.5000025619
40.9566080392 -32.3535251485 -2.5000025619
40.9587719264 -28.5193219050 -2.5000025619
40.9530861323 -28.5033047616 -2.5000025619
40.9415725240 -28.4713212840 -2.5000025619
40.9620650145 -32.4097868063 -2.5000025677
40.9525405345 -28.4310173691 -2.5000025677
40.9465935468 -28.4150190457 -2.5000025677
40.9425137235 -32.5303509905 -2.5000025735
40.9486933499 -32.5143643919 -2.5000025735
40.9548256581 -32.4983595828 -2.5000025735
40.9510387859 -28.3584738306 -2.5000025735
40.9650479469 -32.5390999365 -2.5000025792
40.9451425040 -28.2126685989 -2.5000025850
40.9449238309 -32.7174195772 -2.5000025908
40.9608809785 -28.1874385861 -2.5000025908
40.9396722495 -32.7908709157 -2.5000025965
40.9466225534 -32.7748915828 -2.5000025965
40.9561469951 -28.1139520729 -2.5000025965
40.9423297919 -28.0819573005 -2.5000025965
40.9334359023 -32.8645164164 -2.5000026023
40.9547986613 -32.8165695308 -2.5000026023
40.9335960874 -32.9224028696 -2.5000026080
40.9482276887 -32.8904573600 -2.5000026080
40.9509976317 -27.9823805764 -2.5000026080
40.9437235020 -27.9663887801 -2.5000026080
40.9406630238 -32.9645219647 -2.5000026138
40.9481270146 -32.9485389412 -2.5000026138
40.9490691848 -27.8075669843 -2.5000026253
40.9412779334 -27.7915816577 -2.5000026253
40.9361880593 -33.1398748924 -2.5000026311
40.9441707953 -33.1239043393 -2.5000026311
40.9521062527 -33.1079102418 -2.5000026311
40.9472042391 -27.7489291666 -2.5000026311
40.9416229010 -33.1827121719 -2.5000026369
40.9467389443 -33.2257081130 -2.5000026426
40.9333083158 -27.6151787889 -2.5000026426
40.9463380404 -27.5879802853 -2.5000026484
40.9421632451 -27.5286766598 -2.5000026542
40.6593688614 -33.8984984855 -2.5000026657
40.7100596780 -33.8224229576 -2.5000026657
40.7497987289 -33.7610279119 -2.5000026657
40.7596197634 -33.7456060144 -2.5000026657
40.8646187168 -33.5740820068 -2.5000026657
40.9319249689 -27.4096286244 -2.5000026657
40.6273724628 -33.9876629157 -2.5000026714
40.6483118597 -33.9575104841 -2.5000026714
40.6587145693 -33.9423879434 -2.5000026714
40.6896536517 -33.8968366104 -2.5000026714
41.2202861228 -32.9334484785 -2.5000026714
41.2708348717 -32.8153268514 -2.5000026714
41.2778560717 -32.7983677726 -2.5000026714
41.2917478146 -32.7643876762 -2.5000026714
41.3122078774 -32.7132649163 -2.5000026714
40.4838843922 -34.2244805900 -2.5000026772
40.6890490146 -33.9408462378 -2.5000026772
41.3481297454 -32.6878320185 -2.5000026772
41.3613662917 -32.6534380940 -2.5000026772
41.3935653968 -32.5671159421 -2.5000026772
41.3998518071 -32.5497948903 -2.5000026772
41.4288460901 -32.5406012905 -2.5000026830
41.4770615892 -32.4006953762 -2.5000026830
40.9493294690 -27.2938218853 -2.5000026830
40.9212548132 -27.2459533193 -2.5000026830
40.1765760872 -34.6666234260 -2.5000026887
41.5058232555 -32.3906652813 -2.5000026887
41.5504692233 -32.2489798195 -2.5000026887
40.1182704826 -34.7648380679 -2.5000026945
40.9244626020 -27.1573859967 -2.5000026945
40.4326928283 -34.4445872762 -2.5000027003
41.6719462231 -31.9925583983 -2.5000027003
41.7178494591 -31.9073260842 -2.5000027060
41.8022057821 -31.7523503240 -2.5000027175
40.9154387648 -26.8727376241 -2.5000027291
40.9129152671 -26.7822209871 -2.5000027406
40.9111309728 -26.7367982696 -2.5000027464
41.1930361999 -26.9479521384 -2.5000027752
41.1827009848 -26.9312488744 -2.5000027752
41.1513995071 -26.8813235447 -2.5000027752
41.1408673747 -26.8647437411 -2.5000027752
41.0874735716 -26.7823160426 -2.5000027752
40.7663917193 -26.3359828948 -2.5000027752
40.7175437898 -26.2744453984 -2.5000027752
40.7052183004 -26.2591516738 -2.5000027752
40.6804318669 -26.2286739420 -2.5000027752
41.3535786009 -27.1731073199 -2.5000027809
41.3341880885 -27.1387776750 -2.5000027809
41.3244167523 -27.1216560232 -2.5000027809
41.2748027038 -27.0364854564 -2.5000027809
41.2647290285 -27.0195399249 -2.5000027809
41.1823441034 -26.8850635342 -2.5000027809
41.1718228992 -26.8683921745 -2.5000027809
40.7363877110 -26.2593046615 -2.5000027809
40.6866345894 -26.1981275544 -2.5000027809
40.6740834733 -26.1829255987 -2.5000027809
40.6488466057 -26.1526334051 -2.5000027809
40.5720669048 -26.0626600788 -2.5000027809
40.5199984966 -26.0034410581 -2.5000027809
40.4804893413 -25.9594333771 -2.5000027809
