19.7484300882 -11.5565993847 -2.5008041859
18.2177656085 -10.1191038509 -2.5008041859
18.4897957250 -10.4526839285 -2.5008041859
19.7513062957 -11.5881407655 -2.5008041859
19.9381968927 -11.7143118748 -2.5008041859
18.3520111470 -10.3271542098 -2.5008041859
19.8051760436 -11.6546986929 -2.5008041859
19.8563260873 -11.6892304342 -2.5008041859
20.0290021266 -11.8010330413 -2.5008041859
20.0336742571 -11.8324524057 -2.5008041859
20.0687879122 -11.8541690374 -2.5008041859
17.8609924837 -9.7406021356 -2.5008041859
17.8837680756 -9.7752096932 -2.5008041859
17.9183143710 -9.8268668640 -2.5008041859
20.5219179059 -12.1912959303 -2.5008041859
17.5921368826 -9.4415281908 -2.5008041859
17.6666087991 -9.5676908242 -2.5008041859
17.2825003085 -9.0104390435 -2.5008041859
21.1339459935 -12.5709738214 -2.5008041859
19.0480952354 -7.0815220672 -2.4996057952
19.0562187821 -7.1074051425 -2.4996057952
19.0499703912 -7.1666038616 -2.4996058010
19.0534934278 -7.2520451750 -2.4996058067
19.0491908870 -7.3119416280 -2.4996058125
19.0360069332 -7.3462030913 -2.4996058183
19.0456966333 -7.3721530527 -2.4996058183
19.0480989130 -7.4456296996 -2.4996058240
19.0532186409 -7.4585756409 -2.4996058240
19.0510536445 -7.5804906913 -2.4996058355
19.0512225244 -7.6418531179 -2.4996058413
19.0361274894 -7.7264441130 -2.4996058528
19.0505976432 -7.8144874452 -2.4996058586
19.0568085080 -7.8274243810 -2.4996058586
19.0732882515 -7.9155340581 -2.4996058644
19.0149479622 -8.2653117763 -2.4996059162
19.0792096399 -8.5103653854 -2.4996059335
22.1309884987 -10.9460204815 -2.4996059854
22.2394462698 -10.9717346903 -2.4996059854
24.8402561930 -10.9155155326 -2.4996059854
24.9016163827 -10.8984292264 -2.4996059854
22.0167820543 -10.9414025383 -2.4996059912
22.0476899932 -10.9496543110 -2.4996059912
22.0631621351 -10.9537115879 -2.4996059912
24.9543297057 -10.9083272755 -2.4996059912
24.9696668769 -10.9037863672 -2.4996059912
21.9176411780 -10.9387729963 -2.4996059969
21.9330817000 -10.9432150286 -2.4996059969
21.9640018271 -10.9519619691 -2.4996059969
25.0226989619 -10.9129978774 -2.4996059969
21.8490206826 -10.9436884793 -2.4996060027
21.8954276560 -10.9574862269 -2.4996060027
21.7491817815 -10.9378722705 -2.4996060084
21.7646203761 -10.9428126402 -2.4996060084
21.7800735176 -10.9477073181 -2.4996060084
25.1296110981 -10.9298117905 -2.4996060084
25.2064592059 -10.9040593203 -2.4996060084
21.6799023783 -10.9405776016 -2.4996060142
21.7262884041 -10.9558763018 -2.4996060142
21.7728083706 -10.9707627496 -2.4996060142
25.2143092965 -10.9269222020 -2.4996060142
25.2757782693 -10.9054091272 -2.4996060142
25.3300323962 -10.9114932686 -2.4996060200
25.3453772892 -10.9058409499 -2.4996060200
21.5250230362 -10.9376411348 -2.4996060257
21.5404619278 -10.9432446076 -2.4996060257
21.5868771127 -10.9597806586 -2.4996060257
25.4305705519 -10.8994440023 -2.4996060257
21.4703248526 -10.9431931234 -2.4996060315
25.4700270233 -10.9099915517 -2.4996060315
21.3690734919 -10.9301257704 -2.4996060373
25.5096781233 -10.9202526870 -2.4996060373
21.3292777882 -10.9402884561 -2.4996060430
21.3756750551 -10.9586987643 -2.4996060430
21.2275706865 -10.9245017519 -2.4996060488
21.1872825129 -10.9336077489 -2.4996060546
25.7068605993 -10.9161460796 -2.4996060546
25.7781435410 -10.9108241904 -2.4996060603
25.7934844940 -10.9038462809 -2.4996060603
21.0598373277 -10.9301299354 -2.4996060661
21.0752560352 -10.9371095445 -2.4996060661
25.8342751067 -10.9116835999 -2.4996060661
21.0035099062 -10.9308353132 -2.4996060718
25.9059500993 -10.9046431146 -2.4996060718
25.5884385804 -11.0709576595 -2.4996060776
26.1297484697 -10.8189187111 -2.4996060776
26.2048470273 -10.7783859523 -2.4996060776
26.2496155072 -10.7535346940 -2.4996060776
26.2793378751 -10.7367468906 -2.4996060776
26.3089604007 -10.7197835334 -2.4996060776
25.5018098722 -11.1310470906 -2.4996060834
25.7711184256 -11.0199099697 -2.4996060834
26.4243435635 -10.6797248110 -2.4996060834
26.4973511655 -10.6348501025 -2.4996060834
26.5840722486 -10.5795824621 -2.4996060834
17.6520462886 -5.0141728024 -2.4996060891
25.2183993532 -11.2568062039 -2.4996060891
25.2511172925 -11.2461106134 -2.4996060891
25.3488834326 -11.2128650746 -2.4996060891
20.7190227637 -10.9254252937 -2.4996061007
20.6194010072 -10.9273569210 -2.4996061122
20.3198505393 -10.9521323115 -2.4996061525
20.2610238725 -10.9450249336 -2.4996061583
20.2175232555 -10.9468007581 -2.4996061641
18.7758598289 -10.6945187794 -2.4996063254
19.3630714269 -11.1848665501 -2.4996063254
19.4443226590 -11.2443755318 -2.4996063254
19.4606780304 -11.2561327506 -2.4996063254
18.5003439229 -10.4566794019 -2.4996063312
18.5567187827 -10.5146420043 -2.4996063312
18.5994478556 -10.5576739797 -2.4996063312
18.6425571305 -10.6003250640 -2.4996063312
18.7299026762 -10.6844711532 -2.4996063312
19.5125980181 -11.3224901972 -2.4996063312
19.6630890350 -11.4247077948 -2.4996063312
18.2769910105 -10.2494437226 -2.4996063370
18.3038705412 -10.2798334655 -2.4996063370
18.3993548560 -10.3849340988 -2.4996063370
19.6837023800 -11.4671302953 -2.4996063370
19.7007156529 -11.4781784109 -2.4996063370
19.7177615337 -11.4891761498 -2.4996063370
19.7519505219 -11.5110201131 -2.4996063370
18.2454177423 -10.2500971223 -2.4996063427
18.5222616135 -10.5485543121 -2.4996063427
19.7046864102 -11.5095078105 -2.4996063427
19.8949687540 -11.6275454968 -2.4996063427
17.9801305747 -9.9667276086 -2.4996063485
18.0821139925 -10.0944288460 -2.4996063485
18.4764598164 -10.5363058681 -2.4996063485
19.8126804808 -11.6059378127 -2.4996063485
17.9110388227 -9.9166144599 -2.4996063542
17.7340353166 -9.7153251819 -2.4996063600
17.8423730655 -9.8654586075 -2.4996063600
17.7620686062 -9.7965231826 -2.4996063658
20.4088470302 -12.0133536074 -2.4996063658
20.4274729576 -12.0222542240 -2.4996063658
17.5780141316 -9.5717781235 -2.4996063715
19.7974416074 -11.7099082481 -2.4996063715
17.8090083933 -9.9419848173 -2.4996063773
20.7394274441 -12.2400080885 -2.4996063831
16.9698147174 -8.7862239139 -2.4996064061
19.0596704952 -6.8828404745 -2.5001755938
19.0575730529 -7.0981084736 -2.5001756283
18.7251429050 -6.9472968306 -2.5001757551
23.0222043845 -10.9209932267 -2.5001761125
23.0379836168 -10.9212117476 -2.5001761125
23.0695436757 -10.9215087514 -2.5001761125
23.1326663031 -10.9215425800 -2.5001761125
23.1642266622 -10.9212794035 -2.5001761125
24.6656675083 -10.8898203574 -2.5001762047
24.7197000390 -10.8988791143 -2.5001762162
24.8054637227 -10.8974209636 -2.5001762277
25.0571608620 -10.9132012034 -2.5001762738
21.1842392925 -10.9510385321 -2.5001762854
20.6987990105 -10.9642045962 -2.5001763776
26.1652562172 -10.7886715301 -2.5001764467
25.4075173253 -11.1919026237 -2.5001764583
25.5066310533 -11.1501359106 -2.5001764583
26.4794532369 -10.6487091586 -2.5001764698
18.7109709462 -10.6623311911 -2.5001767695
18.8170013346 -10.7522036065 -2.5001767695
19.4068710441 -11.1895791481 -2.5001767695
18.4880423965 -10.4937039239 -2.5001767810
18.3848115029 -10.4283167525 -2.5001767925
19.9567679003 -11.6796779128 -2.5001768386
20.4437939145 -11.9861351205 -2.5001768732
22.6033269092 -6.9939289460 -2.4999316867
19.0440590279 -6.4526992157 -2.4999333638
19.0643472350 -6.5294937000 -2.4999333638
19.0502799974 -6.5688965088 -2.4999333811
19.0566016508 -6.5908415801 -2.4999333811
19.0630530280 -6.6127488663 -2.4999333811
19.0333930928 -6.5976016185 -2.4999333984
19.0477307186 -6.7258666027 -2.4999334157
19.0319255919 -6.8295397335 -2.4999334503
19.0518299089 -6.8845742836 -2.4999334503
19.0600191909 -6.9065046602 -2.4999334503
19.0457683752 -6.9370432136 -2.4999334676
19.0500020368 -6.9480321598 -2.4999334676
19.0542117411 -7.0869648852 -2.4999335021
19.0683402931 -7.1198130779 -2.4999335021
19.0635779164 -7.2271247562 -2.4999335367
19.0672623266 -7.3464908338 -2.4999335713
19.0565977916 -7.3792012804 -2.4999335886
19.0575021239 -7.4340562730 -2.4999336059
19.0303416810 -7.4341579832 -2.4999336232
19.0496995655 -7.5225392534 -2.4999336405
19.0544890603 -7.6788683326 -2.4999336923
19.0609171366 -7.6898282356 -2.4999336923
19.0885818104 -7.9613922408 -2.4999337788
24.1370135174 -10.9406245213 -2.4999346260
24.2491360116 -10.9110030659 -2.4999346260
24.2810560370 -10.9021139650 -2.4999346260
24.3129229128 -10.8930361701 -2.4999346260
21.3924287424 -10.9666027840 -2.4999346433
21.4085723023 -10.9706322534 -2.4999346433
24.3515641875 -10.9069584579 -2.4999346433
24.3993844372 -10.8926451932 -2.4999346433
21.3056587848 -10.9690952175 -2.4999346606
21.3218100975 -10.9733813572 -2.4999346606
21.3541504068 -10.9818102077 -2.4999346606
24.4064186168 -10.9157721385 -2.4999346606
24.4543149228 -10.9009717245 -2.4999346606
24.4702509371 -10.8959438680 -2.4999346606
21.2185167050 -10.9702092468 -2.4999346779
21.2346716944 -10.9747531636 -2.4999346779
21.2508400549 -10.9792492712 -2.4999346779
24.5573514169 -10.8930301813 -2.4999346779
24.5732634878 -10.8876975589 -2.4999346779
21.1310243701 -10.9699344302 -2.4999346951
21.1633476254 -10.9794920935 -2.4999346951
21.1795303165 -10.9841991699 -2.4999346951
24.6128904984 -10.8997539459 -2.4999346951
21.0593538669 -10.9733232050 -2.4999347124
24.6686896472 -10.9059139981 -2.4999347124
24.7164881399 -10.8887864640 -2.4999347124
21.0521574086 -10.9964001691 -2.4999347297
24.7407092104 -10.9056783786 -2.4999347297
24.7885027761 -10.8879117205 -2.4999347297
20.9312793501 -10.9827302725 -2.4999347470
24.8289337565 -10.8984016507 -2.4999347470
24.8448605290 -10.8922656151 -2.4999347470
20.7858958182 -10.9833322358 -2.4999347816
20.8020915207 -10.9891558660 -2.4999347816
24.9901165931 -10.8861492787 -2.4999347816
20.7289986012 -10.9882354907 -2.4999347989
20.7452090573 -10.9942274118 -2.4999347989
25.0312633242 -10.8951528270 -2.4999347989
20.6394673805 -10.9800923539 -2.4999348162
20.5658928172 -10.9770163403 -2.4999348335
25.2355393890 -10.8843715250 -2.4999348508
25.3355979835 -10.8908227775 -2.4999348853
25.3938595638 -10.8894910203 -2.4999349026
25.4097575052 -10.8816838710 -2.4999349026
20.2594260336 -10.9768478358 -2.4999349199
20.2756048576 -10.9842288873 -2.4999349199
20.2918054453 -10.9915620466 -2.4999349199
25.4681912445 -10.8795671300 -2.4999349199
20.1846060172 -10.9687029459 -2.4999349372
20.1419094056 -10.9751503774 -2.4999349545
20.0990466297 -10.9812828559 -2.4999349718
25.5968234009 -10.8948727331 -2.4999349718
20.0398335738 -10.9790680070 -2.4999349891
19.9966291210 -10.9844375968 -2.4999350064
19.9370732391 -10.9811519844 -2.4999350237
19.8773587033 -10.9772386741 -2.4999350409
25.8023685532 -10.8928792131 -2.4999350409
25.8620816407 -10.8866325774 -2.4999350582
25.9060278502 -10.8890705186 -2.4999350755
19.6531616070 -10.9644703654 -2.4999351101
19.6854784001 -10.9827716567 -2.4999351101
25.5546509403 -11.1336343968 -2.4999351101
25.5712703985 -11.1253505293 -2.4999351101
26.1988443401 -10.7647197973 -2.4999351101
26.2298647814 -10.7442981274 -2.4999351101
26.2453295581 -10.7340185587 -2.4999351101
26.3221935971 -10.6819369892 -2.4999351101
26.3831249554 -10.6394567490 -2.4999351101
26.4134010732 -10.6179470053 -2.4999351101
25.3802979881 -11.2434828477 -2.4999351274
25.3972431607 -11.2357142671 -2.4999351274
25.4647918212 -11.2041397024 -2.4999351274
26.4122791454 -10.6484303333 -2.4999351274
26.4878590399 -10.5938888769 -2.4999351274
26.6658946567 -10.4584760978 -2.4999351274
25.1671691377 -11.3622441395 -2.4999351447
25.1844665602 -11.3551055130 -2.4999351447
25.2017427897 -11.3479157489 -2.4999351447
25.2189976750 -11.3406749099 -2.4999351447
25.2362310650 -11.3333830596 -2.4999351447
26.8972976196 -10.2987598055 -2.4999351447
19.5198341153 -10.9707732509 -2.4999351620
24.9839985476 -11.4600220389 -2.4999351620
25.0015860163 -11.4534248363 -2.4999351620
25.0191538923 -11.4467756357 -2.4999351620
25.2110635694 -11.3702195231 -2.4999351620
26.9837217261 -10.2551418248 -2.4999351620
26.9977361916 -10.2426343512 -2.4999351620
27.0117135963 -10.2300854751 -2.4999351620
24.8327056504 -11.5399103019 -2.4999351793
24.8505301050 -11.5337603015 -2.4999351793
24.8861240459 -11.5213022519 -2.4999351793
24.9038932208 -11.5149943117 -2.4999351793
27.2068463985 -10.0805611734 -2.4999351793
24.7328275148 -11.5986990593 -2.4999351966
27.3836693063 -9.9366735572 -2.4999351966
24.1748106429 -11.8756639576 -2.4999352830
18.8275496875 -10.7693342714 -2.4999353176
18.8431209140 -10.7809519801 -2.4999353176
19.4757763312 -11.1971112795 -2.4999353176
18.5079325236 -10.5459187098 -2.4999353349
18.5377930679 -10.5710028864 -2.4999353349
18.5828608385 -10.6082968085 -2.4999353349
18.6282577971 -10.6451893109 -2.4999353349
18.7200249510 -10.7177584660 -2.4999353349
18.7508984451 -10.7415848250 -2.4999353349
18.7663879190 -10.7534294033 -2.4999353349
18.7974716429 -10.7769808392 -2.4999353349
18.9073504968 -10.8579540408 -2.4999353349
19.5825467178 -11.2851233291 -2.4999353349
19.6167618374 -11.3038367899 -2.4999353349
19.6510870733 -11.3223474951 -2.4999353349
19.7027787658 -11.3497319705 -2.4999353349
19.7373740276 -11.3677329674 -2.4999353349
18.2580371753 -10.3566802210 -2.4999353522
18.3012139689 -10.3964652594 -2.4999353522
18.5524179856 -10.6145562156 -2.4999353522
19.5708845274 -11.3062971005 -2.4999353522
19.6569428630 -11.3528705552 -2.4999353522
19.8135472741 -11.4334757204 -2.4999353522
19.8486360534 -11.4508199079 -2.4999353522
19.9191183799 -11.4848839814 -2.4999353522
19.9368015557 -11.4932695016 -2.4999353522
18.1985995541 -10.3340708341 -2.4999353695
20.0334788396 -11.5645175558 -2.4999353695
18.0547571012 -10.2279732521 -2.4999353867
20.2044305730 -11.6649121405 -2.4999353867
17.8591767584 -10.0599217930 -2.4999354040
20.4820137932 -11.8245282392 -2.4999354213
17.5868985063 -9.8234480105 -2.4999354386
20.4550680625 -11.8404647380 -2.4999354386
17.4798345620 -9.7304406807 -2.4999354559
19.0601779845 -6.9794314534 -2.5000261466
19.0645811859 -6.9893441814 -2.5000261466
19.0651069311 -7.0488812010 -2.5000261523
19.0594284532 -7.1490505883 -2.5000261639
19.0566398323 -7.2503464579 -2.5000261754
19.0579838015 -7.4042242303 -2.5000261927
25.9501817414 -7.3230223153 -2.5000262215
25.9555712000 -7.3125516627 -2.5000262215
25.9552051394 -7.3656227825 -2.5000262273
19.0554940511 -7.8516611346 -2.5000262503
25.9644121069 -7.5488081855 -2.5000262503
21.0753480505 -10.9591363499 -2.5000266134
21.1400851699 -10.9745854706 -2.5000266134
21.2050005585 -10.9892675102 -2.5000266134
23.9542397676 -10.9054029160 -2.5000266134
20.9724304509 -10.9579025516 -2.5000266192
21.0371601763 -10.9745695275 -2.5000266192
24.0250365065 -10.9099596521 -2.5000266192
24.0570396451 -10.9003294781 -2.5000266192
20.8852920318 -10.9592733369 -2.5000266249
20.9176418775 -10.9682180826 -2.5000266249
20.9500440771 -10.9769712792 -2.5000266249
20.9662644553 -10.9812759506 -2.5000266249
24.1441685254 -10.8984476297 -2.5000266249
20.8301505432 -10.9687186971 -2.5000266307
20.8463470334 -10.9733780713 -2.5000266307
20.8787810090 -10.9825529818 -2.5000266307
24.1996240737 -10.9058287376 -2.5000266307
20.7423186628 -10.9678233338 -2.5000266365
20.7909446415 -10.9824371124 -2.5000266365
24.2553463477 -10.9126492530 -2.5000266365
24.2873613681 -10.9016564415 -2.5000266365
24.3033443492 -10.8960890543 -2.5000266365
20.6379960553 -10.9602942121 -2.5000266422
20.6703562690 -10.9707020259 -2.5000266422
20.7027774924 -10.9809182037 -2.5000266422
24.3433808010 -10.9075808908 -2.5000266422
24.2870625341 -10.9529021618 -2.5000266480
24.4476471953 -10.8950941618 -2.5000266480
24.4636100627 -10.8890526489 -2.5000266480
20.4931654980 -10.9623678307 -2.5000266537
24.5201805820 -10.8931633478 -2.5000266537
20.4203377195 -10.9619754462 -2.5000266595
20.4527116893 -10.9736709704 -2.5000266595
24.6088998324 -10.8837975056 -2.5000266595
20.3958291665 -10.9787418496 -2.5000266653
24.6340169747 -10.8996376641 -2.5000266653
20.3062743411 -10.9708625486 -2.5000266710
24.6752689051 -10.9087086213 -2.5000266710
24.7232153998 -10.8884220007 -2.5000266710
20.2165131281 -10.9615286770 -2.5000266768
20.2326910338 -10.9680033331 -2.5000266768
20.2813386782 -10.9871397640 -2.5000266768
24.7966407616 -10.8828189235 -2.5000266768
24.8224114809 -10.8978221623 -2.5000266826
24.8543288547 -10.8834746626 -2.5000266826
20.0591641372 -10.9746429576 -2.5000266941
25.0126158990 -10.8895325985 -2.5000266998
25.0710661409 -10.8879351923 -2.5000267056
19.7334976467 -10.9578862028 -2.5000267229
25.2155442666 -10.8961173972 -2.5000267229
25.2746815849 -10.8923932688 -2.5000267287
19.6472493450 -10.9689432628 -2.5000267344
19.5876935015 -10.9656569526 -2.5000267402
19.5279790117 -10.9617429426 -2.5000267460
25.4529898497 -10.8774529103 -2.5000267460
19.3199268194 -10.9581467414 -2.5000267690
19.2311912120 -10.9629452810 -2.5000267805
25.7178371675 -10.8898571807 -2.5000267805
19.1866184776 -10.9648424440 -2.5000267863
25.7624413328 -10.8907495455 -2.5000267863
18.6864488402 -10.6966379075 -2.5000267978
18.7172833299 -10.7185963445 -2.5000267978
18.8105587022 -10.7833717439 -2.5000267978
18.8419041663 -10.8045943873 -2.5000267978
19.5780993066 -11.2316464250 -2.5000267978
18.4146800712 -10.5216366455 -2.5000268036
18.5045074310 -10.5918137252 -2.5000268036
18.5498846572 -10.6263016299 -2.5000268036
18.6108603193 -10.6716565072 -2.5000268036
19.5844314794 -11.2617101536 -2.5000268036
19.6185934101 -11.2783459340 -2.5000268036
19.6357111347 -11.2865879586 -2.5000268036
19.7389226611 -11.3349734718 -2.5000268036
18.3402201044 -10.4927077400 -2.5000268094
18.3996296993 -10.5405528181 -2.5000268094
25.9420911222 -10.8909075555 -2.5000268094
18.0779948800 -10.2995892386 -2.5000268151
20.0001531303 -11.4998273616 -2.5000268151
20.0535295717 -11.5210064935 -2.5000268151
20.0713632271 -11.5279608365 -2.5000268151
25.5956500591 -11.1300243760 -2.5000268151
25.6289276862 -11.1110980732 -2.5000268151
26.1609032551 -10.7709547849 -2.5000268151
26.2075687595 -10.7374894174 -2.5000268151
26.2999996446 -10.6693229135 -2.5000268151
26.3152865350 -10.6578027948 -2.5000268151
26.3760913083 -10.6112716242 -2.5000268151
17.8659018436 -10.1332349992 -2.5000268209
18.0333489852 -10.2917050846 -2.5000268209
20.2789771186 -11.6301092568 -2.5000268209
20.2971325332 -11.6363962079 -2.5000268209
25.3706601390 -11.2784720936 -2.5000268209
25.5907954368 -11.1604963116 -2.5000268209
26.4664009486 -10.5709899083 -2.5000268209
26.5410200275 -10.5104882355 -2.5000268209
26.6730479525 -10.3988297638 -2.5000268209
20.0898608560 -11.5868822630 -2.5000268266
20.3440362405 -11.6778573544 -2.5000268266
20.3806469434 -11.6899917747 -2.5000268266
25.1738053732 -11.4016860149 -2.5000268266
25.2434920289 -11.3686093034 -2.5000268266
26.8041557101 -10.3145255486 -2.5000268266
26.8608644438 -10.2622338824 -2.5000268266
17.5379211644 -9.8599244445 -2.5000268324
17.5898995392 -9.9173069950 -2.5000268324
20.4837723856 -11.7481905610 -2.5000268324
20.5764571196 -11.7760455107 -2.5000268324
24.9897218019 -11.5105901442 -2.5000268324
25.0429972747 -11.4874892293 -2.5000268324
25.0607099489 -11.4796839711 -2.5000268324
25.2365370396 -11.3987629128 -2.5000268324
27.0031266507 -10.1593774132 -2.5000268324
27.0169019535 -10.1457795489 -2.5000268324
27.0443315834 -10.1184618686 -2.5000268324
17.2748807805 -9.6245410647 -2.5000268439
17.6610191756 -10.0637094992 -2.5000268439
27.2541354840 -9.9698100143 -2.5000268439
27.4914641958 -9.7363101634 -2.5000268497
24.9008543778 -11.6522974664 -2.5000268555
24.6333722842 -11.7793722356 -2.5000268612
24.2646428768 -11.9228763649 -2.5000268670
22.5536282749 -7.0018069408 -2.4999995405
19.0402869360 -7.6116127884 -2.4999972582
19.0573064142 -7.7197906320 -2.4999972063
25.9362594968 -6.7482106448 -2.4999968432
25.9433315140 -6.7252955155 -2.4999968432
25.9446994613 -6.8013826994 -2.4999968173
25.9484096724 -6.7899051652 -2.4999968173
25.9524196887 -6.8549224038 -2.4999967914
25.9562882461 -6.8434217975 -2.4999967914
25.9387625808 -6.9662462743 -2.4999967654
25.9429605141 -6.9547855812 -2.4999967654
25.9512545807 -6.9318271910 -2.4999967654
25.9594126727 -6.9088201321 -2.4999967654
25.9529012390 -6.9976119238 -2.4999967395
25.9668035029 -7.0291944480 -2.4999967136
25.9511950135 -7.1969990646 -2.4999966617
25.9560755009 -7.1855005844 -2.4999966617
25.9635132646 -7.2295613795 -2.4999966358
25.9549452640 -7.3084590840 -2.4999966098
25.9502416471 -7.3761009173 -2.4999965839
25.9663704251 -7.3415638242 -2.4999965839
25.9431737123 -7.5006417304 -2.4999965320
25.9489524647 -7.4891656501 -2.4999965320
25.9604079985 -7.4661624570 -2.4999965320
25.9471106927 -7.5460613909 -2.4999965061
25.9589028730 -7.5230680985 -2.4999965061
25.9395807225 -7.9044115895 -2.4999963245
25.9509338609 -8.0231419149 -2.4999962467
25.9490110982 -8.0707102344 -2.4999962208
20.6921319136 -10.9457085550 -2.4999952093
20.7081247723 -10.9497509324 -2.4999952093
20.7561741167 -10.9615939605 -2.4999952093
20.7722136871 -10.9654468200 -2.4999952093
20.5900590225 -10.9437801715 -2.4999951834
20.6220470055 -10.9524215302 -2.4999951834
20.6701234396 -10.9650283450 -2.4999951834
23.5050772863 -10.9540575830 -2.4999951834
20.5195905503 -10.9491711666 -2.4999951575
20.5516116615 -10.9582293461 -2.4999951575
20.5676421738 -10.9626873530 -2.4999951575
23.6075373646 -10.9509235048 -2.4999951575
23.6235328939 -10.9463415628 -2.4999951575
23.6714371773 -10.9323121136 -2.4999951575
20.4327854419 -10.9488381139 -2.4999951315
20.4808375280 -10.9631246600 -2.4999951315
23.6783340955 -10.9554803635 -2.4999951315
23.6943427951 -10.9506889720 -2.4999951315
23.7103372508 -10.9458502449 -2.4999951315
23.7263173227 -10.9409642244 -2.4999951315
23.7582337558 -10.9310504750 -2.4999951315
20.3296697963 -10.9420006533 -2.4999951056
20.3456532723 -10.9471152755 -2.4999951056
20.3616518084 -10.9521825932 -2.4999951056
23.7654725869 -10.9541141826 -2.4999951056
23.8293990969 -10.9336338051 -2.4999951056
20.2422423802 -10.9386196640 -2.4999950797
20.2582162371 -10.9439929271 -2.4999950797
23.9327411398 -10.9243380969 -2.4999950797
20.1864734093 -10.9450471938 -2.4999950537
20.2024665241 -10.9505854034 -2.4999950537
20.2184759518 -10.9560762783 -2.4999950537
23.9406589715 -10.9471776070 -2.4999950537
24.0044911406 -10.9246248284 -2.4999950537
24.0446279801 -10.9357609808 -2.4999950278
20.0581605699 -10.9502807416 -2.4999950019
24.1009448101 -10.9406156048 -2.4999950019
19.9696321982 -10.9425172100 -2.4999949759
20.0016235676 -10.9548292442 -2.4999949759
24.2053733221 -10.9261256529 -2.4999949759
24.2212928791 -10.9197753125 -2.4999949759
19.8968557441 -10.9397555068 -2.4999949500
19.8238523020 -10.9360246319 -2.4999949241
19.8558078106 -10.9491992625 -2.4999949241
19.8718146547 -10.9557156226 -2.4999949241
24.3510986026 -10.9185050021 -2.4999949241
24.3669949787 -10.9117236133 -2.4999949241
19.8145725029 -10.9583454878 -2.4999948981
19.6931536009 -10.9326773322 -2.4999948722
24.4499383976 -10.9283409706 -2.4999948722
24.4658634378 -10.9212671528 -2.4999948722
19.6514279851 -10.9406065864 -2.4999948462
24.5394584452 -10.9144607822 -2.4999948462
24.6235921994 -10.9285008982 -2.4999947944
24.6395169529 -10.9209133803 -2.4999947944
24.6977785512 -10.9195824067 -2.4999947684
19.4507140430 -10.9538657914 -2.4999947425
19.3920729171 -10.9521079416 -2.4999947166
24.7989217095 -10.9231870068 -2.4999947166
24.8148299764 -10.9150808558 -2.4999947166
19.3172710196 -10.9416243571 -2.4999946906
24.8736071777 -10.9119038227 -2.4999946906
19.2582973837 -10.9384563155 -2.4999946647
19.1878162901 -10.9560089649 -2.4999946128
25.0350074407 -10.9074347701 -2.4999946128
19.1123501770 -10.9427744336 -2.4999945869
25.0785285976 -10.9108616756 -2.4999945869
18.7081996375 -10.7300195729 -2.4999945610
18.7543777436 -10.7596194674 -2.4999945610
18.8475128906 -10.8175840464 -2.4999945610
18.9416621334 -10.8738865161 -2.4999945610
19.1007503882 -10.9639824552 -2.4999945610
25.1380733525 -10.9048982920 -2.4999945610
18.3781903485 -10.5309513730 -2.4999945350
18.5273819514 -10.6378634579 -2.4999945350
18.5879331340 -10.6793847417 -2.4999945350
18.7104881334 -10.7602634671 -2.4999945350
18.8349226711 -10.8382194930 -2.4999945350
19.5833438860 -11.2276592534 -2.4999945350
19.6507998826 -11.2566446157 -2.4999945350
19.6846553154 -11.2708374712 -2.4999945350
19.7185941252 -11.2848297782 -2.4999945350
25.1818882270 -10.9075382522 -2.4999945350
18.1596109042 -10.3927881234 -2.4999945091
18.2028178731 -10.4272697149 -2.4999945091
18.2755040263 -10.4838826056 -2.4999945091
18.3935202901 -10.5722091696 -2.4999945091
19.6924006429 -11.3002069337 -2.4999945091
19.7778349389 -11.3346928343 -2.4999945091
19.7949824839 -11.3414381656 -2.4999945091
19.8637699495 -11.3679113565 -2.4999945091
19.8810153849 -11.3744023311 -2.4999945091
19.9072157855 -11.4099170193 -2.4999944832
19.9245852911 -11.4162792895 -2.4999944832
19.9419735415 -11.4225901497 -2.4999944832
20.0291906333 -11.4533713840 -2.4999944832
20.0642033452 -11.4653221097 -2.4999944832
17.9864043870 -10.3118456579 -2.4999944572
18.2166780924 -10.4995523223 -2.4999944572
20.1093161541 -11.5058271768 -2.4999944572
20.1800267416 -11.5285695175 -2.4999944572
20.1977460491 -11.5341242444 -2.4999944572
25.3300304571 -10.9038330897 -2.4999944572
17.6545993535 -10.0406701286 -2.4999944313
20.1727617389 -11.5516249945 -2.4999944313
17.4544765154 -9.8706856753 -2.4999944054
17.7594757783 -10.1742300849 -2.4999944054
25.4188729862 -10.9058428183 -2.4999944054
17.3730819323 -9.8182778869 -2.4999943794
17.6207497094 -10.0751888587 -2.4999943794
16.9778696903 -9.4595383375 -2.4999943016
25.5980409575 -10.9057785746 -2.4999943016
17.0056092665 -9.5344495126 -2.4999942757
25.7790534643 -10.9001939285 -2.4999941979
25.9459123825 -10.9005013234 -2.4999940941
25.4680592193 -11.2439892351 -2.4999940682
25.5017379668 -11.2237654523 -2.4999940682
25.5520302705 -11.1930570621 -2.4999940682
25.6020480741 -11.1619035651 -2.4999940682
25.6186589938 -11.1514205766 -2.4999940682
25.6352388302 -11.1408884959 -2.4999940682
25.6517874382 -11.1303074150 -2.4999940682
26.2255384905 -10.7175667483 -2.4999940682
26.3016406937 -10.6554887460 -2.4999940682
26.3167504858 -10.6429384518 -2.4999940682
26.3768164150 -10.5922919531 -2.4999940682
26.3917389305 -10.5795195520 -2.4999940682
26.4214702863 -10.5538425991 -2.4999940682
25.3096668667 -11.3632177151 -2.4999940423
25.3268745894 -11.3535987622 -2.4999940423
25.3440537821 -11.3439289479 -2.4999940423
25.3954186788 -11.3146151845 -2.4999940423
25.4465214097 -11.2848467408 -2.4999940423
25.7144764083 -11.1185010395 -2.4999940423
26.4074846689 -10.5978609534 -2.4999940423
26.4224235244 -10.5849978057 -2.4999940423
26.5259209614 -10.4937263283 -2.4999940423
26.5551423873 -10.4672570110 -2.4999940423
26.5842067003 -10.4406152732 -2.4999940423
26.6275063594 -10.4003314195 -2.4999940423
25.1296124948 -11.4871347358 -2.4999940163
25.1822567069 -11.4597183793 -2.4999940163
26.6871464080 -10.3771422757 -2.4999940163
26.7440413834 -10.3221316877 -2.4999940163
26.7581631093 -10.3082741508 -2.4999940163
26.8002814650 -10.2664517431 -2.4999940163
24.9089895565 -11.6223997658 -2.4999939904
24.9807434788 -11.5883419802 -2.4999939904
25.0342917108 -11.5622427673 -2.4999939904
25.0520893904 -11.5534375531 -2.4999939904
25.0876062182 -11.5356693716 -2.4999939904
26.9282733441 -10.1697827577 -2.4999939904
26.9961967426 -10.0973709540 -2.4999939904
27.0230649663 -10.0681262641 -2.4999939904
24.9552822051 -11.6273149429 -2.4999939645
27.0810348442 -10.0401050258 -2.4999939645
24.6918661174 -11.7717360916 -2.4999939385
24.7470532448 -11.7481932814 -2.4999939385
27.2560920641 -9.8747997252 -2.4999939385
27.3196166914 -9.7975716222 -2.4999939385
27.0630550785 -10.1318315027 -2.4999939126
27.0901260123 -10.1021906533 -2.4999939126
24.3918718233 -11.9412644237 -2.4999938867
24.5614148157 -11.8770973283 -2.4999938867
27.5059813863 -9.6375408822 -2.4999938867
24.6356539363 -11.8995332962 -2.4999938348
24.0495794108 -12.1312240269 -2.4999938089
28.2300352296 -8.8652952537 -2.4999936792
22.2114618769 -7.1096697141 -2.4999972097
25.9486561075 -6.4696210834 -2.4999896540
25.9603702462 -6.4071815182 -2.4999896540
25.9732062829 -6.3320355612 -2.4999896540
25.9596735485 -6.5368638201 -2.4999895877
25.9457590566 -6.7045927642 -2.4999895214
25.9428387692 -6.8104235912 -2.4999894551
25.9563169248 -6.7605306661 -2.4999894551
25.9660376011 -6.7230082229 -2.4999894551
25.9410422681 -6.9860802902 -2.4999893226
25.9488944178 -6.9611613175 -2.4999893226
25.9527651723 -6.9486845191 -2.4999893226
25.9407964934 -7.1384304080 -2.4999891900
25.9546306361 -7.1715116531 -2.4999891237
25.9591236197 -7.1590169656 -2.4999891237
25.9635796222 -7.1465090417 -2.4999891237
25.9767253541 -7.1089069469 -2.4999891237
25.9447076173 -7.2672769466 -2.4999890575
25.9427031635 -7.3384057660 -2.4999889912
25.9447091500 -7.3973769036 -2.4999889249
25.9459058573 -7.4566311100 -2.4999888586
25.9562741372 -7.6110310079 -2.4999886598
25.9545278211 -7.6713184515 -2.4999885935
25.9532805348 -8.5402836713 -2.4999874005
25.9514027117 -8.6692866704 -2.4999872017
20.2349843005 -10.9424339004 -2.4999863401
20.1498951309 -10.9428571334 -2.4999862738
23.3885299481 -10.9207365356 -2.4999862738
23.4114321200 -10.9388586109 -2.4999862075
19.9943881716 -10.9447699048 -2.4999861412
23.5128135410 -10.9311467345 -2.4999861412
19.9083378000 -10.9413278754 -2.4999860750
19.9240090369 -10.9467027211 -2.4999860750
19.9396961051 -10.9520311849 -2.4999860750
23.5518988092 -10.9433877491 -2.4999860750
23.5675601975 -10.9379842733 -2.4999860750
23.5832055328 -10.9325344920 -2.4999860750
19.7667248113 -10.9419873930 -2.4999859424
23.7091741549 -10.9383849932 -2.4999859424
23.7248200560 -10.9325162904 -2.4999859424
23.7960181368 -10.9310976102 -2.4999858761
19.6868384869 -10.9634694560 -2.4999858099
23.8674602771 -10.9287309951 -2.4999858099
19.5117774678 -10.9452061066 -2.4999856773
19.4552981007 -10.9474938583 -2.4999856110
19.3260216059 -10.9432076680 -2.4999854785
24.2226321077 -10.9317015667 -2.4999854122
24.2382559914 -10.9243139917 -2.4999854122
24.2642878673 -10.9386873894 -2.4999853459
19.1697996538 -10.9500578408 -2.4999852796
19.1121221840 -10.9487711520 -2.4999852133
18.6399049977 -10.7162442962 -2.4999851471
18.7455427002 -10.7792047710 -2.4999851471
18.9141153275 -10.8736860543 -2.4999851471
18.3462587227 -10.5543703098 -2.4999850808
18.3607921040 -10.5643677610 -2.4999850808
18.8407363888 -10.8611034800 -2.4999850808
19.6904429560 -11.2487655189 -2.4999850808
19.7735270352 -11.2783645846 -2.4999850808
17.9211574756 -10.2947174137 -2.4999849482
18.5439438522 -10.7706858944 -2.4999848820
24.9025158952 -10.9244294127 -2.4999845506
25.5713102516 -10.9158453325 -2.4999835564
25.6923859284 -10.9164801729 -2.4999833576
25.5337314709 -11.2378476793 -2.4999828936
25.6649783807 -11.1463469168 -2.4999828936
26.2123475448 -10.7105296114 -2.4999828936
26.2273084561 -10.6972570660 -2.4999828936
26.2867575164 -10.6437260614 -2.4999828936
26.3309263612 -10.6031182285 -2.4999828936
26.3455690113 -10.5894953754 -2.4999828936
26.4037347063 -10.5345726010 -2.4999828936
25.6134501728 -11.2123152455 -2.4999828273
26.2133091352 -10.7419116142 -2.4999828273
26.4204343347 -10.5520499491 -2.4999828273
25.4265802792 -11.3668327731 -2.4999827611
25.6906914426 -11.2170726954 -2.4999826948
24.8374750535 -11.7610336896 -2.4999826285
26.9967993709 -10.0417718693 -2.4999826285
27.0866799500 -9.9318406226 -2.4999826285
24.3672835160 -12.0563012997 -2.4999824297
27.4017185493 -9.6329310475 -2.4999824297
25.9436528639 -7.1155290835 -2.4999961430
25.9513109513 -7.0887599213 -2.4999961430
25.9588105294 -7.0619459198 -2.4999961430
25.9661513356 -7.0350880176 -2.4999961430
25.9490185489 -7.2634721099 -2.4999960911
25.9533050084 -7.2500766723 -2.4999960911
25.9495481371 -7.4128639191 -2.4999960392
24.8088019392 -9.2480128064 -2.4999960133
24.8391989316 -9.2178293809 -2.4999960133
25.9578360001 -7.4612526920 -2.4999960133
25.9627074918 -7.4478303055 -2.4999960133
26.2157984104 -6.3803083304 -2.4999960133
25.9503351728 -7.5501613603 -2.4999959874
25.9525329055 -7.6752347658 -2.4999959355
25.9523565880 -7.7381782272 -2.4999959096
25.9580472995 -7.7247708381 -2.4999959096
25.9693096139 -7.6979058508 -2.4999959096
25.9967683163 -7.6304559890 -2.4999959096
25.9571994788 -7.7879730537 -2.4999958836
25.9916304729 -7.7071856425 -2.4999958836
25.9652949787 -7.8882689123 -2.4999958318
25.9517043335 -8.0297476716 -2.4999957799
25.9712449003 -7.9894696020 -2.4999957799
25.9534134406 -8.0806905283 -2.4999957540
20.0835194973 -10.9465082426 -2.4999954946
20.1139455062 -10.9543425488 -2.4999954946
22.7564569438 -10.9480241828 -2.4999954946
22.7716569436 -10.9440567983 -2.4999954946
22.8171855949 -10.9318851040 -2.4999954946
22.8474772446 -10.9235463795 -2.4999954946
22.9079098910 -10.9063320198 -2.4999954946
20.0012197521 -10.9494349410 -2.4999954687
20.0316645167 -10.9577561090 -2.4999954687
20.0469052274 -10.9618491108 -2.4999954687
22.8387533164 -10.9510442309 -2.4999954687
22.8691579405 -10.9425775692 -2.4999954687
22.9298142549 -10.9251053412 -2.4999954687
19.9185418286 -10.9510462437 -2.4999954427
19.9489975732 -10.9598565338 -2.4999954427
19.9642448590 -10.9641940702 -2.4999954427
22.9822023710 -10.9346578732 -2.4999954427
19.8355067080 -10.9513316255 -2.4999954168
23.1106641221 -10.9192782602 -2.4999954168
23.1257775364 -10.9142631927 -2.4999954168
23.1559595282 -10.9040990431 -2.4999954168
23.1637421027 -10.9269849954 -2.4999953909
19.6684499362 -10.9478842003 -2.4999953649
23.2927142385 -10.9070529724 -2.4999953649
23.3077906916 -10.9014994212 -2.4999953649
19.5996737322 -10.9495479702 -2.4999953390
19.6453760229 -10.9655256312 -2.4999953390
23.3464170160 -10.9128792805 -2.4999953390
23.3765869584 -10.9014097778 -2.4999953390
19.5458344901 -10.9558758796 -2.4999953131
19.5610717644 -10.9614060627 -2.4999953131
23.2941309796 -10.9580017031 -2.4999953131
23.4154786096 -10.9122801847 -2.4999953131
19.4612816337 -10.9501357563 -2.4999952871
23.4696894929 -10.9168354960 -2.4999952871
23.5149490828 -10.8984702263 -2.4999952871
23.5543513141 -10.9083077800 -2.4999952612
19.3370623873 -10.9532209833 -2.4999952353
19.3675411753 -10.9654714630 -2.4999952353
23.4724132956 -10.9677995163 -2.4999952353
23.6392066102 -10.8983885225 -2.4999952353
23.6542559163 -10.8918100221 -2.4999952353
19.2669791297 -10.9504734440 -2.4999952093
19.3127027345 -10.9694035465 -2.4999952093
23.6185680009 -10.9336321282 -2.4999952093
19.2118820667 -10.9533478092 -2.4999951834
19.2271133238 -10.9598658950 -2.4999951834
23.7039871393 -10.9226738057 -2.4999951834
23.7492893146 -10.9022290459 -2.4999951834
19.1565649440 -10.9556475401 -2.4999951575
23.7744556977 -10.9172839380 -2.4999951575
23.8046442083 -10.9032819377 -2.4999951575
18.8748915478 -10.8493061607 -2.4999951315
18.8898165053 -10.8568215807 -2.4999951315
18.9197327895 -10.8717198044 -2.4999951315
18.9347238544 -10.8791024778 -2.4999951315
23.8451146698 -10.9109395125 -2.4999951315
18.5836031523 -10.7191356622 -2.4999951056
18.6273006745 -10.7441394529 -2.4999951056
18.6859059326 -10.7768727425 -2.4999951056
18.7153527815 -10.7929787689 -2.4999951056
18.8191562980 -10.8479720346 -2.4999951056
18.8490214620 -10.8632884627 -2.4999951056
19.5744904997 -11.1712108287 -2.4999951056
19.6699731528 -11.2031719814 -2.4999951056
18.2148644362 -10.5158993774 -2.4999950797
18.7483524052 -10.8381542426 -2.4999950797
18.8080616157 -10.8694486103 -2.4999950797
19.7750737119 -11.2614509404 -2.4999950797
19.7912139295 -11.2663016554 -2.4999950797
19.8073684258 -11.2711046035 -2.4999950797
19.8397196889 -11.2805670313 -2.4999950797
23.9718914385 -10.9029288434 -2.4999950797
18.4429985234 -10.6918441800 -2.4999950537
18.7669391722 -10.8753003022 -2.4999950537
19.6389456356 -11.2438986956 -2.4999950537
20.0454832433 -11.3608512455 -2.4999950537
24.0692398248 -10.9075836001 -2.4999950278
24.0843144501 -10.8997329435 -2.4999950278
20.2501743859 -11.4570399578 -2.4999950019
20.3003547675 -11.4672248061 -2.4999950019
24.1672786669 -10.9104639860 -2.4999949759
20.4942035967 -11.5512256289 -2.4999949500
24.2928881420 -10.9242007257 -2.4999948981
24.3080109452 -10.9156884041 -2.4999948981
24.5783945214 -10.9244383305 -2.4999947425
24.7948115159 -10.9298215790 -2.4999946128
25.9370165753 -10.0295305590 -2.4999945610
25.1766333247 -10.9293204203 -2.4999943794
25.4156361202 -10.9304486148 -2.4999942238
25.5435066502 -11.2589119434 -2.4999938607
25.5756853854 -11.2344376645 -2.4999938607
25.6396056507 -11.1849201144 -2.4999938607
26.1436154358 -10.7483376323 -2.4999938607
26.1582099063 -10.7343512942 -2.4999938607
26.1727629389 -10.7203218442 -2.4999938607
26.2449020878 -10.6495322259 -2.4999938607
26.2592038309 -10.6352466959 -2.4999938607
26.3018546311 -10.5921371398 -2.4999938607
26.3300752302 -10.5631878892 -2.4999938607
25.4439269604 -11.3626449722 -2.4999938348
25.5742478004 -11.2659389398 -2.4999938348
26.2906221880 -10.6379455535 -2.4999938348
26.3191140017 -10.6090619561 -2.4999938348
26.3332957018 -10.5945570709 -2.4999938348
26.3615300678 -10.5654217620 -2.4999938348
26.4727290556 -10.4472254713 -2.4999938348
26.5137028645 -10.4022284026 -2.4999938348
26.5407961921 -10.3720291105 -2.4999938348
25.2577169740 -11.5219265926 -2.4999938089
25.2914567940 -11.4991385382 -2.4999938089
25.3082759980 -11.4876697544 -2.4999938089
26.5042805140 -10.4485684785 -2.4999938089
26.5179866352 -10.4335165394 -2.4999938089
26.5588370028 -10.3881183750 -2.4999938089
26.5992828786 -10.3423594742 -2.4999938089
26.6525760023 -10.2807926939 -2.4999938089
26.6920657316 -10.2342061384 -2.4999938089
24.9429842549 -11.7491244758 -2.4999937829
25.1688089247 -11.6093953763 -2.4999937829
26.6709460866 -10.2965049593 -2.4999937829
26.7885790017 -10.1552085557 -2.4999937829
26.8774461593 -10.0431758121 -2.4999937829
24.8845114684 -11.8113010880 -2.4999937570
25.1991268927 -11.6185579137 -2.4999937570
25.2505457726 -11.5848172243 -2.4999937570
26.3565171411 -10.6744522216 -2.4999937570
26.9090881065 -10.0417907303 -2.4999937570
27.0439350705 -9.8610601564 -2.4999937570
24.7168769437 -11.9323496080 -2.4999937310
27.1112750814 -9.8081713071 -2.4999937310
27.1582116001 -9.7405837936 -2.4999937310
24.5819697066 -12.0301351017 -2.4999937051
24.6187280854 -12.0113361005 -2.4999937051
24.6370654059 -12.0018551288 -2.4999937051
24.7646301479 -11.9339753310 -2.4999937051
25.1559690866 -11.7036800133 -2.4999937051
27.1191479996 -9.8389450365 -2.4999937051
27.2586292816 -9.6342413035 -2.4999937051
26.9154867794 -10.1513925381 -2.4999936792
27.2560245299 -9.6820747235 -2.4999936792
27.3238678000 -9.5779371901 -2.4999936792
19.8754632371 -10.9525082707 -2.5000115131
19.8900585542 -10.9562433628 -2.5000115131
22.4243118552 -10.9501831720 -2.5000115131
25.9554183363 -7.6941234727 -2.5000115131
25.9603481594 -7.6798872149 -2.5000115131
19.7816870144 -10.9524913408 -2.5000115621
19.7962826917 -10.9565038400 -2.5000115621
19.8255093361 -10.9643992211 -2.5000115621
19.9134623702 -10.9870459721 -2.5000115621
22.5034995585 -10.9540342753 -2.5000115621
25.9881129596 -7.6734449587 -2.5000115621
19.7167075299 -10.9592310486 -2.5000116111
22.6268281769 -10.9436632307 -2.5000116111
25.9543830056 -7.8386731943 -2.5000116111
25.9650557398 -7.8101897530 -2.5000116111
19.6221506934 -10.9561946985 -2.5000116601
19.6513785564 -10.9651203084 -2.5000116601
22.6630315782 -10.9579185058 -2.5000116601
22.6776307030 -10.9534074429 -2.5000116601
22.7649394116 -10.9254359644 -2.5000116601
25.9550411460 -7.9042637806 -2.5000116601
25.9715690600 -7.8615066410 -2.5000116601
25.9823765837 -7.8329211217 -2.5000116601
22.8742056526 -10.9136425630 -2.5000117090
25.9548172558 -7.9701232732 -2.5000117090
25.9719296447 -7.9273655271 -2.5000117090
19.4904365538 -10.9646136367 -2.5000117580
22.8967930985 -10.9312753423 -2.5000117580
22.9403044716 -10.9155392390 -2.5000117580
19.3948696155 -10.9572455974 -2.5000118070
19.4387493609 -10.9725860779 -2.5000118070
23.0066890653 -10.9165536122 -2.5000118070
19.3428471983 -10.9642268385 -2.5000118560
19.3574795115 -10.9695374540 -2.5000118560
19.3721274704 -10.9748047611 -2.5000118560
23.0733477712 -10.9166791994 -2.5000118560
23.0878231073 -10.9109545274 -2.5000118560
25.9551268154 -8.1549786369 -2.5000118560
19.2613092656 -10.9596113464 -2.5000119050
23.1547415805 -10.9099870370 -2.5000119050
23.1691967639 -10.9040216167 -2.5000119050
25.9644509908 -8.1933332228 -2.5000119050
19.1941171805 -10.9594543107 -2.5000119540
23.2363571949 -10.9019534154 -2.5000119540
25.9603212161 -8.2603984590 -2.5000119540
25.9669261616 -8.2461452199 -2.5000119540
23.2603720070 -10.9179386448 -2.5000120030
23.2748502504 -10.9116607158 -2.5000120030
25.9620799708 -8.3134301505 -2.5000120030
18.8134873491 -10.8453087042 -2.5000120520
18.8707399271 -10.8725630889 -2.5000120520
18.9716934302 -10.9186213413 -2.5000120520
18.9861924580 -10.9250300962 -2.5000120520
23.4247726231 -10.8970377407 -2.5000121010
25.9496214758 -8.4485740499 -2.5000121010
25.9567831256 -8.4343516392 -2.5000121010
25.9639026716 -8.4201081052 -2.5000121010
23.3330916528 -10.9652948797 -2.5000121499
23.5573181124 -10.9138424916 -2.5000122479
25.9471112754 -8.6100270254 -2.5000122479
25.9547505432 -8.5958113339 -2.5000122479
23.5388839828 -10.9497717156 -2.5000122969
23.6548563748 -10.8917535388 -2.5000122969
25.9529147780 -8.6499900787 -2.5000122969
25.9683875610 -8.6215011246 -2.5000122969
23.6514420608 -10.9206774793 -2.5000123459
23.6948296667 -10.8982447071 -2.5000123459
23.7638168543 -10.8890263567 -2.5000123949
25.9647796364 -8.8256779824 -2.5000124929
25.9500783192 -8.9911147561 -2.5000126398
24.0946199152 -10.8666660738 -2.5000126888
25.9617926032 -9.0180877362 -2.5000126888
25.9501560500 -9.1709849332 -2.5000128358
24.2750303268 -10.8676700465 -2.5000128848
25.9334369091 -9.2829877376 -2.5000129338
25.9430669763 -9.2688095528 -2.5000129338
24.6276613643 -10.8612060397 -2.5000132767
24.9449397684 -10.8953368900 -2.5000137176
24.9742604402 -10.9030975956 -2.5000137665
25.6484535226 -10.9330327542 -2.5000146973
25.6275823797 -11.2104308754 -2.5000150892
26.0980702458 -10.7635354640 -2.5000150892
26.1538452799 -10.7046010043 -2.5000150892
25.4238907396 -11.4104890485 -2.5000151382
25.4873680258 -11.3594865032 -2.5000151382
25.5502373823 -11.3077364357 -2.5000151382
25.5658586990 -11.2946829653 -2.5000151382
25.6279557751 -11.2420086963 -2.5000151382
25.6741171830 -11.2020228201 -2.5000151382
25.7199219209 -11.1616288619 -2.5000151382
26.2813247186 -10.6008621969 -2.5000151382
26.3083337685 -10.5703961158 -2.5000151382
26.3750636895 -10.4935364908 -2.5000151382
26.4014361239 -10.4625176968 -2.5000151382
25.4068435562 -11.4547295563 -2.5000151872
26.2446174223 -10.6776139156 -2.5000151872
26.4198988499 -10.4781209988 -2.5000151872
26.4461792964 -10.4468372147 -2.5000151872
26.4722741975 -10.4153984942 -2.5000151872
26.4981826399 -10.3838059378 -2.5000151872
26.5239037167 -10.3520606512 -2.5000151872
26.5621320537 -10.3041587846 -2.5000151872
26.5747801788 -10.2881163378 -2.5000151872
26.5873807920 -10.2720365457 -2.5000151872
25.1923139297 -11.6461289225 -2.5000152362
25.2420788328 -11.6099932096 -2.5000152362
25.2750764292 -11.5856579947 -2.5000152362
25.2915210921 -11.5734172841 -2.5000152362
25.3079294728 -11.5611279808 -2.5000152362
25.4056098125 -11.4863777656 -2.5000152362
26.5169193880 -10.3990791023 -2.5000152362
26.7058579246 -10.1564977362 -2.5000152362
26.7664226459 -10.0738038491 -2.5000152362
25.3388781352 -11.5680737314 -2.5000152852
26.6254787410 -10.3018004066 -2.5000152852
26.8806991434 -9.9533274559 -2.5000152852
26.9038666703 -9.9193266073 -2.5000152852
26.9122845342 -9.9499557573 -2.5000153342
26.9354315602 -9.9157680980 -2.5000153342
27.0036534079 -9.8123918470 -2.5000153342
24.9088736958 -11.9257404046 -2.5000153832
26.7886729686 -10.1664637442 -2.5000153832
27.1014722028 -9.7029908477 -2.5000153832
26.9367504626 -10.0423439877 -2.5000154811
27.5095575927 -9.1663784548 -2.5000155791
22.3139182145 -10.9467386513 -2.5000139781
22.3415142298 -10.9383455203 -2.5000139781
22.3347563486 -10.9656895188 -2.5000140415
22.3762989873 -10.9528529605 -2.5000140415
22.4039300852 -10.9440906568 -2.5000140415
22.4177260729 -10.9396482400 -2.5000140415
22.3417902680 -10.9888165433 -2.5000141049
22.4804916821 -10.9443799112 -2.5000141049
22.4942881905 -10.9397110101 -2.5000141049
22.6207947445 -10.9462855256 -2.5000142317
22.7120985136 -10.9377147347 -2.5000142951
22.7671057545 -10.9160545296 -2.5000142951
22.7898731836 -10.9329504988 -2.5000143585
25.9533256053 -7.4977628657 -2.5000148023
25.9674028320 -7.4379917733 -2.5000148023
25.9708115534 -7.4230233003 -2.5000148023
25.9510882900 -5.0494338547 -2.5000148023
25.9474312964 -5.0345240941 -2.5000148023
25.9399850723 -5.0047373530 -2.5000148023
25.9361959070 -4.9898606332 -2.5000148023
23.2967926501 -10.9130719719 -2.5000148657
25.9503656786 -7.6081123676 -2.5000148657
25.9909644665 -7.4433940567 -2.5000148657
25.9557611678 -4.9689248220 -2.5000148657
25.9518659935 -4.9540015904 -2.5000148657
25.9479266907 -4.9390899467 -2.5000148657
25.9399158375 -4.9093019450 -2.5000148657
25.9534240760 -7.6890402967 -2.5000149291
25.9575755055 -7.6741120769 -2.5000149291
25.9616827564 -7.6591716418 -2.5000149291
25.9697645792 -7.6292546486 -2.5000149291
25.9737390804 -7.6142783523 -2.5000149291
25.9508371771 -4.8581565632 -2.5000149291
25.9423474439 -4.8283527585 -2.5000149291
25.9507502338 -7.7852689423 -2.5000149925
25.9551863367 -7.7703482112 -2.5000149925
25.9595782820 -7.7554144226 -2.5000149925
25.9568700658 -4.7917713005 -2.5000149925
25.9389284950 -4.7321477043 -2.5000149925
25.9343329649 -4.7172753028 -2.5000149925
23.4679392221 -10.9038787311 -2.5000150559
25.9556419112 -7.8520153997 -2.5000150559
25.9602754408 -7.8370799061 -2.5000150559
23.5207770622 -10.9020358610 -2.5000151193
25.9596567006 -7.9190876177 -2.5000151193
25.9692763091 -7.8891780623 -2.5000151193
25.9367711400 -4.5684887090 -2.5000151193
25.9678188416 -7.9715169318 -2.5000151827
25.9545543017 -4.5457731215 -2.5000151827
25.9337021283 -4.4861941478 -2.5000151827
25.9283790459 -4.4713382830 -2.5000151827
23.6132763303 -10.9046412186 -2.5000152460
25.9490680013 -8.0989620967 -2.5000152460
25.9597519930 -8.0691120395 -2.5000152460
25.9457319264 -4.4482434091 -2.5000152460
25.9292936918 -4.4036181161 -2.5000152460
25.9608935379 -8.1370960686 -2.5000153094
25.9463469743 -4.3802525784 -2.5000153094
25.9554072603 -8.2202931027 -2.5000153728
25.9611302230 -8.2053566919 -2.5000153728
23.7463742868 -10.9094943085 -2.5000154362
25.9604556764 -8.2738819771 -2.5000154362
25.9265944548 -4.1988647605 -2.5000154362
25.9465613056 -8.3724998940 -2.5000154996
25.9301922236 -4.1449667991 -2.5000154996
25.9563481839 -8.4116782463 -2.5000155630
25.9626372944 -8.3967382147 -2.5000155630
25.9774408354 -4.1953397216 -2.5000155630
25.9722525505 -8.4360770781 -2.5000156264
24.0710822335 -10.8713908262 -2.5000158166
25.9369356086 -8.6899095354 -2.5000158166
24.1666713339 -10.8635337941 -2.5000159434
24.3321125875 -10.8626425248 -2.5000161970
25.9252438913 -9.0799082499 -2.5000162604
25.9251122001 -9.1779893074 -2.5000163872
25.9246188958 -9.5035909341 -2.5000168310
24.8540941931 -10.8461064784 -2.5000170211
25.9168860576 -9.6904100777 -2.5000170845
25.9157888018 -9.7771197066 -2.5000172113
26.1597540445 -10.6890957446 -2.5000191766
26.1727792778 -10.6735440370 -2.5000191766
26.2372122524 -10.5952112882 -2.5000191766
26.2626598496 -10.5636127843 -2.5000191766
25.8509914496 -11.0672715093 -2.5000192400
26.2815314247 -10.5787190391 -2.5000192400
26.3445500052 -10.4987881763 -2.5000192400
26.4670063352 -10.3361741609 -2.5000192400
25.2345565047 -11.6616215400 -2.5000193034
25.2504626933 -11.6488024788 -2.5000193034
26.4744586498 -10.3669096881 -2.5000193034
26.5461490722 -10.2674905459 -2.5000193034
26.6045355181 -10.1836799291 -2.5000193034
25.0387877143 -11.8433542233 -2.5000193668
25.2015842824 -11.7187731785 -2.5000193668
25.4386929657 -11.5230106639 -2.5000193668
26.6475586108 -10.1634678266 -2.5000193668
25.0366544789 -11.8750009050 -2.5000194302
25.5010209881 -11.5007602342 -2.5000194302
26.7913720095 -9.9876080843 -2.5000194302
