19.4255566903 -10.2742140065 -2.4999351447
17.5015936457 -11.4534248363 -2.4999351620
17.6067016370 -11.4127517142 -2.4999351620
19.4555897335 -10.2800321266 -2.4999351620
19.5256614475 -10.2174953061 -2.4999351620
19.5672577965 -10.1794781462 -2.4999351620
19.6085151265 -10.1410933390 -2.4999351620
17.3861316753 -11.5213022519 -2.4999351793
17.1967859807 -11.6102488006 -2.4999351966
17.2328351442 -11.5986990593 -2.4999351966
17.3047253225 -11.5749607580 -2.4999351966
19.8177195228 -10.0045362825 -2.4999351966
17.1133353804 -11.6613359606 -2.4999352138
19.5177245599 -10.3219266689 -2.4999352138
20.0936100746 -9.7432654367 -2.4999352138
20.2782336881 -9.5996907125 -2.4999352484
11.7335331864 -10.9638197166 -2.4999352657
16.6936388255 -11.8714586606 -2.4999352830
16.5854202059 -11.9195282552 -2.4999353003
11.3120205259 -10.7576705511 -2.4999353176
11.4057550735 -10.8269606707 -2.4999353176
11.9757839606 -11.1971112795 -2.4999353176
11.0979643870 -10.6206390556 -2.4999353349
11.2354517067 -10.7296944779 -2.4999353349
11.2509060745 -10.7415848250 -2.4999353349
11.8796428648 -11.1686218713 -2.4999353349
12.1510947027 -11.3223474951 -2.4999353349
12.1855288534 -11.3406547966 -2.4999353349
12.2027863952 -11.3497319705 -2.4999353349
12.2373816570 -11.3677329674 -2.4999353349
12.2547190741 -11.3766566328 -2.4999353349
10.7723978177 -10.3699844562 -2.4999353522
10.8302015438 -10.4227750681 -2.4999353522
10.9774080509 -10.5517271707 -2.4999353522
11.0524256150 -10.6145562156 -2.4999353522
12.3135549035 -11.4334757204 -2.4999353522
12.3310864663 -11.4421737639 -2.4999353522
12.3486436828 -11.4508199079 -2.4999353522
12.4368091851 -11.4932695016 -2.4999353522
10.5857643018 -10.2247202306 -2.4999353695
10.6137319169 -10.2523077628 -2.4999353695
10.7272197785 -10.3609888361 -2.4999353695
10.7559911287 -10.3877370852 -2.4999353695
12.4620538751 -11.5318010735 -2.4999353695
12.5693466866 -11.5805582609 -2.4999353695
10.4717951597 -10.1436739508 -2.4999353867
10.5408327647 -10.2140258402 -2.4999353867
12.3450602302 -11.5028805512 -2.4999353867
12.4518581829 -11.5537187181 -2.4999353867
12.6499297083 -11.6419671320 -2.4999353867
12.7226526857 -11.6724528679 -2.4999353867
12.8604732854 -11.7533924088 -2.4999354040
12.9344999592 -11.7813790948 -2.4999354040
10.0111898442 -9.7309087883 -2.4999354386
13.0677690648 -11.8804230678 -2.4999354386
13.1432843124 -11.9059480410 -2.4999354386
9.9426083371 -9.6833925879 -2.4999354559
14.8742636584 -7.1073943382 -2.5000256567
11.5559709453 -7.0290448313 -2.5000261523
11.5605209304 -7.0389697677 -2.5000261523
11.5651002554 -7.0488812010 -2.5000261523
11.5478100164 -7.0690150130 -2.5000261581
11.5571759463 -7.0888989658 -2.5000261581
11.5627174684 -7.2094819340 -2.5000261696
11.5670717497 -7.2701750365 -2.5000261754
11.5567842347 -7.3526875690 -2.5000261869
11.5689377833 -7.6552606607 -2.5000262215
18.4770738416 -7.3235827348 -2.5000262273
11.5745358957 -7.7943554939 -2.5000262388
11.5870570744 -8.1362590298 -2.5000262849
13.6238771471 -10.9707950217 -2.5000266134
13.6400784942 -10.9745854706 -2.5000266134
13.6562909832 -10.9783279765 -2.5000266134
13.7049938828 -10.9892675102 -2.5000266134
16.3579817004 -10.9318992682 -2.5000266134
16.3901175648 -10.9232570230 -2.5000266134
16.4542330919 -10.9054029160 -2.5000266134
16.4702286133 -10.9008209463 -2.5000266134
13.4885876467 -10.9621410834 -2.5000266192
13.5209526510 -10.9704746079 -2.5000266192
16.4447776229 -10.9332052604 -2.5000266192
16.5090070356 -10.9147036937 -2.5000266192
16.5570329693 -10.9003294781 -2.5000266192
13.4176352017 -10.9682180826 -2.5000266249
13.4338298282 -10.9726186438 -2.5000266249
16.5480039859 -10.9283159670 -2.5000266249
16.6121683198 -10.9085933203 -2.5000266249
16.6441618497 -10.8984476297 -2.5000266249
13.3139612315 -10.9640114311 -2.5000266307
13.3301438675 -10.9687186971 -2.5000266307
16.6996173979 -10.9058287376 -2.5000266307
16.7315930411 -10.8951657173 -2.5000266307
13.2423119871 -10.9678233338 -2.5000266365
16.8193041153 -10.8904744109 -2.5000266365
16.8593743869 -10.9018477620 -2.5000266422
13.0657157224 -10.9618052599 -2.5000266480
13.1467605497 -10.9885341550 -2.5000266480
16.9316598502 -10.9010884273 -2.5000266480
12.9931588223 -10.9623678307 -2.5000266537
13.0255338389 -10.9736324745 -2.5000266537
16.9882050592 -10.9055337446 -2.5000266537
12.9527050136 -10.9736709704 -2.5000266595
16.9324396869 -10.9523767007 -2.5000266595
17.0449874447 -10.9093993672 -2.5000266595
17.0929451993 -10.8902688350 -2.5000266595
12.8634195156 -10.9667097005 -2.5000266653
12.9120505316 -10.9846859812 -2.5000266653
12.7739128741 -10.9583007010 -2.5000266710
17.2966340858 -10.8828189235 -2.5000266768
12.6427087222 -10.9574732088 -2.5000266826
12.6588749540 -10.9641661898 -2.5000266826
12.6750609141 -10.9708113188 -2.5000266826
17.1129366315 -10.9864501507 -2.5000266826
12.6172166111 -10.9730257577 -2.5000266883
12.5267846288 -10.9606190568 -2.5000266941
12.5429606738 -10.9676549484 -2.5000266941
17.4543407719 -10.8905189544 -2.5000266941
17.5126092232 -10.8895325985 -2.5000266998
12.4262184083 -10.9687378223 -2.5000267056
12.3513747181 -10.9608134222 -2.5000267114
17.6296852260 -10.8857234392 -2.5000267114
17.6565604028 -10.8992186065 -2.5000267171
17.6884801901 -10.8828941056 -2.5000267171
12.2334909710 -10.9578862028 -2.5000267229
17.7474379982 -10.8794440217 -2.5000267229
12.2228433876 -10.9795879136 -2.5000267287
12.0279723359 -10.9617429426 -2.5000267460
17.9370502917 -10.8864212384 -2.5000267460
11.9681056651 -10.9571981659 -2.5000267517
17.9808400179 -10.8894498513 -2.5000267517
11.7594692994 -10.9514070763 -2.5000267748
11.7756214510 -10.9607128657 -2.5000267748
11.7311845363 -10.9629452810 -2.5000267805
18.2337723096 -10.8800582390 -2.5000267805
18.2624346571 -10.8907495455 -2.5000267863
11.6419056636 -10.9664028282 -2.5000267921
18.3390261687 -10.8711286559 -2.5000267921
11.2327424819 -10.7295070564 -2.5000267978
11.2637706262 -10.7511909899 -2.5000267978
11.2949265169 -10.7726909710 -2.5000267978
11.3262090634 -10.7940062471 -2.5000267978
11.3418974906 -10.8045943873 -2.5000267978
11.4049623523 -10.8464814726 -2.5000267978
11.9767403028 -11.1804228653 -2.5000267978
12.0442076988 -11.2147718852 -2.5000267978
10.8850094816 -10.4978913531 -2.5000268036
10.9146733955 -10.5216366455 -2.5000268036
10.9444772754 -10.5452060206 -2.5000268036
11.2188369410 -10.7492800485 -2.5000268036
11.8815742626 -11.1576780769 -2.5000268036
12.1014934661 -11.2700533081 -2.5000268036
12.1700126776 -11.3029199160 -2.5000268036
12.1872028715 -11.3110097058 -2.5000268036
12.2044169212 -11.3190486085 -2.5000268036
12.2735086626 -11.3506939483 -2.5000268036
10.6798023040 -10.3575468968 -2.5000268094
10.7231133297 -10.3949255433 -2.5000268094
10.7813741180 -10.4441630495 -2.5000268094
10.7960300296 -10.4563644407 -2.5000268094
12.4209558811 -11.4411855438 -2.5000268094
12.4561737587 -11.4558271522 -2.5000268094
12.4738150277 -11.4630697568 -2.5000268094
12.4914776445 -11.4702601436 -2.5000268094
18.4739413148 -10.8699357760 -2.5000268094
10.5214523187 -10.2479552968 -2.5000268151
10.6495107177 -10.3631850210 -2.5000268151
12.5357098908 -11.5139994257 -2.5000268151
12.6428945514 -11.5552497509 -2.5000268151
18.1951374334 -11.0726564860 -2.5000268151
18.6920399373 -10.7486905388 -2.5000268151
18.8457510700 -10.6346271456 -2.5000268151
10.4489155444 -10.2132130709 -2.5000268209
12.6704357289 -11.5912622397 -2.5000268209
12.7246168978 -11.6109265492 -2.5000268209
17.9388684137 -11.2430747308 -2.5000268209
17.9728176284 -11.2250739829 -2.5000268209
18.0235402815 -11.1976970475 -2.5000268209
18.0907887611 -11.1604963116 -2.5000268209
18.1075317342 -11.1510719981 -2.5000268209
18.9060598093 -10.6185924845 -2.5000268209
19.0558293259 -10.4982558299 -2.5000268209
17.6912569779 -11.3934941781 -2.5000268266
17.7086909490 -11.3852507324 -2.5000268266
17.7954908326 -11.3432619110 -2.5000268266
19.3041490344 -10.3145255486 -2.5000268266
19.3325807457 -10.2884635932 -2.5000268266
19.3889791118 -10.2358373342 -2.5000268266
17.7539797228 -11.3903855172 -2.5000268324
19.5031199749 -10.1593774132 -2.5000268324
19.5443249076 -10.1184618686 -2.5000268324
17.3736798342 -11.5850596459 -2.5000268382
17.3916818801 -11.5777548127 -2.5000268382
19.6565042682 -10.0383014871 -2.5000268382
9.8740099066 -9.7449774233 -2.5000268439
19.9914575201 -9.7363101634 -2.5000268497
18.4429662361 -6.9547855812 -2.4999967654
18.4674402264 -6.8857652099 -2.4999967654
18.4398310936 -7.0320430298 -2.4999967395
18.4443779419 -7.0867167364 -2.4999967136
18.4386343674 -7.1646419296 -2.4999966876
18.4556576764 -7.3646044737 -2.4999965839
18.4829155065 -7.4199547617 -2.4999965320
18.4495435566 -7.6951344871 -2.4999964283
18.4382279433 -7.7643649979 -2.4999964023
13.0900647446 -10.9437801715 -2.4999951834
16.0370807783 -10.9454525348 -2.4999951834
13.0036059536 -10.9445710734 -2.4999951575
15.9791052022 -10.9858716020 -2.4999951575
16.0915340731 -10.9554581091 -2.4999951575
16.1235386159 -10.9463415628 -2.4999951575
16.1395205211 -10.9417123232 -2.4999951575
16.1943485171 -10.9506889720 -2.4999951315
16.2103429728 -10.9458502449 -2.4999951315
16.2582394779 -10.9310504750 -2.4999951315
12.8296755184 -10.9420006533 -2.4999951056
12.8456589944 -10.9471152755 -2.4999951056
16.3612760787 -10.9231103175 -2.4999951056
12.7582219592 -10.9439929271 -2.4999950797
12.8062379213 -10.9598288678 -2.4999950797
16.3849030535 -10.9406867862 -2.4999950797
16.4486623238 -10.9187942596 -2.4999950797
12.7024722461 -10.9505854034 -2.4999950537
12.5984825951 -10.9393583557 -2.4999950278
16.6646938356 -10.9161667091 -2.4999950019
12.4696379203 -10.9425172100 -2.4999949759
12.5497515223 -10.9729418742 -2.4999949759
16.7053790441 -10.9261256529 -2.4999949759
16.7212986011 -10.9197753125 -2.4999949759
12.4128401943 -10.9461504810 -2.4999949500
12.2985638517 -10.9516597836 -2.4999948981
16.8924606842 -10.9270872839 -2.4999948981
16.9242833581 -10.9132326833 -2.4999948981
12.2250973152 -10.9466252788 -2.4999948722
12.1095315329 -10.9482300544 -2.4999948203
12.0514499521 -10.9481291995 -2.4999947944
11.9612388052 -10.9321014840 -2.4999947684
17.1977842732 -10.9195824067 -2.4999947684
11.9187437376 -10.9382944083 -2.4999947425
17.5944049027 -10.9019284508 -2.4999945869
11.2082053595 -10.7300195729 -2.4999945610
11.2698343177 -10.7693948864 -2.4999945610
11.3475186126 -10.8175840464 -2.4999945610
11.0727550661 -10.6690716369 -2.4999945350
11.1031530875 -10.6896528849 -2.4999945350
11.2724805132 -10.7996095848 -2.4999945350
11.3506114058 -10.8477563016 -2.4999945350
10.8048173314 -10.5062256979 -2.4999945091
12.4155692047 -11.3872310934 -2.4999945091
10.4740787963 -10.2693453650 -2.4999944832
10.7169155677 -10.4690927992 -2.4999944832
12.3725393383 -11.3970384722 -2.4999944832
9.8730876543 -9.8182778869 -2.4999943794
17.9793445564 -10.8962674176 -2.4999943794
18.2041790927 -10.8929447355 -2.4999942497
18.2336419399 -10.9021124424 -2.4999942238
18.2790591864 -10.9001939285 -2.4999941979
18.0185380460 -11.2135789285 -2.4999940682
18.1020537962 -11.1619035651 -2.4999940682
18.6640065641 -10.7664144863 -2.4999940682
18.7255442125 -10.7175667483 -2.4999940682
18.7560952107 -10.6928706769 -2.4999940682
18.8318288077 -10.6303435150 -2.4999940682
18.8917446526 -10.5795195520 -2.4999940682
17.7751721564 -11.3823027002 -2.4999940423
17.7924364869 -11.3727857223 -2.4999940423
19.1561791737 -10.3732627234 -2.4999940423
17.7172225046 -11.4411817245 -2.4999940163
17.4089952785 -11.6223997658 -2.4999939904
17.5520951124 -11.5534375531 -2.4999939904
19.4282790662 -10.1697827577 -2.4999939904
17.2922546898 -11.7020555137 -2.4999939645
17.3286553391 -11.6858220343 -2.4999939645
16.6395268622 -12.0781324766 -2.4999938348
16.5645672335 -12.2529023566 -2.4999936792
14.8017066970 -7.1030055561 -2.4999971434
14.8994172898 -7.0609799217 -2.4999971434
14.7354160983 -7.1526771933 -2.4999970771
14.7841547446 -7.1355380917 -2.4999970771
14.9012078534 -7.0868262245 -2.4999970771
14.7475845203 -7.1740935920 -2.4999970108
18.4437074884 -6.2000219888 -2.4999897865
18.4453266778 -6.1875638985 -2.4999897865
18.4411962285 -6.5069992536 -2.4999896540
18.4534640220 -6.4446661036 -2.4999896540
18.4432157588 -6.6117373329 -2.4999895877
18.4488531320 -6.5868121204 -2.4999895877
18.4570324480 -6.5493628565 -2.4999895877
18.4426218444 -6.7170499052 -2.4999895214
18.4457705007 -6.7045927642 -2.4999895214
18.4393885031 -6.8228716305 -2.4999894551
18.4530141920 -6.7730187944 -2.4999894551
18.4563283689 -6.7605306661 -2.4999894551
18.4596055891 -6.7480327884 -2.4999894551
18.4410067704 -6.9042630273 -2.4999893889
18.4555954069 -6.8543853452 -2.4999893889
18.4527766164 -6.9486845191 -2.4999893226
18.4604073150 -6.9236968443 -2.4999893226
18.4478533371 -7.0433818472 -2.4999892563
18.4519673193 -7.0309078027 -2.4999892563
18.4560443830 -7.0184216428 -2.4999892563
18.4495614460 -7.1135102230 -2.4999891900
18.4494953796 -7.2548111942 -2.4999890575
18.4542348008 -7.2423313671 -2.4999890575
18.4427146076 -7.3384057660 -2.4999889912
18.4477013464 -7.3259456319 -2.4999889912
18.4575641373 -7.3009813814 -2.4999889912
18.4720809618 -7.2634266892 -2.4999889912
18.4447205941 -7.3973769036 -2.4999889249
18.4459173014 -7.4566311100 -2.4999888586
18.4458574146 -7.5759448904 -2.4999887261
18.4620787355 -7.5985295356 -2.4999886598
18.4519544933 -7.7318381723 -2.4999885272
18.4642186063 -7.7068416549 -2.4999885272
18.4548557808 -7.7800994220 -2.4999884610
18.8389299214 -6.9199396235 -2.4999883284
18.4466577162 -8.0989550529 -2.4999880633
12.8197245987 -10.9406574378 -2.4999864064
12.8353920525 -10.9448153637 -2.4999864064
12.9139100456 -10.9649087995 -2.4999864064
12.9453990153 -10.9726206288 -2.4999864064
15.7030999695 -10.9252282793 -2.4999864064
15.7187091650 -10.9208567269 -2.4999864064
15.7498884191 -10.9119751937 -2.4999864064
12.7506688242 -10.9468424618 -2.4999863401
12.7820537643 -10.9555203972 -2.4999863401
15.8190520355 -10.9168072414 -2.4999863401
12.6655812789 -10.9475174021 -2.4999862738
12.5801509549 -10.9468298728 -2.4999862075
12.5958377161 -10.9516964739 -2.4999862075
15.9270921690 -10.9338706808 -2.4999862075
15.9583447710 -10.9237560560 -2.4999862075
12.4787337884 -10.9396032617 -2.4999861412
12.4943996157 -10.9447699048 -2.4999861412
12.5414878404 -10.9599914652 -2.4999861412
12.4397075492 -10.9520311849 -2.4999860750
16.0205398660 -10.9540555951 -2.4999860750
16.0675716416 -10.9379842733 -2.4999860750
12.3376793537 -10.9421247518 -2.4999860087
16.1382428702 -10.9386519997 -2.4999860087
12.2667362554 -10.9419873930 -2.4999859424
12.2824100630 -10.9477811526 -2.4999859424
12.3452746234 -10.9704917771 -2.4999859424
12.2425979351 -10.9587834519 -2.4999858761
16.2490499243 -10.9491966392 -2.4999858761
16.3518363936 -10.9350216700 -2.4999858099
16.3674717212 -10.9287309951 -2.4999858099
12.0837232492 -10.9487166773 -2.4999857436
12.0117889118 -10.9452061066 -2.4999856773
16.4954245964 -10.9278456895 -2.4999856773
11.8986153781 -10.9491947320 -2.4999855447
16.5929826538 -10.9379618457 -2.4999855447
11.8260330500 -10.9432076680 -2.4999854785
11.8574126681 -10.9573561228 -2.4999854785
16.7226435518 -10.9317015667 -2.4999854122
11.7116240226 -10.9433042544 -2.4999853459
11.7273041545 -10.9507401306 -2.4999853459
11.6698110978 -10.9500578408 -2.4999852796
16.8374297275 -10.9300490752 -2.4999852796
11.1099758796 -10.6978551127 -2.4999851471
11.1399164418 -10.7162442962 -2.4999851471
11.3217965952 -10.8228306391 -2.4999851471
11.3371220500 -10.8314202225 -2.4999851471
11.3678488528 -10.8484631954 -2.4999851471
11.3986759498 -10.8653240799 -2.4999851471
12.0836404515 -11.1827350921 -2.4999851471
10.9339105620 -10.6137077388 -2.4999850808
11.1122813971 -10.7276699860 -2.4999850808
11.1423983138 -10.7460450075 -2.4999850808
12.1408172909 -11.2304173620 -2.4999850808
12.1904544001 -11.2487655189 -2.4999850808
12.2402523844 -11.2666724517 -2.4999850808
12.2735384793 -11.2783645846 -2.4999850808
12.4168247311 -11.3515677742 -2.4999850145
17.0534976383 -10.9278149415 -2.4999850145
20.2959765672 -6.3888767593 -2.4999846831
13.0934681931 -11.6719200802 -2.4999846168
17.3276554106 -10.9406922947 -2.4999846168
17.7715980828 -10.9190127886 -2.4999840203
20.5839020901 -6.4241354302 -2.4999838878
18.2079697978 -10.9047448669 -2.4999833576
18.0337429150 -11.2378476793 -2.4999828936
18.0667570771 -11.2152640811 -2.4999828936
18.0996370493 -11.1924855553 -2.4999828936
18.6823197063 -10.7369416410 -2.4999828936
18.7422414833 -10.6839403215 -2.4999828936
18.8601827426 -10.5758292664 -2.4999828936
18.8892657173 -10.5483677590 -2.4999828936
18.9037461504 -10.5345726010 -2.4999828936
18.9325842745 -10.5068540799 -2.4999828936
17.6916075608 -11.4838089127 -2.4999828273
17.7604359742 -11.4424778743 -2.4999828273
17.7946655806 -11.4215076704 -2.4999828273
17.8796915733 -11.3681993912 -2.4999828273
17.8966016339 -11.3573871490 -2.4999828273
17.9134796360 -11.3465249311 -2.4999828273
19.1055860336 -10.3682098136 -2.4999828273
19.1334363670 -10.3393000516 -2.4999828273
19.1472972717 -10.3247835074 -2.4999828273
17.5818868545 -11.5752157949 -2.4999827611
17.7385273448 -11.4839688814 -2.4999827611
19.1369414999 -10.3705464805 -2.4999827611
19.1924960928 -10.3121915146 -2.4999827611
19.3015144810 -10.1935300570 -2.4999827611
19.5169181847 -9.9795580216 -2.4999826948
17.2649183929 -11.7973378924 -2.4999826285
17.3736081895 -11.7425602215 -2.4999826285
17.4275842194 -11.7144501271 -2.4999826285
18.0880987777 -11.3178152022 -2.4999826285
19.5484500010 -9.9791817786 -2.4999826285
17.0917046021 -11.9063086586 -2.4999825622
19.9715901819 -9.5316956905 -2.4999824297
17.0279506956 -12.0143082783 -2.4999823634
20.0259798872 -9.4939912616 -2.4999823634
16.8282865058 -12.1243042682 -2.4999822971
20.2323678892 -9.2581790370 -2.4999822308
14.9133608812 -7.1100263813 -2.4999994367
18.4436414198 -7.1155295604 -2.4999961430
18.4512995072 -7.0887603982 -2.4999961430
18.4587990853 -7.0619463967 -2.4999961430
18.4697506747 -7.0216433742 -2.4999961430
18.4509906226 -7.1759213037 -2.4999961171
18.4629539828 -7.1356830888 -2.4999961171
18.4532935644 -7.2500771492 -2.4999960911
18.4617475116 -7.2232485268 -2.4999960911
18.4453350398 -7.3513821326 -2.4999960652
18.4543884807 -7.3245988226 -2.4999960652
18.4495366930 -7.4128643960 -2.4999960392
18.4529133798 -7.4746610859 -2.4999960133
18.4755993085 -7.4830087755 -2.4999959874
17.3324092435 -9.2925714463 -2.4999959614
18.4624440718 -7.5857327816 -2.4999959614
18.7466819321 -6.5147057045 -2.4999959614
18.4525214614 -7.6752352427 -2.4999959355
18.4580259740 -7.6618276074 -2.4999959355
18.4523451439 -7.7381787040 -2.4999959096
18.4571880347 -7.7879735306 -2.4999958836
18.4554764117 -7.8514227330 -2.4999958577
18.4558412862 -7.9656156314 -2.4999958058
18.4601059167 -8.0672789910 -2.4999957540
18.4551691105 -8.1831844040 -2.4999957021
12.6139340621 -10.9543430257 -2.4999954946
12.6291643148 -10.9581926404 -2.4999954946
12.6444058888 -10.9619971844 -2.4999954946
12.7360856023 -10.9838761272 -2.4999954946
15.2564454997 -10.9480246596 -2.4999954946
15.3323261426 -10.9277386207 -2.4999954946
15.3777075854 -10.9150290622 -2.4999954946
15.3995004967 -10.9339316486 -2.4999954687
15.4146581809 -10.9295411433 -2.4999954687
15.4600523780 -10.9161008632 -2.4999954687
15.4902481395 -10.9069170994 -2.4999954687
12.4033221923 -10.9465740438 -2.4999954427
15.5729384425 -10.9061760819 -2.4999954427
12.3202865908 -10.9466137915 -2.4999954168
12.3354952639 -10.9513321023 -2.4999954168
12.3659541502 -10.9606336511 -2.4999954168
15.6257660924 -10.9142636695 -2.4999954168
12.2673439764 -10.9552013037 -2.4999953909
15.6788666386 -10.9218133567 -2.4999953909
15.7090923675 -10.9113349143 -2.4999953909
15.7392555733 -10.9006778297 -2.4999953909
18.4621107736 -8.7458686724 -2.4999953909
12.2141233094 -10.9632520534 -2.4999953649
15.7927027944 -10.9070534493 -2.4999953649
15.8077792475 -10.9014998981 -2.4999953649
12.1759107691 -10.9759522854 -2.4999953390
12.0458230460 -10.9558763564 -2.4999953131
12.0610603203 -10.9614065395 -2.4999953131
12.0763138873 -10.9668916238 -2.4999953131
12.1068693650 -10.9777263044 -2.4999953131
15.9154671655 -10.9122806616 -2.4999953131
11.9612701896 -10.9501362331 -2.4999952871
12.0375425020 -10.9785868799 -2.4999952871
11.9068960942 -10.9550336631 -2.4999952612
11.9221314836 -10.9609748209 -2.4999952612
16.0241260055 -10.9208293524 -2.4999952612
16.0392421977 -10.9145911492 -2.4999952612
16.0694188903 -10.9019807304 -2.4999952612
11.8980804636 -10.9775418825 -2.4999952353
11.7669676856 -10.9504739208 -2.4999952093
11.7974314448 -10.9631390847 -2.4999952093
16.1790545614 -10.9072936353 -2.4999952093
16.1941300347 -10.9005971846 -2.4999952093
11.7271018797 -10.9598663719 -2.4999951834
16.2793777517 -10.8883766786 -2.4999951834
11.6717918020 -10.9623297308 -2.4999951575
16.2895488640 -10.9103057405 -2.4999951575
16.3046327642 -10.9032824145 -2.4999951575
11.3154045495 -10.8188044428 -2.4999951315
11.4197213454 -10.8717202813 -2.4999951315
11.4347124103 -10.8791029547 -2.4999951315
16.3451032257 -10.9109399893 -2.4999951315
16.4053168611 -10.8819220027 -2.4999951315
10.8968636053 -10.6063425183 -2.4999951056
10.9395675004 -10.6330078578 -2.4999951056
10.9825063538 -10.6592931742 -2.4999951056
11.0256767838 -10.6851963973 -2.4999951056
11.0545840459 -10.7022519299 -2.4999951056
11.1272892304 -10.7441399297 -2.4999951056
11.2745183209 -10.8246672429 -2.4999951056
11.3042463841 -10.8402481045 -2.4999951056
12.0586210821 -11.1657198995 -2.4999951056
12.1540087706 -11.1979633673 -2.4999951056
12.1699617087 -11.2031724583 -2.4999951056
10.7427640789 -10.5347972878 -2.4999950797
10.7989192168 -10.5720951129 -2.4999950797
10.8839695636 -10.6267894977 -2.4999950797
10.8982384231 -10.6357580935 -2.4999950797
12.1945802987 -11.2364828389 -2.4999950797
12.2267286987 -11.2466130974 -2.4999950797
12.3073569817 -11.2711050804 -2.4999950797
10.8140262250 -10.6107871787 -2.4999950537
10.8997609060 -10.6652073472 -2.4999950537
12.4307857896 -11.3311406019 -2.4999950537
16.5580945458 -10.8861277725 -2.4999950537
12.6057333652 -11.4002904934 -2.4999950278
16.6257060650 -10.9052551517 -2.4999950019
13.0451987696 -11.5592416228 -2.4999949500
16.8079995011 -10.9156888810 -2.4999948981
17.1214101006 -10.9261798863 -2.4999947166
17.2512651465 -10.9294127650 -2.4999946388
17.2948000718 -10.9298220558 -2.4999946128
18.2650271247 -10.9266545250 -2.4999939904
18.1713334994 -11.1598790533 -2.4999938607
18.5995732310 -10.7900372302 -2.4999938607
18.6727514949 -10.7203223210 -2.4999938607
18.6872629621 -10.7062498819 -2.4999938607
18.7161606931 -10.6779765293 -2.4999938607
18.7734518082 -10.6209193980 -2.4999938607
18.7876687831 -10.6065495041 -2.4999938607
18.8159748959 -10.5776838618 -2.4999938607
17.8613167680 -11.4215103326 -2.4999938348
18.0580719084 -11.2781959633 -2.4999938348
18.0903644764 -11.2536351062 -2.4999938348
18.1225111689 -11.2288836253 -2.4999938348
18.8755710426 -10.5507920701 -2.4999938348
18.9174677682 -10.5066530445 -2.4999938348
18.9727176115 -10.4472259481 -2.4999938348
17.5697690365 -11.6436650676 -2.4999938089
17.6556854298 -11.5890879875 -2.4999938089
17.7577055299 -11.5219270694 -2.4999938089
17.7914453499 -11.4991390150 -2.4999938089
17.8751998993 -11.4412990654 -2.4999938089
17.9745624391 -11.3702654436 -2.4999938089
17.9909996106 -11.3582555302 -2.4999938089
18.0237670117 -11.3340900942 -2.4999938089
18.1373150226 -11.2479933400 -2.4999938089
19.1657737194 -10.2653032809 -2.4999938089
19.2311290321 -10.1872714450 -2.4999938089
19.2440611954 -10.1715495565 -2.4999938089
17.4429728108 -11.7491249527 -2.4999937829
17.4955604823 -11.7176522440 -2.4999937829
17.5478667803 -11.6857140886 -2.4999937829
17.5825792918 -11.6641646442 -2.4999937829
17.9556981825 -11.4137622116 -2.4999937829
19.1576331572 -10.3120104564 -2.4999937829
19.1709346425 -10.2965054362 -2.4999937829
19.3522811022 -10.0753730709 -2.4999937829
17.4729160916 -11.7594463484 -2.4999937570
19.1893047268 -10.3122177016 -2.4999937570
19.4090766624 -10.0417912072 -2.4999937570
19.4532543267 -10.0239144888 -2.4999937310
19.5755382203 -9.8584953640 -2.4999937310
19.5994048046 -9.8249815137 -2.4999937310
17.1736440626 -11.9827311348 -2.4999937051
17.2464816259 -11.9438344362 -2.4999937051
17.2646187038 -11.9339758079 -2.4999937051
19.6191365555 -9.8389455134 -2.4999937051
17.1297869559 -12.0328257238 -2.4999936792
19.8570822023 -9.5254214508 -2.4999936792
17.1593216317 -12.0447682146 -2.4999936532
19.8995338837 -9.5029597996 -2.4999936532
20.0375540053 -9.3185942169 -2.4999936273
17.3841770291 -11.9783369261 -2.4999936014
16.6988774178 -12.3417522235 -2.4999935754
17.2598393777 -12.1012277211 -2.4999935495
12.3754880327 -10.9525077938 -2.5000115131
12.4193068118 -10.9635834621 -2.5000115131
12.4339347010 -10.9671888818 -2.5000115131
12.4485731917 -10.9707510139 -2.5000115131
18.4554431318 -7.6941229959 -2.5000115131
18.4652606431 -7.6656359592 -2.5000115131
12.2817118099 -10.9524908639 -2.5000115621
12.2963074873 -10.9565033632 -2.5000115621
15.0326890068 -10.9459124186 -2.5000115621
18.4580382791 -7.7591336473 -2.5000115621
18.4732781317 -7.7163558449 -2.5000115621
12.2021289287 -10.9549826629 -2.5000116111
15.0831043590 -10.9566158234 -2.5000116111
15.1559541081 -10.9348119019 -2.5000116111
18.4650805353 -7.8101892762 -2.5000116111
12.1514033519 -10.9651198315 -2.5000116601
12.1660369582 -10.9695177515 -2.5000116601
12.1806835102 -10.9738723633 -2.5000116601
15.1922412148 -10.9488527361 -2.5000116601
18.4715938555 -7.8615061642 -2.5000116601
15.3597480950 -10.9187348272 -2.5000117090
15.3742304481 -10.9136420861 -2.5000117090
18.4605883345 -7.9558871090 -2.5000117090
18.4719544402 -7.9273650502 -2.5000117090
11.9758430200 -10.9596958769 -2.5000117580
11.9904613493 -10.9646131598 -2.5000117580
15.3968178941 -10.9312748654 -2.5000117580
18.4537298739 -8.0362394684 -2.5000117580
11.9387741564 -10.9725856011 -2.5000118070
18.4700114925 -8.0598661966 -2.5000118070
11.8136548167 -10.9534753924 -2.5000118560
15.5733725667 -10.9166787225 -2.5000118560
11.7613340612 -10.9596108696 -2.5000119050
15.6547663760 -10.9099865601 -2.5000119050
18.4580270791 -8.2075788941 -2.5000119050
15.7363819905 -10.9019529386 -2.5000119540
18.4536989313 -8.2746316204 -2.5000119540
11.4527132838 -10.8836382003 -2.5000120030
11.4427773619 -10.9056748230 -2.5000120520
11.3749319697 -10.9011877208 -2.5000121010
11.4764772857 -10.9471535500 -2.5000121010
18.4493859064 -8.5022074989 -2.5000121499
16.0322339778 -10.8992417687 -2.5000121989
16.0862513291 -10.8994865939 -2.5000122479
16.1548811703 -10.8917530620 -2.5000122969
18.4606970339 -8.6357565677 -2.5000122969
18.4663136647 -8.6758620884 -2.5000123459
18.4564851331 -8.8399218592 -2.5000124929
16.4837729624 -10.8765067394 -2.5000125908
18.4439983916 -9.0465302545 -2.5000126888
16.7046112618 -10.8839000138 -2.5000128358
18.4515935932 -9.2127301981 -2.5000128848
18.4368131197 -9.6509351130 -2.5000133746
18.4252281893 -9.8235002877 -2.5000135706
18.4278854471 -10.0865998764 -2.5000139135
18.0503558714 -11.2761560694 -2.5000150892
17.9873928213 -11.3594860264 -2.5000151382
18.0814661284 -11.2815828644 -2.5000151382
18.1279805707 -11.2420082194 -2.5000151382
18.1434071128 -11.2287251315 -2.5000151382
18.7541606894 -10.6311674734 -2.5000151382
18.8083585640 -10.5703956389 -2.5000151382
18.8217953777 -10.5551028085 -2.5000151382
17.7442729084 -11.5783948610 -2.5000151872
17.7770835232 -11.5540473649 -2.5000151872
17.8907742841 -11.4673114541 -2.5000151872
19.0239285123 -10.3520601744 -2.5000151872
19.0748049743 -10.2881158609 -2.5000151872
19.0874055875 -10.2720360689 -2.5000151872
19.1124638380 -10.2397650123 -2.5000151872
17.5918566898 -11.7170678846 -2.5000152362
17.6589848110 -11.6699729515 -2.5000152362
17.6923387252 -11.6461284456 -2.5000152362
17.7255509836 -11.6220870242 -2.5000152362
19.1190514933 -10.2707445873 -2.5000152362
19.1813154747 -10.1893224708 -2.5000152362
19.2058827201 -10.1564972594 -2.5000152362
17.5886949308 -11.7486284048 -2.5000152852
17.6056225067 -11.7369384047 -2.5000152852
19.3100201074 -10.0544988167 -2.5000152852
19.3573556571 -9.9871901657 -2.5000152852
17.4652765504 -11.8605653013 -2.5000153342
17.4997614632 -11.8378635029 -2.5000153342
18.2996236665 -11.2201193212 -2.5000153342
19.5591208917 -9.7253306123 -2.5000153342
19.7800871711 -9.4469519791 -2.5000154321
17.0218702427 -12.2103826527 -2.5000154811
16.8404578223 -12.3601295441 -2.5000155791
16.6808620639 -12.4648050740 -2.5000156281
16.5276654244 -12.5875964044 -2.5000157261
14.6802592832 -7.2295956132 -2.5000053562
14.6969444749 -7.2068844469 -2.5000053562
14.7238490123 -7.1683859568 -2.5000053562
14.7394409783 -7.1449107934 -2.5000053562
14.6371596792 -7.3223362132 -2.5000054196
14.6967494655 -7.2478933319 -2.5000054196
14.7380699218 -10.9437576924 -2.5000139147
12.0404376510 -10.9574775279 -2.5000139781
12.0542857683 -10.9615057133 -2.5000139781
12.1237017606 -10.9810312052 -2.5000139781
14.9039071970 -10.9440906568 -2.5000140415
14.9177031847 -10.9396482400 -2.5000140415
14.9528346448 -10.9535951739 -2.5000141049
15.0158982227 -10.9578641321 -2.5000141683
15.1345733879 -10.9412015743 -2.5000142317
15.1621310316 -10.9309113011 -2.5000142317
15.2258514036 -10.9323607279 -2.5000142951
15.2346415398 -10.9548789158 -2.5000143585
15.2622783519 -10.9439963664 -2.5000143585
15.2898502954 -10.9329504988 -2.5000143585
18.4533027171 -7.4977628657 -2.5000148023
18.4604297377 -7.4678981411 -2.5000148023
18.4639269580 -7.4529500972 -2.5000148023
18.4741530922 -7.4080448092 -2.5000148023
18.4399621842 -5.0047373530 -2.5000148023
18.4503427904 -7.6081123676 -2.5000148657
18.4731521344 -7.5184294632 -2.5000148657
18.4479038025 -4.9390899467 -2.5000148657
18.4398929493 -4.9093019450 -2.5000148657
15.8627683350 -10.9058517512 -2.5000149291
18.4534011878 -7.6890402967 -2.5000149291
18.4575526173 -7.6741120769 -2.5000149291
18.4549929946 -4.8730771708 -2.5000149291
18.4551634485 -7.7703482112 -2.5000149925
18.4479645813 -4.7619329651 -2.5000149925
18.4389056068 -4.7321477043 -2.5000149925
18.4556190230 -7.8520153997 -2.5000150559
18.4648418800 -7.8221307711 -2.5000150559
18.4693869651 -7.8071681254 -2.5000150559
18.4527342630 -4.6951776790 -2.5000150559
18.4336500396 -4.6356095108 -2.5000150559
16.0070646242 -10.9097414667 -2.5000151193
18.4596338124 -7.9190876177 -2.5000151193
18.4525695705 -8.0163436149 -2.5000151827
18.4727829368 -7.9565448937 -2.5000151827
18.4283561577 -4.4713382830 -2.5000151827
18.4702363065 -8.0391992947 -2.5000152460
16.1116923540 -10.9335259170 -2.5000153094
18.4553496154 -8.1520320779 -2.5000153094
18.4663474766 -8.1221437924 -2.5000153094
18.4401937019 -4.2971005242 -2.5000153728
18.4343112179 -4.2822262158 -2.5000153728
16.2463513986 -10.9094943085 -2.5000154362
18.4485372965 -8.3037326137 -2.5000154362
16.2864515896 -10.9131642962 -2.5000154996
18.4301693354 -4.1449667991 -2.5000154996
16.4217881566 -10.8842379751 -2.5000156264
18.4463422871 -8.4958356826 -2.5000156264
18.4593743635 -8.4659946703 -2.5000156264
18.4722296623 -8.4360770781 -2.5000156264
18.4439694232 -8.7855610487 -2.5000159434
18.4415627625 -8.8968426763 -2.5000160702
18.4367786065 -9.0088217196 -2.5000161970
16.9992807134 -10.8564460183 -2.5000164506
18.4287011128 -9.2198369657 -2.5000164506
17.0834826693 -10.8513323318 -2.5000165774
18.4259894556 -9.3188156488 -2.5000165774
18.4307062064 -9.4035109339 -2.5000167042
18.4341153321 -9.4887399859 -2.5000168310
18.4500084342 -10.7471289754 -2.5000188596
18.1318027469 -11.2502466512 -2.5000191766
18.1903036120 -11.1940169992 -2.5000191766
18.2337403913 -11.1513926470 -2.5000191766
18.2624873553 -11.1227629822 -2.5000191766
18.3617573290 -11.0212303776 -2.5000191766
17.9070701438 -11.4864212485 -2.5000192400
17.9683812691 -11.4328342035 -2.5000192400
18.0890799479 -11.3235025864 -2.5000192400
18.8194616108 -10.5308723043 -2.5000192400
18.8817683681 -10.4503853346 -2.5000192400
17.7821380714 -11.6230234771 -2.5000193034
17.8763100268 -11.5445675957 -2.5000193034
17.9073894016 -11.5180457279 -2.5000193034
17.9228701107 -11.5047159562 -2.5000193034
17.9383113201 -11.4913404481 -2.5000193034
18.9623162882 -10.3833551595 -2.5000193034
19.0813068597 -10.2173077337 -2.5000193034
19.1045126300 -10.1836799291 -2.5000193034
17.6531103875 -11.7566523980 -2.5000193668
17.7815599448 -11.6546904480 -2.5000193668
18.6353087297 -10.8292145818 -2.5000193668
19.1244487810 -10.1973505240 -2.5000193668
17.5200572018 -11.8871864931 -2.5000194302
17.5531698600 -11.8627663401 -2.5000194302
19.2245874775 -10.0914235718 -2.5000194302
19.4089179119 -9.7942685676 -2.5000194302
19.5115784425 -9.6630329746 -2.5000194936
17.5124678052 -11.9823174814 -2.5000196204
17.3554887441 -12.1212222909 -2.5000196838
14.6200438684 -10.9396429694 -2.5000022853
14.6663192712 -10.9500101443 -2.5000022911
14.6792608621 -10.9457157275 -2.5000022911
14.7258588984 -10.9554658581 -2.5000022968
14.7517605557 -10.9464864079 -2.5000022968
14.7986998677 -10.9554745045 -2.5000023026
14.8589007224 -10.9591463663 -2.5000023084
14.8718684973 -10.9542822188 -2.5000023084
14.9582910239 -10.9467595035 -2.5000023141
15.0672532577 -10.9544039727 -2.5000023256
15.1415685172 -10.9487541191 -2.5000023314
15.2290334807 -10.9359388372 -2.5000023372
15.4002044577 -10.9612418825 -2.5000023602
15.4519753298 -10.9351503222 -2.5000023602
15.5518176664 -10.9375150766 -2.5000023717
18.4410936519 -7.9831675685 -2.5000024813
18.4493451715 -7.9522595621 -2.5000024813
18.4574136845 -7.9213032778 -2.5000024813
18.4589353616 -5.2306698524 -2.5000024813
18.4549415152 -5.2151812159 -2.5000024813
18.4426853135 -5.1687871418 -2.5000024813
18.4384649217 -8.0823084664 -2.5000024870
18.4473030382 -8.0514142772 -2.5000024870
18.4602171147 -8.0049763034 -2.5000024870
18.4618334318 -5.1470000513 -2.5000024870
18.4533048689 -5.1160189790 -2.5000024870
18.4526249788 -8.1200044464 -2.5000024928
18.4633972534 -5.0629522478 -2.5000024928
18.4543714081 -5.0319633944 -2.5000024928
18.4404892735 -4.9855815945 -2.5000024928
18.4425058188 -8.2353292352 -2.5000024985
18.4474003701 -8.2198760536 -2.5000024985
18.4402714739 -8.3200472513 -2.5000025043
18.4574900215 -4.8783101698 -2.5000025043
18.4524538377 -4.8628273506 -2.5000025043
18.4473718750 -4.8473594971 -2.5000025043
18.4312260517 -8.4204817774 -2.5000025101
18.4420650418 -8.3896244972 -2.5000025101
18.4651757618 -4.8242596706 -2.5000025101
18.4547377000 -4.7932644724 -2.5000025101
18.4259926922 -8.5057544277 -2.5000025158
18.4373362755 -8.4749266175 -2.5000025158
18.4429396219 -8.4594876800 -2.5000025158
18.4484972726 -8.4440322343 -2.5000025158
18.4506102096 -4.7079311450 -2.5000025158
18.4450700440 -4.6924694230 -2.5000025158
18.4312214191 -8.5604844586 -2.5000025216
18.4358868946 -8.6154588314 -2.5000025274
18.4441953488 -4.5519324571 -2.5000025274
18.4274834757 -8.7015119000 -2.5000025331
18.4241993285 -8.7723790747 -2.5000025389
18.4306826505 -8.7569776972 -2.5000025389
18.4585564991 -4.4567897838 -2.5000025389
18.4522733771 -4.4413056541 -2.5000025389
18.4266575824 -8.8280760670 -2.5000025446
18.4489598838 -4.3701705705 -2.5000025446
18.4424205685 -4.3547152083 -2.5000025446
18.4147717325 -8.9147577303 -2.5000025504
18.4157332384 -8.9708876400 -2.5000025562
18.4298288856 -8.9401123875 -2.5000025562
18.4474841418 -4.1863829769 -2.5000025619
18.4084360881 -9.0990996767 -2.5000025677
18.4479970881 -4.1298596225 -2.5000025677
18.4226425177 -9.1250813270 -2.5000025735
18.6307096645 -4.4981381978 -2.5000025735
18.3479393165 -3.8740326673 -2.5000025735
18.3399327776 -3.8588783130 -2.5000025735
18.3237853874 -3.8286409902 -2.5000025735
18.3156446774 -3.8135582862 -2.5000025735
18.7511473659 -4.7651808509 -2.5000025792
18.7348859993 -4.7161758364 -2.5000025792
18.7293689791 -4.6998731391 -2.5000025792
18.7238037568 -4.6835868335 -2.5000025792
18.6952563316 -4.6024061638 -2.5000025792
18.6655113355 -4.5216566013 -2.5000025792
18.3286805365 -3.7869239778 -2.5000025792
18.3121076372 -3.7567544863 -2.5000025792
18.4116381361 -9.2544259950 -2.5000025850
18.4195474950 -9.2390596666 -2.5000025850
18.8054683733 -4.8565118551 -2.5000025850
18.7952151705 -4.8235028071 -2.5000025850
18.3164392307 -3.7148575334 -2.5000025850
18.1291700102 -3.4040412759 -2.5000025850
18.4090150964 -9.3116684599 -2.5000025908
18.4251270349 -9.2809269900 -2.5000025908
18.4103581101 -9.4112998900 -2.5000026023
18.4221630125 -9.5388759602 -2.5000026196
18.4193668678 -9.6400446964 -2.5000026311
18.4353422622 -9.7543643575 -2.5000026484
18.4369897525 -9.7978700239 -2.5000026542
18.0544935142 -11.3691505072 -2.5000028155
18.0827844121 -11.3404704966 -2.5000028155
18.1109051343 -11.3116236096 -2.5000028155
18.1527649867 -11.2680425959 -2.5000028155
18.1942364336 -11.2240918157 -2.5000028155
18.6361115394 -10.7012383165 -2.5000028155
18.6845793955 -10.6368762020 -2.5000028155
18.7322822960 -10.5719450992 -2.5000028155
18.7558447966 -10.5392690150 -2.5000028155
17.9124921647 -11.5414389290 -2.5000028213
17.9271691056 -11.5275391580 -2.5000028213
17.9709523225 -11.4855801960 -2.5000028213
18.9575954905 -10.2860945292 -2.5000028213
17.6260331120 -11.8286714327 -2.5000028270
17.7032843283 -11.7629456590 -2.5000028270
17.7795549850 -11.6960844992 -2.5000028270
17.7946899770 -11.6825773038 -2.5000028270
17.8097849461 -11.6690253954 -2.5000028270
17.8548283965 -11.6281025805 -2.5000028270
18.9221467807 -10.3839673428 -2.5000028270
19.0107297738 -10.2479944361 -2.5000028270
17.4995929547 -11.9630041032 -2.5000028328
17.5155187681 -11.9503239183 -2.5000028328
17.7190842903 -11.7812403709 -2.5000028328
19.1062544132 -10.1398563164 -2.5000028328
17.3691122632 -12.0943166340 -2.5000028386
19.1895239347 -10.0470036580 -2.5000028386
19.1997744781 -10.0293327348 -2.5000028386
19.2993878141 -9.8509856378 -2.5000028386
19.3282385230 -9.7969150249 -2.5000028386
17.4974625147 -12.0262664057 -2.5000028443
19.3874668721 -9.7354577184 -2.5000028443
19.3223040043 -9.9100890468 -2.5000028501
19.4460929025 -9.6730486164 -2.5000028501
19.2313245331 -10.1191049368 -2.5000028559
17.0541865710 -12.4333113574 -2.5000028616
19.9761070951 -8.8341387086 -2.5000028904
16.6108059249 -12.9205581230 -2.5000029077
14.5723212506 -7.4575267117 -2.4999994886
14.6457742921 -7.3071895895 -2.4999994626
14.6664110512 -7.2189824131 -2.4999994626
14.6052345608 -7.5061882333 -2.4999994367
14.2134274164 -10.9405991846 -2.4999966876
14.2319406550 -10.9605174236 -2.4999966617
14.2679657390 -10.9501978810 -2.4999966617
14.2799535739 -10.9466870379 -2.4999966617
14.2919309705 -10.9431407480 -2.4999966617
14.3158540303 -10.9359419521 -2.4999966617
14.3828469062 -10.9403473098 -2.4999966358
14.4262662723 -10.9516434520 -2.4999966098
14.4502372858 -10.9436497346 -2.4999966098
14.4741605863 -10.9355143365 -2.4999966098
14.4699875819 -10.9624856617 -2.4999965839
14.5180071252 -10.9458384563 -2.4999965839
14.5299809700 -10.9415879647 -2.4999965839
14.6100783182 -10.9379635080 -2.4999965579
14.6874071355 -10.9599806610 -2.4999965061
14.7565281117 -10.9582261461 -2.4999964801
14.7925122044 -10.9432512742 -2.4999964801
14.8259452650 -10.9553111511 -2.4999964542
14.8379457844 -10.9501496813 -2.4999964542
14.9076274482 -10.9458589419 -2.4999964283
14.9415970613 -10.9570062611 -2.4999964023
14.9655907838 -10.9459635798 -2.4999964023
15.0118231928 -10.9509717875 -2.4999963764
15.0238100623 -10.9452604762 -2.4999963764
15.1289962149 -10.9474650071 -2.4999963245
15.1529302083 -10.9353137765 -2.4999963245
15.1759405073 -10.9506742335 -2.4999962986
15.1879257785 -10.9444774348 -2.4999962986
15.2118410651 -10.9319776094 -2.4999962986
15.3064143481 -10.9360058864 -2.4999962467
15.4258139054 -10.9520116514 -2.4999961689
15.4617164924 -10.9310974883 -2.4999961689
17.4103394927 -8.6933553616 -2.4999961689
15.5103140234 -10.9584988569 -2.4999961171
15.5582135637 -10.9295423049 -2.4999961171
15.7413005534 -10.9277749981 -2.4999960133
16.5977678794 -10.9126680981 -2.4999954687
18.4341055681 -8.3914903758 -2.4999952353
18.4385060547 -8.3756665330 -2.4999952353
18.4428597123 -8.3598297421 -2.4999952353
18.4514263884 -8.3281178700 -2.4999952353
18.4572355264 -5.4858547221 -2.4999952353
18.4401738966 -5.4224119441 -2.4999952353
18.4357912857 -5.4065831411 -2.4999952353
18.4298818496 -8.4930769191 -2.4999952093
18.4501339042 -5.3683424137 -2.4999952093
18.4455913023 -5.3524843838 -2.4999952093
18.4363654654 -5.3208089843 -2.4999952093
18.4336875524 -8.5633796573 -2.4999951834
18.4385965204 -8.5475562990 -2.4999951834
18.4453027571 -5.2663656822 -2.4999951834
18.4355674181 -5.2346934971 -2.4999951834
18.4261982755 -8.6656137065 -2.4999951575
18.4314097031 -8.6498120555 -2.4999951575
18.4635646225 -5.2434200751 -2.4999951575
18.4385339873 -5.1640814027 -2.4999951575
18.4331609777 -8.7207336679 -2.4999951315
18.4405751513 -5.0931675414 -2.4999951315
18.4226684520 -8.8235417130 -2.4999951056
18.4472045549 -5.0378118826 -2.4999951056
18.4361169816 -5.0061324458 -2.4999951056
18.4338571341 -8.8634224079 -2.4999950797
18.4532712807 -4.9821971954 -2.4999950797
18.4327891593 -8.9351650329 -2.4999950537
18.4387979396 -8.9193427056 -2.4999950537
18.4447598884 -8.9035026724 -2.4999950537
18.4529210641 -4.9104474765 -2.4999950537
18.4410798601 -4.8787364480 -2.4999950537
18.4369905970 -8.9913399729 -2.4999950278
18.4553747467 -8.9437805144 -2.4999950278
18.4393538391 -4.8067371852 -2.4999950278
18.4366704247 -4.7344975556 -2.4999950019
18.4436562293 -9.1043874285 -2.4999949759
18.4526385644 -4.7095598872 -2.4999949759
18.4396088470 -4.6778540460 -2.4999949759
18.4479803334 -9.2183257591 -2.4999949241
18.4548266880 -9.2024572546 -2.4999949241
18.4437245860 -4.5639079984 -2.4999949241
18.4492550820 -9.2756141100 -2.4999948981
18.4632397340 -9.2438483730 -2.4999948981
18.4448945697 -4.5066174123 -2.4999948981
18.4573685879 -9.3749237096 -2.4999948462
18.4570150348 -9.4328093047 -2.4999948203
18.4644958309 -9.4169131354 -2.4999948203
18.4719295705 -9.4009949061 -2.4999948203
18.4523670482 -4.3494082898 -2.4999948203
18.4357970720 -4.2596457946 -2.4999947944
18.4623109554 -9.5332495129 -2.4999947684
18.4761561538 -9.5598504226 -2.4999947425
18.4840126768 -9.5438970746 -2.4999947425
18.4361839530 -4.1002252937 -2.4999947166
18.6503281981 -4.4935097751 -2.4999946906
18.6431968070 -4.4770633620 -2.4999946906
18.3097161032 -3.8226141349 -2.4999946906
18.2822357225 -3.7763877033 -2.4999946906
18.7480391013 -4.6669193869 -2.4999946647
18.7414202597 -4.6501831686 -2.4999946647
18.7144506812 -4.5834362868 -2.4999946647
18.2465492491 -3.6718652370 -2.4999946647
18.2080384022 -3.6110423871 -2.4999946647
18.0984531791 -3.4461764797 -2.4999946647
18.0882260014 -3.4313671953 -2.4999946647
18.0779550600 -3.4165882295 -2.4999946647
18.8463773713 -4.8611805777 -2.4999946388
18.0874291442 -3.3879565329 -2.4999946388
18.0137198920 -3.2851734939 -2.4999946388
17.9706498283 -3.2271326599 -2.4999946388
18.4672854851 -9.8386851701 -2.4999946128
18.9270635350 -5.0250397624 -2.4999946128
18.9215032950 -5.0077723905 -2.4999946128
18.9158919993 -4.9905215423 -2.4999946128
17.8788853189 -3.0692106404 -2.4999946128
17.8102117266 -2.9847686021 -2.4999946128
17.7636013795 -2.9291568014 -2.4999946128
19.0130545155 -5.2269283751 -2.4999945869
18.9928902382 -5.1569270150 -2.4999945869
18.9824978396 -5.1220170338 -2.4999945869
19.0697423162 -5.3439167856 -2.4999945610
19.0604548669 -5.3085488491 -2.4999945610
19.0363222214 -5.2203748152 -2.4999945610
17.9731804775 -3.1108932384 -2.4999945610
19.1642387620 -5.5287664466 -2.4999945091
19.1601675988 -5.5107952635 -2.4999945091
18.4727968799 -10.0735846047 -2.4999944832
18.4650952740 -10.1337220411 -2.4999944572
19.2494801372 -5.6998982329 -2.4999944572
18.4953958604 -10.1302054413 -2.4999944313
19.2902928005 -5.7869179348 -2.4999944313
19.4052675311 -6.0535860185 -2.4999943535
18.4571360479 -10.4627113472 -2.4999942757
18.4576976835 -10.8415969346 -2.4999940423
18.0967961980 -11.3637393056 -2.4999939904
18.1231410685 -11.3340222881 -2.4999939904
18.1493096621 -11.3041499256 -2.4999939904
18.1753010628 -11.2741232638 -2.4999939904
18.2394983904 -11.1983884599 -2.4999939904
18.2648624923 -11.1678300623 -2.4999939904
18.2900453565 -11.1371221369 -2.4999939904
18.3522038333 -11.0597052063 -2.4999939904
18.6565639123 -10.6428440013 -2.4999939904
18.7436665901 -10.5100039744 -2.4999939904
18.7755159544 -10.4596631356 -2.4999939904
18.7860329763 -10.4428202900 -2.4999939904
18.7965001280 -10.4259464069 -2.4999939904
18.8069173179 -10.4090416339 -2.4999939904
18.8172844549 -10.3921061189 -2.4999939904
17.8550154283 -11.6551837894 -2.4999939645
17.8830888138 -11.6268921274 -2.4999939645
17.8970626149 -11.6126841356 -2.4999939645
17.9248838224 -11.5841444521 -2.4999939645
17.9662978234 -11.5410275529 -2.4999939645
18.0073275554 -11.4975448256 -2.4999939645
18.0209181802 -11.4829698791 -2.4999939645
18.1412767912 -11.3500044921 -2.4999939645
18.7640369574 -10.5230187128 -2.4999939645
18.8992867979 -10.3020777035 -2.4999939645
18.9193364769 -10.2676314630 -2.4999939645
18.9292848051 -10.2503640105 -2.4999939645
18.9782578640 -10.1635894783 -2.4999939645
17.7141991393 -11.8254087845 -2.4999939385
17.8152742405 -11.7285448855 -2.4999939385
17.8862320206 -11.6580853112 -2.4999939385
17.9283037273 -11.6153085134 -2.4999939385
18.0927451038 -11.4405186663 -2.4999939385
19.0377852003 -10.1051283061 -2.4999939385
17.6866581592 -11.8840482241 -2.4999939126
19.1606795776 -9.9206051008 -2.4999939126
17.5681520749 -12.0229230680 -2.4999938867
17.7030449767 -11.9018191974 -2.4999938867
19.1733120991 -9.9493982367 -2.4999938867
19.2090150600 -9.8771700329 -2.4999938867
17.3197408361 -12.2606704629 -2.4999938607
17.4610507317 -12.1460951740 -2.4999938607
18.9724633710 -10.3683905073 -2.4999938607
19.3248299225 -9.6862915345 -2.4999938607
19.3412289560 -9.6493384152 -2.4999938607
19.3654168652 -9.5937284374 -2.4999938607
17.3027880293 -12.3046838799 -2.4999938348
19.4346828306 -9.4910230034 -2.4999938348
17.0394590075 -12.5295469051 -2.4999938089
19.4723537882 -9.4624383525 -2.4999938089
19.3572202191 -9.7902966156 -2.4999937829
19.4947829091 -9.4714533300 -2.4999937829
16.8805478269 -12.6956104333 -2.4999937570
14.1195528253 -10.9601242667 -2.4999988769
14.1854506635 -10.9398688094 -2.4999988769
14.4064116335 -10.9399934227 -2.4999988337
14.4808301903 -10.9371157108 -2.4999988193
14.6087846446 -10.9364166735 -2.4999987905
15.2349448300 -10.9403506979 -2.4999986176
18.4406122143 -7.3850115687 -2.4999979548
18.4419792864 -7.3207593480 -2.4999979548
18.4425860006 -7.2564954494 -2.4999979548
18.4422750210 -7.1761628618 -2.4999979548
18.4418179441 -7.1440325909 -2.4999979548
18.4403335565 -7.0797829734 -2.4999979548
18.4588571428 -8.5373773039 -2.4999978539
18.4626790122 -8.5212568216 -2.4999978539
18.4564743572 -5.9273858459 -2.4999978539
18.4515633870 -5.8087808278 -2.4999978395
18.4603134900 -8.7266671858 -2.4999978251
18.4388709264 -5.5866086796 -2.4999978107
18.4290095727 -5.5545263684 -2.4999978107
18.4601173761 -8.9013035068 -2.4999977963
18.4579230082 -8.9891125362 -2.4999977819
18.4681916765 -8.9568579569 -2.4999977819
18.4494801570 -5.4595582383 -2.4999977819
18.4457637566 -5.2991811879 -2.4999977531
18.4391487364 -5.2105595962 -2.4999977387
18.4310961462 -5.1217115226 -2.4999977243
18.4473060742 -5.0968314163 -2.4999977098
18.4545124523 -9.4251541116 -2.4999976954
18.4609605450 -9.4090425973 -2.4999976954
18.4307908317 -4.9914352643 -2.4999976954
18.4638488059 -9.4664671132 -2.4999976810
18.4704190691 -9.4503277995 -2.4999976810
18.4547918823 -9.7305697941 -2.4999976234
18.4693402676 -9.7567927307 -2.4999976090
18.4307688176 -4.5261309615 -2.4999975802
18.4685962503 -10.1388595364 -2.4999975081
18.4771555511 -10.1227032370 -2.4999975081
18.7356980306 -4.6028219120 -2.4999974361
18.3650899061 -3.9137400441 -2.4999974361
18.2951239841 -3.8035984535 -2.4999974361
18.2228924905 -3.6949291775 -2.4999974361
18.1912502348 -3.6488189089 -2.4999974361
18.1048833013 -3.5272496979 -2.4999974361
18.8186288098 -4.7294333212 -2.4999974217
