25.9372160680 -30.9563791252 -2.5000155630
23.9759793659 -33.3774254153 -2.5000156898
24.1256028183 -33.3629310942 -2.5000158800
25.9439923114 -31.2855543730 -2.5000159434
25.9315585829 -31.4676105595 -2.5000161336
25.9296144564 -31.6214419278 -2.5000163238
25.9320154797 -31.7618217597 -2.5000165140
25.9165062962 -32.2337009843 -2.5000171479
25.5875155961 -33.7919557956 -2.5000191766
25.6757637246 -33.7081325713 -2.5000191766
25.6903265001 -33.6940103235 -2.5000191766
25.4836325284 -33.9193177040 -2.5000192400
26.4186014928 -32.9016472279 -2.5000192400
25.3763329150 -34.0445609200 -2.5000193034
26.5105244376 -32.8173524975 -2.5000193034
26.8775014588 -32.3473687270 -2.5000194302
24.7806402761 -34.5841266358 -2.5000194936
24.8112687675 -34.5927204191 -2.5000195570
22.0941716530 -33.4478508885 -2.5000022853
22.1403849102 -33.4584916628 -2.5000022911
22.1998912176 -33.4642995376 -2.5000022968
22.2258455470 -33.4554734875 -2.5000022968
22.2517472043 -33.4464940373 -2.5000022968
22.5672399062 -33.4544116021 -2.5000023256
23.1149223042 -33.4308256636 -2.5000023775
23.3176079417 -33.4261622967 -2.5000024006
25.9410803004 -30.4831751979 -2.5000024813
25.9613658737 -30.4058149994 -2.5000024813
25.9508885166 -27.6997120911 -2.5000024813
25.9468031041 -27.6842473546 -2.5000024813
25.9472896868 -30.5514219066 -2.5000024870
25.9532915175 -27.6160266084 -2.5000024870
25.9445798095 -27.5850965361 -2.5000024870
25.9401553710 -27.5696509634 -2.5000024870
25.9571649829 -30.6045294645 -2.5000024928
25.9588938970 -27.5474587755 -2.5000024928
25.9404759221 -27.4855892239 -2.5000024928
25.9424924673 -30.7353368646 -2.5000024985
25.9540777336 -27.4475666385 -2.5000024985
25.9492464153 -27.4320935710 -2.5000024985
25.9443693460 -27.4166348631 -2.5000024985
25.9605643296 -30.7581767347 -2.5000025043
25.9574766700 -27.3783177992 -2.5000025043
25.9524404863 -27.3628349800 -2.5000025043
25.9599663019 -27.3087619815 -2.5000025101
25.9259793408 -31.0057620571 -2.5000025158
25.9484839211 -30.9440398637 -2.5000025158
25.9539958275 -30.9285680451 -2.5000025158
25.9505968582 -27.2079387744 -2.5000025158
25.9253060058 -31.0758959191 -2.5000025216
25.9485060490 -26.9967442950 -2.5000025331
25.9132114838 -31.3588421472 -2.5000025446
25.9199506047 -31.3434728559 -2.5000025446
25.9618878609 -26.9011466194 -2.5000025446
25.9554400992 -26.8856528389 -2.5000025446
25.9367950170 -31.4247012522 -2.5000025562
25.9600635153 -26.7736670438 -2.5000025562
25.9463680067 -26.7427116489 -2.5000025562
25.9305213732 -31.4964474325 -2.5000025619
25.9407335424 -26.6144157893 -2.5000025677
25.9150569623 -31.6404649392 -2.5000025735
25.9226291662 -31.6250889564 -2.5000025735
25.9626020283 -26.6041150803 -2.5000025735
25.8716761173 -26.4196445389 -2.5000025735
25.8399194261 -26.3588859424 -2.5000025735
25.7658533699 -26.2235813979 -2.5000025735
25.9136421132 -31.6973611652 -2.5000025792
26.2237904054 -27.1835944629 -2.5000025792
26.2181770296 -27.1673246915 -2.5000025792
25.7265685676 -26.1074143403 -2.5000025792
25.6731458248 -26.0190429956 -2.5000025792
25.6846272661 -25.9916576353 -2.5000025850
25.9140183618 -31.8537327791 -2.5000025965
25.9254392792 -32.0817013603 -2.5000026253
25.9490463133 -32.3698269139 -2.5000026657
25.6527516352 -33.7680502253 -2.5000028155
25.6666187689 -33.7534408800 -2.5000028155
25.7079600200 -33.7093676121 -2.5000028155
25.7489085176 -33.6649291993 -2.5000028155
25.7624701800 -33.6500358558 -2.5000028155
25.7759877258 -33.6351024596 -2.5000028155
26.1845660440 -33.1368838314 -2.5000028155
26.2558314452 -33.0392766443 -2.5000028155
26.2675400961 -33.0228864687 -2.5000028155
26.4152990385 -32.8067214235 -2.5000028155
25.3830018990 -34.0691155456 -2.5000028213
25.3977608187 -34.0553028515 -2.5000028213
25.4124788133 -34.0414465584 -2.5000028213
25.4563859609 -33.9996172987 -2.5000028213
26.3105846818 -33.0039081041 -2.5000028213
26.3567053297 -32.9374951993 -2.5000028213
25.1878986406 -34.2761897377 -2.5000028270
25.2643667510 -34.2095544929 -2.5000028270
25.3248264087 -34.1554365221 -2.5000028270
25.3398409360 -34.1417955440 -2.5000028270
26.4888727391 -32.7821912326 -2.5000028270
26.5215623152 -32.7308591684 -2.5000028270
26.5431017286 -32.6964774972 -2.5000028270
26.5644373516 -32.6619689933 -2.5000028270
26.5750285079 -32.6446675564 -2.5000028270
26.5960570471 -32.6099710697 -2.5000028270
26.5956639788 -32.6572577361 -2.5000028328
24.9503072263 -34.5323693911 -2.5000028386
26.8206507635 -32.3624673381 -2.5000028443
24.6780664517 -34.8210631489 -2.5000028559
21.7919385999 -33.4431564836 -2.4999966617
21.8108709407 -33.4627225050 -2.4999966358
22.1874147649 -33.4599963966 -2.4999965061
25.9206311504 -30.9388985663 -2.4999952353
25.9401815260 -27.9224276797 -2.4999952353
25.9363730948 -27.8208247200 -2.4999952093
25.9642180691 -27.8298958071 -2.4999951834
25.9355750475 -27.7347092327 -2.4999951834
25.9314173325 -31.1498277912 -2.4999951575
25.9277473729 -31.2365559248 -2.4999951315
25.9418621955 -27.4504985749 -2.4999950797
25.9327967887 -31.4351807686 -2.4999950537
25.9431731640 -31.4755207068 -2.4999950278
25.9342332194 -31.5635922612 -2.4999950019
25.9501731820 -31.5885479496 -2.4999949759
25.9527979797 -31.6454012061 -2.4999949500
25.9449021991 -27.0066331479 -2.4999948981
25.9645034603 -31.9169288710 -2.4999948203
26.1068194404 -26.8951674228 -2.4999946906
25.8097237326 -26.3226298705 -2.4999946906
25.6973561189 -26.1392127697 -2.4999946906
26.2611357431 -27.2004659321 -2.4999946647
25.9718856253 -32.2794281652 -2.4999946388
26.3403403886 -27.3441683426 -2.4999946388
25.4349687483 -25.6405167731 -2.4999946128
25.3447434998 -25.5268529940 -2.4999946128
26.2005158506 -33.0766973923 -2.4999939904
26.2436742195 -33.0100197100 -2.4999939904
25.3550230577 -34.1551995251 -2.4999939645
25.5073351848 -33.9975605612 -2.4999939645
25.1866657886 -34.3840639597 -2.4999939126
22.4041909601 -29.9238138337 -2.5000000584
21.4357334222 -33.4352711311 -2.4999989201
21.4526002736 -33.4559542857 -2.4999989057
21.5247970695 -33.4619874460 -2.4999988913
21.5687976420 -33.4497347242 -2.4999988913
21.6017012430 -33.4402039823 -2.4999988913
21.6854449414 -33.4398750082 -2.4999988769
21.7147729686 -33.4558622176 -2.4999988625
21.7696394152 -33.4376558845 -2.4999988625
22.0446391265 -33.4373139834 -2.4999988049
22.4009961363 -33.4323114360 -2.4999987184
23.2690635522 -33.4308048023 -2.4999984447
22.1148293856 -34.1104003143 -2.4999984159
25.1237646288 -30.3854774369 -2.4999984159
25.9390823145 -29.9331938579 -2.4999979548
25.9401459384 -29.9010779439 -2.4999979548
25.9406064922 -29.8850177676 -2.4999979548
25.9413850635 -29.8528936793 -2.4999979548
25.9425802786 -29.7565016483 -2.4999979548
25.9425362743 -29.7083014735 -2.4999979548
25.9424265501 -29.6922350697 -2.4999979548
25.9418122220 -29.6440387898 -2.4999979548
25.9415124003 -29.6279748091 -2.4999979548
25.9411650597 -29.6119117855 -2.4999979548
25.9549818809 -31.0534926088 -2.4999978539
25.9486231256 -28.3951996215 -2.4999978539
25.9405872921 -28.3630541784 -2.4999978539
25.9364980915 -28.3469994260 -2.4999978539
25.9583297899 -31.1398901757 -2.4999978395
25.9599143691 -28.3409983240 -2.4999978395
25.9557598388 -28.3248864952 -2.4999978395
25.9515576650 -28.3087870267 -2.4999978395
25.9342732760 -28.2445155723 -2.4999978395
25.9603077679 -31.2266733847 -2.4999978251
25.9646895846 -31.2105477661 -2.4999978251
25.9486139112 -28.2059041375 -2.4999978251
25.9394581423 -28.1737620619 -2.4999978251
25.9609051599 -31.3138205376 -2.4999978107
25.9655447710 -31.2976927705 -2.4999978107
25.9533009120 -28.1348463344 -2.4999978107
25.9339582539 -28.0705664300 -2.4999978107
25.9290038507 -28.0545325673 -2.4999978107
25.9579172861 -31.4891187351 -2.4999977819
25.9681859545 -31.4568641558 -2.4999977819
25.9732486826 -31.4407142249 -2.4999977819
25.9441915999 -27.9434851605 -2.4999977819
25.9388612225 -27.9274215817 -2.4999977819
25.9704258786 -31.5288492636 -2.4999977675
25.9717230924 -31.6011270751 -2.4999977531
25.9400007914 -27.7831198056 -2.4999977531
25.9714631457 -31.7465116208 -2.4999977243
25.9310904241 -27.6217177214 -2.4999977243
25.9574785357 -31.8518518071 -2.4999977098
25.9821169207 -31.7872622582 -2.4999977098
26.0059893274 -31.7223856981 -2.4999977098
25.9545067302 -31.9251603105 -2.4999976954
25.9374052304 -27.5074830590 -2.4999976954
25.9307851097 -27.4914414632 -2.4999976954
25.9638430838 -31.9664733121 -2.4999976810
25.9328887850 -27.4339828552 -2.4999976810
25.9413583869 -27.3923635577 -2.4999976666
25.9281288908 -27.3023966932 -2.4999976522
25.9429205794 -27.2764073102 -2.4999976378
25.9353200665 -27.2020743667 -2.4999976234
25.9420634612 -27.1596631689 -2.4999976090
25.9328965183 -27.0849614873 -2.4999975946
25.9280108930 -26.9671426555 -2.4999975658
25.9709024518 -32.4763970152 -2.4999975514
25.9678893568 -32.5357710009 -2.4999975369
25.9685905282 -32.6388657353 -2.4999975081
25.9284521091 -26.7615883096 -2.4999975081
25.9585125778 -32.7587154587 -2.4999974793
25.9349574174 -26.6739218794 -2.4999974793
25.9377150890 -26.6298747533 -2.4999974649
25.9401406767 -26.5856881864 -2.4999974505
26.2120868980 -27.0521312292 -2.4999974361
26.2041185623 -27.0352790678 -2.4999974361
26.1961004098 -27.0184505519 -2.4999974361
26.1799149352 -26.9848650454 -2.4999974361
25.6806063131 -26.1335176447 -2.4999974361
26.3478914213 -27.2983298415 -2.4999974217
26.2961380167 -27.1780016884 -2.4999974217
26.2498028919 -27.0757347643 -2.4999974217
25.7742302741 -26.2279136388 -2.4999974217
25.5462051679 -25.9079512535 -2.4999974217
25.4774470834 -25.8191943192 -2.4999974217
26.4467490957 -27.4809199368 -2.4999974073
26.4400481678 -27.4633717260 -2.4999974073
25.3415217832 -25.6154673255 -2.4999974073
26.4892106636 -27.5252933536 -2.4999973929
25.1844447996 -25.4025785874 -2.4999973929
25.8345653699 -26.1876806455 -2.4999973785
26.6558031512 -27.8685639978 -2.4999973640
25.0350191103 -25.1784971983 -2.4999973640
25.9538074133 -33.2373228033 -2.4999973352
26.7649813528 -28.0753965397 -2.4999973352
25.9427478154 -33.2987389225 -2.4999973208
25.6262585376 -33.8566442879 -2.4999972776
25.7808506028 -33.6569448466 -2.4999972776
25.8039479574 -33.6256999128 -2.4999972776
25.4695058535 -34.0808133686 -2.4999972632
25.5458132709 -33.9921303890 -2.4999972632
25.5708978093 -33.9622701486 -2.4999972632
26.2944131529 -32.9004315455 -2.4999972632
26.3037447871 -32.8833102593 -2.4999972632
26.3854388511 -32.7279979028 -2.4999972632
25.3164045935 -34.2848449809 -2.4999972488
25.3963573156 -34.1988471327 -2.4999972488
25.4747711391 -34.1114438149 -2.4999972488
25.5768864371 -33.9927674241 -2.4999972488
26.4678674281 -32.6162472528 -2.4999972488
26.4931813768 -32.5632728364 -2.4999972488
26.5015147649 -32.5455650331 -2.4999972488
25.3608799956 -34.2728485226 -2.4999972344
26.5724776924 -32.4486782674 -2.4999972344
26.5884126814 -32.4127709485 -2.4999972344
26.5963004409 -32.3947820923 -2.4999972344
25.0865494511 -34.5827459987 -2.4999972200
25.6890355968 -34.0091807044 -2.4999971912
26.8574886699 -31.9244415016 -2.4999971912
25.4354726270 -34.3699935687 -2.4999971623
24.3751678204 -35.3146984140 -2.4999971479
27.1954596709 -31.3743507172 -2.4999970903
21.9202479418 -33.4391470780 -2.5000016263
21.9396770444 -33.4571392982 -2.5000016292
21.9496411741 -33.4528536853 -2.5000016292
22.0191319234 -33.4485411779 -2.5000016321
22.0789893594 -33.4475131706 -2.5000016350
22.0889244037 -33.4428154888 -2.5000016350
22.2194115487 -33.4321900907 -2.5000016407
22.5277911593 -33.4254019039 -2.5000016580
22.6026917740 -33.4359078024 -2.5000016638
22.5802585081 -26.5539435933 -2.5000016811
22.9788970489 -33.4120953985 -2.5000016868
22.6679320255 -26.5502967810 -2.5000016868
23.0229442573 -33.4091698061 -2.5000016897
22.7329532444 -26.5623995763 -2.5000016897
22.7225180161 -26.5557974763 -2.5000016897
23.3566914785 -33.4190084295 -2.5000017156
25.9630934528 -31.4084783948 -2.5000018626
25.9820454357 -31.3274723458 -2.5000018626
25.9486324499 -28.7064274634 -2.5000018626
25.9445255739 -28.6903034217 -2.5000018626
25.9663549092 -31.4952228509 -2.5000018655
25.9637694312 -28.6681212171 -2.5000018655
25.9552811018 -28.6357964681 -2.5000018655
25.9466016769 -28.6035225047 -2.5000018655
25.9421903983 -28.5874049206 -2.5000018655
25.9812991243 -31.5337290394 -2.5000018684
25.9564926064 -28.5486556889 -2.5000018684
25.9519189786 -28.5325090858 -2.5000018684
25.9472976062 -28.5163760829 -2.5000018684
25.9687420323 -31.6698429664 -2.5000018713
25.9416751404 -28.4127692496 -2.5000018713
25.9366996008 -28.3966670738 -2.5000018713
25.9476916444 -31.8223041323 -2.5000018741
25.9678467731 -31.7576748478 -2.5000018741
25.9547401362 -28.3733407886 -2.5000018741
25.9340850350 -28.3088695514 -2.5000018741
25.9497187279 -31.8942955480 -2.5000018770
25.9570614528 -28.3013582596 -2.5000018770
25.9517562720 -28.2852110557 -2.5000018770
25.9508022398 -31.9665768789 -2.5000018799
25.9780100595 -31.8856915748 -2.5000018799
25.9473546508 -28.1967964244 -2.5000018799
25.9509356158 -32.0391358373 -2.5000018828
25.9566874838 -32.0229904004 -2.5000018828
25.9680478111 -31.9906488348 -2.5000018828
25.9736561709 -31.9744529891 -2.5000018828
25.9473553116 -28.1242373434 -2.5000018828
25.9356494698 -28.0920192247 -2.5000018828
25.9501124509 -32.1119600207 -2.5000018857
25.9678709524 -32.0634774556 -2.5000018857
25.9342622802 -28.0192036015 -2.5000018857
25.9281225346 -28.0031250763 -2.5000018857
25.9483265010 -32.1850369141 -2.5000018885
25.9382186702 -27.9622327125 -2.5000018885
25.9319103771 -27.9461427328 -2.5000018885
25.9550302741 -32.2996390795 -2.5000018943
25.9377263142 -27.8314920819 -2.5000018943
25.9641903211 -32.3411118853 -2.5000018972
25.9397468904 -27.7738356569 -2.5000018972
25.9454980266 -32.4474173079 -2.5000019001
25.9798182423 -32.3665578590 -2.5000019001
25.9464281992 -32.5054915275 -2.5000019030
25.9419949079 -27.6578906777 -2.5000019030
25.9540589138 -32.5476320443 -2.5000019058
25.9274055921 -27.5674357686 -2.5000019058
25.9760955595 -32.5575679151 -2.5000019087
25.9266727931 -27.5089682949 -2.5000019087
25.9455849853 -32.6808995191 -2.5000019116
25.9532353298 -32.6647671024 -2.5000019116
25.9408308628 -27.4824845217 -2.5000019116
25.9253283100 -27.4503162356 -2.5000019116
25.9440812128 -32.7397433090 -2.5000019145
25.9233688163 -27.3914858581 -2.5000019145
25.9635988661 -32.8095396550 -2.5000019202
25.9258905079 -27.2893660053 -2.5000019202
25.9306689083 -27.2460921781 -2.5000019231
25.9403905220 -32.9607297234 -2.5000019260
25.9656817613 -32.9123000117 -2.5000019260
25.9305717165 -27.1429951051 -2.5000019289
25.9218400038 -27.1269313310 -2.5000019289
25.9484867647 -33.0480237895 -2.5000019318
25.9164778608 -27.0671323286 -2.5000019318
25.9286044779 -27.0392845175 -2.5000019346
25.9552735416 -33.1359086245 -2.5000019375
25.9247490986 -26.9349933154 -2.5000019404
25.9268409812 -26.8906696966 -2.5000019433
25.9189880507 -26.8301547990 -2.5000019462
25.9300177211 -26.8016209494 -2.5000019491
25.9202761644 -26.7855603078 -2.5000019491
25.8262921436 -33.5817697713 -2.5000019519
25.5726594912 -33.9807742746 -2.5000019548
25.6296994318 -33.9052615274 -2.5000019548
25.7076657888 -33.7981439735 -2.5000019548
25.7186221854 -33.7827104763 -2.5000019548
25.7295328790 -33.7672446357 -2.5000019548
25.7403977742 -33.7517465869 -2.5000019548
25.8151617466 -33.6423698452 -2.5000019548
25.8256568648 -33.6266190371 -2.5000019548
25.8568620163 -33.5791813004 -2.5000019548
25.8774310387 -33.5474030999 -2.5000019548
26.1804478056 -33.0232462800 -2.5000019548
26.1977220664 -32.9895633670 -2.5000019548
25.9218352066 -26.6959874020 -2.5000019548
25.4377902760 -34.1885186138 -2.5000019577
25.5216628453 -34.0853139686 -2.5000019577
25.5569506278 -34.0405559454 -2.5000019577
25.5686247824 -34.0255672303 -2.5000019577
25.7493058876 -33.7811501531 -2.5000019577
26.2783707061 -32.8813997323 -2.5000019577
26.3029446270 -32.8299737599 -2.5000019577
26.3270612036 -32.7783317328 -2.5000019577
26.3507185366 -32.7264777182 -2.5000019577
25.2688727830 -34.4199419398 -2.5000019606
25.3198118906 -34.3631629051 -2.5000019606
25.3700755961 -34.3057851100 -2.5000019606
25.3825351642 -34.2913480446 -2.5000019606
25.4196568622 -34.2478165883 -2.5000019606
26.3248014581 -32.8402991760 -2.5000019606
26.3883290789 -32.7015979411 -2.5000019606
26.4188575732 -32.6316932739 -2.5000019606
26.4558515239 -32.5438124975 -2.5000019606
25.4381196244 -34.2634198474 -2.5000019635
25.9280490701 -33.6027124864 -2.5000019635
26.5619636956 -32.3391570169 -2.5000019635
25.1466936472 -34.6203546928 -2.5000019663
25.2395701428 -34.5230848602 -2.5000019663
26.6173984036 -32.2572702602 -2.5000019663
26.6364201752 -32.2028601845 -2.5000019663
26.2697163942 -27.1122400836 -2.5000019663
26.1792138757 -26.9427670395 -2.5000019663
26.1510896676 -26.8924548834 -2.5000019663
25.8128401341 -26.3564818160 -2.5000019663
25.7906780112 -26.3250904729 -2.5000019663
25.6771031303 -26.1701305912 -2.5000019663
25.6421419795 -26.1243048117 -2.5000019663
25.6186092070 -26.0939274398 -2.5000019663
26.6717329050 -32.1742347049 -2.5000019692
26.6839755299 -32.1376600434 -2.5000019692
26.6900156430 -32.1193457108 -2.5000019692
26.6960015526 -32.1010135905 -2.5000019692
26.3769738719 -27.2738858915 -2.5000019692
26.3602295463 -27.2391408877 -2.5000019692
26.3432799506 -27.2044955571 -2.5000019692
26.3347283617 -27.1872106483 -2.5000019692
26.3261256782 -27.1699511123 -2.5000019692
26.2823484944 -27.0840393024 -2.5000019692
26.2189359561 -26.9648705077 -2.5000019692
25.6612953650 -26.1095575032 -2.5000019692
25.6257972846 -26.0638743941 -2.5000019692
25.5291682508 -25.9436113821 -2.5000019692
25.4297204581 -25.8256686046 -2.5000019692
26.4236030503 -27.3159516284 -2.5000019721
25.5355082261 -25.9133224938 -2.5000019721
25.4606450499 -25.8245365018 -2.5000019721
25.4353419239 -25.7952381731 -2.5000019721
25.3842178759 -25.7370931797 -2.5000019721
24.8760738729 -34.9800850540 -2.5000019750
26.5630040225 -27.5723653778 -2.5000019750
25.3502770174 -25.6632757853 -2.5000019750
25.2308035308 -25.5356181319 -2.5000019750
26.6291648649 -27.6715842047 -2.5000019779
24.9574091053 -25.2016256471 -2.5000019808
24.9429387286 -25.1884491583 -2.5000019808
24.9284294369 -25.1753155332 -2.5000019808
24.8992946162 -25.1491773333 -2.5000019808
26.9723011116 -31.5514391610 -2.5000019836
26.8010578812 -28.0047796419 -2.5000019836
27.0288458769 -31.4025499936 -2.5000019865
27.0402662833 -31.3445222101 -2.5000019865
25.1335895776 -25.3010039935 -2.5000019865
24.7673131071 -24.9714212691 -2.5000019865
24.7521625760 -24.9588081259 -2.5000019865
24.6911893258 -24.9088053831 -2.5000019865
24.6127288609 -24.7848632850 -2.5000019923
22.6967696069 -33.4294946256 -2.5000020721
21.7824894909 -26.5745985559 -2.5000021585
21.8699984728 -26.5782691767 -2.5000021643
21.8742055142 -26.5286016169 -2.5000021758
22.1324773698 -26.5741788888 -2.5000021873
22.2755384444 -26.5567289429 -2.5000022046
22.2525726032 -26.5465371859 -2.5000022046
25.9566732644 -31.8619231156 -2.5000025274
25.9666031135 -29.0429965387 -2.5000025274
25.9624664094 -29.0269539606 -2.5000025274
25.9352316615 -32.0283224439 -2.5000025331
25.9491735977 -31.9803926177 -2.5000025331
25.9582316775 -31.9483714783 -2.5000025331
25.9757787076 -31.8841712315 -2.5000025331
25.9439839879 -32.0831866960 -2.5000025389
25.9602170265 -28.8376718415 -2.5000025389
25.9621779615 -32.1062896271 -2.5000025446
25.9591083517 -28.7505296933 -2.5000025446
25.9541065106 -28.7345105657 -2.5000025446
25.9509117991 -32.3695358640 -2.5000025619
25.9502846089 -32.4418225946 -2.5000025677
25.9466011762 -28.4150190457 -2.5000025677
25.9510464153 -28.3584738306 -2.5000025735
25.9426401267 -32.6601628753 -2.5000025850
25.9423374213 -28.0819573005 -2.5000025965
25.9698277060 -32.8423781841 -2.5000026080
25.9437311314 -27.9663887801 -2.5000026080
25.9629206207 -32.9165070043 -2.5000026138
25.9435241998 -27.9083074804 -2.5000026138
25.9521138821 -33.1079102418 -2.5000026311
25.9431305590 -33.2848521404 -2.5000026484
25.7498063583 -33.7610279119 -2.5000026657
25.7791323853 -33.7146753998 -2.5000026657
26.2848347024 -32.7813879980 -2.5000026714
25.3695978261 -34.3690079748 -2.5000026772
26.3808466271 -32.6017018781 -2.5000026772
25.4462399893 -34.3121612418 -2.5000026830
26.5396299077 -32.2844996192 -2.5000026887
25.9325703521 -27.2176696238 -2.5000026887
25.9244702314 -27.1573859967 -2.5000026945
25.9147557347 -27.1414763055 -2.5000026945
26.1618901767 -26.8979344318 -2.5000027752
26.1408750041 -26.8647437411 -2.5000027752
25.6303278551 -26.1681610748 -2.5000027752
26.3535862303 -27.1731073199 -2.5000027809
26.2748103332 -27.0364854564 -2.5000027809
25.5200061260 -26.0034410581 -2.5000027809
25.4937100643 -25.9740636242 -2.5000027809
25.4804969707 -25.9594333771 -2.5000027809
25.4405988277 -25.9157780507 -2.5000027809
26.4780359015 -27.3527939477 -2.5000027867
25.3359304905 -25.7701063505 -2.5000027867
26.5796835470 -27.5013626066 -2.5000027925
25.2269665843 -25.6268172812 -2.5000027925
26.7020446458 -27.7077318568 -2.5000027982
25.0549008986 -25.4322809530 -2.5000027982
24.9054080085 -25.2696228700 -2.5000028040
26.7861806417 -27.7802432743 -2.5000028098
22.3449415054 -29.9108664685 -2.5000011921
22.3665280239 -29.8999872452 -2.5000011921
21.1844708528 -26.5786624130 -2.5000011921
21.3490971578 -26.5786054368 -2.5000011921
21.6063221295 -26.5803587794 -2.5000011921
21.5691312177 -26.5720050758 -2.5000011921
21.6986908549 -26.5776870843 -2.5000011921
21.7791799794 -26.5736862483 -2.5000011921
21.8601406212 -26.5712301408 -2.5000011921
21.8352964489 -26.5641228128 -2.5000011921
21.9663487378 -26.5780700129 -2.5000011921
21.9291233372 -26.5665213653 -2.5000011921
21.7792409516 -26.5236435724 -2.5000011921
22.0357637678 -26.5751048859 -2.5000011921
21.9557999969 -26.5241380540 -2.5000011921
22.1259638588 -26.5548095405 -2.5000011921
22.2797155875 -26.5601067020 -2.5000011921
22.4098149799 -26.5604899679 -2.5000011921
22.5634614867 -26.5484656346 -2.5000011921
22.8783914610 -26.5688970836 -2.5000011921
23.8242911668 -26.5727614679 -2.5000011921
25.9406471293 -32.1802862853 -2.5000011921
25.9243263616 -32.3275749965 -2.5000011921
25.9289200582 -32.3119551762 -2.5000011921
25.9468321855 -32.2493420570 -2.5000011921
25.9555101062 -32.2179571128 -2.5000011921
25.9237427900 -32.4126632176 -2.5000011921
25.9352080267 -29.1583411560 -2.5000011921
25.9516862697 -32.4041731628 -2.5000011921
25.9618890354 -29.0812602349 -2.5000011921
25.9518232566 -29.0498416561 -2.5000011921
25.9304291248 -32.6229560767 -2.5000011921
25.9593080791 -28.9951797337 -2.5000011921
25.9487330644 -28.9637779313 -2.5000011921
25.9250851469 -32.7092531796 -2.5000011921
25.9308079134 -32.6936294446 -2.5000011921
25.9557011774 -28.8378661863 -2.5000011921
25.9668661527 -28.7980993729 -2.5000011921
25.9597091034 -28.7108998269 -2.5000011921
25.9229028434 -32.9788762403 -2.5000011921
25.9637199028 -28.6549051420 -2.5000011921
25.9386018873 -33.0038869792 -2.5000011921
25.9339148759 -33.0760243254 -2.5000011921
25.9422557602 -33.1170718151 -2.5000011921
25.9502952494 -33.1582984839 -2.5000011921
25.9282837334 -33.3196807983 -2.5000011921
25.9828284806 -28.2725410271 -2.5000011921
25.9679776809 -28.2410127174 -2.5000011921
25.9747168139 -28.1990784335 -2.5000011921
25.6885846695 -33.9049644732 -2.5000011921
25.7070623282 -33.8750784319 -2.5000011921
25.7253628477 -33.8450835937 -2.5000011921
26.1098624776 -33.0953521008 -2.5000011921
26.1437037270 -33.0142910280 -2.5000011921
25.5443205279 -34.1682446454 -2.5000011921
25.5743127737 -34.1246446148 -2.5000011921
26.2666624133 -32.7597583477 -2.5000011921
26.2841266885 -32.7098034024 -2.5000011921
25.4185623289 -34.3827130716 -2.5000011921
25.5842945219 -34.1528780983 -2.5000011921
25.2606962383 -34.6199430768 -2.5000011921
26.3905496789 -32.5396129832 -2.5000011921
26.4161406294 -32.4544612270 -2.5000011921
25.9740471935 -27.9822962867 -2.5000011921
25.1628019714 -34.7707719380 -2.5000011921
25.9825021339 -27.7944044458 -2.5000011921
25.9658643248 -27.5725946437 -2.5000011921
25.9564066691 -27.1114448844 -2.5000011921
25.9475259698 -26.8087581865 -2.5000011921
25.9474880530 -26.6098415988 -2.5000011921
26.2602228364 -26.9994150165 -2.5000011921
26.2490534025 -26.9828248666 -2.5000011921
26.2265675495 -26.9497440531 -2.5000011921
25.7892172153 -26.3782359666 -2.5000011921
25.6302205937 -26.1984790995 -2.5000011921
25.6166846031 -26.1837561146 -2.5000011921
26.4214950433 -27.2053450793 -2.5000011921
26.4003226766 -27.1712401487 -2.5000011921
25.5658812861 -26.0940974872 -2.5000011921
25.4255192858 -25.9506364337 -2.5000011921
26.5752032670 -27.4181237338 -2.5000011921
26.5351640633 -27.3482060893 -2.5000011921
26.5250252135 -27.3308010874 -2.5000011921
25.3850189441 -25.8770658776 -2.5000011921
25.3705332278 -25.8630696499 -2.5000011921
25.1794866170 -25.6535949621 -2.5000011921
26.8327685481 -27.8080846681 -2.5000011921
25.1191296669 -25.5687849553 -2.5000011921
26.6974697934 -27.4893374316 -2.5000011921
24.8670025196 -25.3314298303 -2.5000011921
26.9617883253 -27.9727953164 -2.5000011921
27.0864391342 -28.1425662356 -2.5000011921
24.6971466230 -25.1142337990 -2.5000011921
24.6130985757 -25.0549403445 -2.5000011921
27.3547341632 -28.5958013790 -2.5000011921
27.3482823399 -28.5759664818 -2.5000011921
22.3636340143 -29.9009848890 -2.5000011921
22.0954942745 -26.5757370730 -2.5000011921
22.0821728035 -26.5719474126 -2.5000011921
22.0554965215 -26.5644863962 -2.5000011921
22.1689219182 -26.5721357224 -2.5000011921
22.0887526608 -26.5486871297 -2.5000011921
22.2560636155 -26.5739913752 -2.5000011921
22.2160440474 -26.5613158043 -2.5000011921
22.1893025224 -26.5530629468 -2.5000011921
22.1759135668 -26.5489958838 -2.5000011921
22.2500694088 -26.5466928309 -2.5000011921
22.3513744042 -26.5546512037 -2.5000011921
22.3379894378 -26.5501046958 -2.5000011921
22.4396097360 -26.5600249830 -2.5000011921
22.3994589963 -26.5457210932 -2.5000011921
22.4478230279 -26.5372900513 -2.5000011921
22.5367535067 -26.5445277047 -2.5000011921
22.6393146842 -26.5588973449 -2.5000011921
22.6125514427 -26.5481403185 -2.5000011921
22.5991460732 -26.5428212302 -2.5000011921
22.5857250275 -26.5375418206 -2.5000011921
22.6886188051 -26.5530084276 -2.5000011921
22.6752275035 -26.5474642970 -2.5000011921
22.7515614700 -26.5533708482 -2.5000011921
22.8414790947 -26.5665457177 -2.5000011921
22.8514149894 -26.5445090828 -2.5000011921
22.9685531688 -26.5723425285 -2.5000011921
22.9418637113 -26.5596373813 -2.5000011921
23.0057503282 -26.5634722428 -2.5000011921
23.0940753988 -26.5533267004 -2.5000011921
23.0672712405 -26.5398792544 -2.5000011921
25.9425251719 -32.4316683005 -2.5000011921
25.9581936247 -32.3708165256 -2.5000011921
25.9359846808 -29.6979709158 -2.5000011921
25.9318825385 -29.6828067290 -2.5000011921
25.9536196704 -32.4835563109 -2.5000011921
25.9577577163 -32.4683277685 -2.5000011921
25.9510416331 -29.6612389788 -2.5000011921
25.9382741526 -29.6156509793 -2.5000011921
25.9295379549 -29.5853227024 -2.5000011921
25.9374951912 -32.6270350380 -2.5000011921
25.9420577436 -32.6118535670 -2.5000011921
25.9392453402 -29.5329630592 -2.5000011921
25.9346550605 -29.5177899488 -2.5000011921
23.6929244126 -26.5613107345 -2.5000011921
25.9370437960 -32.7100694221 -2.5000011921
25.9418519811 -32.6948889230 -2.5000011921
25.9340519712 -29.4347565280 -2.5000011921
25.9291712015 -29.4195992102 -2.5000011921
25.9352533602 -32.7934279254 -2.5000011921
23.7860282831 -26.5641261415 -2.5000011921
25.9321142216 -32.8770890289 -2.5000011921
25.9288172782 -29.2677462057 -2.5000011921
25.9234424846 -29.2526051038 -2.5000011921
25.9331676788 -32.9458772880 -2.5000011921
25.9495502246 -32.9003185653 -2.5000011921
25.9549211464 -32.8851002375 -2.5000011921
25.9407671333 -29.2292924010 -2.5000011921
25.9333075590 -33.0149413384 -2.5000011921
25.9501382180 -33.0387106629 -2.5000011921
25.9559185261 -33.0234899903 -2.5000011921
25.9228643857 -29.0454253730 -2.5000011921
25.9208252511 -28.9758548909 -2.5000011921
25.9470308463 -33.1781419952 -2.5000011921
25.9532236311 -33.1629299046 -2.5000011921
25.9242527743 -28.9211755756 -2.5000011921
25.9465289876 -28.9117891168 -2.5000011921
25.9205483144 -28.8511363798 -2.5000011921
25.9663416852 -33.2576284764 -2.5000011921
25.7796936372 -33.7584066366 -2.5000011921
25.8264988658 -33.6697415015 -2.5000011921
25.8642961125 -33.5952287957 -2.5000011921
26.1262073368 -32.9806889531 -2.5000011921
25.6937489067 -33.9598634351 -2.5000011921
25.7358516896 -33.8872824179 -2.5000011921
25.7441431640 -33.8726919307 -2.5000011921
25.8009699369 -33.7698807096 -2.5000011921
25.9155021569 -33.5457402073 -2.5000011921
26.2083359831 -32.8140504792 -2.5000011921
25.5348010980 -34.2572173958 -2.5000011921
25.5628367387 -34.2151423142 -2.5000011921
25.5996346652 -34.1586583353 -2.5000011921
25.6624135869 -34.0587779727 -2.5000011921
25.7059827816 -33.9866495974 -2.5000011921
26.3033860624 -32.5791539548 -2.5000011921
25.9253448172 -28.5734180467 -2.5000011921
25.4076729697 -34.5197843336 -2.5000011921
25.9308631572 -28.4761147938 -2.5000011921
25.9346133226 -28.3781053686 -2.5000011921
25.9398784982 -28.3364334412 -2.5000011921
25.9448292942 -28.2946051376 -2.5000011921
25.9577968554 -28.2678451771 -2.5000011921
25.9684312315 -27.8095504682 -2.5000011921
25.9802282077 -27.6938835384 -2.5000011921
26.2831888126 -26.9888081175 -2.5000011921
26.2097666879 -26.8922731483 -2.5000011921
25.8450172394 -26.4596878022 -2.5000011921
25.8313360679 -26.4448068825 -2.5000011921
25.7343437238 -26.3417827135 -2.5000011921
25.7203142519 -26.3272297019 -2.5000011921
26.4215034790 -27.1386633784 -2.5000011921
25.7094049961 -26.2813432477 -2.5000011921
25.6379377847 -26.2093705762 -2.5000011921
25.6090541446 -26.1808788058 -2.5000011921
25.5945492381 -26.1666971275 -2.5000011921
25.5507836972 -26.1244104081 -2.5000011921
25.5066446088 -26.0825137486 -2.5000011921
25.4918491688 -26.0686354466 -2.5000011921
26.4876634571 -27.1917154933 -2.5000011921
26.4295758743 -27.1081324985 -2.5000011921
26.6964053443 -27.4695168684 -2.5000011921
26.2419786409 -26.8156362463 -2.5000011921
25.3428933580 -25.8690888843 -2.5000011921
25.2340850192 -25.7763017476 -2.5000011921
25.1074114230 -25.6730446724 -2.5000011921
25.0592841763 -25.6351004673 -2.5000011921
26.8417789272 -27.6688938757 -2.5000011921
26.8316704447 -27.6510590639 -2.5000011921
25.0579926557 -25.6034545631 -2.5000011921
25.0092497819 -25.5659516622 -2.5000011921
24.9765704625 -25.5411906820 -2.5000011921
26.9225732013 -27.7650106614 -2.5000011921
25.2650725678 -25.7391922750 -2.5000011921
24.8918580395 -25.4485086632 -2.5000011921
24.8417466499 -25.4124862153 -2.5000011921
27.0207575489 -27.8996278940 -2.5000011921
27.0018498370 -27.8629253151 -2.5000011921
26.8940000003 -27.6631064359 -2.5000011921
26.8531780049 -27.5913301970 -2.5000011921
24.5206137299 -25.1114063321 -2.5000011921
24.2695617413 -24.8791071005 -2.5000011921
22.3563914023 -29.9005569414 -2.5000011921
20.9669360926 -26.6004573695 -2.5000011921
20.9388098752 -26.6008574895 -2.5000011921
20.8966262183 -26.6017696582 -2.5000011921
25.9487292238 -32.6391147942 -2.5000011921
25.9525074625 -32.6245305867 -2.5000011921
25.9562425420 -32.6099352664 -2.5000011921
25.9685567493 -30.1487337087 -2.5000011921
25.9539418843 -30.0902704458 -2.5000011921
22.7367378175 -26.5596201172 -2.5000011921
25.9484349681 -32.7328905568 -2.5000011921
25.9604723927 -32.6891036421 -2.5000011921
22.8301184645 -26.5682244773 -2.5000011921
22.7733570606 -26.5471473316 -2.5000011921
25.9506914045 -32.8124804590 -2.5000011921
22.9610358874 -26.5675814927 -2.5000011921
22.9468665050 -26.5618619880 -2.5000011921
25.9416902456 -33.0018842421 -2.5000011921
25.9513499529 -32.9727400102 -2.5000011921
25.9561151039 -32.9581465904 -2.5000011921
25.9626326058 -29.7712715280 -2.5000011921
25.9579271846 -29.7566587398 -2.5000011921
25.9337528154 -29.6838071038 -2.5000011921
22.9985372811 -26.5567979001 -2.5000011921
22.9416288823 -26.5337287446 -2.5000011921
25.9446849219 -33.0679424222 -2.5000011921
23.0788256178 -26.5643691033 -2.5000011921
25.9675154425 -33.0758861372 -2.5000011921
25.9425519327 -33.2155168707 -2.5000011921
25.9279964055 -29.4556472331 -2.5000011921
23.1975722506 -26.5640010588 -2.5000011921
23.1691913055 -26.5512046242 -2.5000011921
25.9334167339 -29.4032475615 -2.5000011921
23.2643652819 -26.5682092709 -2.5000011921
23.2218003133 -26.5484847255 -2.5000011921
25.9419431934 -33.3496302275 -2.5000011921
25.9558825289 -29.3943243705 -2.5000011921
25.9323420294 -29.3360638881 -2.5000011921
23.3030340151 -26.5597423131 -2.5000011921
25.7886850245 -33.7467724920 -2.5000011921
25.9583954061 -33.3733275575 -2.5000011921
25.9303621652 -29.2686337199 -2.5000011921
25.9241699917 -29.2541185928 -2.5000011921
25.7959905801 -33.7859081978 -2.5000011921
25.8173789487 -33.7434326752 -2.5000011921
25.8244245341 -33.7292321938 -2.5000011921
25.8314280812 -33.7150109324 -2.5000011921
25.8453088152 -33.6865065676 -2.5000011921
25.9338205577 -29.2154942328 -2.5000011921
25.9210788478 -29.1864628287 -2.5000011921
25.9236632431 -29.1330822090 -2.5000011921
23.4769489510 -26.5648238506 -2.5000011921
25.8390742845 -33.8078430001 -2.5000011921
25.9408315933 -29.0547493232 -2.5000011921
25.9209520197 -28.9571616722 -2.5000011921
25.9211016697 -28.9029520417 -2.5000011921
23.7730368628 -26.5606306679 -2.5000011921
25.9257851362 -28.7537028179 -2.5000011921
25.9043575128 -28.2825365531 -2.5000011921
25.9117161311 -28.0720760228 -2.5000011921
25.9256598318 -27.5546874819 -2.5000011921
25.3212797997 -26.6174664347 -2.5000011921
26.4482405273 -27.1241042303 -2.5000011921
26.3978032604 -27.0601768685 -2.5000011921
26.3723018487 -27.0284381086 -2.5000011921
26.3594808377 -27.0126254458 -2.5000011921
26.3466131062 -26.9968507791 -2.5000011921
26.3336987666 -26.9811142465 -2.5000011921
26.1885975130 -26.8105683818 -2.5000011921
25.7949304174 -26.3985672357 -2.5000011921
25.7062176821 -26.3146104592 -2.5000011921
25.6160288401 -26.2322413963 -2.5000011921
25.5856427664 -26.2051423668 -2.5000011921
25.5703897397 -26.1916603861 -2.5000011921
25.5550968977 -26.1782235856 -2.5000011921
25.4780401522 -26.1117213879 -2.5000011921
26.5783898828 -27.2557451693 -2.5000011921
26.5171581666 -27.1739902094 -2.5000011921
26.5047670912 -27.1577483986 -2.5000011921
26.4420940180 -27.0770930675 -2.5000011921
26.4294166318 -27.0610737340 -2.5000011921
25.5092423017 -26.1065604295 -2.5000011921
25.4311306462 -26.0407442778 -2.5000011921
25.3837993975 -26.0018116762 -2.5000011921
25.3679457650 -25.9889276744 -2.5000011921
25.3041521889 -25.9378623313 -2.5000011921
26.7287124183 -27.4250299927 -2.5000011921
26.4737457394 -27.0782331573 -2.5000011921
25.2219955591 -25.8434647974 -2.5000011921
25.1893162488 -25.8187038053 -2.5000011921
25.1729218011 -25.8063959209 -2.5000011921
26.8177074553 -27.5136078376 -2.5000011921
26.2970270442 -26.8248005025 -2.5000011921
25.0377178942 -25.6780908011 -2.5000011921
24.9839989942 -25.6110590144 -2.5000011921
24.6090392138 -25.3133205155 -2.5000011921
24.4155680195 -25.1473504883 -2.5000011921
24.3233889085 -25.0978151239 -2.5000011921
24.3160872570 -25.0666613908 -2.5000011921
24.1851836427 -24.9997716723 -2.5000011921
25.9539027108 -32.8837416329 -2.5000011921
25.9651917440 -32.8421964857 -2.5000011921
25.9725127451 -32.8144447698 -2.5000011921
25.9515322638 -30.2895356340 -2.5000011921
25.9437511052 -30.2619094080 -2.5000011921
25.9409488974 -33.0148131710 -2.5000011921
25.9492915812 -32.9872018628 -2.5000011921
25.9534016271 -32.9733778202 -2.5000011921
25.9508673716 -30.1999005122 -2.5000011921
25.9759100746 -30.1164643510 -2.5000011921
25.9535886010 -30.0471446856 -2.5000011921
25.9490014073 -30.0333207956 -2.5000011921
25.9482691225 -29.9564228053 -2.5000011921
25.9434135804 -29.9426150483 -2.5000011921
25.9411950135 -29.8654059417 -2.5000011921
25.9511498608 -29.3898101591 -2.5000011921
25.9380456308 -29.3622019422 -2.5000011921
22.4325831494 -26.5561607866 -2.5000011921
22.4176843999 -26.5527679420 -2.5000011921
22.3729288444 -26.5428540536 -2.5000011921
20.0106628371 -26.5834506730 -2.5000011921
19.9958554129 -26.5872221874 -2.5000011921
19.9515009878 -26.5987993158 -2.5000011921
25.9598527895 -29.3517720278 -2.5000011921
25.9330305252 -29.2965332920 -2.5000011921
22.5126729449 -26.5503061222 -2.5000011921
19.8712573150 -26.5957000553 -2.5000011921
19.8564867367 -26.5998839028 -2.5000011921
19.8417285996 -26.6041114261 -2.5000011921
25.9478734880 -29.2720221910 -2.5000011921
22.6527921332 -26.5616370043 -2.5000011921
22.6230132078 -26.5535924771 -2.5000011921
22.5633151821 -26.5380326670 -2.5000011921
19.7906331588 -26.5938874433 -2.5000011921
19.7610951303 -26.6027758454 -2.5000011921
25.9416302059 -29.2059240468 -2.5000011921
22.7634872552 -26.5679964706 -2.5000011921
22.7188532272 -26.5550131761 -2.5000011921
22.6890339568 -26.5465779253 -2.5000011921
22.6741057373 -26.5424264948 -2.5000011921
22.8448123405 -26.5674369836 -2.5000011921
22.8001701449 -26.5537319966 -2.5000011921
22.7852626022 -26.5492517739 -2.5000011921
22.7703418714 -26.5448156700 -2.5000011921
22.6955449702 -26.5232982778 -2.5000011921
19.6283259464 -26.5941640573 -2.5000011921
19.6135518873 -26.5990665465 -2.5000011921
22.8818385994 -26.5537596060 -2.5000011921
19.5171650893 -26.6066050453 -2.5000011921
25.9476537034 -29.0617010720 -2.5000011921
25.9401514153 -29.0478990503 -2.5000011921
25.9326083311 -29.0341192820 -2.5000011921
23.0084611468 -26.5702634894 -2.5000011921
22.9489333966 -26.5501417131 -2.5000011921
19.4943080629 -26.5890679868 -2.5000011921
19.4499897685 -26.6050959940 -2.5000011921
23.0907424715 -26.5736689614 -2.5000011921
19.4416677758 -26.5824006261 -2.5000011921
19.3677908735 -26.6101114994 -2.5000011921
25.9284506571 -28.9278893836 -2.5000011921
23.1436110168 -26.5672906791 -2.5000011921
19.3295660979 -26.5989831060 -2.5000011921
23.2116044934 -26.5671547736 -2.5000011921
19.2081129264 -26.5957386681 -2.5000011921
23.3067069571 -26.5005606641 -2.5000011921
23.5404449879 -26.5735154555 -2.5000011921
23.5107208040 -26.5602190681 -2.5000011921
23.5503808760 -26.5514788177 -2.5000011921
23.4247690959 -26.4704847734 -2.5000011921
23.6899031944 -26.5630664593 -2.5000011921
23.6302425805 -26.5348820480 -2.5000011921
23.7747789252 -26.5776481034 -2.5000011921
23.7599378664 -26.5702847070 -2.5000011921
23.8301378869 -26.5784593954 -2.5000011921
23.8152989857 -26.5709322336 -2.5000011921
23.9004903917 -26.5875954299 -2.5000011921
23.9561998166 -26.5897536559 -2.5000011921
24.0533259510 -26.5876312570 -2.5000011921
24.1658846184 -26.5958175202 -2.5000011921
24.1362814347 -26.5788204315 -2.5000011921
24.6337299544 -26.6031293472 -2.5000011921
24.7780032361 -26.6143586606 -2.5000011921
24.8790586640 -26.5972971154 -2.5000011921
26.3057737920 -26.9273387121 -2.5000011921
26.2641892345 -26.8829054613 -2.5000011921
26.2081328887 -26.8242385109 -2.5000011921
26.1656372196 -26.7806758283 -2.5000011921
26.1370927208 -26.7518442964 -2.5000011921
25.7046025262 -26.3533193386 -2.5000011921
26.4597120369 -27.0621743972 -2.5000011921
26.4193180085 -27.0163697212 -2.5000011921
26.3785190801 -26.9709253232 -2.5000011921
26.3510964353 -26.9408309811 -2.5000011921
26.3234962223 -26.9108994071 -2.5000011921
25.7512246342 -26.3612289756 -2.5000011921
25.7202057999 -26.3348565887 -2.5000011921
25.6890314805 -26.3086681812 -2.5000011921
25.6262207569 -26.2568469647 -2.5000011921
25.5945865513 -26.2312159696 -2.5000011921
25.5787127211 -26.2184707689 -2.5000011921
25.5308659889 -26.1805176915 -2.5000011921
25.4826843285 -26.1429907215 -2.5000011921
26.6487960921 -27.2495395716 -2.5000011921
26.5970510066 -27.1862961076 -2.5000011921
26.5313232692 -27.1081100405 -2.5000011921
26.5047095810 -27.0771092565 -2.5000011921
26.4913340740 -27.0616680461 -2.5000011921
25.5136073483 -26.1363592458 -2.5000011921
25.2674842455 -25.9538531007 -2.5000011921
25.2507913570 -25.9420767414 -2.5000011921
26.8064799448 -27.4119896215 -2.5000011921
26.7816592945 -27.3793555997 -2.5000011921
26.7440673936 -27.3306813323 -2.5000011921
26.7060450162 -27.2823425885 -2.5000011921
26.6932757455 -27.2663048936 -2.5000011921
26.9710989487 -27.5969420477 -2.5000011921
26.9473696581 -27.5633308476 -2.5000011921
26.8871800911 -27.4799221908 -2.5000011921
26.8257634616 -27.3974128845 -2.5000011921
25.0914172833 -25.7753917955 -2.5000011921
24.9177402522 -25.6651505764 -2.5000011921
27.0841268936 -27.7193620178 -2.5000011921
26.9550952689 -27.5325198074 -2.5000011921
24.7289619108 -25.4976453853 -2.5000011921
24.6384627151 -25.4472737891 -2.5000011921
24.3839295728 -25.2608623439 -2.5000011921
24.1097826801 -25.0544655354 -2.5000011921
24.1290004218 -25.0101031693 -2.5000011921
22.3738162711 -29.8687413754 -2.5000011921
25.9406448415 -30.4646555357 -2.5000011921
25.9396514370 -30.3799701922 -2.5000011921
25.9584925133 -30.3596158102 -2.5000011921
25.9500186396 -30.3336947956 -2.5000011921
25.9464949545 -30.2482535090 -2.5000011921
25.9394685517 -30.0893293665 -2.5000011921
25.9482652235 -29.9809041929 -2.5000011921
25.9430626225 -29.8455097495 -2.5000011921
25.9398249596 -29.7220405262 -2.5000011921
25.9612508177 -29.5998096159 -2.5000011921
25.9588232058 -29.3358109001 -2.5000011921
25.9391874823 -29.1570823421 -2.5000011921
22.9614953068 -26.5781250643 -2.5000011921
22.8070609292 -26.5393331584 -2.5000011921
20.0677411856 -26.6107292011 -2.5000011921
22.9986138842 -26.5631129437 -2.5000011921
20.0149701523 -26.6011435956 -2.5000011921
19.9772616339 -26.5873461130 -2.5000011921
19.9159441524 -26.6065914559 -2.5000011921
19.9006506993 -26.6115160537 -2.5000011921
23.2126218427 -26.5756675474 -2.5000011921
23.2970058916 -26.5775413484 -2.5000011921
19.7628703591 -26.6069050723 -2.5000011921
23.3663065591 -26.5754504137 -2.5000011921
23.3200580081 -26.5597410170 -2.5000011921
19.7088552935 -26.6004286989 -2.5000011921
19.6935445159 -26.6059659301 -2.5000011921
23.4358969828 -26.5742744172 -2.5000011921
19.6392552990 -26.6002032928 -2.5000011921
23.5758990375 -26.5746932870 -2.5000011921
19.4839683926 -26.6086915082 -2.5000011921
23.6154695856 -26.5641257734 -2.5000011921
23.6861118704 -26.5662555648 -2.5000011921
23.8741945428 -26.5935725442 -2.5000011921
23.8839998985 -26.5714775158 -2.5000011921
18.8250818811 -26.7056204213 -2.5000011921
18.7206240584 -26.7636066378 -2.5000011921
18.7534809263 -26.7173730164 -2.5000011921
18.5756188029 -26.8206298179 -2.5000011921
24.2280393303 -26.6019748595 -2.5000011921
24.2850988540 -26.6043298467 -2.5000011921
24.3537358908 -26.5859813971 -2.5000011921
24.7978807788 -26.5630236240 -2.5000011921
25.0904839899 -26.5504688417 -2.5000011921
25.0750018752 -26.5400864604 -2.5000011921
26.3834381370 -26.9597297680 -2.5000011921
26.2387935490 -26.8195582635 -2.5000011921
26.1500388766 -26.7375306553 -2.5000011921
26.1201321784 -26.7105397806 -2.5000011921
25.6044921253 -26.2914869746 -2.5000011921
25.5392799608 -26.2441690241 -2.5000011921
25.5228897922 -26.2324603633 -2.5000011921
25.4569849100 -26.1861121017 -2.5000011921
25.4238279641 -26.1632312178 -2.5000011921
25.4071988719 -26.1518644390 -2.5000011921
26.6102935929 -27.1615202278 -2.5000011921
26.5691183390 -27.1169991873 -2.5000011921
26.5414493695 -27.0875222565 -2.5000011921
26.4290441560 -26.9712669126 -2.5000011921
26.3718177399 -26.9141448906 -2.5000011921
25.4374985762 -26.1432950786 -2.5000011921
26.6417983116 -27.1601601939 -2.5000011921
26.5450762927 -27.0561974672 -2.5000011921
25.2308626441 -25.9784379693 -2.5000011921
25.1792425190 -25.9462051928 -2.5000011921
24.8509969094 -25.7006255942 -2.5000011921
27.2777243264 -27.8018215965 -2.5000011921
27.2422051055 -27.7513522685 -2.5000011921
26.8762654495 -27.2804164951 -2.5000011921
25.0890993145 -25.7790810420 -2.5000011921
27.7428244312 -28.3659041305 -2.5000011921
22.4407068745 -30.1663022327 -2.5000011921
22.5155324969 -30.1657514793 -2.5000011921
22.5705040897 -30.1603020375 -2.5000011921
22.5150843264 -29.8856814703 -2.5000011921
22.3880390977 -29.8511598334 -2.5000011921
25.9516298350 -30.9244706186 -2.5000011921
25.9457112179 -30.9004936402 -2.5000011921
25.9426987391 -30.8885183872 -2.5000011921
25.9365675728 -30.8645948774 -2.5000011921
25.9568292851 -30.8465072291 -2.5000011921
25.9439274356 -30.7985326441 -2.5000011921
25.9406133455 -30.7865631140 -2.5000011921
25.9672334983 -30.7921168259 -2.5000011921
25.9571272223 -30.7560313327 -2.5000011921
25.9536873479 -30.7440229411 -2.5000011921
25.9467011057 -30.7200369480 -2.5000011921
25.9431547991 -30.7080595562 -2.5000011921
25.9590829807 -30.6771025425 -2.5000011921
25.9517007205 -30.6530857982 -2.5000011921
25.9479563384 -30.6410939097 -2.5000011921
25.9672186612 -30.6218060290 -2.5000011921
25.9556009730 -30.5857273740 -2.5000011921
25.9416016830 -30.4700095590 -2.5000011921
25.9643699939 -30.4618892572 -2.5000011921
25.9469166380 -30.4138523727 -2.5000011921
25.9560495694 -30.3693720784 -2.5000011921
25.9421921113 -30.3334024833 -2.5000011921
25.9552424730 -30.3005684356 -2.5000011921
25.9532833967 -30.2314529546 -2.5000011921
25.9482917415 -30.2194582291 -2.5000011921
25.9655408171 -30.1980918123 -2.5000011921
25.9553244556 -30.1740452448 -2.5000011921
25.9570194039 -30.0583934461 -2.5000011921
25.9728227282 -29.9778019202 -2.5000011921
25.9594873379 -29.8949997544 -2.5000011921
25.9535003660 -29.8829881486 -2.5000011921
25.9619952804 -29.7415345453 -2.5000011921
25.9505880704 -29.6699337417 -2.5000011921
25.9583298796 -29.6341587966 -2.5000011921
25.9519431848 -29.5260139661 -2.5000011921
25.9501669908 -29.4291490752 -2.5000011921
25.9538352630 -29.3435957520 -2.5000011921
23.4010926404 -27.3265257589 -2.5000011921
25.9522368276 -29.2080611245 -2.5000011921
25.9540076759 -28.9570489494 -2.5000011921
22.0725935892 -26.5811760196 -2.5000011921
21.9937166245 -26.5791478099 -2.5000011921
21.9463790834 -26.5784909507 -2.5000011921
21.9305988378 -26.5783653561 -2.5000011921
21.8832568383 -26.5782686627 -2.5000011921
21.8516958342 -26.5784376110 -2.5000011921
21.8201363820 -26.5787932819 -2.5000011921
21.8043575830 -26.5790411347 -2.5000011921
23.3849876685 -26.5891681868 -2.5000011921
23.3376842663 -26.5761641830 -2.5000011921
20.5871181741 -26.5420661729 -2.5000011921
20.4288360135 -26.5831304118 -2.5000011921
20.3815954386 -26.5963608334 -2.5000011921
20.3501677554 -26.6054137982 -2.5000011921
23.4861620717 -26.5932725386 -2.5000011921
23.4546617820 -26.5839578987 -2.5000011921
23.4388911092 -26.5793705071 -2.5000011921
23.4231069351 -26.5748297881 -2.5000011921
23.4073093978 -26.5703357814 -2.5000011921
20.4699834034 -26.5469576631 -2.5000011921
20.3749730448 -26.5731126252 -2.5000011921
20.2961625115 -26.5961937615 -2.5000011921
23.5561912442 -26.5893831987 -2.5000011921
23.5404361762 -26.5844954408 -2.5000011921
23.4930851847 -26.5701121027 -2.5000011921
20.2261263331 -26.5924326856 -2.5000011921
20.2103948565 -26.5973958487 -2.5000011921
23.6422831166 -26.5915519613 -2.5000011921
23.5949907372 -26.5762645109 -2.5000011921
23.5475645525 -26.5613973558 -2.5000011921
20.1715329747 -26.5844631475 -2.5000011921
20.1557781616 -26.5895878425 -2.5000011921
20.1400385772 -26.5947591207 -2.5000011921
20.1243143593 -26.5999769368 -2.5000011921
20.0693849514 -26.5930463536 -2.5000011921
20.0536559759 -26.5984731834 -2.5000011921
23.7681130590 -26.5832364495 -2.5000011921
23.7523388805 -26.5777218155 -2.5000011921
23.7365484578 -26.5722538685 -2.5000011921
19.9827150530 -26.5979008856 -2.5000011921
19.8957909355 -26.6041603538 -2.5000011921
23.9422955615 -26.5958197269 -2.5000011921
23.9265578446 -26.5897897745 -2.5000011921
23.8634306679 -26.5661363004 -2.5000011921
23.8476054871 -26.5603397745 -2.5000011921
19.8557610986 -26.5935175822 -2.5000011921
19.8400344518 -26.5995763479 -2.5000011921
23.9982828131 -26.5917064664 -2.5000011921
23.9825326834 -26.5855109116 -2.5000011921
19.8471042979 -26.5709477996 -2.5000011921
19.7997785169 -26.5893412436 -2.5000011921
19.7840397607 -26.5955656342 -2.5000011921
24.0545035290 -26.5881699322 -2.5000011921
