3.4548227232 -25.3748298646 -2.5008041859
3.5080410901 -25.4368386949 -2.5008041859
4.5994735300 -26.4488301658 -2.5008041859
4.7651513118 -26.5683348784 -2.5008041859
4.7987070217 -26.5916447764 -2.5008041859
4.8155364460 -26.6032251756 -2.5008041859
3.2302411577 -25.1353736167 -2.5008041859
3.3189427786 -25.2481749303 -2.5008041859
4.8527332533 -26.6577217328 -2.5008041859
4.9726084913 -26.7366016492 -2.5008041859
5.0244787293 -26.7696442542 -2.5008041859
3.2489461270 -25.1988558041 -2.5008041859
4.9422459150 -26.7457764579 -2.5008041859
5.0464452016 -26.8119374827 -2.5008041859
5.0639252076 -26.8227840637 -2.5008041859
5.1165566702 -26.8550128902 -2.5008041859
5.1694720730 -26.8867733730 -2.5008041859
2.9849542966 -24.8815054915 -2.5008041859
3.0085613137 -24.9153771552 -2.5008041859
3.0563744637 -24.9826985223 -2.5008041859
3.0684519574 -24.9994400961 -2.5008041859
5.2701918528 -27.0011107985 -2.5008041859
5.3970877435 -27.0712732752 -2.5008041859
2.7623924887 -24.6312408942 -2.5008041859
5.5328835734 -27.1697618223 -2.5008041859
5.5885758021 -27.1978152430 -2.5008041859
5.6988193072 -27.3050538713 -2.5008041859
5.2473467541 -27.1269381393 -2.5008041859
2.6170101415 -24.6720330255 -2.5008041859
2.1580992426 -23.8577435073 -2.5008041859
7.3934377264 -22.3181429380 -2.4996051555
4.0440947373 -22.0685702490 -2.4996057952
4.0480990501 -22.0815296966 -2.4996057952
4.0562225968 -22.1074127719 -2.4996057952
4.0415005290 -22.1406904121 -2.4996058010
4.0356921669 -22.2001966719 -2.4996058067
4.0580442887 -22.2649836348 -2.4996058067
4.0539189513 -22.3248925534 -2.4996058125
4.0430213187 -22.4326762992 -2.4996058240
4.0411640090 -22.4934852117 -2.4996058298
4.0455770940 -22.5675454415 -2.4996058355
4.0510574592 -22.5804983207 -2.4996058355
4.0565761173 -22.5934349314 -2.4996058355
4.0455644521 -22.6289080992 -2.4996058413
4.0522377747 -22.7034781117 -2.4996058471
4.0444288900 -22.8015398226 -2.4996058586
4.0668204849 -22.9026531163 -2.4996058644
4.0693757428 -23.0650107989 -2.4996058817
4.0620962760 -23.1023263599 -2.4996058874
7.1309923134 -25.9460281109 -2.4996059854
7.1464533413 -25.9498389916 -2.4996059854
7.1774088785 -25.9573234605 -2.4996059854
9.8248887057 -25.9196811988 -2.4996059854
9.8862991713 -25.9027764819 -2.4996059854
7.0476938079 -25.9496619404 -2.4996059912
9.9543335204 -25.9083349049 -2.4996059912
9.9696706916 -25.9037939966 -2.4996059912
6.9176449927 -25.9387806257 -2.4996059969
6.8490244973 -25.9436961087 -2.4996060027
6.7491855962 -25.9378798999 -2.4996060084
6.7800773323 -25.9477149475 -2.4996060084
6.8110267152 -25.9573670571 -2.4996060084
6.7262922188 -25.9558839312 -2.4996060142
10.2911092163 -25.8999249581 -2.4996060142
6.5948923205 -25.9369814280 -2.4996060200
6.6103289324 -25.9423782290 -2.4996060200
6.6412497123 -25.9530347205 -2.4996060200
6.4394690598 -25.9315332071 -2.4996060315
6.4548902348 -25.9373898021 -2.4996060315
6.3999298643 -25.9422174312 -2.4996060373
6.2984416490 -25.9277941089 -2.4996060430
6.3601949830 -25.9526153839 -2.4996060430
6.2275745012 -25.9245093813 -2.4996060488
10.6511563140 -25.9139615517 -2.4996060488
10.7068644140 -25.9161537090 -2.4996060546
10.7627858279 -25.9177643175 -2.4996060603
10.7934883087 -25.9038539103 -2.4996060603
10.8496221711 -25.9045472687 -2.4996060661
6.0035137209 -25.9308429426 -2.4996060718
11.2197981518 -25.7701539856 -2.4996060776
11.2347210219 -25.7618702087 -2.4996060776
11.2496193219 -25.7535423234 -2.4996060776
11.2644929212 -25.7451704028 -2.4996060776
5.8748722617 -25.9229496821 -2.4996060834
10.3893578095 -26.1728562582 -2.4996060834
10.5656778333 -26.1061255148 -2.4996060834
11.2614451895 -25.7746251159 -2.4996060834
11.4390018700 -25.6708439655 -2.4996060834
11.4682316522 -25.6529371586 -2.4996060834
11.5118764051 -25.6257534837 -2.4996060834
10.2347700474 -26.2514902345 -2.4996060891
10.3326341061 -26.2185340510 -2.4996060891
2.6280563344 -20.0112420080 -2.4996060949
5.7762835415 -25.9277177201 -2.4996060949
11.5813817693 -25.6388768578 -2.4996060949
5.4061613120 -25.9466835742 -2.4996061410
5.3321996540 -25.9313570429 -2.4996061468
5.2175270702 -25.9468083875 -2.4996061641
4.7773804872 -25.9766662301 -2.4996062274
4.3553634641 -25.9970673469 -2.4996062908
3.7611726242 -25.6807458312 -2.4996063254
3.7758636435 -25.6945264088 -2.4996063254
3.8053676568 -25.7219568867 -2.4996063254
3.8201803925 -25.7356065470 -2.4996063254
3.8499266740 -25.7627741131 -2.4996063254
3.8648599594 -25.7762917812 -2.4996063254
4.4117204284 -26.2207238349 -2.4996063254
4.4606818451 -26.2561403800 -2.4996063254
4.5429764553 -26.3141979270 -2.4996063254
4.5761332275 -26.3370790626 -2.4996063254
4.6094247920 -26.3597636311 -2.4996063254
3.5003477376 -25.4566870313 -2.4996063312
3.5425646449 -25.5002215844 -2.4996063312
4.6969013783 -26.4468839766 -2.4996063312
4.7649089423 -26.4906190807 -2.4996063312
4.7991055972 -26.5121841016 -2.4996063312
3.2769948252 -25.2494513520 -2.4996063370
3.3581704467 -25.3401408420 -2.4996063370
3.3993586707 -25.3849417282 -2.4996063370
4.6328635108 -26.4336922869 -2.4996063370
3.1397087909 -25.1262242261 -2.4996063427
3.1921987082 -25.1884772105 -2.4996063427
5.0712069483 -26.7294369532 -2.4996063427
2.9801343894 -24.9667352380 -2.4996063485
3.0307483300 -25.0308875460 -2.4996063485
3.0435201469 -25.0468316942 -2.4996063485
3.0692049979 -25.0786062979 -2.4996063485
3.0950773886 -25.1102283852 -2.4996063485
3.1080836286 -25.1259818892 -2.4996063485
4.9706144898 -26.7000742374 -2.4996063485
2.8495972212 -24.8345804823 -2.4996063542
3.5022097692 -25.5970639180 -2.4996063542
5.3268965910 -26.9463955795 -2.4996063600
5.3637799370 -26.9646277158 -2.4996063600
2.7024194960 -24.7122990140 -2.4996063658
2.9356509715 -25.0275789782 -2.4996063658
5.0186433026 -26.8661713169 -2.4996063773
5.7394312588 -27.2400157179 -2.4996063831
4.0528374879 -21.6894637782 -2.5001755707
4.0604736529 -21.8038827868 -2.5001755822
4.0444487840 -21.9142485600 -2.5001756053
4.0523722476 -21.9382428870 -2.5001756053
4.0604375310 -21.9621899162 -2.5001756053
4.0458050916 -21.9940073619 -2.5001756168
4.0443394463 -22.0621309373 -2.5001756283
4.0592841124 -22.2353668147 -2.5001756514
4.0504269179 -22.5702768622 -2.5001757206
4.0432219384 -22.6639224176 -2.5001757436
4.0552992899 -22.8898108756 -2.5001757897
4.0694782519 -23.0098612247 -2.5001758128
8.0064430337 -25.9207194459 -2.5001761125
8.0222215506 -25.9209846436 -2.5001761125
8.0695608418 -25.9215001684 -2.5001761125
8.1484638434 -25.9214257491 -2.5001761125
8.1958020780 -25.9208209269 -2.5001761125
8.2115800666 -25.9205259659 -2.5001761125
8.2746812246 -25.9188794252 -2.5001761125
8.2904531247 -25.9183511339 -2.5001761125
8.3062233931 -25.9177761888 -2.5001761125
6.6940746154 -25.9321749677 -2.5001762047
6.7257231081 -25.9404228981 -2.5001762047
6.6403222730 -25.9427703029 -2.5001762162
9.7039966785 -25.9036269294 -2.5001762162
9.7354235927 -25.8940676497 -2.5001762162
6.4684335440 -25.9433742046 -2.5001762393
9.5586010072 -25.9953122533 -2.5001762393
9.8601206520 -25.9050572877 -2.5001762393
9.8915532963 -25.8945743010 -2.5001762393
6.2952407116 -25.9384559685 -2.5001762623
6.3110791836 -25.9437831346 -2.5001762623
6.2240359571 -25.9394866419 -2.5001762738
6.1683971042 -25.9453275867 -2.5001762854
10.1443981646 -25.9062910283 -2.5001762854
10.1601246452 -25.9002318312 -2.5001762854
10.1758331328 -25.8941261388 -2.5001762854
6.0246470530 -25.9430938743 -2.5001763084
6.0405004287 -25.9492214850 -2.5001763084
10.4423638268 -25.9144683937 -2.5001763430
5.8294929165 -25.9683123877 -2.5001763545
10.5152139316 -25.9084447570 -2.5001763545
5.7147334020 -25.9712873983 -2.5001763776
5.6570446215 -25.9718795841 -2.5001763891
5.6729847589 -25.9790945034 -2.5001763891
10.7298181604 -25.9139075536 -2.5001764006
10.7612879447 -25.8982789896 -2.5001764006
5.3976263613 -25.9818544931 -2.5001764467
10.3909441387 -26.1986838447 -2.5001764583
10.4571840213 -26.1712305831 -2.5001764583
11.2391138038 -25.7727625785 -2.5001764583
11.4211851766 -25.6582273060 -2.5001764583
11.4361722533 -25.6483922274 -2.5001764583
11.5402580120 -25.5783113849 -2.5001764583
10.2324207307 -26.2865168968 -2.5001764698
11.7006756419 -25.4939876044 -2.5001764698
10.0364475482 -26.3813975447 -2.5001764813
10.1219374644 -26.3521818054 -2.5001764813
12.0415418516 -25.2565901155 -2.5001764813
12.1940566404 -25.1560946995 -2.5001764928
9.1068218929 -26.8327071331 -2.5001765851
3.6959936280 -25.6493051338 -2.5001767695
3.7410922768 -25.6882242028 -2.5001767695
3.7865345346 -25.7267415141 -2.5001767695
3.8476525249 -25.7774677339 -2.5001767695
4.5742158040 -26.2964702820 -2.5001767695
3.4303244728 -25.4387341157 -2.5001767810
3.4880595627 -25.4936953408 -2.5001767810
3.6352068786 -25.6280761996 -2.5001767810
4.6809086927 -26.3891527006 -2.5001767810
4.7844254112 -26.4489920975 -2.5001767810
3.2436995427 -25.2866091405 -2.5001767925
3.2996476841 -25.3437892481 -2.5001767925
3.3562684903 -25.4003033484 -2.5001767925
3.1160819921 -25.1866703488 -2.5001768041
3.1985033164 -25.2744719748 -2.5001768041
3.8797376161 -25.8966025900 -2.5001768041
5.0795676087 -26.6606351630 -2.5001768041
5.1516453424 -26.6959962366 -2.5001768041
5.1878398533 -26.7133563284 -2.5001768041
2.5656708016 -24.6716881199 -2.5001768502
5.0364670239 -26.7471897937 -2.5001768502
5.5000107322 -26.9570016880 -2.5001768502
7.3751654206 -22.3241089747 -2.4999319461
4.0566878066 -21.4029784454 -2.4999333465
4.0525635191 -21.4856620077 -2.4999333638
4.0554618852 -21.4966328403 -2.4999333638
4.0583926922 -21.5075950510 -2.4999333638
4.0643515265 -21.5294932232 -2.4999333638
4.0534288862 -21.5798732428 -2.4999333811
4.0431839316 -21.6306533586 -2.4999333984
4.0636350359 -21.6964907413 -2.4999333984
4.0547220410 -21.8214861308 -2.4999334330
4.0586138261 -21.8324491087 -2.4999334330
4.0629020961 -21.9809227053 -2.4999334676
4.0537036326 -22.0228204690 -2.4999334849
4.0627107956 -22.0447373659 -2.4999334849
4.0542160327 -22.0869644084 -2.4999335021
4.0655873056 -22.1733239079 -2.4999335194
4.0585228805 -22.2161742719 -2.4999335367
4.0635822079 -22.2271242794 -2.4999335367
4.0672666181 -22.3464903570 -2.4999335713
4.0350156827 -22.3900802613 -2.4999336059
4.0741552508 -22.9396119111 -2.4999337788
6.3924330340 -25.9666023071 -2.4999346433
6.4247320031 -25.9746134727 -2.4999346433
9.3675226528 -25.9022340536 -2.4999346433
9.3834627825 -25.8974629514 -2.4999346433
6.2733988418 -25.9603792199 -2.4999346606
6.3056630763 -25.9690947406 -2.4999346606
6.3218143890 -25.9733808803 -2.4999346606
6.2023795195 -25.9656170836 -2.4999346779
6.2185209965 -25.9702087699 -2.4999346779
6.2670259364 -25.9836970534 -2.4999346779
9.5095258217 -25.9087448223 -2.4999346779
9.5573557084 -25.8930297045 -2.4999346779
6.1310286616 -25.9699339534 -2.4999346951
6.1471832209 -25.9747366896 -2.4999346951
9.6447418954 -25.8887124713 -2.4999346951
9.6846436352 -25.9002514838 -2.4999347124
9.7164924314 -25.8887859871 -2.4999347124
9.7323912524 -25.8829826281 -2.4999347124
5.9712230856 -25.9705009922 -2.4999347297
5.9873800215 -25.9757764597 -2.4999347297
6.0035524925 -25.9810041090 -2.4999347297
9.7407135019 -25.9056779017 -2.4999347297
9.7566621863 -25.8998028185 -2.4999347297
9.7725934213 -25.8938805819 -2.4999347297
5.8989452898 -25.9717990818 -2.4999347470
5.9151063819 -25.9772883544 -2.4999347470
5.9312836416 -25.9827297956 -2.4999347470
5.9474769273 -25.9881233577 -2.4999347470
9.8448648205 -25.8922651383 -2.4999347470
5.8587287323 -25.9835078506 -2.4999347643
9.9173781859 -25.8896898575 -2.4999347643
5.7859001097 -25.9833317589 -2.4999347816
5.6966355104 -25.9761074428 -2.4999347989
5.7128102326 -25.9821951655 -2.4999347989
9.9993756449 -25.9084800511 -2.4999347989
5.6233034926 -25.9737872148 -2.4999348162
10.0566364655 -25.9106660404 -2.4999348162
10.1044618575 -25.8900955468 -2.4999348162
10.2355436806 -25.8843710481 -2.4999348508
5.3923514020 -25.9831441685 -2.4999348853
5.3340807240 -25.9839888083 -2.4999349026
5.2756091491 -25.9842284104 -2.4999349199
10.4523036007 -25.8875466693 -2.4999349199
5.1419136972 -25.9751499006 -2.4999349545
5.1580880140 -25.9828785949 -2.4999349545
5.1742851229 -25.9905594089 -2.4999349545
5.0828815847 -25.9733790493 -2.4999349718
5.0990509213 -25.9812823790 -2.4999349718
10.6127406658 -25.8864646797 -2.4999349718
10.6286286985 -25.8780100665 -2.4999349718
10.6559418947 -25.8907976242 -2.4999349891
4.9209092898 -25.9727690318 -2.4999350237
4.9370775306 -25.9811515076 -2.4999350237
10.8023728448 -25.8928787363 -2.4999350409
10.9060321417 -25.8890700417 -2.4999350755
4.7134688081 -25.9707456430 -2.4999350928
4.6531658986 -25.9644698885 -2.4999351101
10.5213431638 -26.1500539840 -2.4999351101
10.6375052926 -26.0917240427 -2.4999351101
11.1207736954 -25.8149674517 -2.4999351101
11.2143739551 -25.7545314266 -2.4999351101
11.2453338497 -25.7340180819 -2.4999351101
11.2761718385 -25.7133219271 -2.4999351101
11.3221978886 -25.6819365124 -2.4999351101
11.3527264002 -25.6607865156 -2.4999351101
11.3679435983 -25.6501438782 -2.4999351101
11.3831292470 -25.6394562721 -2.4999351101
10.3463433628 -26.2588689818 -2.4999351274
10.3633342003 -26.2512007905 -2.4999351274
10.3803022796 -26.2434823709 -2.4999351274
10.3972474522 -26.2357137903 -2.4999351274
10.4479440479 -26.2121077654 -2.4999351274
10.5319664395 -26.1717676041 -2.4999351274
11.4426121352 -25.6267474698 -2.4999351274
11.6070892414 -25.5043143935 -2.4999351274
10.2706370480 -26.3186461037 -2.4999351447
11.7828588428 -25.3952582751 -2.4999351447
11.7972886784 -25.3833443899 -2.4999351447
11.8973019111 -25.2987593287 -2.4999351447
4.5198384068 -25.9707727740 -2.4999351620
10.0717427193 -26.4265161528 -2.4999351620
12.0256581096 -25.2174948293 -2.4999351620
4.4751278650 -25.9722014265 -2.4999351793
9.9216479494 -26.5086333578 -2.4999351793
12.3137282599 -24.9741168354 -2.4999351793
4.4141445740 -25.9634097878 -2.4999351966
9.6967826428 -26.6102483238 -2.4999351966
9.7508306057 -26.5928437825 -2.4999351966
12.1024296177 -25.2456486412 -2.4999352138
9.0854168680 -26.9195277783 -2.4999353003
3.4782251998 -25.5206578304 -2.4999353349
3.5079368151 -25.5459182330 -2.4999353349
3.5527831536 -25.5834781385 -2.4999353349
3.5828651301 -25.6082963317 -2.4999353349
3.6739846597 -25.6816770111 -2.4999353349
3.7046454925 -25.7057764169 -2.4999353349
3.7354483688 -25.7296940010 -2.4999353349
4.5144559057 -26.2470902909 -2.4999353349
4.5825510093 -26.2851228523 -2.4999353349
4.6339150573 -26.3131170508 -2.4999353349
4.7373783191 -26.3677324905 -2.4999353349
3.2580414669 -25.3566797441 -2.4999353522
3.3012182605 -25.3964647826 -2.4999353522
3.3739587128 -25.4619166764 -2.4999353522
3.4476592673 -25.5262855514 -2.4999353522
3.4774047130 -25.5517266938 -2.4999353522
4.7089094916 -26.3802013850 -2.4999353522
4.8662230614 -26.4594135998 -2.4999353522
4.8838311241 -26.4679557180 -2.4999353522
4.9191226714 -26.4848835046 -2.4999353522
4.9368058472 -26.4932690248 -2.4999353522
4.9722462294 -26.5098829521 -2.4999353522
3.0718384854 -25.2108640585 -2.4999353695
3.1137285790 -25.2523072860 -2.4999353695
3.1559848084 -25.2933771304 -2.4999353695
5.1052978409 -26.5963860473 -2.4999353695
5.1413453491 -26.6120013146 -2.4999353695
2.9855159762 -25.1578254193 -2.4999353867
5.2591448363 -26.6873720362 -2.4999353867
5.2774255220 -26.6947508234 -2.4999353867
5.4159589876 -26.7744640965 -2.4999354040
2.6438079104 -24.8535723525 -2.4999354213
5.7690121359 -26.9715579795 -2.4999354559
5.5141007979 -26.9129395077 -2.4999354732
2.0219818432 -24.2180147120 -2.4999355078
6.0392472733 -27.1238080293 -2.4999355078
1.9472876575 -24.1455131445 -2.4999355251
6.2791713008 -27.2560045981 -2.4999355596
6.0347062884 -27.2225153853 -2.4999355769
4.0514558341 -21.9595695221 -2.5000261466
4.0469620147 -22.0091571810 -2.5000261523
4.0559738064 -22.0290472155 -2.5000261523
4.0651031164 -22.0488835851 -2.5000261523
4.0627203295 -22.2094843182 -2.5000261696
4.0616967002 -22.3113165462 -2.5000261812
4.0715806732 -22.4757988624 -2.5000261984
4.0689406444 -22.6552630449 -2.5000262215
4.0392118700 -22.9535844262 -2.5000262676
6.1076899448 -25.9669590469 -2.5000266134
6.1238800081 -25.9707974059 -2.5000266134
6.1400813552 -25.9745878548 -2.5000266134
6.1562938442 -25.9783303607 -2.5000266134
8.8257981291 -25.9403536197 -2.5000266134
8.8579845614 -25.9319016523 -2.5000266134
8.9862133714 -25.8961940632 -2.5000266134
6.0047668468 -25.9663341653 -2.5000266192
6.0209555120 -25.9704769920 -2.5000266192
6.0371563616 -25.9745719117 -2.5000266192
6.0533692538 -25.9786188884 -2.5000266192
9.0090098966 -25.9147060779 -2.5000266192
5.9014565249 -25.9637720182 -2.5000266249
5.9176380628 -25.9682204668 -2.5000266249
5.9500402624 -25.9769736634 -2.5000266249
5.9662606406 -25.9812783347 -2.5000266249
9.0480068469 -25.9283183512 -2.5000266249
9.1281754490 -25.9035465199 -2.5000266249
5.8139640925 -25.9640138153 -2.5000266307
5.8301467285 -25.9687210813 -2.5000266307
9.2315959021 -25.8951681014 -2.5000266307
9.2393107739 -25.9180769652 -2.5000266365
9.2873575534 -25.9016588257 -2.5000266365
9.3193069763 -25.8904767951 -2.5000266365
9.3273598351 -25.9132690470 -2.5000266422
9.4476433806 -25.8950965460 -2.5000266480
5.4931616833 -25.9623702149 -2.5000266537
5.5093408609 -25.9680264796 -2.5000266537
5.5417490588 -25.9791953029 -2.5000266537
9.4882079202 -25.9055361287 -2.5000266537
9.5201767673 -25.8931657320 -2.5000266537
9.4324425479 -25.9523790849 -2.5000266595
5.3472477257 -25.9606241725 -2.5000266653
9.4408316321 -25.9750497388 -2.5000266653
5.2900838407 -25.9646079368 -2.5000266710
5.3062705264 -25.9708649328 -2.5000266710
9.7072494474 -25.8952338601 -2.5000266710
9.7232115851 -25.8884243848 -2.5000266710
5.2326872191 -25.9680057173 -2.5000266768
5.2651001360 -25.9808113168 -2.5000266768
5.1427115832 -25.9574755930 -2.5000266826
5.1588778150 -25.9641685739 -2.5000266826
4.9685145604 -25.9612930190 -2.5000266998
4.9846928470 -25.9685012895 -2.5000266998
9.9806560994 -25.9048188556 -2.5000266998
10.1296880870 -25.8857258234 -2.5000267114
4.7925259237 -25.9596601300 -2.5000267171
4.6742876151 -25.9554978911 -2.5000267287
10.3499069236 -25.8793821341 -2.5000267344
4.4681085261 -25.9572005501 -2.5000267517
10.5566453766 -25.8736478146 -2.5000267575
10.5847999776 -25.8851590773 -2.5000267632
10.6007284726 -25.8757536929 -2.5000267632
4.2756243121 -25.9607152499 -2.5000267748
10.7624375181 -25.8907519297 -2.5000267863
3.7172795152 -25.7185987286 -2.5000267978
3.7949293779 -25.7726933552 -2.5000267978
3.8419003516 -25.8045967715 -2.5000267978
3.8733708274 -25.8256335932 -2.5000267978
3.9208085271 -25.8568388009 -2.5000267978
4.4096869245 -26.1452803287 -2.5000267978
4.4935718349 -26.1890873099 -2.5000267978
4.5780954919 -26.2316488092 -2.5000267978
3.4146762565 -25.5216390297 -2.5000268036
3.4295607658 -25.5334457586 -2.5000268036
3.4744229391 -25.5686010376 -2.5000268036
3.5803015893 -25.6490716417 -2.5000268036
3.5955623426 -25.6603878633 -2.5000268036
3.6261839414 -25.6828846273 -2.5000268036
3.6878237499 -25.7273326899 -2.5000268036
3.7343963908 -25.7601883948 -2.5000268036
3.7969433179 -25.8033506257 -2.5000268036
4.6185895954 -26.2783483182 -2.5000268036
4.6700155386 -26.3029223001 -2.5000268036
4.6872057325 -26.3110120900 -2.5000268036
4.7216575371 -26.3270389380 -2.5000268036
4.7389188464 -26.3349758560 -2.5000268036
4.8081966031 -26.3662118719 -2.5000268036
3.2086423455 -25.3825111042 -2.5000268094
3.2521737578 -25.4196328539 -2.5000268094
3.2960328906 -25.4563668249 -2.5000268094
3.3402162897 -25.4927101242 -2.5000268094
3.9104123057 -25.9077328287 -2.5000268094
4.8332984170 -26.4036745886 -2.5000268094
4.8507859399 -26.4112809173 -2.5000268094
4.9561766197 -26.4558295364 -2.5000268094
4.9738178887 -26.4630721410 -2.5000268094
10.9739441759 -25.8699381602 -2.5000268094
3.2953411030 -25.4871708844 -2.5000268151
5.0535257570 -26.5210088777 -2.5000268151
5.1070880494 -26.5417134895 -2.5000268151
5.1428974124 -26.5552521351 -2.5000268151
10.6455205489 -26.1015635580 -2.5000268151
11.2230538884 -25.7262448119 -2.5000268151
11.2693201482 -25.6922296192 -2.5000268151
11.3457539310 -25.6346295298 -2.5000268151
2.8658980289 -25.1332373834 -2.5000268209
2.9489184054 -25.2132154551 -2.5000268209
5.2427186654 -26.6173767560 -2.5000268209
5.2789733039 -26.6301116410 -2.5000268209
10.3877492544 -26.2697008482 -2.5000268209
10.4048161556 -26.2608766929 -2.5000268209
10.4218568788 -26.2520020893 -2.5000268209
10.5066626116 -26.2068750792 -2.5000268209
10.6575952174 -26.1225048489 -2.5000268209
11.4363003110 -25.5948828211 -2.5000268209
11.4963520858 -25.5469241192 -2.5000268209
11.5410162128 -25.5104906197 -2.5000268209
11.5853552543 -25.4736621859 -2.5000268209
11.6000620892 -25.4612987785 -2.5000268209
11.6147322865 -25.4488919197 -2.5000268209
11.6439622554 -25.4239482828 -2.5000268209
5.3806431287 -26.6899941589 -2.5000268266
5.3989752419 -26.6959800902 -2.5000268266
10.2086938100 -26.3852531166 -2.5000268266
10.2434882142 -26.3686116876 -2.5000268266
11.7755664905 -25.3404212206 -2.5000268266
11.7898783422 -25.3274957169 -2.5000268266
10.0252577740 -26.4952444402 -2.5000268324
10.0960618272 -26.4639188183 -2.5000268324
10.1489189094 -26.4398759994 -2.5000268324
11.6901216878 -25.4480011530 -2.5000268324
2.7190177073 -25.0888008167 -2.5000268382
9.9992360730 -26.5328128192 -2.5000268382
12.1024273706 -25.0941094409 -2.5000268382
12.1699235964 -25.0242527982 -2.5000268382
5.4322818140 -26.7827786102 -2.5000268439
9.7374275751 -26.6641977792 -2.5000268439
11.8960594096 -25.3285393447 -2.5000268439
12.2673450993 -24.9554728341 -2.5000268439
9.5803187895 -26.7467201936 -2.5000268497
9.6725336448 -26.7139857431 -2.5000268497
12.4409304754 -24.7961025809 -2.5000268497
2.1937409494 -24.6391572983 -2.5000268612
9.4089648929 -26.8542072008 -2.5000268612
9.4465477836 -26.8422890291 -2.5000268612
9.2646390621 -26.9228787491 -2.5000268670
9.3216018964 -26.9061962676 -2.5000268670
12.8841971497 -24.3433542407 -2.5000268670
9.0664257683 -27.0265755693 -2.5000268785
13.1009230678 -24.1061092739 -2.5000268785
8.9557729466 -27.0784220024 -2.5000268843
7.5902619212 -22.3196233265 -2.4999992033
10.9674364117 -21.8857666404 -2.4999967654
10.9363516716 -22.2314086077 -2.4999966617
10.9447992623 -22.3875827364 -2.4999965839
10.9383489373 -22.6146484314 -2.4999964801
10.9508897198 -23.3249204371 -2.4999960652
5.6380619364 -25.9566726326 -2.4999951834
8.5370769636 -25.9454539653 -2.4999951834
8.6395167064 -25.9417137537 -2.4999951575
8.7263192300 -25.9409656549 -2.4999951315
5.2742078266 -25.9493203436 -2.4999950797
5.3062341066 -25.9598302983 -2.4999950797
8.9486585091 -25.9187956902 -2.4999950797
5.2184778592 -25.9560777088 -2.4999950537
9.0044930479 -25.9246262589 -2.4999950537
5.1304492060 -25.9509095873 -2.4999950278
9.0286638150 -25.9415900750 -2.4999950278
5.0261970289 -25.9383047094 -2.4999950019
4.9536658768 -25.9362917001 -2.4999949759
9.2940375327 -25.9162366657 -2.4999949500
9.3511005100 -25.9185064326 -2.4999949241
9.4817693901 -25.9141476873 -2.4999948722
9.3472093632 -25.9988396880 -2.4999948462
4.4347164209 -25.9461051781 -2.4999947425
4.3601102233 -25.9361910791 -2.4999947166
10.0944010880 -25.9019298814 -2.4999945869
3.7389577840 -25.7497998153 -2.4999945610
3.8163556161 -25.7984477384 -2.4999945610
3.4226167387 -25.5634891843 -2.4999945350
3.2463310527 -25.4613679414 -2.4999945091
3.2609018414 -25.4726475650 -2.4999945091
4.8465456984 -26.3613708257 -2.4999945091
4.8810172922 -26.3744037616 -2.4999945091
4.9155653900 -26.3872325239 -2.4999945091
3.1013850134 -25.3766173588 -2.4999944832
5.0117128522 -26.4473198236 -2.4999944832
5.0992880561 -26.4770669098 -2.4999944832
5.2332354794 -26.5450777569 -2.4999944572
5.6973161037 -26.7666525303 -2.4999943535
10.5240740967 -25.8962922870 -2.4999943535
10.5520321779 -26.1930584926 -2.4999940682
10.5687354741 -26.1827233295 -2.4999940682
10.6352407375 -26.1408899264 -2.4999940682
11.2408341608 -25.7052427370 -2.4999940682
11.3618580890 -25.6050215854 -2.4999940682
11.4066255051 -25.5667044938 -2.4999940682
11.4214721936 -25.5538440296 -2.4999940682
11.4362807737 -25.5409397025 -2.4999940682
10.3096687741 -26.3632191456 -2.4999940423
10.3783278841 -26.3244385043 -2.4999940423
11.6131147905 -25.4138034779 -2.4999940423
11.6275082668 -25.4003328500 -2.4999940423
10.1296144021 -26.4871361663 -2.4999940163
11.8558606858 -25.2101116681 -2.4999940163
9.9192273945 -26.6443000777 -2.4999939645
9.9552841124 -26.6273163734 -2.4999939645
11.9043689345 -25.2295686725 -2.4999939645
7.3065715653 -22.3327575486 -2.4999965469
10.9484463554 -21.1626245610 -2.4999897865
10.9462058652 -21.4820787626 -2.4999896540
10.9510761360 -21.4571380808 -2.4999896540
10.9432076525 -21.6117282730 -2.4999895877
10.9488741864 -21.6921173036 -2.4999895214
10.9667692866 -21.6171305579 -2.4999895214
10.9496549813 -21.7854880043 -2.4999894551
10.9483667563 -21.8793367044 -2.4999893889
10.9591269576 -22.1590079057 -2.4999891237
10.9682231643 -22.2047994706 -2.4999890575
10.9427065014 -22.3383967061 -2.4999889912
10.9627170559 -22.4786852058 -2.4999887924
10.9671064871 -22.9136261315 -2.4999882621
10.9591882720 -23.3114124924 -2.4999877319
5.3197164925 -25.9406483779 -2.4999864064
5.3353839463 -25.9448063038 -2.4999864064
8.2342972541 -25.9164299589 -2.4999864064
5.2349876384 -25.9424248405 -2.4999863401
8.3190439293 -25.9167981815 -2.4999863401
5.1655731727 -25.9475083422 -2.4999862738
5.1969635951 -25.9566896723 -2.4999862738
8.3885332859 -25.9207274757 -2.4999862738
5.0644705525 -25.9419078289 -2.4999862075
8.4270840627 -25.9338616209 -2.4999862075
8.4583366647 -25.9237469961 -2.4999862075
8.4739403883 -25.9186203898 -2.4999862075
4.9787256822 -25.9395942018 -2.4999861412
4.9943915095 -25.9447608448 -2.4999861412
8.4658479385 -25.9467234198 -2.4999861412
4.9083411378 -25.9413188155 -2.4999860750
4.9554022050 -25.9573041603 -2.4999860750
8.5832088707 -25.9325254321 -2.4999860750
4.8376712475 -25.9421156919 -2.4999860087
4.8533451510 -25.9476995884 -2.4999860087
4.7667281492 -25.9419783331 -2.4999859424
8.7248233939 -25.9325072305 -2.4999859424
8.7803794588 -25.9371678761 -2.4999858761
4.5994096577 -25.9550427331 -2.4999857436
4.6308545650 -25.9675735448 -2.4999857436
8.9391373134 -25.9254014258 -2.4999857436
4.5117808056 -25.9451970467 -2.4999856773
4.4553014385 -25.9474847984 -2.4999856110
9.0362728903 -25.9365232506 -2.4999856110
4.3829309620 -25.9422565722 -2.4999855447
9.1811513069 -25.9243997973 -2.4999854785
4.2272960483 -25.9507310707 -2.4999853459
3.6699571703 -25.7344469596 -2.4999851471
3.6850218614 -25.7434860742 -2.4999851471
3.7455460381 -25.7791957111 -2.4999851471
3.7607427733 -25.7880110243 -2.4999851471
3.7759655193 -25.7967813443 -2.4999851471
3.8217884889 -25.8228215792 -2.4999851471
3.8986678436 -25.8653150200 -2.4999851471
9.4372969295 -25.9339869434 -2.4999851471
4.7568786787 -26.2725340749 -2.4999850808
4.9337013886 -26.3569066930 -2.4999850145
9.5378539126 -25.9361259493 -2.4999850145
9.6118235165 -25.9237898209 -2.4999849482
9.6546969006 -25.9278183469 -2.4999848820
5.5802032577 -26.6447748273 -2.4999846831
10.2715899766 -25.9190037287 -2.4999840203
10.5171777674 -26.2490570734 -2.4999828936
10.6486947788 -26.1579449633 -2.4999828936
11.2571155016 -25.6705704347 -2.4999828936
11.3309296991 -25.6031091686 -2.4999828936
11.4037380442 -25.5345635411 -2.4999828936
11.4612497955 -25.4789563681 -2.4999828936
10.3117256026 -26.4109376573 -2.4999828273
10.3627414958 -26.3789525032 -2.4999828273
11.5915887424 -25.3825937185 -2.4999828273
11.6195244742 -25.3537664693 -2.4999828273
11.6369333936 -25.3705374206 -2.4999827611
11.8015063747 -25.1935209971 -2.4999827611
11.8149353300 -25.1785078852 -2.4999827611
11.8549549060 -25.1332311194 -2.4999827611
9.8984145514 -26.7024410542 -2.4999826948
9.9163154919 -26.6930510300 -2.4999826948
9.9341885767 -26.6836080927 -2.4999826948
11.9782479678 -25.0262690406 -2.4999826948
9.8193767176 -26.7701811421 -2.4999826285
12.0612356886 -24.9634300648 -2.4999826285
12.1370154241 -24.8681856592 -2.4999826285
12.1934486971 -24.8347750993 -2.4999825622
10.9634969991 -22.6484008864 -2.4999959355
5.0835142521 -25.9465058584 -2.4999954946
4.9185365834 -25.9510438595 -2.4999954427
4.8202927897 -25.9466109305 -2.4999954168
8.0652305475 -25.9340525241 -2.4999954168
8.1257722912 -25.9142608085 -2.4999954168
3.7858093577 -25.8032871109 -2.4999951315
3.4825125527 -25.6592903132 -2.4999951056
4.8721211234 -26.2898355084 -2.4999950797
9.1407797526 -25.8972345730 -2.4999950019
10.7186694611 -26.1219628948 -2.4999938607
10.1042385874 -26.6219839169 -2.4999938089
11.6393158319 -25.2962410566 -2.4999938089
12.2586240364 -24.6342389193 -2.4999937051
12.5061627268 -24.3727173027 -2.4999936273
7.3130836012 -22.7604249922 -2.5000054386
4.8754846948 -25.9525082707 -2.5000115131
4.8900800119 -25.9562433628 -2.5000115131
7.3951452921 -25.9576634282 -2.5000115131
7.4097448345 -25.9539448860 -2.5000115131
7.4243333129 -25.9501831720 -2.5000115131
10.9554397939 -22.6941234727 -2.5000115131
10.9603696171 -22.6798872149 -2.5000115131
10.9652573053 -22.6656364360 -2.5000115131
10.9701028157 -22.6513712608 -2.5000115131
11.2346310621 -20.8275835148 -2.5000115131
4.8109116326 -25.9604731450 -2.5000115621
4.8401615050 -25.9682820338 -2.5000115621
4.8694570655 -25.9759177339 -2.5000115621
7.4450501180 -25.9697586868 -2.5000115621
7.5181093487 -25.9499951540 -2.5000115621
7.5326856689 -25.9459128955 -2.5000115621
10.9682370320 -22.7306305959 -2.5000115621
10.9732747938 -22.7163563217 -2.5000115621
4.7606136792 -25.9717153200 -2.5000116111
7.3922596959 -26.0082415192 -2.5000116111
7.5831010211 -25.9566163002 -2.5000116111
7.6268496345 -25.9436632307 -2.5000116111
7.6414067480 -25.9392593264 -2.5000116111
7.6559507703 -25.9348123788 -2.5000116111
10.9597618952 -22.8244393667 -2.5000116111
4.6806801724 -25.9738728402 -2.5000116601
7.7213685740 -25.9396154114 -2.5000116601
7.7794634589 -25.9206235818 -2.5000116601
10.9661233823 -22.8757752977 -2.5000116601
10.9770154198 -22.8472218740 -2.5000116601
4.5564761360 -25.9608375961 -2.5000117090
4.6150436934 -25.9792927585 -2.5000117090
7.8597447571 -25.9187353041 -2.5000117090
10.9719511023 -22.9273655271 -2.5000117090
4.4758396821 -25.9596963538 -2.5000117580
4.4904580115 -25.9646136367 -2.5000117580
4.5050908231 -25.9694876544 -2.5000117580
4.5197379889 -25.9743183642 -2.5000117580
10.9537265360 -23.0362399452 -2.5000117580
10.9655681533 -23.0077570570 -2.5000117580
10.9714257170 -22.9934894654 -2.5000117580
10.9772410490 -22.9792046084 -2.5000117580
4.3948910732 -25.9572455974 -2.5000118070
7.9922189787 -25.9220382505 -2.5000118070
8.0067105230 -25.9165536122 -2.5000118070
4.3136514789 -25.9534758692 -2.5000118560
4.4014912702 -25.9852092666 -2.5000118560
7.9861673591 -25.9501257440 -2.5000118560
4.2613307233 -25.9596113464 -2.5000119050
4.2759497398 -25.9651631860 -2.5000119050
4.2905851156 -25.9706717555 -2.5000119050
4.3199044330 -25.9815588923 -2.5000119050
8.0676671216 -25.9448792276 -2.5000119050
4.2087574841 -25.9652049173 -2.5000119540
4.2233932774 -25.9709122535 -2.5000119540
4.2380458900 -25.9765762695 -2.5000119540
8.1929761880 -25.9203173555 -2.5000119540
8.2074617631 -25.9142388487 -2.5000119540
10.9603426737 -23.2603984590 -2.5000119540
4.1413037280 -25.9643457094 -2.5000120030
8.2603934646 -25.9179386448 -2.5000120030
8.2748717081 -25.9116607158 -2.5000120030
10.9552974632 -23.3276687594 -2.5000120030
10.9755828496 -23.2848928624 -2.5000120030
3.7565827233 -25.8173787884 -2.5000120520
3.8135088067 -25.8453087042 -2.5000120520
3.8707613848 -25.8725630889 -2.5000120520
3.8995076060 -25.8859357609 -2.5000120520
3.9139102599 -25.8925582610 -2.5000120520
3.9862139157 -25.9250300962 -2.5000120520
4.5348776957 -26.1315401736 -2.5000120520
8.3425080029 -25.9081694104 -2.5000120520
8.3569569879 -25.9016486146 -2.5000120520
10.9563349623 -23.3809105584 -2.5000120520
8.3669330975 -25.9236670732 -2.5000121010
8.3959029765 -25.9104379890 -2.5000121010
10.9710015091 -23.4058435726 -2.5000121010
8.3331131105 -25.9652948797 -2.5000121499
8.4639707249 -25.9053047302 -2.5000121499
10.9560264599 -23.5418079959 -2.5000121989
8.5862479912 -25.8994870707 -2.5000122479
10.9699242121 -23.5673124670 -2.5000122479
8.5389054405 -25.9497717156 -2.5000122969
8.6260139644 -25.9065151323 -2.5000122969
8.6548778325 -25.8917535388 -2.5000122969
10.9760821359 -23.6072224438 -2.5000122969
8.6948511244 -25.8982447071 -2.5000123459
10.9475080323 -23.7588494294 -2.5000123949
8.7897417221 -25.9025145898 -2.5000124439
8.8185790561 -25.8867843980 -2.5000124439
10.9521506178 -23.7993107018 -2.5000124439
8.8734853114 -25.8839526151 -2.5000124929
8.9022113609 -25.8677272930 -2.5000124929
8.9693922697 -25.8848823473 -2.5000125908
9.0391352124 -25.8718875784 -2.5000126398
9.0802926448 -25.8753692266 -2.5000126888
9.1359500330 -25.8697076249 -2.5000127378
9.1917370778 -25.8634389022 -2.5000127868
10.9392221386 -24.1435627355 -2.5000127868
9.2189813451 -25.8748295535 -2.5000128358
9.2606992971 -25.8769068815 -2.5000128848
9.3732228783 -25.8610746654 -2.5000129827
10.9537280678 -24.4233089593 -2.5000131297
9.6133479135 -25.8714860493 -2.5000132767
9.9157201052 -25.8874456065 -2.5000136686
9.9887087399 -25.8917497396 -2.5000137665
10.6429369682 -26.1971490302 -2.5000150892
10.6582307418 -26.1838218850 -2.5000150892
10.6886996826 -26.1570321613 -2.5000150892
10.6434037749 -26.2287256084 -2.5000151382
10.6894466954 -26.1886033533 -2.5000151382
11.1854050355 -25.7062239517 -2.5000151382
11.2404958207 -25.6462603722 -2.5000151382
11.2677741764 -25.6160351809 -2.5000151382
11.3083552262 -25.5703961158 -2.5000151382
11.3217920398 -25.5551032853 -2.5000151382
11.3351835558 -25.5397707732 -2.5000151382
11.3618302261 -25.5089872413 -2.5000151382
11.3882943043 -25.4780465974 -2.5000151382
10.2934313310 -26.5418014055 -2.5000151872
10.3746397280 -26.4798466413 -2.5000151872
10.3907709462 -26.4673119309 -2.5000151872
10.4229217902 -26.4420996276 -2.5000151872
10.4867731768 -26.3911065884 -2.5000151872
10.6126435650 -26.2868719065 -2.5000151872
11.2308399953 -25.6926779770 -2.5000151872
11.4852732406 -25.3996213765 -2.5000151872
11.5239251744 -25.3520606512 -2.5000151872
11.5621535114 -25.3041587846 -2.5000151872
11.5748016364 -25.2881163378 -2.5000151872
11.5874022497 -25.2720365457 -2.5000151872
10.1254870705 -26.6936201839 -2.5000152362
10.1422517597 -26.6818215768 -2.5000152362
10.1589814731 -26.6699734283 -2.5000152362
10.2089592963 -26.6341327738 -2.5000152362
11.6440982112 -25.2382868023 -2.5000152362
11.7058793823 -25.1564977362 -2.5000152362
11.7784099032 -25.0571580816 -2.5000152362
10.0547330685 -26.7718584021 -2.5000152852
10.1056191688 -26.7369388816 -2.5000152852
11.8337841004 -25.0209149819 -2.5000152852
11.8455931506 -25.0040702420 -2.5000152852
9.8260086230 -26.9493209164 -2.5000153342
10.7842185606 -26.2338650404 -2.5000153342
11.3808979808 -25.6343250862 -2.5000153342
11.5804055184 -25.3975467841 -2.5000153342
11.9583973730 -24.8814440914 -2.5000153342
12.0036748656 -24.8123918470 -2.5000153342
12.0148663232 -24.7950454519 -2.5000153342
12.1123610621 -24.6853555656 -2.5000153832
9.6912727207 -27.0869382379 -2.5000154321
9.7271017245 -27.0658535566 -2.5000154321
12.2800838333 -24.4469524560 -2.5000154321
9.4226732546 -27.2907573691 -2.5000155301
9.3028912093 -27.3789220171 -2.5000155791
9.1999088541 -27.4557979509 -2.5000156281
9.3325020202 -27.3911724272 -2.5000156281
9.5495929383 -27.3053654794 -2.5000156771
12.7124083603 -23.8422914232 -2.5000156771
7.2808733863 -22.3368979940 -2.5000057366
7.3094817568 -22.3392808783 -2.5000058000
7.3407867271 -22.7072973683 -2.5000064974
4.6162419891 -25.9539008895 -2.5000139147
4.6716575810 -25.9688709433 -2.5000139147
4.6855388534 -25.9725109192 -2.5000139147
7.2242668552 -25.9476601205 -2.5000139147
4.5404419425 -25.9574689448 -2.5000139781
4.5542900599 -25.9614971303 -2.5000139781
4.5681500327 -25.9654843329 -2.5000139781
7.2724136967 -25.9590132730 -2.5000139781
7.3762803907 -25.9528443774 -2.5000140415
7.3901024197 -25.9484836601 -2.5000140415
7.4039114885 -25.9440820737 -2.5000140415
7.4528389363 -25.9535865908 -2.5000141049
7.4804730855 -25.9443713281 -2.5000141049
7.5573685730 -25.9434115633 -2.5000141683
7.5792821636 -25.9612835222 -2.5000142317
7.6207761478 -25.9462769425 -2.5000142317
7.6621353232 -25.9309027180 -2.5000142317
7.7258556952 -25.9323521448 -2.5000142951
7.7622826434 -25.9439877833 -2.5000143585
7.8036159314 -25.9273578582 -2.5000143585
10.9542591253 -22.5931849662 -2.5000148657
10.9619507292 -22.5633129383 -2.5000148657
10.9479080940 -19.9390813637 -2.5000148657
8.3627726265 -25.9058431682 -2.5000149291
10.9508185804 -19.8581479802 -2.5000149291
10.9465957551 -19.8432397993 -2.5000149291
10.9380178940 -19.8134612391 -2.5000149291
10.9551677401 -22.7703396281 -2.5000149925
10.9639074345 -22.7404591241 -2.5000149925
10.9682109496 -22.7254996127 -2.5000149925
10.9568514691 -19.7917627175 -2.5000149925
10.9524322378 -19.7768369807 -2.5000149925
10.9434614132 -19.7470250521 -2.5000149925
10.9602568441 -22.8370713231 -2.5000150559
10.9384914464 -19.6504717341 -2.5000150559
8.5070689158 -25.9097328836 -2.5000151193
10.9467798171 -19.5982554874 -2.5000151193
10.9367525433 -19.5684801259 -2.5000151193
10.9316728897 -19.5536148223 -2.5000151193
10.9525738620 -23.0163350319 -2.5000151827
10.9576935175 -23.0014078401 -2.5000151827
10.9347985020 -19.4184683998 -2.5000152460
10.9292750951 -19.4036095330 -2.5000152460
10.9497887133 -23.1669431066 -2.5000153094
10.9608749413 -23.1370874855 -2.5000153094
10.9463283777 -19.3802439954 -2.5000153094
10.9350112826 -19.3504751203 -2.5000153094
8.7064000849 -25.9055042057 -2.5000153728
10.9496215414 -23.2352039356 -2.5000153728
10.9553886637 -23.2202845197 -2.5000153728
10.9343155094 -19.2822176327 -2.5000153728
10.9283890502 -19.2673607908 -2.5000153728
10.9485415881 -23.3037240306 -2.5000154362
10.9508283439 -19.2583711646 -2.5000154362
10.9364621673 -19.1598208726 -2.5000154996
10.9587123643 -23.7003555157 -2.5000158800
10.9492914332 -23.8819356091 -2.5000160702
10.9287054044 -24.2198283826 -2.5000164506
10.9166193316 -24.6041596011 -2.5000169577
10.6023081253 -26.2780923276 -2.5000191766
10.6757451280 -26.2081306639 -2.5000191766
10.7048288391 -26.1798431509 -2.5000191766
10.7481393378 -26.1370904913 -2.5000191766
10.7768014844 -26.1083759131 -2.5000191766
11.1335472524 -25.7200746439 -2.5000191766
11.2499408229 -25.5794222729 -2.5000191766
11.3378561579 -25.4679131192 -2.5000191766
10.5290583270 -26.3785168651 -2.5000192400
10.5441257775 -26.3648277979 -2.5000192400
10.5591526674 -26.3510942184 -2.5000192400
10.6336741168 -26.2817628554 -2.5000192400
10.6631941970 -26.2537229599 -2.5000192400
10.6778918976 -26.2396376405 -2.5000192400
11.2043403468 -25.6733840948 -2.5000192400
11.3194659023 -25.5308637213 -2.5000192400
11.4185828962 -25.4016453206 -2.5000192400
10.2821423630 -26.6230148940 -2.5000193034
10.2979341632 -26.6100551791 -2.5000193034
10.3136875572 -26.5970488060 -2.5000193034
10.3607159247 -26.5577508768 -2.5000193034
10.3918736199 -26.5313210634 -2.5000193034
10.4537171864 -26.4779107376 -2.5000193034
11.2359650160 -25.6730842268 -2.5000193034
11.4865108248 -25.3504198539 -2.5000193034
11.5461304756 -25.2674819628 -2.5000193034
10.1368898767 -26.7691744862 -2.5000193668
10.1531146790 -26.7566438149 -2.5000193668
11.5776798324 -25.2646946052 -2.5000193668
11.7489340392 -25.0093213755 -2.5000193668
9.9868049368 -26.9114017299 -2.5000194302
10.1025707955 -26.8257612750 -2.5000194302
10.8599057656 -26.1618582248 -2.5000194302
10.2476990189 -26.7439091876 -2.5000194936
11.8769346330 -24.8951445439 -2.5000194936
11.9813039924 -24.7170474492 -2.5000194936
9.6900192003 -27.1722697028 -2.5000195570
12.0920398365 -24.5655308001 -2.5000195570
9.6680130728 -27.2149592960 -2.5000196204
10.1130633426 -26.9085825803 -2.5000196204
10.1463010104 -26.8836118226 -2.5000196204
12.1249085655 -24.6066289014 -2.5000196838
9.7951049182 -27.2194034701 -2.5000198106
7.2840419406 -22.4765882065 -2.5000016225
7.4644897012 -22.2028620055 -2.5000016340
7.4971179219 -22.1039297343 -2.5000016340
7.3328536689 -22.7136680948 -2.5000016629
7.5306018364 -22.3632821257 -2.5000016629
7.1533597881 -25.9542738880 -2.5000022911
7.1663140260 -25.9500177736 -2.5000022911
7.1792556169 -25.9457233569 -2.5000022911
7.2258536532 -25.9554734875 -2.5000022968
7.2388111226 -25.9510029179 -2.5000022968
7.2517553105 -25.9464940373 -2.5000022968
7.2986946225 -25.9554821339 -2.5000023026
7.3718632520 -25.9542898482 -2.5000023084
7.4453398793 -25.9518869668 -2.5000023141
7.5672480125 -25.9544116021 -2.5000023256
7.5802008468 -25.9489311309 -2.5000023256
7.6772636406 -25.9594000202 -2.5000023372
7.7031806281 -25.9477498083 -2.5000023372
7.7161131609 -25.9418672530 -2.5000023372
7.7520968862 -25.9519165467 -2.5000023429
7.9001992125 -25.9612495119 -2.5000023602
8.0146892220 -25.9298456802 -2.5000023660
8.0518124211 -25.9375227060 -2.5000023717
8.0876131712 -25.9731874105 -2.5000023833
8.2537894512 -25.9356755020 -2.5000023948
8.2659260191 -25.9565809797 -2.5000024006
8.3047273414 -25.9338242751 -2.5000024006
8.5879080608 -25.9278438221 -2.5000024351
10.9410884067 -22.9831751979 -2.5000024813
10.9452370244 -22.9677272971 -2.5000024813
10.9533970764 -22.9367950164 -2.5000024813
10.9508966228 -20.1997120911 -2.5000024813
10.9468112104 -20.1842473546 -2.5000024813
10.9429015825 -23.0668755374 -2.5000024870
10.9516482697 -23.0359553387 -2.5000024870
10.9602118695 -23.0049839328 -2.5000024870
10.9489666439 -20.1005551295 -2.5000024870
10.9445879157 -20.0850965361 -2.5000024870
10.9339489116 -23.1818057941 -2.5000024928
10.9480205977 -23.1354811497 -2.5000024928
10.9543661629 -20.0319710238 -2.5000024928
10.9325744384 -23.2661994530 -2.5000024985
10.9375603303 -23.2507754996 -2.5000024985
10.9425005736 -23.2353368646 -2.5000024985
10.9473951249 -23.2198836830 -2.5000024985
10.9588713648 -19.9630539303 -2.5000024985
10.9492545215 -19.9320935710 -2.5000024985
10.9443774522 -19.9166348631 -2.5000024985
10.9574847763 -19.8783177992 -2.5000025043
10.9422389327 -19.8319143740 -2.5000025043
10.9579755053 -23.3432273188 -2.5000025101
10.9651705166 -19.8242673000 -2.5000025101
10.9144616746 -23.5365222154 -2.5000025158
10.9259874470 -23.5057620571 -2.5000025158
10.9373310303 -23.4749342469 -2.5000025158
10.9429343767 -23.4594953094 -2.5000025158
10.9450647988 -19.6924770524 -2.5000025158
10.9253141120 -23.5758959191 -2.5000025216
10.9370726426 -23.5450708650 -2.5000025216
10.9419007218 -23.6000311960 -2.5000025274
10.9211590003 -23.7169116859 -2.5000025331
10.9274782305 -23.7015195294 -2.5000025331
10.9337519002 -23.6861087469 -2.5000025331
10.9461623392 -23.6552318431 -2.5000025331
10.9423492473 -19.4812896820 -2.5000025331
10.9176652296 -23.7877688354 -2.5000025389
10.9522681319 -19.4413132835 -2.5000025389
10.9199587109 -23.8434728559 -2.5000025446
10.9266523372 -23.8280836964 -2.5000025446
10.9682978672 -19.4166594057 -2.5000025446
10.9285300679 -23.8839967782 -2.5000025504
10.9513917125 -19.3142867045 -2.5000025504
10.9157279932 -23.9708952694 -2.5000025562
10.9227985765 -23.9555180675 -2.5000025562
10.9298236404 -23.9401200169 -2.5000025562
10.9600716216 -19.2736670438 -2.5000025562
10.9694677343 -19.1763493766 -2.5000025677
10.8479340713 -18.8740402967 -2.5000025735
10.8237801422 -18.8286486196 -2.5000025735
10.7992243386 -18.7834730825 -2.5000025735
11.2403495238 -19.7325024121 -2.5000025792
11.2181851358 -19.6673246915 -2.5000025792
11.1893976884 -19.5862288254 -2.5000025792
10.7353276072 -18.6222344825 -2.5000025792
10.6731539311 -18.5190429956 -2.5000025792
10.6088569203 -18.4171609885 -2.5000025792
11.3003609384 -19.8400073778 -2.5000025850
10.6197688638 -18.3895437666 -2.5000025850
10.9090098512 -24.3116760893 -2.5000025908
11.3534488123 -19.9325426668 -2.5000025908
11.3485713030 -19.9158882771 -2.5000025908
10.9103528649 -24.4113075194 -2.5000026023
10.9221577673 -24.5388835896 -2.5000026196
10.9240525557 -24.7264042689 -2.5000026426
10.9274220099 -24.8132931341 -2.5000026542
10.8247347774 -26.0439107746 -2.5000028098
10.8379381136 -26.0287936768 -2.5000028098
10.5260281856 -26.3976702668 -2.5000028155
10.5827791669 -26.3404781260 -2.5000028155
10.6108998891 -26.3116312390 -2.5000028155
10.6388494513 -26.2826184851 -2.5000028155
10.6527597415 -26.2680502253 -2.5000028155
10.6666268752 -26.2534408800 -2.5000028155
10.7079681263 -26.2093676121 -2.5000028155
10.7489166239 -26.1649291993 -2.5000028155
10.7759958320 -26.1351024596 -2.5000028155
11.2204234074 -25.5882383511 -2.5000028155
11.2558395514 -25.5392766443 -2.5000028155
11.2675482024 -25.5228864687 -2.5000028155
11.2792083170 -25.5064617284 -2.5000028155
11.2908197932 -25.4900025672 -2.5000028155
11.3138964245 -25.4569815587 -2.5000028155
11.3253613777 -25.4404200004 -2.5000028155
11.3367772886 -25.4238245991 -2.5000028155
10.3682102897 -26.5828845196 -2.5000028213
10.3830100052 -26.5691155456 -2.5000028213
10.4271638603 -26.5275467874 -2.5000028213
10.4417996189 -26.5136036601 -2.5000028213
10.4563940671 -26.4996172987 -2.5000028213
10.5716472319 -26.3861847415 -2.5000028213
10.6702675754 -26.2847178895 -2.5000028213
10.2491602170 -26.7229719082 -2.5000028270
10.3697567112 -26.6143806396 -2.5000028270
11.5750366142 -25.1446675564 -2.5000028270
11.5855765434 -25.1273348646 -2.5000028270
10.1102743698 -26.8732661751 -2.5000028328
10.1259342153 -26.8602589516 -2.5000028328
10.1415555146 -26.8472054604 -2.5000028328
10.1571381310 -26.8341058157 -2.5000028328
10.1726819281 -26.8209601320 -2.5000028328
11.5743637890 -25.1919510696 -2.5000028328
11.6167747508 -25.1224389426 -2.5000028328
11.6997692329 -25.0293403642 -2.5000028386
11.7993825689 -24.8509932672 -2.5000028386
9.8507736323 -27.1381808770 -2.5000028443
11.8222987591 -24.9100966762 -2.5000028501
11.8709878557 -24.8194922620 -2.5000028501
9.7962438938 -27.2378980216 -2.5000028559
11.6674361406 -25.2252248334 -2.5000028559
12.1132313420 -24.4324069242 -2.5000028616
12.1490248931 -24.5864485431 -2.5000028847
7.3008098320 -22.4640165671 -2.4999992552
7.3406639194 -22.3254789160 -2.4999992552
7.2924181367 -22.6228037225 -2.4999992033
7.3008982537 -22.6025752188 -2.4999992033
6.6534875701 -25.9568307760 -2.4999966876
6.7559718625 -25.9536889821 -2.4999966617
6.7799578654 -25.9467027735 -2.4999966617
6.8158583218 -25.9359576877 -2.4999966617
6.8589009019 -25.9479581165 -2.4999966358
6.8828511977 -25.9403630454 -2.4999966358
6.7450520663 -26.0070685709 -2.4999966098
6.9382619824 -25.9476800566 -2.4999966098
6.9502415774 -25.9436654702 -2.4999966098
7.0180114167 -25.9458541920 -2.4999965839
7.0299852615 -25.9416037003 -2.4999965839
7.0861424404 -25.9469187338 -2.4999965579
7.0981191362 -25.9424666936 -2.4999965579
7.1874114270 -25.9599963966 -2.4999965061
7.2353861092 -25.9407767575 -2.4999965061
7.1962681495 -25.9824884786 -2.4999964801
7.2685418495 -25.9532857476 -2.4999964801
7.2925164959 -25.9432670099 -2.4999964801
7.3836396508 -25.9565744301 -2.4999964283
7.6529344999 -25.9353295121 -2.4999963245
7.8183599483 -25.9294389223 -2.4999962467
8.3653377277 -25.9317031300 -2.4999959355
10.9385103462 -23.3756822686 -2.4999952353
10.9556436234 -23.3122588021 -2.4999952353
10.9488028410 -20.4541238329 -2.4999952353
10.9445139554 -20.4382693780 -2.4999952353
10.9401781881 -20.4224276797 -2.4999952353
10.9410061008 -20.3366555968 -2.4999952093
10.9363697570 -20.3208247200 -2.4999952093
10.9287360890 -23.5792041603 -2.4999951834
10.9386008120 -23.5475720346 -2.4999951834
10.9434629502 -23.5317342240 -2.4999951834
10.9262025670 -23.6656294421 -2.4999951575
10.9385382789 -20.1640971383 -2.4999951575
10.9333914867 -20.1482743168 -2.4999951575
10.9331652692 -23.7207494036 -2.4999951315
10.9385397212 -23.7049269145 -2.4999951315
10.9511520092 -20.1248875665 -2.4999951315
10.9405794428 -20.0931832770 -2.4999951315
10.9352228657 -20.0773547277 -2.4999951315
10.9339832488 -23.7919569191 -2.4999951056
10.9361212731 -20.0061481814 -2.4999951056
10.9454076826 -23.8317707200 -2.4999950797
10.9532755722 -19.9822129311 -2.4999950797
