48.0875003373 -26.2919557956 -2.5000191766
48.1023114632 -26.2780942350 -2.5000191766
48.3617649584 -26.0212237018 -2.5000191766
47.9531206296 -26.4462922442 -2.5000192400
47.9683888985 -26.4328275278 -2.5000192400
48.6782476132 -25.7046376569 -2.5000192400
48.6913187610 -25.6890311288 -2.5000192400
48.7559788648 -25.6104222534 -2.5000192400
48.8320257210 -25.5148421017 -2.5000192400
48.8445347465 -25.4987815006 -2.5000192400
47.7504474345 -26.6487958030 -2.5000193034
47.8607192625 -26.5577527842 -2.5000193034
47.9996860940 -26.4373767229 -2.5000193034
48.7747607360 -25.6256398944 -2.5000193034
49.0696370978 -25.2340633280 -2.5000193034
48.3999393284 -26.0861667471 -2.5000193668
47.5034544676 -26.8993163221 -2.5000194302
49.3348363144 -24.9177398576 -2.5000194302
49.3562653429 -24.8826173756 -2.5000194302
47.3319969017 -27.0495401869 -2.5000194936
47.6006647207 -26.8574705854 -2.5000194936
49.5015464429 -24.6810638153 -2.5000194936
47.0797982529 -27.2699079897 -2.5000196204
47.2030744951 -27.1926181504 -2.5000196204
47.2379997770 -27.1700680731 -2.5000196204
47.3074470476 -27.1243500098 -2.5000196204
44.5812298628 -25.9518936262 -2.5000022853
44.6144199420 -25.9668120462 -2.5000022911
44.7517529263 -25.9464940373 -2.5000022968
44.8116494145 -25.9507960875 -2.5000023026
44.9194005433 -25.9620116339 -2.5000023141
45.6149280262 -25.9308256636 -2.5000023775
45.5876107870 -25.9731874105 -2.5000023833
48.4379443962 -22.8998566771 -2.5000024755
48.4418465564 -22.8844184343 -2.5000024755
48.4457030304 -22.8689687158 -2.5000024755
48.4532787853 -22.8380353923 -2.5000024755
48.4678806029 -22.7760369918 -2.5000024755
48.4547062728 -20.3139482751 -2.5000024755
48.4452346402 -22.9677272971 -2.5000024813
48.4533946922 -22.9367950164 -2.5000024813
48.4508942387 -20.1997120911 -2.5000024813
48.4468088262 -20.1842473546 -2.5000024813
48.4426776841 -20.1687947712 -2.5000024813
48.4783323049 -20.2091184860 -2.5000024870
48.4532972395 -20.1160266084 -2.5000024870
48.4339465274 -23.1818057941 -2.5000024928
48.4433733373 -23.1509365509 -2.5000024928
48.4765842354 -20.1095419259 -2.5000024928
48.4543637787 -20.0319710238 -2.5000024928
48.4540834556 -19.9475666385 -2.5000024985
48.4605700517 -23.2581767347 -2.5000025043
48.4422365485 -19.8319143740 -2.5000025043
48.4420574124 -23.3896321266 -2.5000025101
48.4579731211 -23.3432273188 -2.5000025101
48.4316796531 -23.4903565411 -2.5000025158
48.4373286461 -23.4749342469 -2.5000025158
48.4621964228 -19.6687769722 -2.5000025216
48.4560537670 -19.5828771363 -2.5000025274
48.4147918809 -23.7322850816 -2.5000025331
48.4176628454 -23.7877688354 -2.5000025389
48.4216686482 -23.8993912477 -2.5000025504
48.4513893283 -19.3142867045 -2.5000025504
48.4446846653 -19.2988243775 -2.5000025504
48.4157256091 -23.9708952694 -2.5000025562
48.4084284587 -24.0991073061 -2.5000025677
48.4150626843 -24.1404649392 -2.5000025735
48.3479316871 -18.8740402967 -2.5000025735
48.3237777580 -18.8286486196 -2.5000025735
48.2658590919 -18.7235813979 -2.5000025735
48.6345676464 -19.4413634409 -2.5000025792
48.2613144449 -18.6668493213 -2.5000025792
48.1731515469 -18.5190429956 -2.5000025792
48.7847592252 -19.7905626276 -2.5000025850
48.8485689188 -19.9158882771 -2.5000025908
48.4222271772 -24.3383589356 -2.5000025965
48.4382966218 -24.8415137265 -2.5000026599
48.4502628424 -24.9577260378 -2.5000026772
48.4672378325 -25.1932887286 -2.5000027118
48.4634975609 -25.2830382377 -2.5000027233
48.0686525439 -26.3548390538 -2.5000028155
48.1666244910 -26.2534408800 -2.5000028155
48.1942288042 -26.2240994451 -2.5000028155
48.2079657421 -26.2093676121 -2.5000028155
48.2216590405 -26.1945952072 -2.5000028155
48.7085192558 -25.6044888372 -2.5000028155
48.8138940403 -25.4569815587 -2.5000028155
47.9271614762 -26.5275467874 -2.5000028213
48.9575878611 -25.2861021586 -2.5000028213
47.6260254826 -26.8286790621 -2.5000028270
49.1062467838 -25.1398639458 -2.5000028328
49.1376686633 -25.0874959082 -2.5000028328
49.1583578596 -25.0524298557 -2.5000028328
49.1890017585 -24.9996028046 -2.5000028328
49.2601683105 -24.9226850975 -2.5000028386
49.3400111346 -24.8263226066 -2.5000028443
49.4368876048 -24.6914573823 -2.5000028501
47.2088244181 -27.3292029931 -2.5000028616
49.8689590038 -24.0639810519 -2.5000028847
44.2919214338 -25.9431564836 -2.4999966617
44.3828373694 -25.9403630454 -2.4999966358
44.3947955618 -25.9365124061 -2.4999966358
44.4382481541 -25.9476800566 -2.4999966098
44.4699780452 -25.9625013973 -2.4999965839
44.5060112222 -25.9500692442 -2.4999965839
44.5501202392 -25.9600620079 -2.4999965579
44.6100687815 -25.9379792437 -2.4999965579
44.8379362477 -25.9501654169 -2.4999964542
44.8499214460 -25.9449684700 -2.4999964542
44.9655812471 -25.9459793154 -2.4999964023
44.9998099439 -25.9566633502 -2.4999963764
45.0118136561 -25.9509875231 -2.4999963764
45.0822647111 -25.9437593414 -2.4999963505
45.1289866782 -25.9474807427 -2.4999963245
45.1519056968 -25.9629770676 -2.4999962986
45.2709510944 -25.9278256123 -2.4999962727
45.3064048113 -25.9360216221 -2.4999962467
45.4256559182 -25.9241859436 -2.4999961949
45.5217913794 -25.9234203917 -2.4999961430
45.5103044867 -25.9585145925 -2.4999961171
45.5462613164 -25.9368502829 -2.4999961171
45.6803476030 -25.9385672464 -2.4999960392
45.7412910167 -25.9277907337 -2.4999960133
45.9786868472 -25.9407536867 -2.4999958577
46.0406333862 -25.9257532549 -2.4999958318
48.4428501756 -23.3598454777 -2.4999952353
48.4471569660 -23.3439958771 -2.4999952353
48.4401643598 -20.4224276797 -2.4999952353
48.4357817489 -20.4065988767 -2.4999952353
48.4251245428 -23.5088904718 -2.4999952093
48.4298723129 -23.4930926547 -2.4999952093
48.4392275511 -23.4614552320 -2.4999952093
48.4590687396 -20.4001141756 -2.4999952093
48.4546200386 -20.3842295477 -2.4999952093
48.4237197623 -23.5949981986 -2.4999951834
48.4287222607 -23.5792041603 -2.4999951834
48.4404489739 -20.2505381255 -2.4999951834
48.4314001664 -23.6498277912 -2.4999951575
48.4467536672 -23.6023313088 -2.4999951575
48.4874095334 -20.3231360175 -2.4999951575
48.4385244506 -20.1640971383 -2.4999951575
48.4333776584 -20.1482743168 -2.4999951575
48.4222622377 -23.7523463399 -2.4999951315
48.4385258929 -23.7049269145 -2.4999951315
48.4491342624 -23.6732345869 -2.4999951315
48.4634744706 -20.0854683824 -2.4999951056
48.4416746599 -20.0219797000 -2.4999951056
48.4338475974 -23.8634381435 -2.4999950797
48.4453938544 -23.8317707200 -2.4999950797
48.4700345066 -20.0299097241 -2.4999950797
48.4475768409 -19.9663473098 -2.4999950797
48.4418450293 -19.9504985749 -2.4999950797
48.4267240631 -23.9509852517 -2.4999950537
48.4447503516 -23.9035184080 -2.4999950537
48.4470143771 -19.8945989407 -2.4999950537
48.4369810602 -23.9913557086 -2.4999950278
48.4431559978 -23.9755207068 -2.4999950278
48.4406046918 -24.0477651227 -2.4999950019
48.4618624857 -19.7979627727 -2.4999950019
48.4493555347 -19.7662007564 -2.4999950019
48.4436466926 -24.1044031642 -2.4999949759
48.4566184081 -24.0726735487 -2.4999949759
48.4630338126 -24.0567801002 -2.4999949759
48.4395993102 -19.6778697816 -2.4999949759
48.4527808136 -24.1454012061 -2.4999949500
48.4594113765 -24.1295187918 -2.4999949500
48.4486584432 -19.6368551048 -2.4999949500
48.4419519294 -19.6210046120 -2.4999949500
48.4479707967 -24.2183414948 -2.4999949241
48.4437150492 -19.5639237341 -2.4999949241
48.4367928128 -19.5480881838 -2.4999949241
48.4492455452 -24.2756298456 -2.4999948981
48.4632301973 -24.2438641087 -2.4999948981
48.4701519855 -24.2279503524 -2.4999948981
48.4377933156 -19.4907943873 -2.4999948981
48.4454583043 -19.4491389009 -2.4999948722
48.4448007083 -19.3335638478 -2.4999948203
48.4371970210 -19.3177260939 -2.4999948203
48.4636983566 -24.4750051946 -2.4999947944
48.4700793119 -24.5173529734 -2.4999947684
48.4392530836 -19.1588276617 -2.4999947425
48.4657914998 -24.6344124232 -2.4999947166
48.4444214682 -19.1160767098 -2.4999947166
48.4627217968 -24.6931953277 -2.4999946906
48.6215016274 -19.4278674406 -2.4999946906
48.3634312485 -18.9158052317 -2.4999946906
48.3457068800 -18.8846410068 -2.4999946906
48.3187753957 -18.8380926508 -2.4999946906
48.2914318815 -18.7917851296 -2.4999946906
48.2636784907 -18.7457220903 -2.4999946906
48.2543366536 -18.7304227007 -2.4999946906
48.2355174091 -18.6999071606 -2.4999946906
48.2165179538 -18.6695034955 -2.4999946906
48.4590306830 -24.7521385368 -2.4999946647
48.7803795633 -19.7509058766 -2.4999946647
48.7740089809 -19.7340735938 -2.4999946647
48.7675886334 -19.7172602299 -2.4999946647
48.7414107230 -19.6501989042 -2.4999946647
48.7212575533 -19.6001087519 -2.4999946647
48.7144411444 -19.5834520224 -2.4999946647
48.7075754917 -19.5668155300 -2.4999946647
48.6866836738 -19.5170289300 -2.4999946647
48.3213889745 -18.7948723540 -2.4999946647
48.2177240072 -18.6262210478 -2.4999946647
48.1389129308 -18.5057299435 -2.4999946647
48.0676309079 -18.4018554473 -2.4999946647
48.0364259229 -18.3577938710 -2.4999946647
48.8342282650 -19.8271583275 -2.4999946388
48.7901584280 -19.7086034607 -2.4999946388
48.3421859140 -18.7825507230 -2.4999946388
48.0874196074 -18.3879722686 -2.4999946388
48.0665772325 -18.3584502592 -2.4999946388
48.0030072724 -18.2706313059 -2.4999946388
47.9268864769 -18.1696212497 -2.4999946388
47.9047550736 -18.1410528298 -2.4999946388
48.4672759484 -24.8387009057 -2.4999946128
48.9214937583 -20.0077881261 -2.4999946128
47.8901752003 -18.0834179774 -2.4999946128
47.8788757822 -18.0692263760 -2.4999946128
47.8102021899 -17.9847843377 -2.4999946128
47.7937864411 -17.9274413214 -2.4999945869
49.0313298030 -20.2027991173 -2.4999945610
49.1518563393 -20.4749051556 -2.4999945091
48.4772626820 -25.4761013082 -2.4999942497
48.4615436377 -25.6283058105 -2.4999941719
48.4676737360 -25.7037816703 -2.4999941201
48.4760765728 -25.7337038996 -2.4999940941
48.4613723562 -25.7955731262 -2.4999940682
48.1099810736 -26.3489160158 -2.4999939904
48.1493001254 -26.3041656613 -2.4999939904
48.2267391158 -26.2136269870 -2.4999939904
48.2521935040 -26.1831437547 -2.4999939904
48.2648529555 -26.1678457979 -2.4999939904
48.2774670976 -26.1525104591 -2.4999939904
48.6676138000 -25.6263679715 -2.4999939904
48.7113621965 -25.5600759212 -2.4999939904
48.7436570533 -25.5100197100 -2.4999939904
48.7543231319 -25.4932708604 -2.4999939904
47.8970530782 -26.6126998712 -2.4999939645
47.9248742856 -26.5841601878 -2.4999939645
47.9525261558 -26.5554564042 -2.4999939645
47.9662882867 -26.5410432886 -2.4999939645
48.1148275105 -26.3798442625 -2.4999939645
48.8585682781 -25.3706270482 -2.4999939645
48.9292752684 -25.2503797462 -2.4999939645
48.9588131643 -25.1984018741 -2.4999939645
48.9685564796 -25.1810179173 -2.4999939645
47.7865910932 -26.7564492903 -2.4999939385
47.8295395088 -26.7145527923 -2.4999939385
47.8437728137 -26.7005027974 -2.4999939385
49.0660204015 -25.0522090087 -2.4999939385
49.1120474809 -24.9634336397 -2.4999939385
47.6422015171 -26.9246857061 -2.4999939126
47.6570572529 -26.9111889713 -2.4999939126
47.6866486224 -26.8840639597 -2.4999939126
49.1695907463 -24.9026409658 -2.4999939126
47.5983966134 -26.9963378855 -2.4999938867
47.2719563317 -27.2980369286 -2.4999938607
47.5074604586 -27.1070881400 -2.4999938607
47.2546135980 -27.3418981658 -2.4999938348
49.3955978277 -24.5846375408 -2.4999938348
49.4113941102 -24.5472674578 -2.4999938348
49.4570486866 -24.5001862570 -2.4999938089
46.9692840376 -27.6073946636 -2.4999937829
47.0198163005 -27.5727177983 -2.4999937829
46.9623666782 -27.6704066852 -2.4999937310
49.4435224418 -24.7168694624 -2.4999937310
44.1017107797 -25.9402039823 -2.4999988913
44.2477347361 -25.9450357853 -2.4999988625
44.5007617470 -25.9551979522 -2.4999988049
44.6087884593 -25.9364228724 -2.4999987905
44.7270355873 -25.9364447812 -2.4999987616
44.8354620134 -25.9381741347 -2.4999987328
48.4413946003 -22.3528936793 -2.4999979548
48.4419831011 -22.3207655469 -2.4999979548
48.4425094268 -22.2725682257 -2.4999979548
48.4425898153 -22.2565016483 -2.4999979548
48.4424360868 -22.1922350697 -2.4999979548
48.4422788357 -22.1761690607 -2.4999979548
48.4403373712 -22.0797891723 -2.4999979548
48.4515672017 -20.8087870267 -2.4999978395
48.4348185231 -20.6577114780 -2.4999978251
48.4562273970 -23.8299345094 -2.4999978107
48.4655543078 -23.7976927705 -2.4999978107
48.4339677906 -20.5705664300 -2.4999978107
48.4601211908 -23.9013097057 -2.4999977963
48.4368863637 -20.4991447091 -2.4999977963
48.4809389240 -23.9965199839 -2.4999977675
48.4331331782 -20.1945181700 -2.4999977387
48.4673647634 -24.3929182777 -2.4999976954
48.4396884062 -19.9500309254 -2.4999976810
48.4328983217 -19.9339828552 -2.4999976810
48.4760356793 -24.6238971425 -2.4999976378
48.4267274307 -19.6275781588 -2.4999976090
48.4562311097 -19.6331794182 -2.4999975946
48.7200148838 -19.5690068887 -2.4999974361
48.3552384451 -18.8979233715 -2.4999974361
48.2644470776 -18.7568490905 -2.4999974361
48.2123943697 -18.6795341080 -2.4999974361
48.1048871160 -18.5272558968 -2.4999974361
48.8186326245 -19.7294395200 -2.4999974217
48.7961475535 -19.6780016884 -2.4999974217
47.9541885206 -18.2898815961 -2.4999974217
48.9196438690 -19.9108471030 -2.4999974073
47.8293168817 -18.1011967391 -2.4999974073
48.2104646341 -26.2498521064 -2.4999972776
48.2341128914 -26.2190220299 -2.4999972776
48.2808601395 -26.1569448466 -2.4999972776
48.2924319239 -26.1413394613 -2.4999972776
47.9823424167 -26.5661271427 -2.4999972632
48.0458228077 -26.4921303890 -2.4999972632
48.8037543238 -25.3833102593 -2.4999972632
48.8130352693 -25.3661614433 -2.4999972632
48.8496505467 -25.2972938869 -2.4999972632
48.8586768394 -25.2800096780 -2.4999972632
47.8298453889 -26.7706107635 -2.4999972488
47.9226770122 -26.6698675060 -2.4999972488
47.6549298698 -26.9835021976 -2.4999972344
47.9274406974 -26.7006254921 -2.4999972344
49.1119256819 -24.8587347732 -2.4999972344
49.1798647771 -24.7591948874 -2.4999972200
47.3534664562 -27.3562509042 -2.4999971912
49.3444476294 -24.4619493110 -2.4999971912
44.4202632006 -25.9391470780 -2.5000016263
44.4794721464 -25.9398202561 -2.5000016292
44.5889396625 -25.9428154888 -2.5000016350
44.8113548533 -25.9382973322 -2.5000016465
48.4669949276 -23.8922997522 -2.5000018626
48.4486477087 -21.2064274634 -2.5000018626
48.4445408327 -21.1903034217 -2.5000018626
48.4663701680 -23.9952228509 -2.5000018655
48.4746078760 -23.9628333264 -2.5000018655
48.4509805162 -21.1196530675 -2.5000018655
48.4422056571 -21.0874049206 -2.5000018655
48.4593118656 -24.1147014890 -2.5000018684
48.4473128650 -21.0163760829 -2.5000018684
48.4379270487 -20.9841514426 -2.5000018684
48.4517715307 -20.7852110557 -2.5000018770
48.4410179865 -20.7529640822 -2.5000018770
48.4355697172 -20.7368645947 -2.5000018770
48.4584556494 -20.7290819610 -2.5000018799
48.4403696945 -20.5353002188 -2.5000018857
48.4444945974 -20.4783412829 -2.5000018885
48.4709017639 -24.6937191659 -2.5000018914
48.4351281587 -20.3889297625 -2.5000018914
48.4642055799 -24.8411118853 -2.5000018972
48.4730651972 -24.8827702176 -2.5000019001
48.4464434580 -25.0054915275 -2.5000019030
48.4348015582 -20.1417908588 -2.5000019030
48.4467703311 -25.0637674099 -2.5000019058
48.4274208509 -20.0674357686 -2.5000019058
48.4450345775 -19.8807345313 -2.5000019174
48.4218552626 -19.6269313310 -2.5000019289
48.4485020235 -25.5480237895 -2.5000019318
48.4371529552 -25.6681545693 -2.5000019375
48.4173781194 -19.3746180627 -2.5000019433
48.0726747500 -26.4807742746 -2.5000019548
48.1745386003 -26.3442490549 -2.5000019548
48.2076810476 -26.2981439735 -2.5000019548
48.2295481378 -26.2672446357 -2.5000019548
48.3361206022 -26.1108372515 -2.5000019548
48.6977373252 -25.4895633670 -2.5000019548
48.7062996499 -25.4726837326 -2.5000019548
47.9619869358 -26.6592091180 -2.5000019577
47.9859945088 -26.6297570699 -2.5000019577
48.0569658866 -26.5405559454 -2.5000019577
48.0802698053 -26.5105440466 -2.5000019577
48.0918550773 -26.4954865256 -2.5000019577
48.7783859648 -25.3813997323 -2.5000019577
48.8270764624 -25.2783317328 -2.5000019577
48.8428991606 -25.2437856922 -2.5000019577
48.8507337954 -25.2264777182 -2.5000019577
47.8198271494 -26.8631629051 -2.5000019606
49.0210460085 -24.9464632829 -2.5000019635
48.4216241802 -19.0607051707 -2.5000019635
49.1364354340 -24.7028601845 -2.5000019663
48.7160314348 -19.5102343904 -2.5000019663
48.6225353336 -19.3423942951 -2.5000019663
48.3348314062 -18.8880037281 -2.5000019663
48.2458138049 -18.7627038850 -2.5000019663
48.2001992945 -18.7008526991 -2.5000019663
48.1771183891 -18.6701305912 -2.5000019663
48.8261409370 -19.6699511123 -2.5000019692
48.0536071678 -18.4734622221 -2.5000019692
47.9423189532 -18.3402822937 -2.5000019692
47.9297357169 -18.3256686046 -2.5000019692
49.0029760233 -19.9924898301 -2.5000019721
48.9797175479 -19.9392829547 -2.5000019721
48.9317886701 -19.8334988813 -2.5000019721
48.0478469624 -18.4282487387 -2.5000019721
49.0096577637 -19.9472806898 -2.5000019750
47.6902442713 -17.9937779972 -2.5000019750
47.6938655445 -17.9629551948 -2.5000019779
47.4592026742 -17.6705517993 -2.5000019836
44.9945384974 -22.3203459992 -2.5000016802
45.6876929164 -25.9073996326 -2.5000021412
44.3699832140 -19.0782691767 -2.5000021643
44.3242749000 -19.0628187441 -2.5000021643
44.3237607340 -18.9863262585 -2.5000021816
44.5981513299 -19.0602111504 -2.5000021873
44.6301864831 -19.0471137540 -2.5000021931
44.7525573444 -19.0465371859 -2.5000022046
44.9891359231 -19.0510414728 -2.5000022277
45.0345437259 -19.0469700088 -2.5000022334
45.6413189480 -19.0687579121 -2.5000023026
46.0348357842 -19.0546548362 -2.5000023602
48.4524083836 -24.3779361524 -2.5000025274
48.4566580056 -24.3619231156 -2.5000025274
48.4650150488 -24.3298596790 -2.5000025274
48.4582670077 -21.5109236898 -2.5000025274
48.4497565527 -21.4789006310 -2.5000025274
48.4626743758 -24.4323409521 -2.5000025331
48.4643628566 -21.4405126889 -2.5000025331
48.4509010657 -21.3924457980 -2.5000025331
48.4439687291 -24.5831866960 -2.5000025389
48.4488255563 -24.5671977272 -2.5000025389
48.4536350640 -24.5511944609 -2.5000025389
48.4506662627 -21.3056403682 -2.5000025389
48.4458274857 -21.2896459276 -2.5000025389
48.4368265847 -24.6862816861 -2.5000025446
48.4670877930 -24.5902467362 -2.5000025446
48.4590930930 -21.2505296933 -2.5000025446
48.4540912518 -21.2345105657 -2.5000025446
48.4565870917 -21.1630728231 -2.5000025504
48.4513265483 -21.1470614914 -2.5000025504
48.4460186635 -21.1310657913 -2.5000025504
48.4394499567 -24.8294864507 -2.5000025562
48.4689502384 -21.1234186903 -2.5000025562
48.4471541310 -21.0593242027 -2.5000025562
48.4566004098 -24.8535251485 -2.5000025619
48.4810329174 -21.0835565698 -2.5000025619
48.4530785029 -21.0033047616 -2.5000025619
48.4584325408 -20.9470332147 -2.5000025677
48.4486857205 -25.0143643919 -2.5000025735
48.4609029649 -24.9823367032 -2.5000025735
48.4632122426 -20.8905152888 -2.5000025735
48.4548967007 -20.8016914397 -2.5000025792
48.4581786966 -20.7446777246 -2.5000025850
48.4516804578 -20.7286635153 -2.5000025850
48.4451348746 -20.7126685989 -2.5000025850
48.4542057748 -20.6714166559 -2.5000025908
48.4466149240 -25.2748915828 -2.5000025965
48.4629769221 -20.6299799744 -2.5000025965
48.4492544257 -20.5979444682 -2.5000025965
48.4423221625 -20.5819573005 -2.5000025965
48.4405964608 -25.3485552095 -2.5000026023
48.4433191126 -20.5242740952 -2.5000026023
48.4437158727 -20.4663887801 -2.5000026080
48.4550009886 -25.4908082504 -2.5000026196
48.4426948775 -20.3500363673 -2.5000026196
48.4350292860 -20.3340696886 -2.5000026196
48.4490615554 -20.3075669843 -2.5000026253
48.4441631659 -25.6239043393 -2.5000026311
48.4658015171 -25.6346801011 -2.5000026369
48.4447150951 -20.1901184957 -2.5000026369
48.4467313149 -25.7257081130 -2.5000026426
48.4598911064 -25.7528439234 -2.5000026484
48.1797725422 -26.3681583130 -2.5000026657
48.2100520486 -26.3224229576 -2.5000026657
48.2596121340 -26.2456060144 -2.5000026657
48.2791171265 -26.2146753998 -2.5000026657
48.2984387816 -26.1836299284 -2.5000026657
48.3459363964 -26.1055208930 -2.5000026657
48.6607026644 -25.5071016233 -2.5000026657
48.6682916508 -25.4904674738 -2.5000026657
48.1483042303 -26.4575104841 -2.5000026714
48.1793779264 -26.4120508738 -2.5000026714
48.1896460223 -26.3968366104 -2.5000026714
48.2100469702 -26.3663172920 -2.5000026714
48.2996021951 -26.2275088423 -2.5000026714
48.7708272423 -25.3153268514 -2.5000026714
48.7848194436 -25.2813879980 -2.5000026714
48.8054306473 -25.2303259863 -2.5000026714
48.8122002480 -25.2132649163 -2.5000026714
48.4349458919 -19.8658388940 -2.5000026714
47.9386725402 -26.7826967692 -2.5000026772
47.9950699377 -26.7098432873 -2.5000026772
48.0062197639 -26.6951729373 -2.5000026772
48.8481221160 -25.1878320185 -2.5000026772
47.7814262632 -27.0119082254 -2.5000026830
47.8174343754 -26.9696826198 -2.5000026830
48.9533600827 -24.9707909654 -2.5000026830
48.9712082750 -24.9182454809 -2.5000026830
47.8118407149 -27.0135807647 -2.5000026887
49.0396146489 -24.7844996192 -2.5000026887
49.2221750434 -24.3890486282 -2.5000027060
47.6838745789 -27.3009712616 -2.5000027118
49.2706611168 -24.2842450821 -2.5000027118
48.4370092511 -19.4946610388 -2.5000027175
48.4268133296 -19.4787149218 -2.5000027175
46.5673781658 -28.3590452893 -2.5000027348
48.6618749179 -19.3979344318 -2.5000027752
48.2784820310 -18.8514572453 -2.5000027752
48.2175361604 -18.7744453984 -2.5000027752
48.1804242375 -18.7286739420 -2.5000027752
48.8631899779 -19.6903150125 -2.5000027809
48.8535709715 -19.6731073199 -2.5000027809
48.8341804591 -19.6387776750 -2.5000027809
48.7545976399 -19.5026242673 -2.5000027809
48.6718152698 -19.3683921745 -2.5000027809
48.2732179706 -18.8055714884 -2.5000027809
48.0978297992 -18.5924995926 -2.5000027809
48.0461126620 -18.5329735542 -2.5000027809
47.9936948055 -18.4740636242 -2.5000027809
47.9672253972 -18.4448422808 -2.5000027809
47.9405835689 -18.4157780507 -2.5000027809
47.9137702531 -18.3868719512 -2.5000027809
47.8867863884 -18.3581249943 -2.5000027809
48.9504485114 -19.8002311542 -2.5000027867
48.9411542750 -19.7827648541 -2.5000027867
47.8907574509 -18.3271636376 -2.5000027867
47.8634207346 -18.2985538771 -2.5000027867
49.0969093299 -20.0371382941 -2.5000027925
49.0883152668 -20.0192376998 -2.5000027925
49.0709684696 -19.9835131709 -2.5000027925
49.0534106177 -19.9478918968 -2.5000027925
49.0445527379 -19.9301203701 -2.5000027925
48.9718051330 -19.7889072857 -2.5000027925
47.7694222458 -18.1685881202 -2.5000027925
49.1939395107 -20.1895195520 -2.5000027982
49.3471983451 -20.4287575698 -2.5000028098
47.4519645508 -17.7457218639 -2.5000028155
49.7569992348 -21.1273440709 -2.5000028501
45.8054542195 -16.3943139111 -2.5000028847
43.6844784822 -19.0786643203 -2.5000011921
43.7870815847 -19.0686726569 -2.5000011921
43.7746596911 -19.0667958655 -2.5000011921
43.9773795059 -19.0775120119 -2.5000011921
43.8156963632 -19.0486620374 -2.5000011921
44.0318752655 -19.0639836571 -2.5000011921
43.9071762102 -19.0396332139 -2.5000011921
44.2110862988 -19.0808201189 -2.5000011921
44.1738953391 -19.0715367417 -2.5000011921
43.9114576556 -19.0158423647 -2.5000011921
44.6259714882 -19.0548114478 -2.5000011921
44.9566258088 -19.0540971138 -2.5000011921
45.0634691161 -19.0484675420 -2.5000011921
45.1837919998 -19.0514834881 -2.5000011921
45.2691905126 -19.0667326973 -2.5000011921
48.4406547587 -24.6802881927 -2.5000011921
48.4448126773 -24.6646207370 -2.5000011921
48.4380616208 -21.8438170440 -2.5000011921
48.4512019859 -24.7336579100 -2.5000011921
48.4237504194 -24.9126651249 -2.5000011921
48.4333950071 -24.8814139270 -2.5000011921
48.4475147948 -24.8344315093 -2.5000011921
48.4446398062 -21.6896614420 -2.5000011921
48.4369550119 -24.9511918286 -2.5000011921
48.4437961150 -21.6042325175 -2.5000011921
48.4388544909 -21.5885692282 -2.5000011921
48.4396007415 -25.0212790035 -2.5000011921
48.4568870109 -21.5655454088 -2.5000011921
48.4359042148 -25.1073188182 -2.5000011921
48.4553462590 -21.4088103986 -2.5000011921
48.4498264903 -21.3931137969 -2.5000011921
48.4419849716 -25.2332765354 -2.5000011921
48.4270685321 -25.5916574856 -2.5000011921
48.4830825653 -21.0737613432 -2.5000011921
48.4422633896 -25.6170737225 -2.5000011921
48.4755410866 -20.8142648021 -2.5000011921
48.4682624562 -20.7985110618 -2.5000011921
48.4270989080 -25.8771674439 -2.5000011921
48.2434932168 -26.3149829157 -2.5000011921
48.2524877207 -26.2998915470 -2.5000011921
48.0743204031 -26.6246465221 -2.5000011921
48.7547811982 -25.2929765984 -2.5000011921
48.7666700427 -25.2597602551 -2.5000011921
47.8426782896 -26.9807508220 -2.5000011921
48.0641830851 -26.6820348494 -2.5000011921
48.8515652828 -25.0831878688 -2.5000011921
48.7490610319 -19.4828267740 -2.5000011921
48.7378425702 -19.4662697379 -2.5000011921
48.6695077440 -19.3676310042 -2.5000011921
48.6463417465 -19.3350228707 -2.5000011921
48.2369362296 -18.8176931800 -2.5000011921
48.1571692489 -18.7280467799 -2.5000011921
48.9109417115 -19.6882788634 -2.5000011921
48.0520444267 -18.5795671937 -2.5000011921
48.0102538769 -18.5362172065 -2.5000011921
47.9680802659 -18.4932397940 -2.5000011921
47.8825971762 -18.4084162029 -2.5000011921
49.0250328429 -19.8308029948 -2.5000011921
49.0046009041 -19.7960833492 -2.5000011921
47.8560138010 -18.3491182421 -2.5000011921
47.7383244419 -18.2390511479 -2.5000011921
49.2144453005 -20.0724282114 -2.5000011921
47.4948807082 -17.9644035386 -2.5000011921
47.4469410369 -17.8944502862 -2.5000011921
47.3332627463 -17.7749667458 -2.5000011921
47.3169983205 -17.7626053697 -2.5000011921
44.9886850577 -22.5879055094 -2.5000011921
44.5821804329 -19.0719474126 -2.5000011921
44.5555041509 -19.0644863962 -2.5000011921
44.4752169978 -19.0430521026 -2.5000011921
44.4214863442 -19.0295556902 -2.5000011921
44.6422528615 -19.0641614658 -2.5000011921
44.5753588301 -19.0449175305 -2.5000011921
44.5216432386 -19.0302360628 -2.5000011921
44.6893101518 -19.0530629468 -2.5000011921
44.8169257009 -19.0685207219 -2.5000011921
44.8035819138 -19.0640760814 -2.5000011921
44.7768551875 -19.0553053173 -2.5000011921
44.7366689728 -19.0424460364 -2.5000011921
44.8245987100 -19.0455978029 -2.5000011921
44.7977622922 -19.0367030198 -2.5000011921
44.8726296270 -19.0363833642 -2.5000011921
44.8457378529 -19.0272045753 -2.5000011921
44.9880543132 -19.0520234768 -2.5000011921
45.0501617306 -19.0496622170 -2.5000011921
45.1125590721 -19.0481403185 -2.5000011921
45.0722960525 -19.0323021361 -2.5000011921
45.1886264345 -19.0530084276 -2.5000011921
45.2113470238 -19.0362988238 -2.5000011921
45.3414867241 -19.0665457177 -2.5000011921
45.2745514719 -19.0369595825 -2.5000011921
45.4418713407 -19.0596373813 -2.5000011921
45.4151071825 -19.0470903603 -2.5000011921
45.5698511416 -19.0681895204 -2.5000011921
45.6208071578 -19.0669324935 -2.5000011921
45.7099572132 -19.0589489820 -2.5000011921
48.4303095403 -24.9771831346 -2.5000011921
48.4385032674 -24.9468519426 -2.5000011921
48.4425328013 -24.9316683005 -2.5000011921
48.4504570334 -24.9012655882 -2.5000011921
48.4543516623 -24.8860467841 -2.5000011921
48.4620057753 -24.8555749459 -2.5000011921
48.4657651925 -24.8403221785 -2.5000011921
48.4671909677 -22.3197077083 -2.5000011921
48.4440619304 -22.2283353621 -2.5000011921
48.4359923102 -22.1979709158 -2.5000011921
48.4318901678 -22.1828067290 -2.5000011921
48.4452161527 -25.0139763393 -2.5000011921
48.4494442233 -24.9987725455 -2.5000011921
48.4468383945 -22.1460304116 -2.5000011921
48.4425825552 -22.1308343674 -2.5000011921
48.4339361123 -22.1004803800 -2.5000011921
48.4295455843 -22.0853227024 -2.5000011921
48.4420653730 -25.1118535670 -2.5000011921
48.4465829959 -25.0966586655 -2.5000011921
48.4510556498 -25.0814504666 -2.5000011921
48.4300275455 -22.0026304837 -2.5000011921
48.4370514254 -25.2100694221 -2.5000011921
48.4418596105 -25.1948889230 -2.5000011921
48.4466228680 -25.1796942670 -2.5000011921
48.4513411560 -25.1644855868 -2.5000011921
48.4652257929 -25.1187767332 -2.5000011921
48.4388955109 -21.9499282176 -2.5000011921
48.4291788309 -21.9195992102 -2.5000011921
48.4371993790 -21.8665677422 -2.5000011921
48.4321168808 -21.8514014347 -2.5000011921
48.4478939810 -25.3315423638 -2.5000011921
48.4632612889 -25.2858575234 -2.5000011921
48.4341548875 -21.7829031409 -2.5000011921
48.4234501140 -21.7526051038 -2.5000011921
48.4331753082 -25.4458772880 -2.5000011921
48.4407747627 -21.7292924010 -2.5000011921
48.4352861636 -21.7141161176 -2.5000011921
48.4297526943 -21.6989561368 -2.5000011921
48.4446904210 -25.4845829523 -2.5000011921
48.4558858441 -25.4541577979 -2.5000011921
48.4614160043 -25.4389205153 -2.5000011921
48.4297664016 -21.6298919461 -2.5000011921
48.4181564394 -21.5996225507 -2.5000011921
48.4384502816 -25.5691003778 -2.5000011921
48.4348025435 -21.5757236158 -2.5000011921
48.4490571807 -25.6083025076 -2.5000011921
48.4532312605 -25.6629299046 -2.5000011921
46.5684705210 -19.0832880778 -2.5000011921
48.4504838262 -25.7330131663 -2.5000011921
48.4568389147 -25.7177906437 -2.5000011921
48.4631489444 -25.7025493882 -2.5000011921
48.4271183671 -21.3662706768 -2.5000011921
48.4205559438 -21.3511363798 -2.5000011921
48.4360837264 -21.3263066560 -2.5000011921
48.4226775411 -21.2960051985 -2.5000011921
48.2476266990 -26.3170491770 -2.5000011921
48.2954777781 -26.2289440702 -2.5000011921
48.3188150246 -26.1845764997 -2.5000011921
48.3265064952 -26.1697415015 -2.5000011921
48.3417576148 -26.1400035714 -2.5000011921
48.3493171303 -26.1251008999 -2.5000011921
48.3568325279 -26.1101759311 -2.5000011921
48.4009947824 -26.0201652045 -2.5000011921
48.4642255499 -25.8837150013 -2.5000011921
48.6033184575 -25.5434860496 -2.5000011921
48.4322379176 -21.2002609029 -2.5000011921
48.4251843850 -21.1851121877 -2.5000011921
48.0973812143 -26.6172996125 -2.5000011921
48.1152842481 -26.5889094316 -2.5000011921
48.1330190026 -26.5604138271 -2.5000011921
48.1766156084 -26.4887201430 -2.5000011921
48.2523990702 -26.3580769797 -2.5000011921
48.2687657427 -26.3287741978 -2.5000011921
48.7031817599 -25.3300187647 -2.5000011921
48.7134582054 -25.2980669938 -2.5000011921
48.7235454335 -25.2660549833 -2.5000011921
47.9872564549 -26.8267843321 -2.5000011921
48.0535406569 -26.7291949659 -2.5000011921
48.0905055121 -26.6728200890 -2.5000011921
48.3771726844 -26.1769459553 -2.5000011921
48.7663112523 -25.2087778934 -2.5000011921
48.7758692912 -25.1764547492 -2.5000011921
48.7989262898 -25.0954044434 -2.5000011921
48.4253524466 -21.0734180467 -2.5000011921
47.9484504205 -26.9234634337 -2.5000011921
48.4321007893 -21.0324332016 -2.5000011921
48.9154927603 -24.8279811538 -2.5000011921
48.9299012286 -24.7615403556 -2.5000011921
48.4308707866 -20.9761147938 -2.5000011921
48.4368819698 -20.9347799599 -2.5000011921
48.9807173071 -24.7547304223 -2.5000011921
48.4504993640 -20.9084848013 -2.5000011921
48.4425826250 -20.8932833422 -2.5000011921
49.0484618070 -24.5227739537 -2.5000011921
48.4560109926 -20.8668447538 -2.5000011921
48.4448369236 -20.7946051376 -2.5000011921
48.4660922259 -20.7830922142 -2.5000011921
48.4578044848 -20.7678451771 -2.5000011921
48.4648175375 -20.5831977703 -2.5000011921
48.4671808854 -20.3529502157 -2.5000011921
48.4783741226 -20.0176053208 -2.5000011921
48.4846724282 -19.7355037475 -2.5000011921
48.4689510675 -19.1727558253 -2.5000011921
48.7466995573 -19.4403777347 -2.5000011921
48.7344385961 -19.4243064853 -2.5000011921
48.7221301468 -19.4082715764 -2.5000011921
48.3038495927 -18.9151667823 -2.5000011921
48.2900369001 -18.9004078613 -2.5000011921
48.2203218813 -18.8272297019 -2.5000011921
48.1921340937 -18.7982485019 -2.5000011921
48.1779760245 -18.7838205671 -2.5000011921
48.1637753369 -18.7694345775 -2.5000011921
48.1352466035 -18.7407889374 -2.5000011921
48.8745167367 -19.5725146521 -2.5000011921
48.7536355389 -19.4096159214 -2.5000011921
48.7412835484 -19.3935242888 -2.5000011921
48.2517792292 -18.8250314623 -2.5000011921
48.1235246650 -18.6951033302 -2.5000011921
47.9918567982 -18.5686354466 -2.5000011921
49.0669033756 -19.8101555467 -2.5000011921
48.9991398955 -19.7085346802 -2.5000011921
48.9529668390 -19.6414625225 -2.5000011921
48.9412998204 -19.6247802174 -2.5000011921
48.8941397914 -19.5583983138 -2.5000011921
48.3668856735 -18.9120332794 -2.5000011921
47.9934797067 -18.5370971467 -2.5000011921
49.1857153340 -19.9521129703 -2.5000011921
49.1749662573 -19.9347407938 -2.5000011921
49.0982904401 -19.8140365006 -2.5000011921
47.6393159893 -18.1985774440 -2.5000011921
49.3215168772 -20.1332542327 -2.5000011921
49.2594477060 -20.0270635485 -2.5000011921
49.2277087822 -19.9743855071 -2.5000011921
49.1846653950 -19.9045902050 -2.5000011921
47.6704253182 -18.1926326201 -2.5000011921
47.4929360635 -18.0535470042 -2.5000011921
49.3526904350 -20.1391085003 -2.5000011921
47.4250948088 -17.9727700783 -2.5000011921
49.5207651782 -20.3996278940 -2.5000011921
49.4240652126 -20.2172528547 -2.5000011921
47.3557765584 -17.8927958378 -2.5000011921
47.2201338914 -17.7985983465 -2.5000011921
49.5887637962 -20.4811809075 -2.5000011921
49.5703373893 -20.4440745987 -2.5000011921
49.5233137542 -20.3517914481 -2.5000011921
49.7128708571 -20.6292690420 -2.5000011921
49.8335142547 -20.7817847756 -2.5000011921
43.4669227411 -19.1004573695 -2.5000011921
43.3966128669 -19.1017696582 -2.5000011921
48.4524941111 -25.1245305867 -2.5000011921
48.4562291905 -25.1099352664 -2.5000011921
48.4539285329 -22.5902704458 -2.5000011921
48.4501668062 -22.5756819707 -2.5000011921
48.4425139696 -22.5465387230 -2.5000011921
45.2083256673 -19.0495502105 -2.5000011921
45.1798677886 -19.0396484970 -2.5000011921
48.4359960817 -25.2765689218 -2.5000011921
48.4443228473 -25.2474622429 -2.5000011921
48.4564897489 -25.2037111287 -2.5000011921
48.4499787071 -22.4819059351 -2.5000011921
48.4417710633 -22.4527654415 -2.5000011921
45.2875573794 -19.0523536283 -2.5000011921
45.2733437091 -19.0471473316 -2.5000011921
48.4506780531 -25.3124804590 -2.5000011921
48.4592170264 -25.2832862881 -2.5000011921
48.4436466897 -22.3731656547 -2.5000011921
45.3812593095 -19.0619380796 -2.5000011921
48.4516531590 -25.3924371321 -2.5000011921
48.4395987886 -22.2786467187 -2.5000011921
45.3900082926 -19.0394038706 -2.5000011921
48.4465283013 -25.4873192699 -2.5000011921
48.4655024406 -25.4289177817 -2.5000011921
48.4483734124 -22.2274752416 -2.5000011921
48.4435384962 -22.2129047869 -2.5000011921
45.4985239296 -19.0567979001 -2.5000011921
45.4843224833 -19.0509675068 -2.5000011921
48.4395816735 -25.5825015490 -2.5000011921
48.4446715704 -25.5679424222 -2.5000011921
48.4497183765 -25.5533683023 -2.5000011921
48.4596825401 -25.5241755932 -2.5000011921
48.4645998103 -25.5095572596 -2.5000011921
48.4761416341 -22.2345486767 -2.5000011921
48.4466079500 -22.1468500392 -2.5000011921
48.4415345376 -22.1322851598 -2.5000011921
48.4312585676 -22.1032007437 -2.5000011921
45.5646328657 -19.0583011694 -2.5000011921
48.4415026071 -25.6488660972 -2.5000011921
48.4520319115 -25.6197203240 -2.5000011921
48.4572318538 -25.6051242043 -2.5000011921
48.4435305963 -22.0659228287 -2.5000011921
48.4382178000 -22.0513674068 -2.5000011921
48.4328619695 -22.0368277647 -2.5000011921
48.4425385813 -25.7155168707 -2.5000011921
48.4335790526 -21.9701727976 -2.5000011921
45.6975588991 -19.0640010588 -2.5000011921
45.6833778902 -19.0575818524 -2.5000011921
48.4595977184 -25.7386845521 -2.5000011921
48.4706581022 -25.7094301502 -2.5000011921
48.4448623051 -21.9323481665 -2.5000011921
48.4391543650 -21.9177893896 -2.5000011921
48.4594407408 -25.8058766373 -2.5000011921
48.4651913347 -25.7912577864 -2.5000011921
48.4441851006 -21.8651593107 -2.5000011921
45.8030206637 -19.0597423131 -2.5000011921
45.7888265952 -19.0530111505 -2.5000011921
48.3027410672 -26.2185204536 -2.5000011921
48.3836253162 -26.0473053952 -2.5000011921
48.4583820547 -25.8733275575 -2.5000011921
48.4364980218 -21.7831671010 -2.5000011921
48.5919847605 -25.5856303340 -2.5000011921
48.4338072063 -21.7154942328 -2.5000011921
45.9234924556 -19.0648192398 -2.5000011921
48.4236498916 -21.6330822090 -2.5000011921
45.9769355996 -19.0648238506 -2.5000011921
48.4323798248 -21.5940061189 -2.5000011921
46.0305670468 -19.0654014809 -2.5000011921
48.4543388673 -21.5838998963 -2.5000011921
48.4280093081 -21.4716685792 -2.5000011921
46.2730235114 -19.0606306679 -2.5000011921
48.4393794213 -21.2278165230 -2.5000011921
48.4237523488 -21.1987606871 -2.5000011921
48.4079536458 -21.1697978147 -2.5000011921
46.3824874645 -19.0687454874 -2.5000011921
48.4261003973 -21.1028779685 -2.5000011921
48.4179388165 -21.0883783220 -2.5000011921
48.4141385144 -21.0329504673 -2.5000011921
48.4182284805 -20.9918490282 -2.5000011921
48.4097384904 -20.9773731540 -2.5000011921
46.6030785860 -19.0921631126 -2.5000011921
48.4254594932 -20.9092082450 -2.5000011921
46.6859627545 -19.0886988399 -2.5000011921
46.8253311221 -19.0956995828 -2.5000011921
47.7468791227 -19.1155676449 -2.5000011921
48.4548444611 -19.7437387033 -2.5000011921
48.4781550773 -19.5473261422 -2.5000011921
48.9104700865 -19.5761026878 -2.5000011921
48.8977899089 -19.5601768685 -2.5000011921
48.8850626754 -19.5442886290 -2.5000011921
48.8594674863 -19.5126254458 -2.5000011921
48.6885841616 -19.3105683818 -2.5000011921
48.6751194563 -19.2953001030 -2.5000011921
48.6208107455 -19.2346272969 -2.5000011921
48.2210930545 -18.8284937055 -2.5000011921
48.1462407035 -18.7595197259 -2.5000011921
48.1311482696 -18.7458582082 -2.5000011921
48.1008424928 -18.7186694096 -2.5000011921
48.0397510225 -18.6648320830 -2.5000011921
49.0662270341 -19.7393218663 -2.5000011921
49.0540290069 -19.7229345756 -2.5000011921
48.9547106091 -19.5931498329 -2.5000011921
48.9420806665 -19.5770930675 -2.5000011921
48.8910875720 -19.5132417251 -2.5000011921
48.8653085936 -19.4815434400 -2.5000011921
48.8000446339 -19.4029698305 -2.5000011921
48.7868527812 -19.3873714271 -2.5000011921
48.7736148433 -19.3718121159 -2.5000011921
48.1321580304 -18.7142482413 -2.5000011921
47.8520407372 -18.4760906268 -2.5000011921
47.8361111561 -18.4633006459 -2.5000011921
47.7880963797 -18.4252142201 -2.5000011921
49.1220687107 -19.7744670563 -2.5000011921
49.0856391615 -19.7249168466 -2.5000011921
48.7652958950 -19.3250113607 -2.5000011921
47.9623111491 -18.5352602345 -2.5000011921
47.7545144517 -18.3684186979 -2.5000011921
47.6543802323 -18.2624875135 -2.5000011921
47.5208947997 -18.1662319874 -2.5000011921
49.4601644195 -20.1915604033 -2.5000011921
47.4669778425 -18.0993594043 -2.5000011921
47.3814238013 -18.0416188356 -2.5000011921
49.5555707376 -20.3030715227 -2.5000011921
47.3081000794 -17.9648181984 -2.5000011921
50.2992384163 -21.3689652501 -2.5000011921
48.4629105530 -22.8310600812 -2.5000011921
48.4437644566 -22.7619094080 -2.5000011921
48.4615122989 -25.4456935626 -2.5000011921
48.4536019524 -22.5471446856 -2.5000011921
48.4530971490 -22.4702448656 -2.5000011921
48.4398106909 -21.8103131610 -2.5000011921
44.9529571095 -19.0360521394 -2.5000011921
48.4340857936 -21.7444354197 -2.5000011921
45.0483755857 -19.0342531728 -2.5000011921
42.2611084818 -19.1027758454 -2.5000011921
48.4345679332 -21.6921392126 -2.5000011921
45.2635006067 -19.0679964706 -2.5000011921
45.2337573686 -19.0592969227 -2.5000011921
45.2039631817 -19.0507734979 -2.5000011921
45.3448256920 -19.0674369836 -2.5000011921
48.4338392181 -21.5869752289 -2.5000011921
42.0319306214 -19.1014173935 -2.5000011921
45.5084744983 -19.0702634894 -2.5000011921
45.6436243683 -19.0672906791 -2.5000011921
41.8295794493 -19.0989831060 -2.5000011921
45.7116178449 -19.0671547736 -2.5000011921
41.7468378445 -19.1059644766 -2.5000011921
45.6989590745 -19.0105820890 -2.5000011921
45.9171291482 -19.0722247888 -2.5000011921
45.9712573810 -19.0692514329 -2.5000011921
45.9563928114 -19.0627859844 -2.5000011921
48.4195702896 -21.1329027805 -2.5000011921
46.0404583393 -19.0735154555 -2.5000011921
46.0801694275 -19.0650100003 -2.5000011921
46.2450884416 -19.0629652454 -2.5000011921
46.4152929788 -19.0953745304 -2.5000011921
46.7790326597 -19.1064362452 -2.5000011921
48.1387259477 -19.0834300151 -2.5000011921
48.1579608934 -18.8142437496 -2.5000011921
48.8373318161 -19.4258447824 -2.5000011921
49.1616285037 -19.7654457610 -2.5000011921
49.1359433861 -19.7336713728 -2.5000011921
49.0577664320 -19.6392677375 -2.5000011921
49.0180527031 -19.5925899664 -2.5000011921
48.8964481386 -19.4546968692 -2.5000011921
47.8997717520 -18.5498310744 -2.5000011921
49.2566593563 -19.8468689964 -2.5000011921
49.4114172602 -20.0131787489 -2.5000011921
47.4527486882 -18.1867870286 -2.5000011921
47.2469851423 -18.0078800234 -2.5000011921
47.1318243327 -17.9161181380 -2.5000011921
46.7624042285 -17.6759952404 -2.5000011921
48.4508046700 -22.6883551160 -2.5000011921
48.4416177033 -22.5287904331 -2.5000011921
42.5983519531 -19.1019119376 -2.5000011921
42.5830438647 -19.1062969832 -2.5000011921
42.8083049308 -19.0217924053 -2.5000011921
42.5149777817 -19.1011416882 -2.5000011921
43.8330720360 -18.8045381112 -2.5000011921
45.8200656374 -19.0597391097 -2.5000011921
45.9359046122 -19.0742725099 -2.5000011921
45.7966938720 -19.0265265537 -2.5000011921
46.0759066669 -19.0746913797 -2.5000011921
46.0450816199 -19.0629328306 -2.5000011921
41.8583337956 -19.1086132254 -2.5000011921
46.4147761012 -19.0852392074 -2.5000011921
46.5015973222 -19.0985552307 -2.5000011921
46.5579291464 -19.0985159669 -2.5000011921
41.0903070867 -19.3117827137 -2.5000011921
47.9482803721 -19.0366956523 -2.5000011921
48.8548495879 -19.4313522287 -2.5000011921
48.7534514729 -19.3333802209 -2.5000011921
48.9715258474 -19.5145487047 -2.5000011921
47.8030666093 -18.5534253130 -2.5000011921
49.2629636035 -19.7967283183 -2.5000011921
49.1912783503 -19.6427159425 -2.5000011921
49.6746205236 -20.1987842084 -2.5000011921
46.9890325334 -17.9124017559 -2.5000011921
48.4599564419 -23.3585206520 -2.5000011921
48.4504397826 -23.3224970388 -2.5000011921
48.4406038088 -23.2865592993 -2.5000011921
48.4590734439 -23.1770987278 -2.5000011921
48.4554000754 -23.1650848962 -2.5000011921
48.4403516970 -23.1171398098 -2.5000011921
48.4365010411 -23.1051816228 -2.5000011921
48.4476686308 -23.0617290149 -2.5000011921
48.4458426546 -22.9819795831 -2.5000011921
48.4415921462 -22.9700057443 -2.5000011921
48.4501534323 -22.6620409179 -2.5000011921
48.4570098671 -22.5583896314 -2.5000011921
48.4554801074 -22.4416950776 -2.5000011921
48.4594778011 -22.3949959397 -2.5000011921
48.4414104194 -22.3590145165 -2.5000011921
48.4505785336 -22.1699299270 -2.5000011921
48.4479681394 -21.7453943482 -2.5000011921
44.4937070878 -19.0791439952 -2.5000011921
44.4463695467 -19.0784871360 -2.5000011921
44.3832473016 -19.0782648480 -2.5000011921
44.3674666746 -19.0783259813 -2.5000011921
44.3516862974 -19.0784337963 -2.5000011921
44.3201268452 -19.0787894672 -2.5000011921
44.2885700496 -19.0793318482 -2.5000011921
45.8218815134 -19.0719190515 -2.5000011921
42.8501582186 -19.1054099835 -2.5000011921
45.9388815725 -19.0793666924 -2.5000011921
42.8433983966 -19.0822013625 -2.5000011921
42.7961529747 -19.0961899468 -2.5000011921
46.0561817075 -19.0893793840 -2.5000011921
46.0246571815 -19.0796504960 -2.5000011921
46.1422735799 -19.0915481466 -2.5000011921
46.1107603783 -19.0813098723 -2.5000011921
46.0791871552 -19.0712582198 -2.5000011921
45.8725746982 -19.0104950635 -2.5000011921
42.6715234379 -19.0844593328 -2.5000011921
42.6243048225 -19.0999731221 -2.5000011921
45.8789478209 -18.9871772893 -2.5000011921
46.2838613184 -19.0887939075 -2.5000011921
46.2681035222 -19.0832326348 -2.5000011921
46.2523293438 -19.0777180008 -2.5000011921
46.3792290956 -19.0719758000 -2.5000011921
48.4498996849 -20.3755041422 -2.5000011921
46.4825231467 -19.0855070969 -2.5000011921
46.4667547583 -19.0793581609 -2.5000011921
42.2278031253 -19.0921282587 -2.5000011921
46.6109423298 -19.0852101231 -2.5000011921
46.6518353046 -19.0761419718 -2.5000011921
42.0989303145 -19.0937796903 -2.5000011921
41.9692044285 -19.0985055821 -2.5000011921
41.9119021009 -19.0983526664 -2.5000011921
46.9382919754 -19.0723277575 -2.5000011921
47.0384257219 -19.0671727803 -2.5000011921
47.0808460304 -19.0612932909 -2.5000011921
41.5956734744 -19.0934962241 -2.5000011921
47.1978465579 -19.0669657411 -2.5000011921
41.4276767191 -19.1576033458 -2.5000011921
41.2278230915 -19.2756126417 -2.5000011921
41.2126400613 -19.2850072270 -2.5000011921
41.2304059394 -19.2456506063 -2.5000011921
41.2151342647 -19.2550376822 -2.5000011921
41.1694867871 -19.2834693912 -2.5000011921
40.9157221535 -19.4521454915 -2.5000011921
42.2677394256 -18.7132854846 -2.5000011921
40.9313664018 -19.4117712133 -2.5000011921
40.9165874504 -19.4220421754 -2.5000011921
40.7416516985 -19.5486741961 -2.5000011921
40.7129375281 -19.5703798140 -2.5000011921
40.6275725361 -19.6365106159 -2.5000011921
40.9622956441 -19.3612294135 -2.5000011921
40.6410365573 -19.5952330103 -2.5000011921
40.4015583890 -19.7599476967 -2.5000011921
47.4298486087 -19.0557801812 -2.5000011921
42.7444635198 -18.4820286278 -2.5000011921
40.3423920318 -19.7471660074 -2.5000011921
43.2546302393 -18.2401416142 -2.5000011921
47.9043672075 -19.0622735271 -2.5000011921
47.9944183609 -19.0640470394 -2.5000011921
48.0690854453 -19.0563190552 -2.5000011921
48.6524453376 -19.2537700189 -2.5000011921
48.9373446899 -19.4698171443 -2.5000011921
48.8785384478 -19.4164281565 -2.5000011921
48.8340214459 -19.3768450971 -2.5000011921
48.7439424023 -19.2988719307 -2.5000011921
48.1593014062 -18.8545313584 -2.5000011921
48.0600585209 -18.7886155145 -2.5000011921
48.0434049711 -18.7778012426 -2.5000011921
48.0100022645 -18.7563207276 -2.5000011921
47.9764730566 -18.7350382102 -2.5000011921
47.9259446232 -18.7034873072 -2.5000011921
49.1692667644 -19.6590696074 -2.5000011921
49.0984343233 -19.5889914708 -2.5000011921
48.9975441453 -19.4926583816 -2.5000011921
47.7330652215 -18.5608056953 -2.5000011921
47.6810001573 -18.5314217614 -2.5000011921
49.3254085140 -19.7857863392 -2.5000011921
49.2564331829 -19.7133849451 -2.5000011921
48.6365886038 -19.1472867127 -2.5000011921
47.6927876115 -18.5103174678 -2.5000011921
47.4990074689 -18.4061842369 -2.5000011921
47.4634156792 -18.3879310643 -2.5000011921
49.8226858931 -20.2600522296 -2.5000011921
47.0659458133 -18.0964554950 -2.5000011921
47.0285291436 -18.0807698813 -2.5000011921
44.9685567604 -22.5033746155 -2.5000011921
48.4459459007 -23.6080777381 -2.5000011921
48.4641566518 -23.5804282209 -2.5000011921
48.4503155227 -23.5254067782 -2.5000011921
48.4474497240 -23.5144273934 -2.5000011921
48.4589681811 -23.4641802483 -2.5000011921
48.4528417290 -23.4421798837 -2.5000011921
48.4401988807 -23.3982898170 -2.5000011921
48.4601253117 -23.3804438983 -2.5000011921
48.4467514647 -23.3364719707 -2.5000011921
48.4363801443 -23.3035985580 -2.5000011921
48.4558567847 -23.2852180455 -2.5000011921
48.4450302559 -23.2522658465 -2.5000011921
48.4679618220 -23.2446187191 -2.5000011921
48.4399936273 -23.0935851491 -2.5000011921
48.4358504672 -23.0826381877 -2.5000011921
41.5522805325 -22.0605136002 -2.5000011921
48.4596389185 -22.9460973867 -2.5000011921
48.4313462508 -22.7620299805 -2.5000011921
48.4480907903 -22.7408092904 -2.5000011921
48.4488943796 -22.6864657426 -2.5000011921
48.4425155414 -22.5660335595 -2.5000011921
48.4460620027 -22.0471854570 -2.5000011921
48.4509605830 -21.5587189761 -2.5000011921
46.2042257697 -19.0586445329 -2.5000011921
46.1720741505 -19.0500610858 -2.5000011921
46.1076213797 -19.0334655956 -2.5000011921
43.1484853867 -19.0930827334 -2.5000011921
43.1325311695 -19.0978065143 -2.5000011921
43.1006650056 -19.1073955587 -2.5000011921
46.2749536495 -19.0531210296 -2.5000011921
46.2105298832 -19.0353080071 -2.5000011921
46.3621026727 -19.0532967879 -2.5000011921
42.9745692444 -19.0964854959 -2.5000011921
42.9426980294 -19.1070091193 -2.5000011921
46.4816996906 -19.0650916123 -2.5000011921
46.4174030924 -19.0448314366 -2.5000011921
46.5373674648 -19.0578397038 -2.5000011921
42.9756414175 -19.0452973868 -2.5000011921
42.7994772391 -19.1054952187 -2.5000011921
42.7593403521 -19.0943592373 -2.5000011921
42.7433916137 -19.1002341740 -2.5000011921
42.7274603243 -19.1061562642 -2.5000011921
46.7297985172 -19.0739047989 -2.5000011921
42.7350024722 -19.0775635413 -2.5000011921
42.6870606493 -19.0955464066 -2.5000011921
