15.2616497759 -29.7363323456 -2.5001743719
15.0282322698 -29.6957337707 -2.5001743835
11.5627778530 -29.2253719912 -2.5001755707
11.5558692074 -29.3708624705 -2.5001755938
11.5635357843 -29.3947899729 -2.5001755938
11.5405374605 -29.4022339222 -2.5001756053
11.5604346699 -29.4621899162 -2.5001756053
11.5645204060 -29.4741454322 -2.5001756053
11.5458022306 -29.4940073619 -2.5001756168
11.5531349726 -29.5861233230 -2.5001756283
11.5550928412 -29.8499161006 -2.5001756745
11.5680783996 -30.2118258088 -2.5001757436
11.5743816608 -30.2237554332 -2.5001757436
11.5658049887 -30.2590091115 -2.5001757551
15.5222186896 -33.4209846436 -2.5001761125
15.5379979220 -33.4212031645 -2.5001761125
15.5695579808 -33.4215001684 -2.5001761125
15.6011192445 -33.4216104471 -2.5001761125
15.6484609824 -33.4214257491 -2.5001761125
15.7115772055 -33.4205259659 -2.5001761125
15.7273542526 -33.4201843320 -2.5001761125
14.1940717544 -33.4321749677 -2.5001762047
17.1725108973 -33.4130001096 -2.5001762162
17.3915504353 -33.3945743010 -2.5001762393
13.8661539156 -33.4364928582 -2.5001762508
17.4622129933 -33.3958670892 -2.5001762508
13.8110763226 -33.4437831346 -2.5001762623
13.7240330960 -33.4394866419 -2.5001762738
17.6758302717 -33.3941261388 -2.5001762854
13.6442719919 -33.4622891164 -2.5001762969
17.8445357089 -33.4039193732 -2.5001763199
13.4116171510 -33.4500971507 -2.5001763315
17.9895471271 -33.3935067700 -2.5001763430
18.1039548198 -33.3940677919 -2.5001763660
18.2298152994 -33.4139075536 -2.5001764006
18.6344421929 -33.3066835431 -2.5001764467
18.6498696847 -33.2976960441 -2.5001764467
18.7418701894 -33.2428162728 -2.5001764467
19.0844148739 -33.0476198036 -2.5001764583
17.7661008413 -33.7738245817 -2.5001764698
19.2296411861 -32.9726224708 -2.5001764698
19.3448290219 -32.9156119907 -2.5001764813
19.4440072639 -32.8371194224 -2.5001764813
11.2713462959 -33.2139472380 -2.5001767695
11.9734363193 -33.7329240712 -2.5001767695
12.0069030095 -33.7543047630 -2.5001767695
10.6024943151 -32.6718951158 -2.5001768041
10.6160791311 -32.6866703488 -2.5001768041
10.4268778252 -32.6938358516 -2.5001768732
13.5778782453 -34.8657550780 -2.5001769424
11.5620310617 -28.9248885352 -2.4999333465
11.5525668570 -28.9856620077 -2.4999333638
11.5672699560 -29.8464903570 -2.4999335713
11.5650631723 -30.0000961785 -2.4999336232
11.5753660333 -30.1666692584 -2.4999336750
16.9861796378 -33.3908684150 -2.4999346606
13.7185243344 -33.4702087699 -2.4999346779
17.0254879280 -33.4035536206 -2.4999346779
17.0573590463 -33.3930297045 -2.4999346779
17.0732711172 -33.3876970821 -2.4999346779
17.2323945903 -33.3829826281 -2.4999347124
13.4151097198 -33.4772883544 -2.4999347470
17.4014620522 -33.3960404120 -2.4999347643
13.2535640787 -33.4715408967 -2.4999347816
13.1966388482 -33.4761074428 -2.4999347989
17.5312709536 -33.3951523501 -2.4999347989
13.1394750099 -33.4800918770 -2.4999348162
13.1880904591 -33.4987185092 -2.4999348162
12.3174996086 -33.4726941222 -2.4999350582
18.0878729081 -33.6170170578 -2.4999351101
18.7143772930 -33.2545314266 -2.4999351101
18.7453371875 -33.2340180819 -2.4999351101
18.8374811237 -33.1713840913 -2.4999351101
18.9134087026 -33.1179465285 -2.4999351101
17.8633375382 -33.7512007905 -2.4999351274
17.9141729077 -33.7278951169 -2.4999351274
19.0178713592 -33.0717598119 -2.4999351274
17.4487730775 -33.9730597426 -2.4999351620
19.5672577965 -32.6794776693 -2.4999351620
16.7257965989 -34.3393289979 -2.4999352657
11.3275573169 -33.2693337946 -2.4999353176
11.0527864914 -33.0834781385 -2.4999353349
12.1682982389 -33.8315261347 -2.4999353349
12.2547190741 -33.8766561560 -2.4999353349
10.7867901242 -32.8832456975 -2.4999353522
10.8012215983 -32.8964647826 -2.4999353522
10.8739620506 -32.9619166764 -2.4999353522
11.3631663512 -33.3856561756 -2.4999353695
10.4717951597 -32.6436734739 -2.4999353867
9.2497160201 -31.4077542744 -2.4999355596
15.3162727048 -38.0112259320 -2.4999377727
11.5514548804 -29.4595695221 -2.5000261466
11.5666612598 -29.6087295429 -2.5000261581
11.5670736571 -29.7701774206 -2.5000261754
11.5579790331 -29.9042266145 -2.5000261927
18.4496958748 -30.1679171459 -2.5000262618
13.6238790545 -33.4707974059 -2.5000266134
13.6562928906 -33.4783303607 -2.5000266134
16.4702305207 -33.4008233305 -2.5000266134
16.4862124178 -33.3961940632 -2.5000266134
13.5209545583 -33.4704769920 -2.5000266192
13.4176371091 -33.4682204668 -2.5000266249
16.6121702272 -33.4085957045 -2.5000266249
13.3139631388 -33.4640138153 -2.5000266307
13.1379912870 -33.4602965963 -2.5000266422
16.8593762942 -33.4018501462 -2.5000266422
16.9476424270 -33.3950965460 -2.5000266480
12.9931607297 -33.4623702149 -2.5000266537
17.0929471067 -33.3902712192 -2.5000266595
12.8472467720 -33.4606241725 -2.5000266653
12.5848542376 -33.4593477669 -2.5000266883
12.4262203156 -33.4687402065 -2.5000267056
11.7150278826 -33.4535104136 -2.5000267805
11.2637725335 -33.2511933741 -2.5000267978
11.2949284242 -33.2726933552 -2.5000267978
11.3262109708 -33.2940086313 -2.5000267978
11.3576190781 -33.3151384562 -2.5000267978
12.1357063663 -33.7865903428 -2.5000268036
12.2389178927 -33.8349758560 -2.5000268036
10.6798042114 -32.8575492810 -2.5000268094
10.7086413918 -32.8825111042 -2.5000268094
10.9145654635 -33.0524063701 -2.5000268094
10.6351329960 -32.8505529910 -2.5000268151
18.1122981012 -33.6205882191 -2.5000268151
18.1289229178 -33.6111004574 -2.5000268151
18.1620879881 -33.5919776043 -2.5000268151
18.7230529347 -33.2262448119 -2.5000268151
18.7693191945 -33.1922296192 -2.5000268151
18.7846739742 -33.1808001446 -2.5000268151
17.9048152020 -33.7608766929 -2.5000268209
17.9218559251 -33.7520020893 -2.5000268209
17.9388703210 -33.7430771150 -2.5000268209
17.9728195358 -33.7250763671 -2.5000268209
17.9897540575 -33.7160007510 -2.5000268209
18.8756843169 -33.1421276052 -2.5000268209
18.8908904203 -33.1303837024 -2.5000268209
10.1733924212 -32.4715701686 -2.5000268266
17.7434872606 -33.8686116876 -2.5000268266
10.1824775279 -32.5162344707 -2.5000268324
10.1958701628 -32.5302093844 -2.5000268324
19.4196308508 -32.7401058476 -2.5000268324
13.1256775201 -34.3153620573 -2.5000268382
17.4634735209 -34.0480062968 -2.5000268382
17.2374266214 -34.1641977792 -2.5000268439
17.3102499590 -34.1362660701 -2.5000268439
17.0882357070 -34.2695596900 -2.5000268555
17.1807875013 -34.2367056328 -2.5000268555
14.5823241386 -37.9904311808 -2.5000276566
15.1174467284 -29.7606861001 -2.4999992552
15.1377513239 -29.7540483275 -2.4999992552
15.1529274501 -29.7489125846 -2.4999992552
11.5541738228 -30.0890561289 -2.4999972841
18.4362652188 -29.2482044460 -2.4999968432
18.4371829849 -29.3242983914 -2.4999968173
18.4557338778 -29.2669112228 -2.4999968173
18.4553563636 -29.4203234960 -2.4999967654
18.4351676171 -29.6096254985 -2.4999967136
18.4386343674 -29.6646357307 -2.4999966876
18.4462862549 -29.7084768582 -2.4999966617
18.4432713816 -29.7755466960 -2.4999966358
18.4635189867 -29.7295551806 -2.4999966358
18.4497067701 -29.8199474838 -2.4999966098
18.4387436207 -29.9554444862 -2.4999965579
18.4499998642 -29.9325023160 -2.4999965579
18.4431555085 -30.2066051989 -2.4999964283
18.4415177535 -30.5821777447 -2.4999962208
18.4541603881 -30.6069438757 -2.4999961949
18.4391290719 -31.2363842936 -2.4999958058
16.0370807783 -33.4454463359 -2.4999951834
16.0530604318 -33.4410728581 -2.4999951834
16.1395205211 -33.4417061243 -2.4999951575
16.1554886621 -33.4370296276 -2.4999951575
12.9327911639 -33.4488319150 -2.4999951315
15.9851755164 -33.5092638340 -2.4999951315
16.1783398175 -33.4554741646 -2.4999951315
16.2263230447 -33.4409580256 -2.4999951315
12.8456589944 -33.4471090766 -2.4999951056
12.8616575304 -33.4521763943 -2.4999951056
12.8776709865 -33.4571963634 -2.4999951056
12.9257994730 -33.4719717408 -2.4999951056
16.3134459807 -33.4388185932 -2.4999951056
16.3294048189 -33.4336276062 -2.4999951056
12.7582219592 -33.4439867282 -2.4999950797
12.7902170087 -33.4545913765 -2.4999950797
12.8222742389 -33.4650065457 -2.4999950797
16.4168150698 -33.4298286302 -2.4999950797
16.4486623238 -33.4187880608 -2.4999950797
16.5044968626 -33.4246186295 -2.4999950537
12.6144592663 -33.4451507010 -2.4999950278
12.6304530207 -33.4509019579 -2.4999950278
16.5605824655 -33.4298799132 -2.4999950278
12.5421747099 -33.4443094513 -2.4999950019
12.5581662920 -33.4502745427 -2.4999950019
12.5741754499 -33.4561923020 -2.4999950019
16.6328583461 -33.4284792406 -2.4999950019
16.6646938356 -33.4161605102 -2.4999950019
12.4536696915 -33.4362840708 -2.4999949759
16.6894407713 -33.4324226737 -2.4999949759
12.3968614661 -33.4397493079 -2.4999949500
12.4448540534 -33.4587922872 -2.4999949500
16.7781319443 -33.4227945784 -2.4999949500
12.3238580241 -33.4360184330 -2.4999949241
12.3398260351 -33.4426293809 -2.4999949241
12.3558135326 -33.4491930636 -2.4999949241
16.8511043247 -33.4184988032 -2.4999949241
16.8670007008 -33.4117174144 -2.4999949241
12.2825693260 -33.4449205363 -2.4999948981
16.9817732048 -33.4141400579 -2.4999948722
12.0935479801 -33.4409316303 -2.4999948203
17.2136823196 -33.4117692724 -2.4999947684
11.9187437376 -33.4382882094 -2.4999947425
11.9667421861 -33.4615742728 -2.4999947425
11.8920786391 -33.4521017427 -2.4999947166
11.7583031058 -33.4384501166 -2.4999946647
11.7742807847 -33.4467340677 -2.4999946647
17.4916383911 -33.4036753826 -2.4999946388
17.5191265509 -33.4161860804 -2.4999946128
11.1775666767 -33.2100529440 -2.4999945610
11.2235688517 -33.2399255257 -2.4999945610
11.2389615987 -33.2497921860 -2.4999945610
11.3631405268 -33.3270775023 -2.4999945610
11.3944683184 -33.3459379669 -2.4999945610
11.0123269760 -33.1273652145 -2.4999945350
11.0727550661 -33.1690654380 -2.4999945350
11.2569402691 -33.2898356627 -2.4999945350
12.1170347342 -33.7422455096 -2.4999945350
12.1846610374 -33.7708312723 -2.4999945350
12.2356001475 -33.7917443738 -2.4999945350
10.7463348674 -32.9613603120 -2.4999945091
10.7609056561 -32.9726399356 -2.4999945091
10.9233540994 -33.0938462933 -2.4999945091
11.1202980620 -33.2301838633 -2.4999945091
10.6588786310 -32.9231899183 -2.4999944832
10.7023554828 -32.9576768617 -2.4999944832
12.4593861065 -33.9288433459 -2.4999944832
12.6093218761 -34.0058209780 -2.4999944572
10.2216332375 -32.6054274720 -2.4999944313
12.7976195581 -34.0895444340 -2.4999944313
10.0409896763 -32.4955622037 -2.4999943794
9.7180400743 -32.1789976385 -2.4999943535
10.1443941162 -32.6318677324 -2.4999943535
13.0870491947 -34.2413614380 -2.4999943535
18.0240779114 -33.3962846576 -2.4999943535
9.6996521744 -32.1946890507 -2.4999943275
18.1589836423 -33.3942938288 -2.4999942757
17.9511808458 -33.7540201184 -2.4999940682
18.0687392888 -33.6827157001 -2.4999940682
18.1186647158 -33.6514143777 -2.4999940682
18.7864995638 -33.1679880890 -2.4999940682
18.8318288077 -33.1303373161 -2.4999940682
18.8468640835 -33.1176978469 -2.4999940682
18.8768221370 -33.0922857542 -2.4999940682
18.8917446526 -33.0795133531 -2.4999940682
18.9066293198 -33.0666968644 -2.4999940682
18.9362845884 -33.0409320731 -2.4999940682
17.7751721564 -33.8822965013 -2.4999940423
17.8096725888 -33.8632115162 -2.4999940423
17.8440595041 -33.8439227490 -2.4999940423
17.9804479829 -33.7647434689 -2.4999940423
17.9973636720 -33.7546197624 -2.4999940423
18.9818021972 -33.0330987919 -2.4999940423
18.9965491677 -33.0200160997 -2.4999940423
19.0551481093 -32.9672508121 -2.4999940423
19.0696999686 -32.9539514376 -2.4999940423
19.1846856168 -32.8460186981 -2.4999940423
17.5413438487 -34.0317808205 -2.4999940163
17.5943878010 -34.0051460911 -2.4999940163
17.7520722992 -33.9224323596 -2.4999940163
17.7694554598 -33.9129835397 -2.4999940163
19.1871521300 -32.8771360768 -2.4999940163
19.3002871870 -32.7664455442 -2.4999940163
17.4449226145 -34.1054708051 -2.4999939904
19.4691616898 -32.6264499718 -2.4999939904
17.2922546898 -34.2020493148 -2.4999939645
19.6731143549 -32.4353070831 -2.4999939645
19.6990206947 -32.4050185593 -2.4999939645
17.1364779560 -34.2947820210 -2.4999939385
19.7174371732 -32.4206764201 -2.4999939385
19.8196224135 -32.2975654234 -2.4999939385
16.6079878064 -34.6133607959 -2.4999938089
14.7185072770 -29.7594585380 -2.4999968120
14.8544475047 -29.7381075349 -2.4999967457
18.4386289014 -28.7373596051 -2.4999897865
18.4486675516 -28.9696139308 -2.4999896540
18.4510842422 -28.9571399882 -2.4999896540
18.4603816903 -28.9071743656 -2.4999896540
18.4403417969 -29.1241801702 -2.4999895877
18.4488531320 -29.0868049679 -2.4999895877
18.4570324480 -29.0493557040 -2.4999895877
18.4530141920 -29.2730116418 -2.4999894551
18.4410067704 -29.4042558747 -2.4999893889
18.4447092440 -29.3918026923 -2.4999893889
18.4410537122 -29.4860731376 -2.4999893226
18.4449982158 -29.4736194583 -2.4999893226
18.4489058619 -29.4611541649 -2.4999893226
18.4395147615 -29.5682860012 -2.4999892563
18.4478533371 -29.5433746946 -2.4999892563
18.4560443830 -29.5184144902 -2.4999892563
18.4640876127 -29.4934062617 -2.4999892563
18.4447190614 -29.7672697941 -2.4999890575
18.4674053729 -30.2550777424 -2.4999884610
18.4538942801 -30.5864727741 -2.4999880633
18.4552870553 -31.2869512751 -2.4999870029
12.8353920525 -33.4448082111 -2.4999864064
12.9611604720 -33.4763994946 -2.4999864064
15.7343053603 -33.4164318663 -2.4999864064
12.7349957446 -33.4424267478 -2.4999863401
12.7663548765 -33.4511974876 -2.4999863401
12.6499065750 -33.4428499808 -2.4999862738
12.7126871453 -33.4612125606 -2.4999862738
15.8885413922 -33.4207293830 -2.4999862738
12.5644786587 -33.4419097362 -2.4999862075
12.5801509549 -33.4468227203 -2.4999862075
12.5100806583 -33.4498830303 -2.4999861412
12.5414878404 -33.4599843127 -2.4999861412
12.4083492441 -33.4413207229 -2.4999860750
12.4397075492 -33.4520240324 -2.4999860750
12.3376793537 -33.4421175993 -2.4999860087
12.2667362554 -33.4419802404 -2.4999859424
12.1955322006 -33.4409023062 -2.4999858761
12.2112031310 -33.4469067050 -2.4999858761
16.2803875650 -33.4371697834 -2.4999858761
12.1397448062 -33.4450933935 -2.4999858099
16.3674717212 -33.4287238425 -2.4999858099
12.0680475435 -33.4423280095 -2.4999857436
12.0837232492 -33.4487095247 -2.4999857436
16.5110380680 -33.4211231335 -2.4999856773
11.9396380183 -33.4407253249 -2.4999856110
11.9553095448 -33.4474867058 -2.4999856110
16.5675386838 -33.4228063208 -2.4999856110
11.7689260054 -33.4435478851 -2.4999854122
11.8003086781 -33.4580341983 -2.4999854122
11.7116240226 -33.4432971018 -2.4999853459
11.7273041545 -33.4507329780 -2.4999853459
11.6541332358 -33.4424447401 -2.4999852796
11.1850299676 -33.2434879815 -2.4999851471
11.2152392379 -33.2614323211 -2.4999851471
10.9486190906 -33.1234385217 -2.4999850808
11.1122813971 -33.2276628334 -2.4999850808
12.1408172909 -33.7304102094 -2.4999850808
12.1573448774 -33.7365751981 -2.4999850808
12.1904544001 -33.7487583663 -2.4999850808
12.2735384793 -33.7783574321 -2.4999850808
12.3494460934 -33.8296699336 -2.4999850145
12.4506100049 -33.8622066074 -2.4999850145
10.6168892496 -32.9485499682 -2.4999849482
12.5797145513 -33.9260269344 -2.4999849482
17.3589238594 -33.4222841954 -2.4999846168
18.0502666977 -33.7265731432 -2.4999828936
18.1160263543 -33.6810162908 -2.4999828936
18.1487028850 -33.6579468706 -2.4999828936
18.7123589889 -33.2105224588 -2.4999828936
18.7571236079 -33.1705723420 -2.4999828936
18.7719661436 -33.1571675496 -2.4999828936
17.8457758685 -33.8896664179 -2.4999828273
18.9637957855 -33.0102522669 -2.4999828273
18.9781631611 -32.9962368022 -2.4999828273
17.5994106101 -34.0652764546 -2.4999827611
17.7039291794 -34.0045987070 -2.4999827611
19.2609619708 -32.7383229704 -2.4999827611
19.3416678188 -32.6483647219 -2.4999827611
19.5424619246 -32.4482143300 -2.4999826948
17.3193848239 -34.2701830494 -2.4999826285
19.5484500010 -32.4791746261 -2.4999826285
17.4748157052 -34.2167603146 -2.4999825622
19.8936839230 -32.1022907099 -2.4999824960
16.3461928608 -34.9492136698 -2.4999818995
14.7093233616 -29.7699940737 -2.4999994108
14.8369313019 -29.7513703125 -2.4999993589
14.9191719630 -29.7549832653 -2.4999993070
18.4512995072 -29.5887575372 -2.4999961430
18.4550691265 -29.5753560827 -2.4999961430
18.4587990853 -29.5619435356 -2.4999961430
18.4617475116 -29.7232456658 -2.4999960911
18.4588557391 -29.8111843374 -2.4999960652
18.4542650782 -29.8994638771 -2.4999960392
18.4589538101 -29.8860522905 -2.4999960392
18.4636028475 -29.8726268924 -2.4999960392
18.4682121498 -29.8591878004 -2.4999960392
18.4554582611 -30.0367583893 -2.4999959874
18.4755993085 -29.9830059145 -2.4999959874
17.5324978761 -31.5848693148 -2.4999959614
18.4571646422 -30.0991509583 -2.4999959614
18.4624440718 -30.0857299205 -2.4999959614
18.4676837765 -30.0722933240 -2.4999959614
18.4634908003 -30.1484008864 -2.4999959355
18.4689158924 -30.1349609192 -2.4999959355
18.4636868805 -30.2113442893 -2.4999959096
18.4494110536 -30.3648191357 -2.4999958577
18.4734342914 -30.3111152480 -2.4999958577
18.4622047820 -30.4521940438 -2.4999958058
18.4685285549 -30.4387565517 -2.4999958058
18.4516928894 -30.5297452874 -2.4999957799
18.4582461189 -30.5163385520 -2.4999957799
18.4799792174 -30.5269219216 -2.4999957540
12.5987152638 -33.4504455130 -2.4999954946
12.6139340621 -33.4543401647 -2.4999954946
15.2107760146 -33.4596539247 -2.4999954946
15.3171741508 -33.4318827198 -2.4999954946
12.5164245364 -33.4536156561 -2.4999954687
12.5316530726 -33.4577537248 -2.4999954687
12.5621465351 -33.4658946257 -2.4999954687
15.3995004967 -33.4339287876 -2.4999954687
15.4600523780 -33.4160980022 -2.4999954687
15.4902481395 -33.4069142384 -2.4999954687
12.4033221923 -33.4465711828 -2.4999954427
12.4185303845 -33.4510438595 -2.4999954427
15.4821909269 -33.4346554890 -2.4999954427
15.5276278770 -33.4206156922 -2.4999954427
15.5427456180 -33.4158462212 -2.4999954427
12.3354952639 -33.4513292413 -2.4999954168
15.6106526780 -33.4192758760 -2.4999954168
15.6257660924 -33.4142608085 -2.4999954168
15.6559480841 -33.4040966589 -2.4999954168
15.6710163973 -33.3989476657 -2.4999954168
12.2369189556 -33.4453135780 -2.4999953909
12.3283668000 -33.4744272993 -2.4999953909
18.4533994537 -31.2592807871 -2.4999953909
12.1836515891 -33.4530493155 -2.4999953649
12.1759107691 -33.4759494244 -2.4999953390
15.7402875057 -33.4516103444 -2.4999953390
15.8614990253 -33.4071644570 -2.4999953390
12.0306021976 -33.4502982619 -2.4999953131
12.0458230460 -33.4558734954 -2.4999953131
12.0610603203 -33.4614036785 -2.4999953131
15.8700889369 -33.4297597818 -2.4999953131
11.9612701896 -33.4501333721 -2.4999952871
11.9764908536 -33.4559137030 -2.4999952871
11.9917285502 -33.4616489831 -2.4999952871
12.0069831462 -33.4673391622 -2.4999952871
15.8482074454 -33.4638361616 -2.4999952871
11.9068960942 -33.4550308021 -2.4999952612
11.9526546539 -33.4727189389 -2.4999952612
11.9679421678 -33.4785246573 -2.4999952612
16.0392421977 -33.4145882882 -2.4999952612
16.0881917411 -33.4465303239 -2.4999952093
16.1941300347 -33.4005943236 -2.4999952093
18.4651459739 -31.5424816331 -2.4999952093
11.7118706226 -33.4533454250 -2.4999951834
11.7271018797 -33.4598635108 -2.4999951834
16.2341973273 -33.4090862425 -2.4999951834
11.6565534999 -33.4556451559 -2.4999951575
16.3046327642 -33.4032795535 -2.4999951575
11.2562940751 -33.2875977799 -2.4999951315
11.3154045495 -33.3188015817 -2.4999951315
11.3450972109 -33.3341406493 -2.4999951315
11.3748801037 -33.3493037766 -2.4999951315
11.3898050612 -33.3568191965 -2.4999951315
11.4197213454 -33.3717174203 -2.4999951315
11.4347124103 -33.3791000937 -2.4999951315
11.4798157216 -33.4009815859 -2.4999951315
16.3752529638 -33.3965171968 -2.4999951315
11.0256767838 -33.1851935363 -2.4999951056
11.0545840459 -33.2022490689 -2.4999951056
11.0835917082 -33.2191332780 -2.4999951056
11.1272892304 -33.2441370687 -2.4999951056
11.2301003663 -33.3009639957 -2.4999951056
12.1380713116 -33.6927042465 -2.4999951056
10.7427640789 -33.0347944267 -2.4999950797
10.7989192168 -33.0720922519 -2.4999950797
10.9844030279 -33.1886768546 -2.4999950797
10.9988545305 -33.1973480792 -2.4999950797
12.3073569817 -33.7711022194 -2.4999950797
12.3883386912 -33.7943989999 -2.4999950797
18.4536205255 -31.7618257622 -2.4999950797
10.5218417616 -32.9085151499 -2.4999950537
10.5765181703 -32.9484358708 -2.4999950537
10.7715244696 -33.0830057447 -2.4999950537
11.0593949384 -33.2609884743 -2.4999950537
12.6222828471 -33.9041595550 -2.4999950278
12.6885931393 -33.9191571800 -2.4999950278
12.6667361673 -33.9390745236 -2.4999950019
12.9304384692 -34.0160166098 -2.4999949759
16.6521604902 -33.4185576347 -2.4999949759
16.6823499398 -33.4023209159 -2.4999949759
17.1214101006 -33.4261770253 -2.4999947166
17.7508497688 -33.4345429981 -2.4999943275
18.0756739413 -33.7344352803 -2.4999938607
18.6872629621 -33.2062470209 -2.4999938607
18.7017327371 -33.1921317158 -2.4999938607
18.7448906437 -33.1495298417 -2.4999938607
17.8613167680 -33.9215074716 -2.4999938348
17.9274655647 -33.8745131989 -2.4999938348
17.9930536726 -33.8267395128 -2.4999938348
18.1225111689 -33.7288807643 -2.4999938348
18.8332842577 -33.0945546867 -2.4999938348
18.9864198979 -32.9322644889 -2.4999938348
19.0272604180 -32.8871464092 -2.4999938348
17.5697690365 -34.1436622065 -2.4999938089
17.7238314787 -34.0445122479 -2.4999938089
18.8220872400 -33.1404982402 -2.4999938089
19.1789370009 -32.7497715227 -2.4999938089
19.2051254644 -32.7185972504 -2.4999938089
19.2181504173 -32.7029521481 -2.4999938089
19.2697857148 -32.6399884956 -2.4999938089
17.4429728108 -34.2491220916 -2.4999937829
17.5130273826 -34.2070549240 -2.4999937829
17.5478667803 -34.1857112276 -2.4999937829
17.5825792918 -34.1641617831 -2.4999937829
18.1359506454 -33.7795871259 -2.4999937829
19.2367508827 -32.7183909942 -2.4999937829
19.3269374425 -32.6074176111 -2.4999937829
17.3845000243 -34.3112987038 -2.4999937570
17.4022444421 -34.3010323720 -2.4999937570
17.9197308543 -33.9690750674 -2.4999937570
19.4587916289 -32.4765768481 -2.4999937570
19.4833588830 -32.4437516432 -2.4999937570
19.5439236264 -32.3610577722 -2.4999937570
17.2891039051 -34.3929426360 -2.4999937310
17.3250469960 -34.3729204928 -2.4999937310
19.5874962975 -32.3417532282 -2.4999937310
17.3188538463 -34.4040757517 -2.4999937051
19.5831377289 -32.3893348882 -2.4999937051
17.0744167003 -34.5610371255 -2.4999936792
17.1297869559 -34.5328228628 -2.4999936792
12.3754880327 -33.4525082707 -2.5000115131
12.4778814650 -33.4777457674 -2.5000115131
14.9534799050 -33.4425303605 -2.5000115131
14.9680344258 -33.4386393301 -2.5000115131
18.4701061535 -30.1513712608 -2.5000115131
12.2963074873 -33.4565038400 -2.5000115621
12.3401648429 -33.4682820338 -2.5000115621
12.3548069762 -33.4721215493 -2.5000115621
15.0181126865 -33.4499951540 -2.5000115621
15.0326890068 -33.4459128955 -2.5000115621
18.4631604041 -30.2448899050 -2.5000115621
18.4682403698 -30.2306305959 -2.5000115621
12.2021289287 -33.4549831398 -2.5000116111
12.2167323255 -33.4592310486 -2.5000116111
12.2459764976 -33.4675971753 -2.5000116111
18.4597652331 -30.3244393667 -2.5000116111
18.4650805353 -30.3101897530 -2.5000116111
12.1953428800 -33.4781841058 -2.5000116601
15.1484439683 -33.4623863621 -2.5000116601
15.1776554985 -33.4534074429 -2.5000116601
15.2359166376 -33.4349319207 -2.5000116601
15.2649642071 -33.4254359644 -2.5000116601
18.4606173994 -30.3900277191 -2.5000116601
11.9612393008 -33.4547358487 -2.5000117580
12.0050941610 -33.4694876544 -2.5000117580
15.4113371807 -33.4260728871 -2.5000117580
15.4548018131 -33.4102081382 -2.5000117580
18.4655714911 -30.5077570570 -2.5000117580
11.8948944110 -33.4572455974 -2.5000118070
11.9095058448 -33.4624023517 -2.5000118070
15.5067138608 -33.4165536122 -2.5000118070
15.5211891171 -33.4110261293 -2.5000118070
11.8282554544 -33.4588729614 -2.5000118560
11.8721522659 -33.4748047611 -2.5000118560
11.7759530776 -33.4651631860 -2.5000119050
15.5676704595 -33.4448792276 -2.5000119050
15.6692215594 -33.4040216167 -2.5000119050
11.6795402055 -33.4536604841 -2.5000119540
11.6941419761 -33.4594543107 -2.5000119540
11.7380492279 -33.4765762695 -2.5000119540
15.6348593159 -33.4442020813 -2.5000119540
18.4669509571 -30.7461452199 -2.5000119540
11.6413070659 -33.4643457094 -2.5000120030
11.6559406126 -33.4702525898 -2.5000120030
15.7748750460 -33.4116607158 -2.5000120030
11.2141105570 -33.2959903831 -2.5000120520
11.3135121446 -33.3453087042 -2.5000120520
15.8425113407 -33.4081694104 -2.5000120520
18.4563383001 -30.8809105584 -2.5000120520
18.4639274671 -30.9201081052 -2.5000121010
15.9639740627 -33.4053047302 -2.5000121499
16.2092725465 -33.3906816600 -2.5000123459
16.2638416498 -33.3890263567 -2.5000123949
16.3185823940 -33.3867843980 -2.5000124439
16.4285542435 -33.3805279022 -2.5000125418
16.6359533708 -33.3697076249 -2.5000127378
17.4157234431 -33.3874456065 -2.5000136686
18.0347894271 -33.7891641642 -2.5000150892
18.0658837686 -33.7631029368 -2.5000150892
18.6677045674 -33.1897645915 -2.5000150892
17.9873928213 -33.8594865032 -2.5000151382
18.0031674991 -33.8466187853 -2.5000151382
18.5873062001 -33.3095765785 -2.5000151382
18.7130424579 -33.1763236465 -2.5000151382
18.7541606894 -33.1311679502 -2.5000151382
18.7948765702 -33.0856491308 -2.5000151382
17.8584748382 -33.9923335778 -2.5000151872
17.8907742841 -33.9673119309 -2.5000151872
17.9068683518 -33.9547295563 -2.5000151872
17.9229251281 -33.9420996276 -2.5000151872
18.1592070504 -33.7470203413 -2.5000151872
18.9330870045 -32.9624985424 -2.5000151872
18.9982074355 -32.8838059378 -2.5000151872
17.7421036283 -34.1099932096 -2.5000152362
17.8079542683 -34.0611279808 -2.5000152362
18.0337821450 -33.8840364894 -2.5000152362
18.9515958071 -32.9780471600 -2.5000152362
19.1689591323 -32.7056809040 -2.5000152362
19.1813154747 -32.6893229476 -2.5000152362
17.5717328479 -34.2602687558 -2.5000152852
17.5341114610 -34.3149585543 -2.5000153342
17.9027166304 -34.0497938368 -2.5000153342
19.1950019160 -32.7513132211 -2.5000153342
19.2323294394 -32.7018971413 -2.5000153342
19.5591208917 -32.2253310892 -2.5000153342
17.4088984913 -34.4257404046 -2.5000153832
19.6659162840 -32.0967011926 -2.5000153832
19.6329625197 -32.1980067610 -2.5000154321
19.7287376404 -32.0373118406 -2.5000154321
17.0401662512 -34.7003678790 -2.5000154811
12.1024117801 -33.4500560023 -2.5000139147
12.1162376975 -33.4539008895 -2.5000139147
12.1300749283 -33.4577048603 -2.5000139147
12.1439233513 -33.4614678814 -2.5000139147
14.6689192499 -33.4628952103 -2.5000139147
14.6827719184 -33.4591478481 -2.5000139147
14.6966134409 -33.4553595235 -2.5000139147
12.0127774674 -33.4492897668 -2.5000139781
12.0404376510 -33.4574689448 -2.5000139781
14.7724094051 -33.4590132730 -2.5000139781
14.8000788181 -33.4508653716 -2.5000139781
14.8138953263 -33.4467300683 -2.5000139781
14.8414913416 -33.4383369372 -2.5000139781
11.9781060973 -33.4640661423 -2.5000140415
15.0158982227 -33.4578555491 -2.5000141683
15.0573642815 -33.4434115633 -2.5000141683
15.0792778720 -33.4612835222 -2.5000142317
18.4503427904 -30.1081037845 -2.5000148657
18.4542548338 -30.0931849662 -2.5000148657
18.4439204055 -27.4241814384 -2.5000148657
18.4358214691 -27.3944172645 -2.5000148657
15.8353466897 -33.4202790856 -2.5000149291
18.4575526173 -30.1741034938 -2.5000149291
18.4697416911 -30.1292460655 -2.5000149291
18.4549929946 -27.3730685877 -2.5000149291
18.4380136025 -27.3134612391 -2.5000149291
18.4292597116 -27.2837339497 -2.5000149291
15.7773023390 -33.4772434243 -2.5000149925
18.4551634485 -30.2703396281 -2.5000149925
18.4434571217 -27.2470250521 -2.5000149925
18.4389056068 -27.2321391212 -2.5000149925
18.4343100767 -27.2172667197 -2.5000149925
18.4556190230 -30.3520068166 -2.5000150559
18.4432802584 -27.1653567844 -2.5000150559
18.4384871548 -27.1504717341 -2.5000150559
16.0207541740 -33.4020272780 -2.5000151193
18.4739968247 -30.3741934901 -2.5000151193
18.4517230580 -27.1131652847 -2.5000151193
18.4417839090 -27.0833603910 -2.5000151193
18.4336792401 -26.9861855647 -2.5000151827
18.4544091845 -30.5840363864 -2.5000152460
18.4754234960 -30.5242111585 -2.5000152460
18.4457090382 -26.9482348260 -2.5000152460
18.4347942105 -26.9184683998 -2.5000152460
18.4292708036 -26.9036095330 -2.5000152460
16.1116923540 -33.4335173339 -2.5000153094
18.4553496154 -30.6520234949 -2.5000153094
18.4825122342 -30.5771820887 -2.5000153094
18.4406875541 -26.8653511883 -2.5000153094
18.4350069911 -26.8504751203 -2.5000153094
16.0124139797 -33.5173535004 -2.5000153728
18.4496172499 -30.7352039356 -2.5000153728
18.4779443700 -30.7289667877 -2.5000154362
16.3274709297 -33.3874380392 -2.5000154996
18.4465384174 -30.8724913110 -2.5000154996
16.3813725133 -33.3816651955 -2.5000155630
18.4436146269 -30.9414935868 -2.5000155630
18.4463422871 -30.9958270995 -2.5000156264
18.4528803941 -30.9809162312 -2.5000156264
18.4417567826 -31.0652762405 -2.5000156898
18.4485003528 -31.0503786331 -2.5000156898
18.4551998237 -31.0354611422 -2.5000156898
16.5711060884 -33.4006674788 -2.5000158800
18.4515207992 -31.2152826632 -2.5000158800
18.4513646007 -31.2706473490 -2.5000159434
18.4569674146 -31.3670143400 -2.5000160702
16.7905591833 -33.3633508015 -2.5000161336
18.4319925915 -31.7618198524 -2.5000165140
18.4349621753 -31.8039528039 -2.5000165774
18.4285105282 -31.8610867985 -2.5000166408
17.4263769030 -33.3472158788 -2.5000171479
18.4236034847 -32.5543886320 -2.5000176551
18.4594668988 -33.3091511261 -2.5000189864
18.3442988732 -33.5045024165 -2.5000191132
18.0428142093 -33.8332748389 -2.5000191766
18.1757408365 -33.7081306639 -2.5000191766
18.2481350463 -33.6370904913 -2.5000191766
18.2767971929 -33.6083759131 -2.5000191766
18.3617573290 -33.5212217945 -2.5000191766
17.9836096402 -33.9193157966 -2.5000192400
18.0290540355 -33.8785168651 -2.5000192400
18.1039843682 -33.8096276094 -2.5000192400
18.6913111316 -33.1890292214 -2.5000192400
18.7815085366 -33.0787104560 -2.5000192400
18.8194616108 -33.0308637213 -2.5000192400
18.8817683681 -32.9503767515 -2.5000192400
18.8940864814 -32.9341692621 -2.5000192400
17.7345336165 -34.1616129569 -2.5000193034
17.7663080031 -34.1359278372 -2.5000193034
17.7821380714 -34.1230148940 -2.5000193034
18.8885826808 -32.9812599956 -2.5000193034
19.0105015494 -32.8173505901 -2.5000193034
19.0224255839 -32.8007628667 -2.5000193034
19.0579025423 -32.7507890735 -2.5000193034
19.1128302379 -32.7142319199 -2.5000193668
19.1360173096 -32.6804176661 -2.5000193668
19.2489297476 -32.5093213755 -2.5000193668
19.1790606039 -32.6599599561 -2.5000194302
19.2913491213 -32.4875995013 -2.5000194302
17.3319892723 -34.5495382796 -2.5000194936
17.4000038206 -34.5027164364 -2.5000194936
17.9860699780 -34.0778862040 -2.5000195570
17.6130590511 -34.4085825803 -2.5000196204
14.5941850044 -33.4478508885 -2.5000022853
14.6403982617 -33.4584916628 -2.5000022911
14.6792608621 -33.4457233569 -2.5000022911
14.7258588984 -33.4554734875 -2.5000022968
14.7986998677 -33.4554821339 -2.5000023026
14.8848218264 -33.4493873610 -2.5000023084
15.1415685172 -33.4487617485 -2.5000023314
15.2031858733 -33.4477498083 -2.5000023372
15.2290334807 -33.4359464666 -2.5000023372
15.3529581020 -33.4306376309 -2.5000023487
18.4368993546 -30.4986107588 -2.5000024813
18.4410936519 -30.4831751979 -2.5000024813
18.4426853135 -27.6687947712 -2.5000024813
18.4384649217 -30.5823160958 -2.5000024870
18.4339541568 -30.6818057941 -2.5000024928
18.4451623804 -27.5010361127 -2.5000024928
18.4425058188 -30.7353368646 -2.5000024985
18.4443826975 -27.4166348631 -2.5000024985
18.4402714739 -30.8200548807 -2.5000025043
18.4420650418 -30.8896321266 -2.5000025101
18.4441164428 -27.2623392012 -2.5000025101
18.4429396219 -30.9594953094 -2.5000025158
18.4484972726 -30.9440398637 -2.5000025158
18.4428887121 -31.0296323850 -2.5000025216
18.4619257303 -27.0983718523 -2.5000025274
18.4274834757 -31.2015195294 -2.5000025331
18.4552015425 -26.6453400943 -2.5000025677
18.3479393165 -26.3740402967 -2.5000025735
18.6775526318 -27.0539111901 -2.5000025792
18.4090150964 -31.8116760893 -2.5000025908
18.4187315360 -31.8959442912 -2.5000026023
18.1388546965 -33.7826184851 -2.5000028155
18.1804559763 -33.7387905772 -2.5000028155
18.2353162089 -33.6797823597 -2.5000028155
18.2624835314 -33.6500358558 -2.5000028155
18.7440877118 -33.0556321120 -2.5000028155
18.0716524771 -33.8861847415 -2.5000028213
18.9244181833 -32.8368642593 -2.5000028213
18.9685543227 -32.7691162756 -2.5000028213
18.9903210060 -32.7350476269 -2.5000028213
18.9998332167 -32.7651128035 -2.5000028270
19.0215756666 -32.7308591684 -2.5000028270
19.1065075973 -32.5925763235 -2.5000028270
17.2680164585 -34.6986519150 -2.5000028443
17.4456066233 -34.6274074511 -2.5000028559
14.6876386393 -29.9212585686 -2.4999993848
14.6812255959 -30.0754164322 -2.4999993330
14.6972863372 -30.0992107506 -2.4999993070
14.8968131320 -30.1233986765 -2.4999990996
14.1958254095 -33.4705325931 -2.4999966617
14.2319406550 -33.4605331592 -2.4999966617
14.2799535739 -33.4467027735 -2.4999966617
14.3948050986 -33.4365124061 -2.4999966358
14.5140061817 -33.4728852102 -2.4999965579
14.5501297759 -33.4600620079 -2.4999965579
14.6100783182 -33.4379792437 -2.4999965579
14.6665880448 -33.4421943196 -2.4999965320
14.8499309828 -33.4449684700 -2.4999964542
14.8836353592 -33.4565744301 -2.4999964283
14.9655907838 -33.4459793154 -2.4999964023
15.4378020396 -33.4450914117 -2.4999961689
15.5218009161 -33.4234203917 -2.4999961430
15.6803571397 -33.4385672464 -2.4999960392
16.3614904433 -33.4222242183 -2.4999956243
18.4251642621 -30.9231143985 -2.4999952353
18.4341055681 -30.8915061114 -2.4999952353
18.4251340796 -31.0088904718 -2.4999952093
18.4298818496 -30.9930926547 -2.4999952093
18.4546295753 -27.8842295477 -2.4999952093
18.4363654654 -27.8208247200 -2.4999952093
18.4404585107 -27.7505381255 -2.4999951834
18.4314097031 -31.1498277912 -2.4999951575
18.4222717744 -31.2523463399 -2.4999951315
18.4395640503 -31.2761316988 -2.4999951056
18.4338571341 -31.3634381435 -2.4999950797
18.4360758962 -27.4346668651 -2.4999950797
18.4327891593 -31.4351807686 -2.4999950537
18.4470239139 -27.3945989407 -2.4999950537
18.4410798601 -27.3787521837 -2.4999950537
18.4331499545 -27.2909292376 -2.4999950278
18.4493650715 -27.2662007564 -2.4999950019
18.4366704247 -27.2345132912 -2.4999950019
18.4527903503 -31.6454012061 -2.4999949500
18.4410870670 -31.7341896771 -2.4999949241
18.4437245860 -27.0639237341 -2.4999949241
18.4571193818 -31.8172481636 -2.4999948722
18.4642582802 -31.8013521913 -2.4999948722
18.4454678410 -26.9491389009 -2.4999948722
18.4598769010 -26.8653064881 -2.4999948203
18.4361839530 -26.6002410293 -2.4999947166
18.5993896493 -26.8788501694 -2.4999946906
18.3634407852 -26.4158052317 -2.4999946906
18.3457164167 -26.3846410068 -2.4999946906
18.3187849325 -26.3380926508 -2.4999946906
18.2822357225 -26.2764034389 -2.4999946906
18.2636880274 -26.2457220903 -2.4999946906
18.7675981701 -27.2172602299 -2.4999946647
18.7611281137 -27.2004659321 -2.4999946647
18.2843377157 -26.2331552428 -2.4999946647
18.1982984482 -26.0959239441 -2.4999946647
18.0779550600 -25.9166039651 -2.4999946647
18.8583153483 -27.3953055252 -2.4999946388
18.8523715851 -27.3782420906 -2.4999946388
18.8218970645 -27.2931927592 -2.4999946388
17.9597752386 -25.7127181349 -2.4999946388
18.9434374367 -27.5769552445 -2.4999946128
17.8102117266 -25.4847843377 -2.4999946128
17.7636013795 -25.4291725371 -2.4999946128
19.0030759157 -27.6919136057 -2.4999945869
17.9873386153 -25.6690526488 -2.4999945869
17.7702340863 -25.3996646046 -2.4999945869
18.4680916626 -32.4855795160 -2.4999945350
18.4686097746 -32.8119089483 -2.4999943535
18.4636043381 -33.0827730556 -2.4999941979
18.2713085759 -33.6218647479 -2.4999940163
18.0702759726 -33.8933156736 -2.4999939904
18.1099906104 -33.8489160158 -2.4999939904
18.1362474573 -33.8191211954 -2.4999939904
18.1753010628 -33.7741389994 -2.4999939904
18.2139539387 -33.7288119959 -2.4999939904
18.2522030407 -33.6831437547 -2.4999939904
18.2774766343 -33.6525104591 -2.4999939904
18.2900453565 -33.6371378725 -2.4999939904
18.7649491544 -32.9764905318 -2.4999939904
17.8970626149 -34.1126998712 -2.4999939645
17.9248838224 -34.0841601878 -2.4999939645
17.9387309852 -34.0698287458 -2.4999939645
17.9662978234 -34.0410432886 -2.4999939645
17.9800172575 -34.0265895252 -2.4999939645
18.0209181802 -33.9829856147 -2.4999939645
18.0344656302 -33.9683705284 -2.4999939645
18.0479697868 -33.9537154303 -2.4999939645
18.8585778148 -32.8706270482 -2.4999939645
18.9782578640 -32.6636052140 -2.4999939645
17.6995968603 -34.3390906379 -2.4999939385
17.7432820976 -34.2979629953 -2.4999939385
17.8152742405 -34.2285606211 -2.4999939385
19.1517057234 -32.4385742393 -2.4999939126
18.0779478510 -34.0636070476 -2.4999938607
19.4423315557 -31.9722501969 -2.4999938348
17.1223487787 -34.9704900570 -2.4999938089
19.7303704547 -31.5326467183 -2.4999937051
14.2073354365 -33.4328636687 -2.4999988769
14.2443367270 -33.4716311933 -2.4999988481
18.4413907856 -29.8528936793 -2.4999979548
18.4425860006 -29.7565016483 -2.4999979548
18.4415181223 -29.6279748091 -2.4999979548
18.4365038136 -28.3469994260 -2.4999978539
18.4388709264 -28.0866148785 -2.4999978107
18.4650157994 -31.3851839031 -2.4999977963
18.4834162231 -31.9179974162 -2.4999976810
18.4412872462 -26.9400608781 -2.4999975514
18.4247133788 -26.8052028981 -2.4999975225
18.6301760152 -26.8846912905 -2.4999974361
18.2333488204 -26.2103676440 -2.4999974361
18.0348607765 -25.8930738969 -2.4999974217
18.2808563248 -33.6569448466 -2.4999972776
18.7067217596 -33.0074607578 -2.4999972776
18.1815797831 -33.8260841894 -2.4999972632
18.3578591638 -33.5927161968 -2.4999972632
17.8298415742 -34.2706107635 -2.4999972488
14.6589864061 -33.4356626984 -2.5000016378
15.1239914662 -26.5518684389 -2.5000016839
15.2225142014 -26.5557955690 -2.5000016897
18.4470666967 -31.4730739743 -2.5000018626
18.4511440739 -31.4569424478 -2.5000018626
18.4445217592 -28.6903015144 -2.5000018626
18.4403672033 -28.6741896921 -2.5000018626
18.4449197330 -31.5759765744 -2.5000018655
18.4493015241 -31.5598509488 -2.5000018655
18.4663510945 -31.4952209436 -2.5000018655
18.4595453575 -28.6519506577 -2.5000018655
18.4465978622 -28.6035205973 -2.5000018655
18.4496222937 -31.7344870854 -2.5000018713
18.4544729670 -31.7183468552 -2.5000018713
18.4592758734 -31.7021923465 -2.5000018713
18.4465992105 -28.4288841662 -2.5000018713
18.4476878297 -31.8223022249 -2.5000018741
18.4527982845 -31.8061673330 -2.5000018741
18.4496440881 -28.3571982293 -2.5000018741
18.4445041301 -28.3410727118 -2.5000018741
18.4603139605 -31.8619955569 -2.5000018770
18.4355506437 -28.2368626874 -2.5000018770
18.4452134642 -31.9827032456 -2.5000018799
18.4780062448 -31.8856896674 -2.5000018799
18.4623877509 -32.0068261117 -2.5000018828
18.4680439964 -31.9906469274 -2.5000018828
18.4356456551 -28.0920173174 -2.5000018828
18.4281187199 -28.0031231689 -2.5000018857
18.4420914919 -32.2011550013 -2.5000018885
18.4506885129 -27.9944663955 -2.5000018885
18.4519682480 -32.2422214563 -2.5000018914
18.4351090852 -27.8889278552 -2.5000018914
18.4550264594 -32.2996371721 -2.5000018943
18.4641865064 -32.3411099779 -2.5000018972
18.4676754025 -32.4570242540 -2.5000019030
18.4392158346 -32.8579530214 -2.5000019202
18.4442013422 -32.9012034775 -2.5000019231
18.1521978153 -33.8748196827 -2.5000019548
18.1856124556 -33.8289114900 -2.5000019548
18.6804439909 -33.0232443726 -2.5000019548
17.9619678623 -34.1592072107 -2.5000019577
17.9859754353 -34.1297551625 -2.5000019577
18.1377301480 -33.9349138019 -2.5000019577
18.7783668914 -32.8813978250 -2.5000019577
18.7948002265 -32.8471380498 -2.5000019577
18.8584981223 -32.7091447364 -2.5000019577
18.4077522417 -33.5895755542 -2.5000019606
18.9630902929 -32.5261693125 -2.5000019606
19.0210269350 -32.4464613755 -2.5000019635
19.0417314834 -32.3928990586 -2.5000019635
18.7341134986 -27.0441282783 -2.5000019663
18.6792100611 -26.9427651321 -2.5000019663
18.2683267398 -26.2938288905 -2.5000019663
18.1770993156 -26.1701286839 -2.5000019663
18.1654908028 -26.1548189724 -2.5000019663
18.1538370519 -26.1395436680 -2.5000019663
18.0829702847 -26.0486218544 -2.5000019663
18.8686235899 -27.2564990991 -2.5000019692
18.8517765556 -27.2218037801 -2.5000019692
17.9673363878 -25.8696191149 -2.5000019692
17.9422998798 -25.8402803863 -2.5000019692
18.8987772076 -27.2634540526 -2.5000019721
17.9353381092 -25.7952362658 -2.5000019721
17.8842140612 -25.7370912724 -2.5000019721
19.1219899431 -27.6534496456 -2.5000019779
19.4461203366 -28.2286564848 -2.5000019923
14.9187591182 -29.9045972522 -2.5000016571
14.9182332758 -29.8198124624 -2.5000016629
14.4088046777 -26.5405830712 -2.5000021758
14.7755374907 -26.5567289429 -2.5000022046
15.0686744820 -26.5373863916 -2.5000022392
15.4628908180 -26.5681577828 -2.5000022795
18.4615947015 -31.7438090126 -2.5000025216
18.4591882350 -29.1130107665 -2.5000025216
18.4512817455 -29.0809805555 -2.5000025216
18.4393898682 -31.9258988555 -2.5000025274
18.4399252750 -32.0123596061 -2.5000025331
18.4445726006 -31.9963829508 -2.5000025331
18.4491726440 -31.9803926177 -2.5000025331
18.4554500249 -28.9084547974 -2.5000025331
18.4439830342 -32.0831866960 -2.5000025389
18.4695619020 -28.8697591693 -2.5000025389
18.4506805678 -28.8056403682 -2.5000025389
18.4621770079 -32.1062896271 -2.5000025446
18.4566013968 -28.6630728231 -2.5000025504
18.4505878679 -32.2975166396 -2.5000025562
18.4393611438 -32.4015063255 -2.5000025619
18.4509108454 -32.3695358640 -2.5000025619
18.4566147149 -32.3535251485 -2.5000025619
18.4397589225 -32.6031274533 -2.5000025792
18.4461538470 -32.5871487052 -2.5000025792
18.4549110058 -28.3016914397 -2.5000025792
18.4422045536 -28.2697007336 -2.5000025792
18.4475051391 -28.1554145198 -2.5000025908
18.4466292292 -32.7748915828 -2.5000025965
18.4492687308 -28.0979444682 -2.5000025965
18.4423364676 -28.0819573005 -2.5000025965
18.4409421890 -32.9064409356 -2.5000026080
18.4441774711 -33.1239043393 -2.5000026311
18.4474748851 -33.3281716023 -2.5000026542
18.4560145875 -33.3121668566 -2.5000026542
18.4335536915 -27.5127129824 -2.5000026542
18.2100663538 -33.8224229576 -2.5000026657
18.1998833718 -33.8815920386 -2.5000026714
18.7276636449 -32.9166384152 -2.5000026714
18.7708415474 -32.8153268514 -2.5000026714
18.0394224810 -34.1509648881 -2.5000026772
18.4284306813 -27.3059584780 -2.5000026772
17.6765827629 -34.6666234260 -2.5000026887
17.8607390041 -34.6050153260 -2.5000027118
17.7912737601 -34.7201045170 -2.5000027175
18.4154454406 -26.8727376241 -2.5000027291
18.6514061828 -26.8813235447 -2.5000027752
18.2175504655 -26.2744453984 -2.5000027752
18.1804385426 -26.2286739420 -2.5000027752
18.8632042831 -27.1903150125 -2.5000027809
18.8047290229 -27.0874998101 -2.5000027809
18.7948061263 -27.0704655477 -2.5000027809
18.1234376366 -26.1224910513 -2.5000027809
18.0200051723 -26.0034410581 -2.5000027809
17.9804960170 -25.9594333771 -2.5000027809
17.9272125935 -25.9013051712 -2.5000027809
19.0051395280 -27.4055993585 -2.5000027867
18.9780349478 -27.3527939477 -2.5000027867
19.1139527140 -27.5730153592 -2.5000027925
19.0969236350 -27.5371382941 -2.5000027925
19.0883295719 -27.5192376998 -2.5000027925
19.0709827747 -27.4835131709 -2.5000027925
19.1526982678 -27.5988213728 -2.5000027982
19.1273026139 -27.5446988522 -2.5000027982
17.5844090548 -25.4590717267 -2.5000027982
17.5696743129 -25.4456545165 -2.5000027982
19.3094787609 -27.8357664645 -2.5000028098
17.2492688664 -25.0799850485 -2.5000028155
14.6844138927 -30.2841717488 -2.5000011921
14.7100942320 -30.1404558465 -2.5000011921
14.6964668160 -30.0479509241 -2.5000011921
14.9170356924 -30.0084487949 -2.5000011921
13.7092470702 -26.5819208911 -2.5000011921
13.6844775285 -26.5786643203 -2.5000011921
13.8491038336 -26.5786073441 -2.5000011921
13.9897678586 -26.5799884383 -2.5000011921
13.9773785522 -26.5775120119 -2.5000011921
14.1063288052 -26.5803606867 -2.5000011921
14.0691378935 -26.5720069832 -2.5000011921
13.9071752565 -26.5396332139 -2.5000011921
13.8445692595 -26.5288438911 -2.5000011921
14.2110853452 -26.5808201189 -2.5000011921
14.1738943855 -26.5715367417 -2.5000011921
14.2915859527 -26.5770574017 -2.5000011921
14.3601472969 -26.5712320482 -2.5000011921
14.4539583525 -26.5741856701 -2.5000011921
14.4166989518 -26.5627471925 -2.5000011921
14.4042567746 -26.5590079022 -2.5000011921
14.3168594465 -26.5338656937 -2.5000011921
14.2415465906 -26.5137594520 -2.5000011921
14.3610277047 -26.5211785672 -2.5000011921
14.6384241554 -26.5592066259 -2.5000011921
14.8508448428 -26.5623234332 -2.5000011921
14.9690791424 -26.5594704302 -2.5000011921
15.0759386355 -26.5541569449 -2.5000011921
15.2086951583 -26.5636109768 -2.5000011921
15.5743753305 -26.5670474670 -2.5000011921
16.1551999624 -26.5682485159 -2.5000011921
18.4545286987 -29.4065297000 -2.5000011921
18.4380606671 -29.3438170440 -2.5000011921
18.4334742043 -32.2963237425 -2.5000011921
18.4512010322 -32.2336579100 -2.5000011921
18.4396822460 -29.2590850841 -2.5000011921
18.4381469701 -32.3657670669 -2.5000011921
18.4352147024 -29.1583430633 -2.5000011921
18.4319484448 -32.4668347860 -2.5000011921
18.4369540582 -32.4511918286 -2.5000011921
18.4486904290 -29.1199103565 -2.5000011921
18.4437951613 -29.1042325175 -2.5000011921
18.4395997879 -32.5212790035 -2.5000011921
18.4498866943 -32.4899321288 -2.5000011921
18.4549605553 -32.4742360057 -2.5000011921
18.4359032611 -32.6073188182 -2.5000011921
18.4413244343 -32.5916635470 -2.5000011921
18.4308145891 -32.6936313519 -2.5000011921
18.4498255366 -28.8931137969 -2.5000011921
18.4592260506 -32.6862040308 -2.5000011921
18.4409061169 -32.8044805907 -2.5000011921
18.4469105084 -32.7888096575 -2.5000011921
18.4326193763 -32.8915800402 -2.5000011921
18.4294298889 -32.9632596886 -2.5000011921
18.4359040279 -32.9476220095 -2.5000011921
18.4452028504 -32.9882238774 -2.5000011921
18.4671602254 -28.5986799559 -2.5000011921
18.4407292548 -33.0603747731 -2.5000011921
18.4422624359 -33.1170737225 -2.5000011921
18.4503019251 -33.1583003913 -2.5000011921
18.4573529385 -33.1426001155 -2.5000011921
18.4739605157 -28.4286629651 -2.5000011921
18.4358189169 -33.3040468377 -2.5000011921
18.4679843566 -28.2410146248 -2.5000011921
18.1416264739 -33.9791986413 -2.5000011921
18.2344531556 -33.8300476110 -2.5000011921
18.2434922631 -33.8149829157 -2.5000011921
18.6503345697 -32.9980211524 -2.5000011921
18.4811519378 -28.1569782681 -2.5000011921
18.6526386894 -33.0560571002 -2.5000011921
18.7426950890 -32.8261220219 -2.5000011921
18.7547802445 -32.7929765984 -2.5000011921
18.0234282961 -34.2399848963 -2.5000011921
18.0336809956 -34.2255426571 -2.5000011921
18.8674582805 -32.5324864790 -2.5000011921
18.8778040059 -32.4986080536 -2.5000011921
17.7834181151 -34.5925779612 -2.5000011921
17.8283607976 -34.5374431426 -2.5000011921
17.7331588878 -34.6899856915 -2.5000011921
18.9958328241 -32.2545865851 -2.5000011921
19.1034035883 -32.0034796538 -2.5000011921
18.4679403347 -27.7194627961 -2.5000011921
18.4638794819 -27.6164456841 -2.5000011921
18.4658710005 -27.5725965510 -2.5000011921
18.4707655528 -27.3067852201 -2.5000011921
18.7378416165 -26.9662697379 -2.5000011921
18.2237514696 -26.3026540119 -2.5000011921
18.2105232323 -26.2876539097 -2.5000011921
18.8681934002 -27.1203210189 -2.5000011921
18.8356068179 -27.0696871754 -2.5000011921
18.0796894012 -26.1086724864 -2.5000011921
18.0381560559 -26.0650760109 -2.5000011921
19.0045999505 -27.2960833492 -2.5000011921
17.9282334627 -25.9193127172 -2.5000011921
17.7827619283 -25.7799996159 -2.5000011921
17.7695309526 -25.7348558904 -2.5000011921
19.3806882026 -27.8528674449 -2.5000011921
17.3979516938 -25.3248917525 -2.5000011921
17.3315958892 -25.2433383402 -2.5000011921
19.5941808551 -28.1616303569 -2.5000011921
19.7786713965 -28.4456560554 -2.5000011921
14.5821689888 -26.5719474126 -2.5000011921
14.5421381293 -26.5608151056 -2.5000011921
14.4752055537 -26.5430521026 -2.5000011921
14.2322391932 -26.4873439407 -2.5000011921
14.6689181035 -26.5721357224 -2.5000011921
14.7427324631 -26.5697267293 -2.5000011921
14.7160402328 -26.5613158043 -2.5000011921
14.7768437434 -26.5553053173 -2.5000011921
15.1886149904 -26.5530084276 -2.5000011921
15.2649311503 -26.5591407627 -2.5000011921
15.3281233553 -26.5605493395 -2.5000011921
18.4543402182 -32.3860467841 -2.5000011921
18.4359808661 -29.6979709158 -2.5000011921
