55.9682142875 -0.2255061692 -2.5000147540
55.9766884651 -0.1955492820 -2.5000147540
55.9434647511 2.7529683914 -2.5000147540
55.9389132362 2.7678543222 -2.5000147540
55.9602601820 -0.3370778796 -2.5000148174
55.9738953975 -0.2921900734 -2.5000148174
55.9432878878 2.8346366591 -2.5000148174
55.9336576690 2.8643925157 -2.5000148174
53.4933599692 -3.4174045160 -2.5000148808
55.9547653212 -0.4340188956 -2.5000148808
55.9367558812 2.9315133176 -2.5000148808
55.9576968554 -0.5014143966 -2.5000149442
55.9678035828 -0.4715149052 -2.5000149442
55.9545390429 2.9542289051 -2.5000149442
55.9348018399 3.0815250436 -2.5000150076
53.6116999834 -3.4335238904 -2.5000150710
53.6665946816 -3.4012192955 -2.5000150710
55.9441827470 -0.6818527468 -2.5000150710
55.9553572448 -0.6520300514 -2.5000150710
55.9663551060 -0.6221417659 -2.5000150710
55.9406951835 3.1346422552 -2.5000150710
55.9350146205 3.1495183231 -2.5000150710
53.6927027753 -3.4137655141 -2.5000151344
53.7064034228 -3.4055107622 -2.5000151344
55.9545147477 -0.7888140661 -2.5000151978
55.9387934673 3.2714156443 -2.5000151978
55.9327083122 3.2862854882 -2.5000151978
53.8138308249 -3.3960575888 -2.5000152612
55.9465460468 -0.8724978675 -2.5000152612
55.9527193034 -0.8575869586 -2.5000152612
55.9588484238 -0.8426578534 -2.5000152612
55.9489105494 3.3103917751 -2.5000152612
55.9301769648 3.3550352274 -2.5000152612
53.8267017038 -3.4165191567 -2.5000153246
55.9372008092 -0.9563837743 -2.5000153246
55.9499996469 -0.9265975817 -2.5000153246
55.9563329252 -0.9116762198 -2.5000153246
55.9626220356 -0.8967361881 -2.5000153246
55.9528880235 -0.9809227877 -2.5000153880
53.9213292364 -3.4133969276 -2.5000154514
55.9431872273 -1.1200509542 -2.5000155148
55.9511007973 -1.1601188884 -2.5000155782
55.9581248690 -1.1451932473 -2.5000155782
54.1666560751 -3.3635317675 -2.5000157050
55.9473668777 -1.4378535402 -2.5000158952
54.3320973288 -3.3626404982 -2.5000159586
55.9448418902 -1.4939348713 -2.5000159586
55.9528534773 -1.4790262846 -2.5000159586
55.9295991976 -1.6214465770 -2.5000160854
55.9250969414 -1.6779872808 -2.5000161488
55.9287087422 -1.7198349391 -2.5000162122
55.9285181576 -1.8610933550 -2.5000164023
55.9325826036 -1.9460579047 -2.5000165291
55.9268584763 -2.1323985758 -2.5000167827
55.9164910374 -2.2337056334 -2.5000169095
55.9236111141 -2.5543951885 -2.5000174167
55.3228909448 -3.3431941710 -2.5000176069
55.9086924242 -2.7319754542 -2.5000176703
56.1335505902 -3.2200812004 -2.5000189382
56.1986761867 -3.1423233427 -2.5000189382
56.2499441608 -3.0794288294 -2.5000189382
56.2815161660 -3.0787170125 -2.5000190016
56.4063642254 -2.9179319609 -2.5000190016
55.2979375011 -4.1100617356 -2.5000190650
55.6353992037 -3.8133486013 -2.5000190650
56.4133611344 -2.9487743487 -2.5000190650
56.5105091788 -2.8173571466 -2.5000190650
56.5224332133 -2.8007694232 -2.5000190650
56.5929422436 -2.7005089666 -2.5000190650
55.1206314152 -4.2816636633 -2.5000191284
55.1368932146 -4.2691810427 -2.5000191284
55.1531180169 -4.2566503715 -2.5000191284
55.4075684104 -4.0497154853 -2.5000191284
56.6475433520 -2.6634658001 -2.5000191284
56.7378744881 -2.5265869709 -2.5000191284
54.9534089839 -4.4354349255 -2.5000191918
54.9701263981 -4.4234463063 -2.5000191918
55.0696794943 -4.3504808791 -2.5000191918
55.1189664798 -4.3133384347 -2.5000191918
55.9315987819 -3.5881058631 -2.5000191918
56.7358498463 -2.5742015055 -2.5000191918
56.7913567507 -2.4876060578 -2.5000191918
56.8131998646 -2.4527395928 -2.5000191918
56.8455768034 -2.4001991136 -2.5000191918
56.8562653429 -2.3826220248 -2.5000191918
54.7977830582 -4.5726531414 -2.5000192552
55.2638519349 -4.2310573899 -2.5000192552
55.8187839717 -3.7372816507 -2.5000192552
56.6875767159 -2.6905706134 -2.5000192552
56.8227891499 -2.4830224406 -2.5000192552
56.9401921760 -2.2886627193 -2.5000192552
54.7767845595 -4.6157098930 -2.5000193186
54.9477514202 -4.4987586454 -2.5000193186
56.7876396050 -2.5832183265 -2.5000193186
56.9506368944 -2.3187104390 -2.5000193186
57.1113839255 -2.0288993166 -2.5000193186
55.3907797583 -4.1901450462 -2.5000193820
56.8619930184 -2.5568084085 -2.5000194454
54.3154769474 -4.9792500672 -2.5000195088
54.3338058564 -4.9691461869 -2.5000195088
54.4249976630 -4.9178159303 -2.5000195088
53.6535091990 -5.4563752021 -2.5000198891
52.0682704480 -3.4558922634 -2.5000020469
52.0941773750 -3.4478451069 -2.5000020469
52.1663116418 -3.4500119920 -2.5000020526
52.1792532327 -3.4457175753 -2.5000020526
52.1738908466 -3.4729660970 -2.5000020584
52.3116494145 -3.4507903059 -2.5000020642
52.3329146600 -3.4687613198 -2.5000020699
52.4582833945 -3.4467613513 -2.5000020757
52.5061516495 -3.4535581049 -2.5000020815
52.5801984626 -3.4489253493 -2.5000020872
52.5931350281 -3.4434065852 -2.5000020872
52.7779659051 -3.4398179454 -2.5000021045
52.8141952203 -3.4493794343 -2.5000021103
53.1149280262 -3.4308198819 -2.5000021391
53.2408704979 -3.4431428464 -2.5000021564
53.3176136637 -3.4261565151 -2.5000021621
53.4843014528 -3.4371862830 -2.5000021852
55.9410860225 -0.4831694163 -2.5000022428
55.9549338858 2.2848169363 -2.5000022428
55.9468088262 2.3157584270 -2.5000022428
55.9426776841 2.3312110105 -2.5000022428
55.9575844329 2.3684949444 -2.5000022486
55.9532972395 2.3839791733 -2.5000022486
55.9445855315 2.4149092455 -2.5000022486
55.9433733373 -0.6509307693 -2.5000022544
55.9480182135 -0.6354753681 -2.5000022544
55.9633896240 2.4370459044 -2.5000022544
55.9375579461 -0.7507697180 -2.5000022601
55.9540834556 2.5524391431 -2.5000022601
55.9443750681 2.5833709186 -2.5000022601
55.9473642456 2.6526386552 -2.5000022659
55.9312184223 -0.9204836251 -2.5000022716
55.9366607377 -0.9050630010 -2.5000022716
55.9420574124 -0.8896263450 -2.5000022716
55.9579731211 -0.8432215372 -2.5000022716
55.9599720239 2.6912438002 -2.5000022716
55.9547300706 2.7067336798 -2.5000022716
55.9494423183 2.7222079850 -2.5000022716
55.9316796531 -0.9903507595 -2.5000022774
55.9373286461 -0.9749284652 -2.5000022774
55.9723051358 2.7300582629 -2.5000022774
55.9506025802 2.7920670073 -2.5000022774
55.9450624146 2.8075287293 -2.5000022774
55.9175484568 -1.1616586960 -2.5000022889
55.9298145588 -1.1308780710 -2.5000022889
55.9619181009 2.9016339294 -2.5000022889
55.9211566162 -1.2169059042 -2.5000022947
54.3624341459 -3.3916004666 -2.5000023005
55.9371127547 -1.2415590560 -2.5000023005
55.9585488697 3.0432083685 -2.5000023005
55.9132172059 -1.3588363656 -2.5000023062
55.9399004877 -1.2972405296 -2.5000023062
55.9489522544 3.1298275818 -2.5000023062
55.9285276837 -1.3839909965 -2.5000023120
55.9086095681 -1.4862457062 -2.5000023178
55.9088155052 -1.5425771677 -2.5000023235
55.9160981839 -1.5272200935 -2.5000023235
55.9232827790 -1.5683672004 -2.5000023293
55.9551939131 3.3546656874 -2.5000023293
55.9479894587 3.3701385298 -2.5000023293
55.9150626843 -1.6404591575 -2.5000023350
55.8638101021 3.5955860538 -2.5000023350
55.8399251482 3.6411198392 -2.5000023350
55.8237777580 3.6713571621 -2.5000023350
55.8156370480 3.6864398660 -2.5000023350
55.7992219544 3.7165326991 -2.5000023350
55.7658590919 3.7764243837 -2.5000023350
56.2068117364 2.8651704610 -2.5000023408
55.8204087692 3.7281711766 -2.5000023408
55.7869067117 3.7883127387 -2.5000023408
55.7089410928 3.9221537413 -2.5000023408
55.6549964505 4.0102074724 -2.5000023408
55.6366686505 4.0393442353 -2.5000023408
55.6274401869 4.0538718266 -2.5000023408
56.2900077496 2.6929769766 -2.5000023466
55.9170861710 -1.7963114882 -2.5000023523
56.3534464281 2.5674631148 -2.5000023523
55.9098719910 -2.0115669463 -2.5000023754
55.9254450013 -2.0816955786 -2.5000023869
55.9218691288 -2.1831542055 -2.5000023984
55.9353346328 -2.2543662053 -2.5000024100
55.9274196257 -2.3132873524 -2.5000024157
55.4830206344 -3.9401157231 -2.5000025771
55.5117326262 -3.9118572830 -2.5000025771
55.5827767827 -3.8404723444 -2.5000025771
55.6666244910 -3.7534350984 -2.5000025771
55.7216590405 -3.6945894256 -2.5000025771
55.7489142397 -3.6649234176 -2.5000025771
55.7894667588 -3.6201233598 -2.5000025771
55.8296201056 -3.5749651852 -2.5000025771
56.1965694685 -3.1206982630 -2.5000025771
56.2204210232 -3.0882325695 -2.5000025771
56.2558371672 -3.0392708627 -2.5000025771
55.2936019351 -4.1510636045 -2.5000025829
55.3977665407 -4.0552970699 -2.5000025829
55.4271614762 -4.0275410057 -2.5000025829
55.4417972347 -4.0135978785 -2.5000025829
55.6282567333 -3.8284478374 -2.5000025829
56.3105904038 -3.0039023225 -2.5000025829
56.3452546135 -2.9541437338 -2.5000025829
55.1260254826 -4.3286732804 -2.5000025886
55.2032766989 -4.2629475067 -2.5000025886
55.2795473556 -4.1960863470 -2.5000025886
55.3248321308 -4.1554307405 -2.5000025886
55.4143104063 -4.0729219328 -2.5000025886
56.3766471992 -2.9511600178 -2.5000025886
56.5323631708 -2.7136784806 -2.5000025886
56.5644430736 -2.6619632116 -2.5000025886
56.5960627691 -2.6099652881 -2.5000025886
55.0472498867 -4.4248243395 -2.5000025944
55.0788372042 -4.3991355823 -2.5000025944
55.1415531305 -4.3471996787 -2.5000025944
56.1937751611 -3.2452065643 -2.5000025944
56.4647618249 -2.8634877108 -2.5000025944
56.5636303782 -2.7092445276 -2.5000025944
56.5956697009 -2.6572519544 -2.5000025944
54.9179396584 -4.5572896423 -2.5000026002
55.1099363558 -4.4048847033 -2.5000026002
56.7798802868 -2.3868913989 -2.5000026002
56.6369406426 -2.6824323137 -2.5000026059
54.7486549432 -4.7421969105 -2.5000026117
56.7924415437 -2.4641043852 -2.5000026117
57.0001245426 -2.0620796127 -2.5000026117
56.6457220882 -2.7603357761 -2.5000026174
57.1852084554 -1.8279791759 -2.5000026290
55.0556062462 -4.6342237670 -2.5000026347
51.8588870737 -3.4479409504 -2.4999966358
51.9502277491 -3.4436483041 -2.4999966098
52.4415875246 -3.4570048306 -2.4999964023
53.1434538607 -3.4333982920 -2.4999960652
55.9401643598 2.0775894864 -2.4999952353
55.9392275511 -0.9614380659 -2.4999952093
55.9501243675 2.1316590168 -2.4999952093
55.9363559287 2.1791924462 -2.4999952093
55.9237197623 -1.0949810324 -2.4999951834
55.9452932203 2.2336357483 -2.4999951834
55.9469464828 -1.5319019886 -2.4999950019
55.9493555347 2.7338164098 -2.4999950019
55.9570054980 -1.9328078742 -2.4999948203
55.9644862941 -1.9169117049 -2.4999948203
55.7636784907 3.7542950759 -2.4999946906
55.7543366536 3.7695944654 -2.4999946906
55.7560547605 3.8128596126 -2.4999946647
55.5676309079 4.0981617188 -2.4999946647
55.5572727089 4.1128796596 -2.4999946647
55.5455605603 4.1709650891 -2.4999946388
56.4434279000 2.4230619216 -2.4999946128
56.4102201603 2.5267140616 -2.4999946128
56.3870618830 2.5954809943 -2.4999946128
55.5435717841 -3.9227017198 -2.4999939904
55.8025590121 -3.6217110065 -2.4999939904
56.3172749181 -2.8921046884 -2.4999939904
56.4292752684 -2.7503625800 -2.4999939645
56.6606700408 -2.4206036703 -2.4999939126
56.9346732939 -1.9910215729 -2.4999938348
54.5727101557 -5.0060636154 -2.4999938089
56.9623107772 -2.1130527488 -2.4999937570
51.4085437796 -3.4668276773 -2.4999989057
51.5075062961 -3.4416215845 -2.4999989057
51.5184598249 -3.4386584948 -2.4999989057
51.5468250155 -3.4559221727 -2.4999988913
51.5688071787 -3.4497307306 -2.4999988913
51.6017107797 -3.4401999888 -2.4999988913
51.6525504989 -3.4501449479 -2.4999988769
51.6635286068 -3.4467527539 -2.4999988769
51.8104228420 -3.4491552439 -2.4999988481
51.8844849723 -3.4481846443 -2.4999988337
51.9808340050 -3.4371179162 -2.4999988193
52.0446486633 -3.4373099899 -2.4999988049
52.0649075968 -3.4550618420 -2.4999987905
52.0868756028 -3.4458052645 -2.4999987905
52.1087884593 -3.4364188789 -2.4999987905
52.1197239667 -3.4316771106 -2.4999987905
53.0012881957 3.4304571834 -2.4999987905
52.1513329928 -3.4442027471 -2.4999987761
52.4229980755 -3.4481903963 -2.4999987040
52.4780963938 -3.4466674630 -2.4999986896
52.5000075043 -3.4349664688 -2.4999986896
52.6337730336 -3.4436471031 -2.4999986464
52.9176583243 -3.4401778549 -2.4999985599
52.9395233471 -3.4258763783 -2.4999985599
52.9965273957 -3.4169186011 -2.4999985455
55.9406160290 0.1149862259 -2.4999979548
55.9425898153 0.2435023452 -2.4999979548
55.9424360868 0.3077689239 -2.4999979548
55.9415219370 0.3720291844 -2.4999979548
55.9664569922 -1.0051273095 -2.4999978539
55.9564781719 1.5726119488 -2.4999978539
55.9446385186 1.6208830365 -2.4999978539
55.9405968288 1.6369498151 -2.4999978539
55.9624644315 -1.1237667944 -2.4999978395
55.9665418343 -1.1076352745 -2.4999978395
55.9599239059 1.6590056695 -2.4999978395
55.9473174211 1.7073039341 -2.4999978395
55.9386751888 1.7394398019 -2.4999978395
55.9603173047 -1.2266693912 -2.4999978251
55.9690332164 -1.1944052623 -2.4999978251
55.9575888934 1.7619041743 -2.4999978251
55.9440693341 1.8101776649 -2.4999978251
55.9348185231 1.8422925155 -2.4999978251
55.9562273970 -1.3299305159 -2.4999978107
55.9609146967 -1.3138165441 -2.4999978107
55.9701461897 -1.2815473556 -2.4999978107
55.9533104487 1.8651576591 -2.4999978107
55.9339677906 1.9294375636 -2.4999978107
55.9650196141 -1.3851799096 -2.4999977963
55.9620017716 1.9204230144 -2.4999977963
55.9368863637 2.0008592844 -2.4999977963
55.9681954912 -1.4568601623 -2.4999977819
55.9442011366 2.0565188330 -2.4999977819
55.9334928862 2.0886301520 -2.4999977819
55.9757110787 -1.5126883981 -2.4999977675
55.9861189055 -1.4803281886 -2.4999977675
55.9399142656 2.1445948002 -2.4999977675
55.9343233623 2.1606453123 -2.4999977675
55.9661953775 -1.6172677976 -2.4999977531
55.9717326292 -1.6011230816 -2.4999977531
55.9720805321 -1.6736813285 -2.4999977387
55.9777846395 -1.6575189562 -2.4999977387
55.9890492962 -1.6251439441 -2.4999977387
55.9627545410 2.2250717433 -2.4999977387
55.9391525511 2.2894381985 -2.4999977387
55.9331331782 2.3054858235 -2.4999977387
55.9594903051 -1.7787765263 -2.4999977243
55.9773922259 -1.7303467346 -2.4999977243
55.9310999609 2.3782862721 -2.4999977243
55.9574880724 -1.8518478136 -2.4999977098
55.9637192923 -1.8357278289 -2.4999977098
55.9545162670 -1.9251563170 -2.4999976954
55.9505125024 2.4603793436 -2.4999976954
55.9307946464 2.5085625303 -2.4999976954
55.9396884062 2.5499730681 -2.4999976810
55.9413679237 2.6076404358 -2.4999976666
55.9546413083 -2.1722954048 -2.4999976378
55.9689519604 -2.1400483069 -2.4999976378
55.9428057043 2.7818733497 -2.4999976234
55.9485036487 2.8829201955 -2.4999975946
55.9329060551 2.9150425062 -2.4999975946
55.9672975719 -2.3743060037 -2.4999975802
55.9387692075 2.9578232666 -2.4999975802
55.9307726323 2.9738668332 -2.4999975802
55.9280204297 3.0328613380 -2.4999975658
55.9546113739 -2.5086458292 -2.4999975514
55.9627855337 -2.4925314805 -2.4999975514
55.9595968128 -2.5518962931 -2.4999975369
55.9678988935 -2.5357670074 -2.4999975369
55.9419700763 3.1627223365 -2.4999975225
55.9247171935 3.1948010954 -2.4999975225
55.9308032448 3.4303614615 -2.4999974505
55.9574698561 -2.9073330237 -2.4999974361
55.9668233923 -2.8912084747 -2.4999974361
56.2278833769 2.9140980950 -2.4999974361
56.2120964347 2.9478727643 -2.4999974361
56.1961099466 2.9815534417 -2.4999974361
56.1301798299 3.1153127030 -2.4999974361
56.1046427327 3.1650645460 -2.4999974361
55.9516727363 3.4425598061 -2.4999974361
55.7849470106 3.7120147588 -2.4999974361
55.7333526351 3.7896363495 -2.4999974361
55.7018469203 3.8358400199 -2.4999974361
55.6806158499 3.8664863488 -2.4999974361
55.6048871160 3.9727480967 -2.4999974361
56.3333686868 2.7361626034 -2.4999974217
56.3260260974 2.7533744365 -2.4999974217
56.3111883327 2.7877325640 -2.4999974217
55.6023024053 4.0171659123 -2.4999974217
55.5800002922 4.0472201290 -2.4999974217
55.5234705175 4.1217738124 -2.4999974217
56.4467586324 2.5190840567 -2.4999974073
56.4265002635 2.5716688377 -2.4999974073
56.4196438690 2.5891568905 -2.4999974073
55.4495464811 4.2544933265 -2.4999974073
55.3537034897 4.3702300116 -2.4999974073
56.5337412550 2.3504592154 -2.4999973929
56.4957377377 2.4570172685 -2.4999973929
56.4826503513 2.4923846538 -2.4999973929
55.3476582621 4.4145530171 -2.4999973929
55.2100185714 4.5697017427 -2.4999973929
55.1972569568 4.5835824804 -2.4999973929
56.5986785865 2.2327558383 -2.4999973785
56.6446487244 2.1677601363 -2.4999973640
55.1284537938 4.7268624681 -2.4999973640
54.8867880994 4.9969368447 -2.4999973496
55.9434396139 -3.2534033690 -2.4999973352
54.6293091757 5.2539025877 -2.4999973352
55.6985722084 -3.7652105493 -2.4999972776
55.7458685158 -3.7035506662 -2.4999972776
55.7692422422 -3.6725119388 -2.4999972776
55.7808601395 -3.6569408531 -2.4999972776
56.1577365358 -3.0913362322 -2.4999972776
55.4437312849 -4.1100676719 -2.4999972632
55.4823424167 -4.0661231492 -2.4999972632
55.5205620451 -4.0218377048 -2.4999972632
55.5458228077 -3.9921263955 -2.4999972632
55.6082018143 -3.9171988364 -2.4999972632
55.6205442443 -3.9021030669 -2.4999972632
55.8118703229 -3.6557050163 -2.4999972632
56.2373730259 -3.0025687712 -2.4999972632
56.3222654449 -2.8489812542 -2.4999972632
56.3314447698 -2.8317778292 -2.4999972632
56.3405731637 -2.8145473253 -2.4999972632
56.3496505467 -2.7972898934 -2.4999972632
56.3586768394 -2.7800056845 -2.4999972632
55.3565812907 -4.2420194507 -2.4999972488
55.3698856998 -4.2276665989 -2.4999972488
55.3831475924 -4.2132744531 -2.4999972488
55.4488152583 -4.1407287333 -2.4999972488
55.5516308985 -4.0226585679 -2.4999972488
56.4593346333 -2.6338512185 -2.4999972488
56.4678769649 -2.6162432593 -2.4999972488
56.4931909136 -2.5632688429 -2.4999972488
55.1689494991 -4.4697408171 -2.4999972344
55.2107633488 -4.4282206652 -2.4999972344
56.5804812788 -2.4307323991 -2.4999972344
56.6041444884 -2.3767659878 -2.4999972344
55.1293789041 -4.5419485730 -2.4999972200
55.2969882266 -4.3750234539 -2.4999972200
56.6495934201 -2.3320033686 -2.4999972200
56.6723777435 -2.2774275136 -2.4999972200
54.8987227540 -4.8175112737 -2.4999971912
54.9585263668 -4.7652419135 -2.4999971912
54.6840304386 -5.0261055046 -2.4999971767
54.6996572587 -5.0137387491 -2.4999971767
56.8672545502 -1.9699565375 -2.4999971767
52.4263574343 -8.0201263224 -2.4999961249
51.9202632006 -3.4391507214 -2.5000016263
52.1490912823 -3.4405732296 -2.5000016378
52.1797204496 -3.4523525654 -2.5000016407
52.4659430253 -3.4342590650 -2.5000016551
52.3335095075 3.4447598683 -2.5000016667
52.3761246426 3.4496572750 -2.5000016695
52.4948289908 3.4673837988 -2.5000016782
52.6679472843 3.4496995757 -2.5000016868
52.7120785621 3.4507700821 -2.5000016897
52.9563319211 3.4339677101 -2.5000017041
53.3468365716 -3.4274601431 -2.5000017156
55.9631087115 -1.4084820381 -2.5000018626
55.9708332673 -1.3761133276 -2.5000018626
55.9527068689 1.2774327733 -2.5000018626
55.9637846900 1.3318751396 -2.5000018655
55.9466169357 1.3964738520 -2.5000018655
55.9547677785 -1.6308600739 -2.5000018684
55.9638081434 -1.5985368192 -2.5000018684
55.9519342374 1.4674872709 -2.5000018684
55.9592949469 -1.7021978972 -2.5000018713
55.9687572911 -1.6698466097 -2.5000018713
55.9734166461 -1.6536501140 -2.5000018713
55.9367148596 1.6033292829 -2.5000018713
55.9528173580 -1.8061728837 -2.5000018741
55.9547553950 1.6266555681 -2.5000018741
55.9496631616 1.6427962200 -2.5000018741
55.9445232036 1.6589217376 -2.5000018741
55.9443628518 -1.9104245764 -2.5000018770
55.9497339867 -1.8942991913 -2.5000018770
55.9603330340 -1.8620011076 -2.5000018770
55.9655608536 -1.8458286916 -2.5000018770
55.9707408094 -1.8296408816 -2.5000018770
55.9623341029 1.6824752702 -2.5000018770
55.9780253183 -1.8856952181 -2.5000018799
55.9360933517 1.8354193170 -2.5000018799
55.9451512706 -2.0552678318 -2.5000018828
55.9680630699 -1.9906524781 -2.5000018828
55.9403696945 1.9646961378 -2.5000018857
55.9342775390 1.9807927552 -2.5000018857
55.9606609550 -2.1527456221 -2.5000018885
55.9744693871 -2.2511091243 -2.5000018943
55.9371472090 -2.4056607041 -2.5000018972
55.9397621492 2.2261606998 -2.5000018972
55.9464434580 -2.5054951708 -2.5000019030
55.9676944760 -2.4570298047 -2.5000019030
55.9464904056 -2.6222424490 -2.5000019087
55.9470886306 2.5602388884 -2.5000019145
55.9358706835 -2.9173136975 -2.5000019231
55.9404057808 -2.9607333668 -2.5000019260
55.9218552626 2.8730650256 -2.5000019289
55.9195812380 2.9767693400 -2.5000019346
55.9223388398 3.0208164705 -2.5000019375
55.9514475331 -3.2405211983 -2.5000019433
55.7186374442 -3.7827141196 -2.5000019548
55.7834127331 -3.6894386705 -2.5000019548
55.9218504654 3.3040089546 -2.5000019548
55.5098274134 -4.1001671437 -2.5000019577
55.6033957557 -3.9803984425 -2.5000019577
56.2866279691 -2.8642856413 -2.5000019577
56.3029598858 -2.8299774032 -2.5000019577
56.3585171958 -2.7091502871 -2.5000019577
55.4806784566 -4.1745412424 -2.5000019606
56.4263755447 -2.6141646898 -2.5000019606
56.4412252160 -2.5790340357 -2.5000019606
56.4485720447 -2.5614359164 -2.5000019606
56.4631093664 -2.5261748632 -2.5000019606
56.4774378174 -2.4908284194 -2.5000019606
55.2609683505 -4.4644623670 -2.5000019635
55.1198047308 -4.6477944704 -2.5000019663
55.1332771087 -4.6340963002 -2.5000019663
55.1867596406 -4.5789068852 -2.5000019663
55.2264409397 -4.5371016387 -2.5000019663
55.5829893582 3.9513725949 -2.5000019663
56.3852841337 2.7087009658 -2.5000019692
56.3517956291 2.7781906693 -2.5000019692
55.6258125434 3.9361219626 -2.5000019692
55.4548589046 4.1450632144 -2.5000019692
56.7367042955 -2.0531806879 -2.5000019721
56.4559878072 2.6137117763 -2.5000019721
55.3713449004 4.2773445861 -2.5000019721
54.6396604019 -5.1818476043 -2.5000019750
55.1629889996 4.5339110272 -2.5000019750
56.6573272214 2.2556717935 -2.5000019779
56.6433612626 2.2920836050 -2.5000019779
56.6362975598 2.3102583661 -2.5000019779
55.7187707803 3.9346807787 -2.5000019779
55.1801671934 4.5509182298 -2.5000019779
56.7338218345 2.1172703210 -2.5000019808
55.2230603648 -4.7496489951 -2.5000019836
52.0763738570 -0.1354244931 -2.5000015649
52.0628730168 0.0991384287 -2.5000015764
51.8699832140 3.4217338333 -2.5000021643
52.1324621110 3.4258241212 -2.5000021873
52.1531510548 3.4434214962 -2.5000021931
52.2755231856 3.4432740671 -2.5000022046
52.2295316072 3.4635215291 -2.5000022046
52.4324787846 3.4500030383 -2.5000022219
52.7528726972 3.4447910299 -2.5000022565
52.9284795973 3.4531821906 -2.5000022795
53.1662921725 3.4435538778 -2.5000023084
55.9437671245 -1.9099211522 -2.5000025274
55.9524083836 -1.8779331423 -2.5000025274
55.9540354628 1.0050971435 -2.5000025274
55.9643628566 1.0594903211 -2.5000025331
55.9463190739 1.1235527271 -2.5000025331
55.9583972101 -2.0351740273 -2.5000025389
55.9554577039 1.1783539571 -2.5000025389
55.9419884167 -2.1703103839 -2.5000025446
55.9621627028 -2.1062866171 -2.5000025446
55.9590930930 1.2494733167 -2.5000025446
55.9386076996 -2.2577378106 -2.5000025504
56.0017941608 1.1921479376 -2.5000025504
55.9505735628 -2.2975136295 -2.5000025562
55.9635723368 1.3926320505 -2.5000025562
55.9451453331 -2.3855266262 -2.5000025619
55.9622568918 -2.3374946200 -2.5000025619
55.9425060941 -2.5303479804 -2.5000025735
55.9571453957 1.6255174589 -2.5000025735
55.9448695785 1.6575227430 -2.5000025735
55.9333024529 -2.6190842040 -2.5000025792
55.9674136628 1.6662462484 -2.5000025792
55.9548967007 1.6983115703 -2.5000025792
55.9485671332 1.7143163204 -2.5000025792
55.9360139697 -2.6761278968 -2.5000025850
55.9396646201 -2.7908679057 -2.5000025965
55.9535179278 -2.7588887495 -2.5000025965
55.9423221625 1.9180457095 -2.5000025965
55.9547910319 -2.8165665207 -2.5000026023
55.9504220088 1.9597385456 -2.5000026023
55.9509900023 2.0176224337 -2.5000026080
55.9509548866 2.0757040914 -2.5000026138
55.9435089410 2.0916955296 -2.5000026138
55.9441631659 -3.1239013293 -2.5000026311
55.8365293812 -3.6211957562 -2.5000026657
55.8459363964 -3.6055178830 -2.5000026657
55.8830994485 -3.5425301750 -2.5000026657
55.5742390986 -4.0624943830 -2.5000026714
55.5956221712 -4.0326549514 -2.5000026714
55.6483042303 -3.9575074741 -2.5000026714
55.5283889800 -4.1657305989 -2.5000026772
55.9284163762 2.6940445321 -2.5000026772
56.4593612846 -2.4532904188 -2.5000026830
56.4770539598 -2.4006923661 -2.5000026830
55.9212471838 2.7540496907 -2.5000026830
56.5396146489 -2.2844966091 -2.5000026887
56.5450643899 -2.2667447311 -2.5000026887
55.9244549726 2.8426170134 -2.5000026945
54.9652524328 -4.9548770600 -2.5000027003
54.9009029508 -5.0502558708 -2.5000027060
55.9166242017 2.9923502415 -2.5000027118
54.9340948538 -5.0854075237 -2.5000027175
55.9111233434 3.2632047404 -2.5000027464
55.7784820310 3.6485457648 -2.5000027752
55.7420511451 3.6948611142 -2.5000027752
55.7052106710 3.7408513362 -2.5000027752
55.6928399940 3.7561085329 -2.5000027752
55.6679635103 3.7865128086 -2.5000027752
56.3631899779 2.8096879975 -2.5000027809
56.3145871804 2.8954396583 -2.5000027809
55.5068645623 4.0112701160 -2.5000027809
56.4596910387 2.6822781381 -2.5000027867
55.4179244239 4.1440683795 -2.5000027867
55.3907574509 4.1728393725 -2.5000027867
55.2834966357 4.3174077222 -2.5000027925
55.2127121816 4.3870253811 -2.5000027925
55.1841113849 4.4145780174 -2.5000027925
56.6100914662 2.4912597099 -2.5000027982
56.5926821994 2.5271128904 -2.5000027982
55.0843947497 4.5409312834 -2.5000027982
55.0696600078 4.5543484936 -2.5000027982
56.6661709748 2.4294834917 -2.5000028040
54.9053927497 4.7303801400 -2.5000028040
57.1472348920 1.6614657895 -2.5000028443
51.3243131938 3.4254839396 -2.5000009537
51.5567255829 3.4307115306 -2.5000009537
51.7110862988 3.4191872125 -2.5000009537
51.7915869063 3.4229499297 -2.5000009537
51.7791876088 3.4263191757 -2.5000009537
51.8973345799 3.4178390040 -2.5000009537
51.8725544595 3.4251665302 -2.5000009537
51.7037602593 3.4957989422 -2.5000009537
52.0481653755 3.4207722770 -2.5000009537
52.0357713972 3.4249005381 -2.5000009537
52.0109470755 3.4330469794 -2.5000009537
51.8986591496 3.4678827008 -2.5000009537
52.2461904068 3.4269026154 -2.5000009537
52.2921604951 3.4350487417 -2.5000009537
52.2672716459 3.4447118894 -2.5000009537
52.4098226093 3.4395154561 -2.5000009537
52.5036806363 3.4518038100 -2.5000009537
52.8174756080 3.4357475383 -2.5000009537
53.0743762841 3.4329598644 -2.5000009537
53.2985222494 3.4387426842 -2.5000009537
53.7332944956 3.4348254008 -2.5000009537
55.9489242305 -2.1489337186 -2.5000009537
55.9585306234 0.5777693632 -2.5000009537
55.9380616208 0.6561902874 -2.5000009537
55.9243339910 -2.3275695725 -2.5000009537
55.9379763621 -2.2806696863 -2.5000009537
55.9571537057 0.6781844722 -2.5000009537
55.9428545334 -2.3500988840 -2.5000009537
55.9446398062 0.8103458894 -2.5000009537
55.9399508925 0.8260120483 -2.5000009537
55.9352156561 0.8416642680 -2.5000009537
55.9565140673 -2.3884666477 -2.5000009537
55.9583426777 0.8486981967 -2.5000009537
55.9486913827 0.8800969748 -2.5000009537
55.9447673773 -2.5056058424 -2.5000009537
55.9549615090 -2.4742286744 -2.5000009537
55.9518308860 0.9501637679 -2.5000009537
55.9415794005 0.9815222443 -2.5000009537
55.9359042148 -2.6073114868 -2.5000009537
55.9697047546 0.9733618721 -2.5000009537
55.9645335005 0.9891014644 -2.5000009537
55.9540514243 1.0205344122 -2.5000009537
55.9608195701 1.0754840713 -2.5000009537
55.9557088068 1.1621392377 -2.5000009537
55.9784286895 1.1703940675 -2.5000009537
55.9359049816 -2.9476146781 -2.5000009537
55.9452038041 -2.9882165461 -2.5000009537
55.9765715396 1.4420231729 -2.5000009537
55.9700138706 1.4577810278 -2.5000009537
55.9790071744 1.4986905285 -2.5000009537
55.9288811328 -3.2623758777 -2.5000009537
55.9282913628 -3.3196753742 -2.5000009537
55.9347974713 -3.3615275206 -2.5000009537
55.9754340268 1.7432395346 -2.5000009537
55.6416274275 -3.9791913100 -2.5000009537
55.7070699576 -3.8750730079 -2.5000009537
55.8314182343 -3.6628834609 -2.5000009537
56.1437113564 -3.0142856040 -2.5000009537
55.9888501451 1.8272365715 -2.5000009537
55.9656184019 1.8745453919 -2.5000009537
56.2304149993 -2.8591880341 -2.5000009537
55.9714842416 1.9168484850 -2.5000009537
55.4924154445 -4.2831214233 -2.5000009537
56.3674592341 -2.5324791476 -2.5000009537
55.9770349563 1.9593130648 -2.5000009537
54.9605224574 -5.0224390470 -2.5000009537
55.9788157862 2.1623404290 -2.5000009537
55.7369362296 3.6823141514 -2.5000009537
55.7105241860 3.7123534217 -2.5000009537
55.6571692489 3.7719605514 -2.5000009537
56.2803023872 3.0140608660 -2.5000009537
56.2237644949 3.0969744282 -2.5000009537
55.7419061883 3.7133150266 -2.5000009537
55.7153106461 3.7433831583 -2.5000009537
55.7019462812 3.7583580868 -2.5000009537
55.6885376762 3.7732934155 -2.5000009537
55.5242267856 3.9493813583 -2.5000009537
55.4255269152 4.0493689903 -2.5000009537
56.4631225825 2.7729975928 -2.5000009537
56.3003743086 3.0275313245 -2.5000009537
55.6248373172 3.8785581665 -2.5000009537
55.5695217670 3.9371397742 -2.5000009537
55.3414455319 4.1647993697 -2.5000009537
55.3121858654 4.1924903399 -2.5000009537
55.2827628820 4.2200077155 -2.5000009537
56.5253978452 2.7162456105 -2.5000009537
55.1186740272 4.3996898110 -2.5000009537
56.6470004187 2.5525374547 -2.5000009537
55.1803305685 4.3779334307 -2.5000009537
56.8978203912 2.1102049211 -2.5000009537
56.7572253644 2.4501003823 -2.5000009537
57.0326675045 1.9240702528 -2.5000009537
56.7005074514 2.6055646091 -2.5000009537
53.9493107055 5.4899130021 -2.5000009537
54.4154135143 5.2492551009 -2.5000009537
52.0955019039 3.4242588739 -2.5000009537
52.0821804329 3.4280485343 -2.5000009537
52.0555041509 3.4355095507 -2.5000009537
51.8270870214 3.4925258064 -2.5000009537
52.3379970672 3.4498912511 -2.5000009537
52.6886264345 3.4469875193 -2.5000009537
52.9049112357 3.4309880605 -2.5000009537
52.9685607982 3.4276534183 -2.5000009537
52.9656155166 3.4558519098 -2.5000009537
55.9425328013 -2.4316723536 -2.5000009537
55.9694794727 -2.3250624098 -2.5000009537
55.9318901678 0.3171892179 -2.5000009537
55.9366251776 -2.5443501253 -2.5000009537
55.9577653457 -2.4683318216 -2.5000009537
55.9468383945 0.3539655353 -2.5000009537
55.9392529696 0.4670328877 -2.5000009537
55.9513411560 -2.6644896399 -2.5000009537
55.9301613372 -2.8085925264 -2.5000009537
55.9269895401 0.6637457183 -2.5000009537
55.9321218510 -2.8770930820 -2.5000009537
55.9386810726 -2.9307112766 -2.5000009537
55.9495578540 -2.9003226184 -2.5000009537
53.8796818561 3.4312793937 -2.5000009537
55.9297664016 0.8701040008 -2.5000009537
55.9384502816 -3.0691044309 -2.5000009537
55.9348025435 0.9242723310 -2.5000009537
55.9168395824 0.9696930933 -2.5000009537
55.9271183671 1.1337252701 -2.5000009537
55.9205559438 1.1488595671 -2.5000009537
55.9467951826 -3.3033261967 -2.5000009537
55.9533582739 -3.2881142782 -2.5000009537
55.9294030431 1.1888499341 -2.5000009537
55.7476266990 -3.8170532301 -2.5000009537
55.7954777781 -3.7289481233 -2.5000009537
55.8110797030 -3.6993927334 -2.5000009537
55.8188150246 -3.6845805528 -2.5000009537
55.8265064952 -3.6697455546 -2.5000009537
55.6679811971 -4.0031143943 -2.5000009537
55.6766156084 -3.9887241961 -2.5000009537
55.6937565361 -3.9598674882 -2.5000009537
55.9327809564 1.3554836141 -2.5000009537
55.5721064684 -4.2010662551 -2.5000009537
56.2852359281 -2.6440796752 -2.5000009537
55.3883275481 -4.5053040952 -2.5000009537
56.3484180340 -2.5037388492 -2.5000009537
56.3689125021 -2.4216344122 -2.5000009537
55.9530455607 1.6901822498 -2.5000009537
55.9494716763 1.7473732235 -2.5000009537
55.9577864766 1.8317912497 -2.5000009537
55.9671808854 2.1470457312 -2.5000009537
55.9683159644 2.7052167959 -2.5000009537
56.2466995573 3.0596182122 -2.5000009537
56.1472882638 3.1871628386 -2.5000009537
55.7203218813 3.6727662450 -2.5000009537
56.4331371447 2.8447088627 -2.5000009537
56.3387591044 2.9767253903 -2.5000009537
55.5945568675 3.8332988194 -2.5000009537
55.5800100725 3.8474375276 -2.5000009537
56.5445160907 2.7238474635 -2.5000009537
55.4335160594 4.0179895116 -2.5000009537
56.7491263552 2.4429891021 -2.5000009537
56.7386872961 2.4605493188 -2.5000009537
54.9765780919 4.4588052649 -2.5000009537
56.9225808307 2.2349852855 -2.5000009537
54.9084981813 4.5393811506 -2.5000009537
54.8417542793 4.5875097315 -2.5000009537
57.1069703472 1.9816003631 -2.5000009537
54.4265629546 4.9742927615 -2.5000009537
50.9669227411 3.3995571740 -2.5000011921
50.9247344258 3.3988945940 -2.5000011921
50.8966128669 3.3982448853 -2.5000011921
50.8825536519 3.3978576424 -2.5000011921
50.8403837413 3.3964464009 -2.5000011921
50.8263300926 3.3958928299 -2.5000011921
52.6941040507 3.4554362357 -2.5000011921
55.9417710633 0.0472491020 -2.5000011921
52.9610225360 3.4324330509 -2.5000011921
55.9608237126 -2.9435245948 -2.5000011921
55.9391320575 0.5152996910 -2.5000011921
55.9382784067 0.6494117125 -2.5000011921
55.9323286780 0.6639506554 -2.5000011921
55.8303771846 -3.6617545907 -2.5000011921
55.9303488137 0.7313808237 -2.5000011921
53.9783832834 3.4295367251 -2.5000011921
56.4104700865 2.9239118557 -2.5000011921
55.8387111420 3.5588817727 -2.5000011921
55.6912746028 3.6992432264 -2.5000011921
55.6763040016 3.7130381430 -2.5000011921
55.6462407035 3.7404948176 -2.5000011921
55.5856294150 3.7948721768 -2.5000011921
56.5171448151 2.8260243341 -2.5000011921
55.4781011747 3.9199191590 -2.5000011921
55.3030345789 4.0938052040 -2.5000011921
56.8176941039 2.4864067059 -2.5000011921
56.7948679931 2.5206376958 -2.5000011921
55.9437644566 -0.2619234746 -2.5000009537
55.9398126188 -0.2481277461 -2.5000009537
55.9409622489 -3.0148272377 -2.5000009537
55.9467454206 -0.1860980704 -2.5000009537
55.9425692645 -0.1722938553 -2.5000009537
55.9682938513 -3.0080193950 -2.5000009537
55.9656962895 -0.1652599375 -2.5000009537
55.9528597339 -0.1237172979 -2.5000009537
55.9581482325 -0.0609961516 -2.5000009537
55.9536019524 -0.0471587523 -2.5000009537
55.9434269318 0.0573708850 -2.5000009537
55.9462923153 0.1207784597 -2.5000009537
55.9587293443 0.1568225444 -2.5000009537
55.9598661409 0.6482139055 -2.5000009537
52.4529571095 3.4639337939 -2.5000009537
49.8712706665 3.4042858780 -2.5000009537
49.8417419510 3.3958745072 -2.5000009537
55.9340857936 0.7555505136 -2.5000009537
52.6081193790 3.4503496160 -2.5000009537
52.5782702355 3.4581295551 -2.5000009537
52.5633285336 3.4619532663 -2.5000009537
49.7611084818 3.3972100879 -2.5000009537
55.9345679332 0.8078467207 -2.5000009537
52.7635006067 3.4319894627 -2.5000009537
52.6890473082 3.4534080080 -2.5000009537
52.6741190888 3.4575594385 -2.5000009537
52.6591786539 3.4616666904 -2.5000009537
52.8448256920 3.4325489497 -2.5000009537
52.8001834964 3.4462539367 -2.5000009537
55.9631410151 0.8577478875 -2.5000009537
52.9264906855 3.4317965796 -2.5000009537
49.5466980835 3.4037125292 -2.5000009537
49.5171784407 3.3933808880 -2.5000009537
55.9250378682 0.9796240454 -2.5000009537
52.9190946297 3.4596406173 -2.5000009537
53.0907558229 3.4263169719 -2.5000009537
53.0610404178 3.4369527709 -2.5000009537
53.0014234350 3.4576960254 -2.5000009537
49.4120812464 3.4066321076 -2.5000009537
49.3973057367 3.4010898845 -2.5000009537
49.3443549979 3.4067453975 -2.5000009537
53.1967482090 3.4385285384 -2.5000009537
49.2911564320 3.4118524759 -2.5000009537
49.2468378445 3.3940214567 -2.5000009537
53.2501218200 3.4438128014 -2.5000009537
49.1933587153 3.3981017168 -2.5000009537
53.3186384205 3.4425301534 -2.5000009537
53.4171291482 3.4277611445 -2.5000009537
53.3575959967 3.4527184497 -2.5000009537
55.9165280533 1.3267006797 -2.5000009537
53.8449678078 3.4139555130 -2.5000009537
53.8153123372 3.4290536997 -2.5000009537
54.0681277633 3.4041234608 -2.5000009537
54.0385265568 3.4205421088 -2.5000009537
54.1806617218 3.3956042646 -2.5000009537
54.1658979698 3.4041684131 -2.5000009537
54.1511089481 3.4126888504 -2.5000009537
54.3632252760 3.3988149074 -2.5000009537
54.4479590846 3.4027798437 -2.5000009537
54.7780165876 3.3856272727 -2.5000009537
56.2919694585 3.0874992882 -2.5000009537
56.1940239933 3.1903101988 -2.5000009537
56.1227699811 3.2624939470 -2.5000009537
55.7662796081 3.5939246824 -2.5000009537
55.7355257532 3.6203868452 -2.5000009537
55.5952183186 3.7371959909 -2.5000009537
56.4328411828 2.9683878401 -2.5000009537
55.5628146092 3.7942133517 -2.5000009537
55.4341848861 3.8940931188 -2.5000009537
55.4016609462 3.9185852443 -2.5000009537
55.3526047665 3.9549615704 -2.5000009537
56.6616285037 2.7345401723 -2.5000009537
56.4373903800 2.9996850353 -2.5000009537
56.8064932962 2.5879963118 -2.5000009537
56.7314543028 2.6854549846 -2.5000009537
56.7187801400 2.7015679462 -2.5000009537
55.1123962180 4.1817959205 -2.5000009537
55.0953026922 4.1931128683 -2.5000009537
55.0781757636 4.2043792009 -2.5000009537
56.9829022707 2.3861857861 -2.5000009537
56.9473830095 2.4366550857 -2.5000009537
56.8627732918 2.5531764024 -2.5000009537
57.0841402451 2.2806239155 -2.5000009537
57.0379238412 2.3490513061 -2.5000009537
57.0145128194 2.3830587307 -2.5000009537
56.9790200643 2.4338086793 -2.5000009537
56.7694978406 2.7152883612 -2.5000009537
54.8951602000 4.3769370148 -2.5000009537
54.8242924876 4.4193166221 -2.5000009537
54.8544014764 4.4295833833 -2.5000009537
54.8187195435 4.4506359434 -2.5000009537
54.5995904348 4.6560736859 -2.5000009537
55.9559064817 -0.4317277675 -2.5000011921
55.9478593407 -0.4058208357 -2.5000011921
55.9437783274 -0.3928853367 -2.5000011921
55.9396590664 -0.3799619668 -2.5000011921
55.9542823757 -0.3466408107 -2.5000011921
55.9500262690 -0.3336865702 -2.5000011921
55.9457318601 -0.3207449767 -2.5000011921
55.9370282857 -0.2949001837 -2.5000011921
55.9465025839 -0.2482452835 -2.5000011921
55.9419554396 -0.2353144876 -2.5000011921
55.9542984668 -0.1281373467 -2.5000011921
55.9493959873 -0.1151840147 -2.5000011921
55.9670250178 -0.0935885041 -2.5000011921
55.9600561584 0.1156407737 -2.5000011921
55.9487705286 0.1415626766 -2.5000011921
55.9430702519 0.1544984759 -2.5000011921
55.9458981242 0.2650409373 -2.5000011921
55.9555667658 0.3012418035 -2.5000011921
55.9523602865 0.3635752848 -2.5000011921
55.9396079277 0.3894473171 -2.5000011921
55.9612584471 0.4001986096 -2.5000011921
55.9433481833 0.4888721172 -2.5000011921
55.9512447302 0.5259492420 -2.5000011921
55.9519071856 0.5761625757 -2.5000011921
55.9520215492 0.6265682905 -2.5000011921
55.9448865239 0.6395115849 -2.5000011921
55.9338334526 0.8047267549 -2.5000011921
55.9372013498 0.9843032485 -2.5000011921
52.9152940621 3.4340001904 -2.5000011921
52.8689794758 3.4457066646 -2.5000011921
52.7605215095 3.4714200503 -2.5000011921
50.1290067101 3.4067285239 -2.5000011921
50.1136729462 3.4024341228 -2.5000011921
50.0983519531 3.3980943805 -2.5000011921
52.9677380568 3.4452382152 -2.5000011921
50.0149777817 3.3988646299 -2.5000011921
49.9996677796 3.3942329450 -2.5000011921
49.9843715458 3.3895559907 -2.5000011921
53.1285687334 3.4248612715 -2.5000011921
53.0977541996 3.4339732270 -2.5000011921
49.9159517818 3.3934167695 -2.5000011921
53.2280144803 3.4194677094 -2.5000011921
53.1818165471 3.4339499742 -2.5000011921
50.2186860458 3.5057655025 -2.5000011921
49.9085765941 3.4164372363 -2.5000011921
49.8625362695 3.4014614713 -2.5000011921
49.8472192525 3.3963788255 -2.5000011921
55.9246855069 1.5511980794 -2.5000011921
53.2662102052 3.4325754504 -2.5000011921
49.7781856845 3.3984353100 -2.5000011921
49.7628779885 3.3931031531 -2.5000011921
53.3354972891 3.4350763545 -2.5000011921
53.2581875036 3.4605734527 -2.5000011921
49.7088629229 3.3995795265 -2.5000011921
53.4512927646 3.4202003452 -2.5000011921
53.4205001582 3.4312217260 -2.5000011921
49.6239517886 3.3940618111 -2.5000011921
53.5211614049 3.4202481686 -2.5000011921
53.4595060677 3.4429352728 -2.5000011921
49.5693977762 3.3991051416 -2.5000011921
49.5299412247 3.4096523915 -2.5000011921
49.4992796537 3.3974739243 -2.5000011921
53.6462939834 3.4237074399 -2.5000011921
53.4134740384 3.5105522935 -2.5000011921
49.4442353464 3.4012252655 -2.5000011921
53.6861194998 3.4337526606 -2.5000011921
53.7877795787 3.4176659291 -2.5000011921
53.7723974513 3.4241947920 -2.5000011921
49.3028224968 3.3936701698 -2.5000011921
49.2875309768 3.3869318235 -2.5000011921
53.8588528878 3.4132202469 -2.5000011921
54.0015973222 3.4014510874 -2.5000011921
54.0732428606 3.3941169332 -2.5000011921
54.0579291464 3.4014903512 -2.5000011921
54.0118580714 3.4233383511 -2.5000011921
53.9964581835 3.4305300539 -2.5000011921
49.2855461672 3.5179712162 -2.5000011921
48.8853116023 3.3265476689 -2.5000011921
48.8551529888 3.3105568108 -2.5000011921
48.8401092919 3.3024945408 -2.5000011921
48.7652521651 3.2615176151 -2.5000011921
48.6910092911 3.2194380057 -2.5000011921
48.6762358583 3.2108905676 -2.5000011921
54.1250997026 3.4226377698 -2.5000011921
49.6267471566 3.6782914448 -2.5000011921
49.6106122581 3.6725100809 -2.5000011921
49.5783941209 3.6608042902 -2.5000011921
49.5462458030 3.6489080910 -2.5000011921
49.5141684296 3.6368218998 -2.5000011921
49.4981566981 3.6307076892 -2.5000011921
49.4821631236 3.6245461396 -2.5000011921
49.4661878460 3.6183373052 -2.5000011921
49.4342927408 3.6057779993 -2.5000011921
48.6789346310 3.2403793013 -2.5000011921
48.5171673955 3.1435645068 -2.5000011921
54.2280469597 3.3980333660 -2.5000011921
54.2127209826 3.4058647053 -2.5000011921
49.7488484044 3.7457731148 -2.5000011921
49.6998916985 3.7293668829 -2.5000011921
49.6673356149 3.7181883043 -2.5000011921
49.5862397315 3.6894009054 -2.5000011921
48.4027264193 3.0995038221 -2.5000011921
54.3270216765 3.4008861247 -2.5000011921
54.3844180625 3.3974843673 -2.5000011921
54.3690930253 3.4057782831 -2.5000011921
54.4113182583 3.4103531907 -2.5000011921
54.4843713284 3.3974753821 -2.5000011921
54.4690458804 3.4060649777 -2.5000011921
54.5970944005 3.4165246416 -2.5000011921
54.6985420031 3.4126485911 -2.5000011921
54.8569436546 3.4286074783 -2.5000011921
55.1485865267 3.4685904362 -2.5000011921
55.2088027476 3.4565077374 -2.5000011921
55.8798772557 3.0503258378 -2.5000011921
55.3732129706 3.4583645080 -2.5000011921
55.6601965549 3.4846994500 -2.5000011921
55.7522927626 3.4738021630 -2.5000011921
56.3691686622 3.0544874216 -2.5000011921
56.3404886686 3.0827783367 -2.5000011921
56.3260860301 3.0968600401 -2.5000011921
56.2826290613 3.1388486559 -2.5000011921
56.2534514729 3.1666260972 -2.5000011921
56.2241100544 3.1942304279 -2.5000011921
56.2093782297 3.2079673747 -2.5000011921
56.0294689465 3.3693728582 -2.5000011921
55.5392875902 3.7558392014 -2.5000011921
55.4900135341 3.7908194726 -2.5000011921
55.4238355935 3.8367770077 -2.5000011921
55.4072065013 3.8481437864 -2.5000011921
55.3905438569 3.8594613235 -2.5000011921
56.5553132832 2.8977679660 -2.5000011921
56.5275572367 2.9271629181 -2.5000011921
56.3861952774 3.0716463743 -2.5000011921
55.4208180789 3.8681202785 -2.5000011921
55.3199873522 3.9355218603 -2.5000011921
55.3030666093 3.9465810051 -2.5000011921
55.2861132254 3.9575900469 -2.5000011921
55.2691273490 3.9685488894 -2.5000011921
55.2179762522 4.0011232638 -2.5000011921
56.7629636035 2.7032779998 -2.5000011921
56.7363545907 2.7339048848 -2.5000011921
56.6690434038 2.8097786739 -2.5000011921
56.6418059410 2.8398480315 -2.5000011921
55.2308702735 4.0215702562 -2.5000011921
55.1792501484 4.0538030327 -2.5000011921
55.1619801241 4.0644453338 -2.5000011921
55.1446786935 4.0750365006 -2.5000011921
55.1099822195 4.0960650605 -2.5000011921
56.8991516045 2.5788384235 -2.5000011921
56.8602692204 2.6259330737 -2.5000011921
56.8209704289 2.6726808100 -2.5000011921
56.1229283453 3.3840289199 -2.5000011921
55.0348622744 4.1686269048 -2.5000011921
57.1503830038 2.3342915319 -2.5000011921
57.1136609430 2.3836253498 -2.5000011921
54.8082187598 4.3496106548 -2.5000011921
54.7900753065 4.3591540837 -2.5000011921
57.3359308793 2.1133769991 -2.5000011921
57.3128018911 2.1474040752 -2.5000011921
57.2659419987 2.2150447380 -2.5000011921
57.0325876484 2.5285418778 -2.5000011921
54.7465077529 4.4089710714 -2.5000011921
54.7281889707 4.4183316883 -2.5000011921
54.8125183653 4.4019752261 -2.5000011921
54.6468317130 4.4860213891 -2.5000011921
54.4890325334 4.5876045622 -2.5000011921
54.3945502322 4.6300368247 -2.5000011921
54.0359013933 4.8536403793 -2.5000011921
57.7231679012 1.7672184000 -2.5000011921
55.9426968317 -0.8885192216 -2.5000009537
55.9536854406 -0.7440237756 -2.5000009537
55.9395711693 -0.6960935420 -2.5000009537
55.9403593264 -0.6171444590 -2.5000009537
55.9365086705 -0.6051862719 -2.5000009537
55.9600580550 -0.4498615617 -2.5000009537
55.9504533579 -0.2885684468 -2.5000009537
55.9449640980 -0.1500603759 -2.5000009537
55.9512378611 -0.1043520332 -2.5000009537
55.9515138836 -0.0463892604 -2.5000009537
56.3044851193 -0.4860931767 -2.5000009537
55.9650510052 0.3538133878 -2.5000009537
51.9937147171 3.4208513557 -2.5000009537
51.9621569811 3.4213359399 -2.5000009537
51.9305969304 3.4216338095 -2.5000009537
51.8832549310 3.4217305029 -2.5000009537
51.8516939268 3.4215615545 -2.5000009537
51.8201344746 3.4212058836 -2.5000009537
51.8043556757 3.4209580309 -2.5000009537
53.3692308062 3.4152122845 -2.5000009537
53.3376823590 3.4238349825 -2.5000009537
53.3060834491 3.4322708785 -2.5000009537
50.5871162667 3.4579329926 -2.5000009537
50.3118952615 3.4085148456 -2.5000009537
53.5246648109 3.4203448548 -2.5000009537
50.1557762542 3.4104113230 -2.5000009537
50.1400366698 3.4052400448 -2.5000009537
50.1243124519 3.4000222288 -2.5000009537
53.7129315797 3.4102893696 -2.5000009537
49.9827131456 3.4020982799 -2.5000009537
53.8550811571 3.4111769047 -2.5000009537
53.9108004514 3.4161927620 -2.5000009537
53.8792367250 3.4280195508 -2.5000009537
49.8400325445 3.4004228177 -2.5000009537
49.7840378534 3.4044335314 -2.5000009537
54.0702435706 3.4054207874 -2.5000009537
54.0387407842 3.4181910837 -2.5000009537
49.6556187209 3.4041154182 -2.5000009537
49.6398999494 3.3974646112 -2.5000009537
54.1676200266 3.4171569272 -2.5000009537
54.1360461011 3.4305031300 -2.5000009537
54.1612545365 3.4461189808 -2.5000009537
54.2658151472 3.4271663334 -2.5000009537
54.3231125538 3.4279327099 -2.5000009537
54.4382996048 3.4276675933 -2.5000009537
54.4066587573 3.4426150434 -2.5000009537
49.3124603192 3.4078103570 -2.5000009537
54.5966728004 3.4307364518 -2.5000009537
54.6392710652 3.4361743665 -2.5000009537
48.7582798216 3.2430369323 -2.5000009537
49.5926306988 3.6920918136 -2.5000009537
49.5760603166 3.6852534166 -2.5000009537
49.5429806021 3.6714297179 -2.5000009537
49.3951577981 3.6068112946 -2.5000009537
48.5490198405 3.1387392569 -2.5000009537
48.4598903476 3.0785402293 -2.5000009537
48.2994704048 2.9942208492 -2.5000009537
48.1701159401 2.8967395312 -2.5000009537
49.9980385408 3.8929159066 -2.5000009537
50.2269339180 4.0130551621 -2.5000009537
50.3085543257 4.0604556276 -2.5000009537
47.7196331450 2.6432661104 -2.5000009537
56.1676958502 3.2336114910 -2.5000009537
56.3489070857 3.1099998164 -2.5000009537
55.5932769140 3.6896037369 -2.5000009537
56.7112736101 2.7983786834 -2.5000009537
56.6973158458 2.8126024300 -2.5000009537
56.6410658624 2.8690826586 -2.5000009537
56.6126912389 2.8970721898 -2.5000009537
56.5410345594 2.9663072981 -2.5000009537
56.1678297532 3.2961771052 -2.5000009537
55.2330728509 3.9391896555 -2.5000009537
55.1810077867 3.9685735895 -2.5000009537
56.8254161434 2.7142090116 -2.5000009537
56.7564408123 2.7866104058 -2.5000009537
56.7285521031 2.8152839773 -2.5000009537
55.1227228794 4.0282735225 -2.5000009537
55.0344982733 4.0753476878 -2.5000009537
57.1275306700 2.4455882361 -2.5000009537
56.8365913351 2.8078713269 -2.5000009537
54.6493434992 4.3412357858 -2.5000009537
54.5472567081 4.4114103341 -2.5000009537
54.5001754435 4.4570648446 -2.5000009537
52.4570661783 -0.4894262697 -2.5000009537
52.4393109387 -0.4869314481 -2.5000009537
55.9459382714 -1.1080714200 -2.5000009537
55.9406633930 -1.0861455812 -2.5000009537
55.9668195057 -1.0914504210 -2.5000009537
55.9641490224 -1.0804219028 -2.5000009537
55.9474420946 -1.0144210753 -2.5000009537
55.9445438293 -1.0034502160 -2.5000009537
55.9386500012 -0.9815344582 -2.5000009537
55.9465775931 -0.9202098322 -2.5000009537
55.9534957975 -0.8584318352 -2.5000009537
55.9433191488 -0.8254976376 -2.5000009537
55.9486639571 -0.7632329031 -2.5000009537
55.9413488506 -0.7412969734 -2.5000009537
55.9339040917 -0.7194047063 -2.5000009537
55.9642576948 -0.7335820437 -2.5000009537
55.9491458950 -0.6895714104 -2.5000009537
55.9413949739 -0.6676339186 -2.5000009537
55.9374708760 -0.6566824652 -2.5000009537
55.9371080680 -0.5191602826 -2.5000009537
55.9411180864 -0.4021553032 -2.5000009537
55.9515106114 -0.3058535228 -2.5000009537
55.9376771937 -0.2188796223 -2.5000009537
55.9435392183 -0.1754879143 -2.5000009537
55.9323173776 0.0553269160 -2.5000009537
