-3.4537893073 -7.4514329564 -2.5008041859
-3.4436290827 -7.5559640329 -2.5008041859
-3.4485273151 -7.6830759153 -2.5008041859
2.5984742473 -10.9119708230 -2.5008041859
-0.1088018292 -10.9494148327 -2.5008041859
-0.0789537873 -10.9571989968 -2.5008041859
2.7234534883 -10.9011422472 -2.5008041859
2.7600653946 -10.9152778038 -2.5008041859
-0.2859584566 -10.9497743002 -2.5008041859
-0.2411590878 -10.9629564419 -2.5008041859
-3.4267369681 -8.4253674791 -2.5008041859
-0.3676266649 -10.9499767210 -2.5008041859
-0.3228222838 -10.9638836143 -2.5008041859
-0.5468405412 -10.9412079098 -2.5008041859
3.1697450525 -10.9005321121 -2.5008041859
-0.7508033386 -10.9427871447 -2.5008041859
3.2764112223 -10.9098934847 -2.5008041859
-3.4050171305 -8.7987552742 -2.5008041859
-3.4111891401 -8.8793979360 -2.5008041859
-3.3935302161 -8.9067563612 -2.5008041859
-1.1757142685 -10.9429459272 -2.5008041859
-1.1458858261 -10.9570424168 -2.5008041859
-1.2457689938 -10.9359249702 -2.5008041859
-1.3566792022 -10.9343534179 -2.5008041859
-1.3975308817 -10.9404523032 -2.5008041859
-2.2778042499 -10.9145307954 -2.5008041859
-3.6663002828 -10.7178717661 -2.5008041859
-3.6234258058 -10.7610616773 -2.5008041859
-3.5946306126 -10.7896428336 -2.5008041859
-3.2362322404 -11.1190093852 -2.5008041859
-3.2053260850 -11.1452935097 -2.5008041859
-3.1742649647 -11.1713943229 -2.5008041859
-3.1116821841 -11.2230423679 -2.5008041859
-3.8654682785 -10.5426615292 -2.5008041859
-3.7963682497 -10.6173975335 -2.5008041859
-3.7824160181 -10.6322216307 -2.5008041859
-2.9511358634 -11.3804379017 -2.5008041859
-2.9349301186 -11.3927583100 -2.5008041859
-2.8860952025 -11.4294311451 -2.5008041859
-4.1493927841 -10.2489396379 -2.5008041859
-4.0715088311 -10.3435851468 -2.5008041859
-4.0451757271 -10.3748246194 -2.5008041859
-4.0319399813 -10.3903857954 -2.5008041859
-2.9005249203 -11.4488249206 -2.5008041859
-4.2822376102 -10.1191048046 -2.5008041859
-2.6436771314 -11.6892313879 -2.5008041859
-2.4710010920 -11.8010339950 -2.5008041859
-4.4795585824 -9.9322552183 -2.5008041859
-4.7084187777 -9.8110794459 -2.5008041859
-3.4559051435 -7.0685630965 -2.4996057952
-3.4626786438 -7.1277040335 -2.4996058010
-3.4542816832 -7.1536500657 -2.4996058010
-3.4500256749 -7.1666043385 -2.4996058010
-3.4457313642 -7.1795459645 -2.4996058010
-3.4554818763 -7.2261439210 -2.4996058067
-3.4510114129 -7.2391014270 -2.4996058067
-3.4647479084 -7.2730291590 -2.4996058125
-3.4460809295 -7.3248854009 -2.4996058125
-3.4444563736 -7.3980457092 -2.4996058183
-3.4467774252 -7.4585761178 -2.4996058240
-3.4544227868 -7.5675382889 -2.4996058355
-3.4544354287 -7.6289009466 -2.4996058413
-3.4373349430 -7.6677083612 -2.4996058413
-3.4359589761 -7.7293186632 -2.4996058471
-3.4459020744 -7.7653318772 -2.4996058528
-3.4396128221 -7.8897383048 -2.4996058644
-3.4285539279 -7.9651547682 -2.4996058701
-3.4660457057 -8.1515034603 -2.4996058989
-3.4281811115 -8.2669743482 -2.4996059047
-3.4284503905 -8.4073845557 -2.4996059220
-0.3690075674 -10.9460209584 -2.4996059854
-0.3535465395 -10.9498318391 -2.4996059854
-0.3380743060 -10.9535969666 -2.4996059854
-0.3225910023 -10.9573163080 -2.4996059854
-0.3070967638 -10.9609898307 -2.4996059854
-0.2915917262 -10.9646175025 -2.4996059854
2.3095052899 -10.9237865937 -2.4996059854
2.3556190614 -10.9113125198 -2.4996059854
-0.4986495383 -10.9372085915 -2.4996059912
-0.4832140118 -10.9414030151 -2.4996059912
-0.4677661449 -10.9455517594 -2.4996059912
2.4696708108 -10.9037868440 -2.4996059912
-0.5823548881 -10.9387734731 -2.4996059969
2.5380535844 -10.9082551769 -2.4996059969
2.5533901747 -10.9034666102 -2.4996059969
-0.6664169382 -10.9389982540 -2.4996060027
-0.7353756900 -10.9428131170 -2.4996060084
2.6911241251 -10.9093011787 -2.4996060084
2.7064631399 -10.9040597971 -2.4996060084
2.7757822032 -10.9054096040 -2.4996060142
-0.9205281398 -10.9315318337 -2.4996060200
-0.9903952779 -10.9319924923 -2.4996060257
-0.9749730299 -10.9376416116 -2.4996060257
-0.9595341383 -10.9432450844 -2.4996060257
2.9152481434 -10.9053488429 -2.4996060257
-1.0451096460 -10.9373826495 -2.4996060315
-1.1155052320 -10.9361910799 -2.4996060373
3.0404037349 -10.9078401605 -2.4996060373
3.0557368995 -10.9015655530 -2.4996060373
-1.1552706985 -10.9464714441 -2.4996060430
-1.1398048978 -10.9526082313 -2.4996060430
-1.1243210110 -10.9586992411 -2.4996060430
-1.2724253796 -10.9245022288 -2.4996060488
-1.2570240552 -10.9309856769 -2.4996060488
3.1511564332 -10.9139543991 -2.4996060488
-1.3281223920 -10.9269600265 -2.4996060546
-1.3840354891 -10.9288372993 -2.4996060603
3.2934884279 -10.9038467577 -2.4996060603
-1.4555567315 -10.9231052223 -2.4996060661
-1.4401587384 -10.9301304122 -2.4996060661
3.3496222903 -10.9045401161 -2.4996060661
-1.5118859932 -10.9236439703 -2.4996060718
-1.4964861599 -10.9308357900 -2.4996060718
3.4059540332 -10.9046435914 -2.4996060718
-1.5530117265 -10.9309499178 -2.4996060776
3.4317703379 -10.9190639317 -2.4996060776
3.6297524036 -10.8189191879 -2.4996060776
3.6448199452 -10.8109015695 -2.4996060776
3.6748835463 -10.7947327910 -2.4996060776
3.6898793426 -10.7865817724 -2.4996060776
3.7048509612 -10.7783864292 -2.4996060776
3.7347211411 -10.7618630561 -2.4996060776
3.7496194411 -10.7535351709 -2.4996060776
-1.6097293653 -10.9304693415 -2.4996060834
2.8893579287 -11.1728491056 -2.4996060834
3.0815975493 -11.0997681215 -2.4996060834
3.6562067411 -10.8322247063 -2.4996060834
3.8061781169 -10.7492646103 -2.4996060834
3.8654685197 -10.7148445201 -2.4996060834
3.9096667759 -10.6885703732 -2.4996060834
3.9243474974 -10.6797252879 -2.4996060834
3.9682317715 -10.6529300061 -2.4996060834
4.0263709537 -10.6165991657 -2.4996060834
2.7184032871 -11.2568066808 -2.4996060891
2.8326342253 -11.2185268985 -2.4996060891
2.6929295236 -11.2903507524 -2.4996060949
-1.7809733024 -10.9254257705 -2.4996061007
-1.9229460031 -10.9318637271 -2.4996061179
-1.9808613444 -10.9274712980 -2.4996061237
-2.0235236125 -10.9312105292 -2.4996061295
-2.0663314926 -10.9346264451 -2.4996061352
-2.2389721936 -10.9450254105 -2.4996061583
-2.9735509017 -11.3026767440 -2.4996063254
-4.0136383851 -10.4420853159 -2.4996063312
-3.9996521432 -10.4566798787 -2.4996063312
-3.9005482105 -10.5576744565 -2.4996063312
-3.7993743494 -10.6565953544 -2.4996063312
-3.7553911911 -10.6983446821 -2.4996063312
-2.7691594089 -11.4688449659 -2.4996063312
-2.7521412714 -11.4797536423 -2.4996063312
-2.7180085594 -11.5014197286 -2.4996063312
-4.2363772797 -10.2341898251 -2.4996063370
-4.1826184534 -10.2949690450 -2.4996063370
-4.0590570253 -10.4293681753 -2.4996063370
-4.0311158732 -10.4587847977 -2.4996063370
-2.9344611058 -11.3883915925 -2.4996063370
-2.6792828554 -11.5540997914 -2.4996063370
-2.6100152472 -11.5963623450 -2.4996063370
-2.5751951264 -11.6171855252 -2.4996063370
-4.3862588984 -10.0948587605 -2.4996063427
-4.3602910899 -10.1262170735 -2.4996063427
-2.5875404264 -11.6379684232 -2.4996063427
-2.5172868682 -11.6791395664 -2.4996063427
-2.4287929325 -11.7294298006 -2.4996063427
-4.4692515508 -10.0308803935 -2.4996063485
-4.4436608072 -10.0627308386 -2.4996063485
-2.6524374571 -11.6272186369 -2.4996063485
-2.3690054078 -11.7899583379 -2.4996063485
-2.3150206148 -11.8189693133 -2.4996063485
-2.2969687331 -11.8285330330 -2.4996063485
-4.5765229206 -9.9329136959 -2.4996063542
-4.7541211023 -9.7321489070 -2.4996063600
-4.5957199823 -9.9476041045 -2.4996063600
-4.9671318755 -9.5023015160 -2.4996063715
-4.7210371194 -9.8609257562 -2.4996063715
-2.0745221662 -12.0748136523 -2.4996063773
-1.9043274325 -12.1524634031 -2.4996063773
-3.4395252146 -6.8038904162 -2.5001755822
-3.4395613366 -6.9621975456 -2.5001756053
-3.4467892432 -7.1546046566 -2.5001756399
-3.4455732084 -7.2234022869 -2.5001756514
-3.4532227894 -7.2685305450 -2.5001756629
-3.4432033605 -7.2925049026 -2.5001756629
-3.4569540494 -7.4415901560 -2.5001756975
-3.4452058944 -7.5238028183 -2.5001757090
-3.4405985282 -7.7470615909 -2.5001757551
0.5064441661 -10.9207270753 -2.5001761125
0.6011232380 -10.9216180765 -2.5001761125
0.6326846017 -10.9215416263 -2.5001761125
0.6484649759 -10.9214333784 -2.5001761125
0.6958032105 -10.9208285563 -2.5001761125
0.7589089631 -10.9193686874 -2.5001761125
-0.8755135110 -10.9384247312 -2.5001762162
-0.8596765945 -10.9427779323 -2.5001762162
2.1725148908 -10.9130077390 -2.5001762162
2.2197183376 -10.8988781606 -2.5001762162
-0.9454469917 -10.9437651668 -2.5001762277
-0.9295939712 -10.9483252204 -2.5001762277
2.2582881376 -10.9123107503 -2.5001762277
-1.0632267741 -10.9336116404 -2.5001762393
2.3758458593 -10.8998466697 -2.5001762393
-1.2205807999 -10.9330896021 -2.5001762623
-1.3474441798 -10.9395859638 -2.5001762854
-1.3316017633 -10.9453352161 -2.5001762854
2.6758342652 -10.8941337682 -2.5001762854
-1.3874916989 -10.9506083896 -2.5001762969
-1.3716165008 -10.9564760614 -2.5001762969
-1.4753518146 -10.9431015037 -2.5001763084
-1.5725042683 -10.9565667147 -2.5001763315
-1.5406980946 -10.9693495631 -2.5001763315
2.8854758849 -10.9127980637 -2.5001763315
3.0309462934 -10.9012962398 -2.5001763545
-1.8429542461 -10.9718872135 -2.5001763891
-2.0596963147 -10.9761089689 -2.5001764352
3.5880051375 -10.8333792971 -2.5001764467
3.6652745158 -10.7886705764 -2.5001764467
3.7723227719 -10.7241688438 -2.5001764467
2.8410547175 -11.2187660087 -2.5001764583
3.7850121631 -10.7447434552 -2.5001764583
3.8306588608 -10.7163104941 -2.5001764583
3.9061702039 -10.6680256365 -2.5001764583
2.6817580829 -11.3051887958 -2.5001764698
2.7492727356 -11.2802032788 -2.5001764698
4.2584866745 -10.4510939536 -2.5001764698
4.3442396243 -10.3854670048 -2.5001764698
2.3885486999 -11.4539217907 -2.5001764928
4.6397078581 -10.2041781399 -2.5001764928
4.7210184552 -10.1318241013 -2.5001764928
2.2381525622 -11.5226546023 -2.5001765044
2.1562544329 -11.5695735910 -2.5001765159
4.8207719863 -10.1057808883 -2.5001765159
4.1376078867 -10.6873526098 -2.5001765274
-2.6016932312 -10.9841249436 -2.5001765620
-3.6061162947 -10.8150434979 -2.5001767695
-3.9241274367 -10.5748543118 -2.5001767810
-2.8533577161 -11.3688067373 -2.5001767810
-2.8019113970 -11.3992610102 -2.5001767810
-4.1151701985 -10.4283157988 -2.5001767925
-2.6225473330 -11.5282350723 -2.5001767925
-2.4742122167 -11.6335636489 -2.5001768041
-4.4961933453 -10.0984292058 -2.5001768156
-4.8417635363 -9.7546561527 -2.5001768386
-2.5723807277 -11.6917843364 -2.5001768502
-2.0469086922 -11.9638130180 -2.5001768617
-1.7997803699 -12.0610169019 -2.5001768617
-3.4379732000 -6.4248890121 -2.4999333465
-3.4416082316 -6.5075955279 -2.4999333638
-3.4376353616 -6.7697381356 -2.4999334157
-3.4529650768 -6.7995263538 -2.4999334330
-3.4399774414 -6.9065046602 -2.4999334503
1.7073710854 -10.9473442611 -2.4999346433
-1.2491565775 -10.9792492712 -2.4999346779
2.0732668555 -10.8876975589 -2.4999346779
-1.3528177029 -10.9747371664 -2.4999346951
-1.4244778679 -10.9783379407 -2.4999347124
-1.5687172822 -10.9827302725 -2.4999347470
-1.6412721915 -10.9835083274 -2.4999347643
-2.1399808931 -10.9690254202 -2.4999348853
-2.2243917748 -10.9842288873 -2.4999349199
2.9523026768 -10.8875471461 -2.4999349199
3.1992928321 -10.8948072606 -2.4999350064
3.2033324561 -11.0573171925 -2.4999351101
3.7453329258 -10.7340185587 -2.4999351101
3.9435527700 -10.5962585144 -2.4999351101
2.7952348646 -11.2815719930 -2.4999351274
4.0028811176 -10.5828467727 -2.4999351274
4.0626273455 -10.5382355305 -2.4999351274
2.5191572600 -11.4467756357 -2.4999351620
2.4393785695 -11.5022208764 -2.4999351793
2.2328308824 -11.5986990593 -2.4999351966
-3.9472177703 -10.5834786153 -2.4999353349
-3.9020398747 -10.6206390556 -2.4999353349
-3.7336087133 -10.7534294033 -2.4999353349
-3.0363184116 -11.2180390364 -2.4999353349
-2.7626226047 -11.3677329674 -2.4999353349
-4.2705471003 -10.3299446656 -2.4999353522
-4.2276064440 -10.3699844562 -2.4999353522
-2.5808782525 -11.4848839814 -2.4999353522
-2.3586555747 -11.6120017915 -2.4999353695
-4.6408198740 -10.0599217930 -2.4999354040
-2.2132213163 -11.7245317641 -2.4999354040
-3.4307359461 -7.1688644414 -2.5000261639
-3.4432127329 -7.3526875690 -2.5000261869
-3.4321686580 -7.3725134626 -2.5000261869
-3.4363600170 -7.4141415904 -2.5000261927
-3.4421314613 -7.5927494789 -2.5000262157
3.4522006683 -7.5697816728 -2.5000262503
3.4583200768 -7.5593039574 -2.5000262503
-3.4094811051 -8.1016168525 -2.5000262791
3.4509275520 -7.8455520289 -2.5000262849
-1.4246555928 -10.9591363499 -2.5000266134
-1.4084885218 -10.9630704275 -2.5000266134
-1.3923098839 -10.9669566628 -2.5000266134
-1.3437059844 -10.9783279765 -2.5000266134
1.3579847328 -10.9318992682 -2.5000266134
1.3901205972 -10.9232570230 -2.5000266134
1.4702316457 -10.9008209463 -2.5000266134
-1.4952329818 -10.9663317811 -2.5000266192
-1.4628434671 -10.9745695275 -2.5000266192
-1.4466305749 -10.9786165042 -2.5000266192
-1.4304057819 -10.9826155025 -2.5000266192
1.4125849771 -10.9421707186 -2.5000266192
1.5730160652 -10.8954434300 -2.5000266192
-1.5661671394 -10.9726186438 -2.5000266249
-1.6698531001 -10.9687186971 -2.5000266307
1.7315960735 -10.8951657173 -2.5000266307
-1.7738645836 -10.9628562491 -2.5000266365
1.7873577248 -10.9016564415 -2.5000266365
-1.8620075880 -10.9602942121 -2.5000266422
-1.8458351782 -10.9655220509 -2.5000266422
1.8753606512 -10.8960673267 -2.5000266422
-1.9181040493 -10.9672468906 -2.5000266480
-1.9019108268 -10.9726406425 -2.5000266480
-1.8857017195 -10.9779864683 -2.5000266480
1.7870588907 -10.9529021618 -2.5000266480
1.8996486972 -10.9129350065 -2.5000266480
-1.9906589677 -10.9680240954 -2.5000266537
-2.0796659238 -10.9619754462 -2.5000266595
-2.0472919540 -10.9736709704 -2.5000266595
1.9324427193 -10.9523767007 -2.5000266595
2.0609952359 -10.9030698218 -2.5000266595
-2.1287995932 -10.9954108858 -2.5000266710
2.2072496187 -10.8952314759 -2.5000266710
2.2232117564 -10.8884220007 -2.5000266710
-2.2834905153 -10.9615286770 -2.5000266768
2.2966371182 -10.8828189235 -2.5000266768
-2.3087305068 -10.9774085377 -2.5000266826
2.4122118606 -10.8835290267 -2.5000266883
-2.4732123388 -10.9606190568 -2.5000266941
-2.5153069816 -10.9684989053 -2.5000266998
-2.5899572969 -10.9613565813 -2.5000267056
2.5710624975 -10.8879351923 -2.5000267056
2.5870014596 -10.8800495247 -2.5000267056
2.6884832225 -10.8828941056 -2.5000267171
-2.7665059967 -10.9578862028 -2.5000267229
2.7746779416 -10.8923932688 -2.5000267287
2.7906292006 -10.8839052504 -2.5000267287
2.8499070950 -10.8793797499 -2.5000267344
-2.9284782843 -10.9572742874 -2.5000267402
-2.9123101418 -10.9656569526 -2.5000267402
2.9370533241 -10.8864212384 -2.5000267460
-3.0318913025 -10.9571981659 -2.5000267517
3.1007286439 -10.8757513088 -2.5000267632
-3.3133851657 -10.9648424440 -2.5000267863
-3.8135548032 -10.6966379075 -2.5000267978
-3.7827203134 -10.7185963445 -2.5000267978
-3.7672544857 -10.7295070564 -2.5000267978
-3.7362263414 -10.7511909899 -2.5000267978
-3.6266290012 -10.8256312090 -2.5000267978
-3.6108472280 -10.8360797063 -2.5000267978
-3.5950346153 -10.8464814726 -2.5000267978
-3.1070116192 -11.1363679290 -2.5000267978
-3.0064279937 -11.1890849258 -2.5000267978
-2.9557892688 -11.2147718852 -2.5000267978
3.3360446801 -10.9016624066 -2.5000267978
-4.0555196922 -10.5452060206 -2.5000268036
-3.9954962123 -10.5918137252 -2.5000268036
-3.8276352706 -10.7162867170 -2.5000268036
-3.1184227050 -11.1576780769 -2.5000268036
-2.8814102333 -11.2783459340 -2.5000268036
-2.8299842900 -11.3029199160 -2.5000268036
-2.7955800464 -11.3190486085 -2.5000268036
-2.7264883050 -11.3506939483 -2.5000268036
-2.7091572397 -11.3584773692 -2.5000268036
-4.3488836568 -10.3324149000 -2.5000268094
-4.2768836379 -10.3949255433 -2.5000268094
-4.2478260708 -10.4196304697 -2.5000268094
-4.1152793534 -10.5286575053 -2.5000268094
-4.0554474997 -10.5759734724 -2.5000268094
-3.9798772525 -10.6341174401 -2.5000268094
-2.6492138887 -11.4112785331 -2.5000268094
-2.6141717230 -11.4263358308 -2.5000268094
-2.5966173868 -11.4337866681 -2.5000268094
-2.5790410865 -11.4411855438 -2.5000268094
-4.4220087634 -10.2995892386 -2.5000268151
-4.3504862500 -10.3631850210 -2.5000268151
-2.4464740716 -11.5210064935 -2.5000268151
3.1951404658 -11.0726564860 -2.5000268151
3.6608996118 -10.7709547849 -2.5000268151
3.7385096650 -10.7149496682 -2.5000268151
3.7693203195 -10.6922272351 -2.5000268151
3.7846750992 -10.6807977604 -2.5000268151
-4.6203638517 -10.1466668128 -2.5000268209
-2.3115202657 -11.5978704260 -2.5000268209
-2.2391632621 -11.6237686263 -2.5000268209
2.8706564957 -11.2784720936 -2.5000268209
2.8877494257 -11.2696984640 -2.5000268209
2.9218570501 -11.2519997051 -2.5000268209
2.9558593658 -11.2340994639 -2.5000268209
2.9728206608 -11.2250739829 -2.5000268209
2.9897551826 -11.2159983668 -2.5000268209
3.0066627829 -11.2068726951 -2.5000268209
3.0907917934 -11.1604963116 -2.5000268209
3.1908274295 -11.1032097827 -2.5000268209
3.8756854419 -10.6421252210 -2.5000268209
3.9663973053 -10.5709899083 -2.5000268209
4.0112762035 -10.5348212945 -2.5000268209
4.0261642893 -10.5226767593 -2.5000268209
4.0706120819 -10.4859796495 -2.5000268209
4.1147324579 -10.4488895356 -2.5000268209
-4.6784848029 -10.1234087078 -2.5000268266
-2.1193566999 -11.6899917747 -2.5000268266
-2.1010245868 -11.6959777060 -2.5000268266
-2.0826748464 -11.7019093814 -2.5000268266
2.6388128523 -11.4179145754 -2.5000268266
2.7086939814 -11.3852507324 -2.5000268266
2.7434883856 -11.3686093034 -2.5000268266
4.2898785136 -10.3274933328 -2.5000268266
4.3608608005 -10.2622338824 -2.5000268266
2.5429936314 -11.4874892293 -2.5000268324
2.7015607149 -11.4153626661 -2.5000268324
-2.0047875054 -11.7769902281 -2.5000268382
-1.7994215240 -11.8360695072 -2.5000268382
4.5888047215 -10.1079581580 -2.5000268382
4.8067302387 -9.9122181105 -2.5000268439
2.1357060557 -11.7272407843 -2.5000268497
2.2459508110 -11.6868160195 -2.5000268497
2.3366214609 -11.7038182622 -2.5000268612
5.2721838863 -9.4573637746 -2.5000268612
1.6948785200 -11.9676381545 -2.5000268727
5.9443437343 -8.6568335021 -2.5000268958
-0.2421539557 -7.1176571882 -2.4999994886
3.4520893717 -6.7784167058 -2.4999968173
3.4406135868 -6.8893548552 -2.4999967914
3.4601262228 -6.8319097977 -2.4999967914
3.4429639712 -6.9547855812 -2.4999967654
3.4471279833 -6.9433125199 -2.4999967654
3.4594161298 -6.9088201321 -2.4999967654
3.4529046961 -6.9976119238 -2.4999967395
3.4443756769 -7.0867167364 -2.4999967136
3.4505485962 -7.5917043569 -2.4999964801
3.4392015353 -7.8108576370 -2.4999963764
3.4474710230 -9.0231232361 -2.4999955984
-1.8078646293 -10.9457085550 -2.4999952093
-1.7918717706 -10.9497509324 -2.4999952093
-1.7758670238 -10.9537459824 -2.4999952093
0.9350034994 -10.9472650690 -2.4999952093
0.9509889613 -10.9431935396 -2.4999952093
0.9829234026 -10.9349087067 -2.4999952093
-1.9099375204 -10.9437801715 -2.4999951834
-1.8459109891 -10.9608734860 -2.4999951834
1.0370785133 -10.9454525348 -2.4999951834
-1.9963963114 -10.9445710734 -2.4999951575
0.9791029373 -10.9858716020 -2.4999951575
1.0915318081 -10.9554581091 -2.4999951575
1.1783375526 -10.9554803635 -2.4999951315
1.2263207798 -10.9409642244 -2.4999951315
1.2422863280 -10.9360309534 -2.4999951315
1.2582372129 -10.9310504750 -2.4999951315
1.2814803209 -10.9490650257 -2.4999951056
1.2974695914 -10.9439685473 -2.4999951056
1.3294025539 -10.9336338051 -2.4999951056
1.3453459665 -10.9283956316 -2.4999951056
1.3612738138 -10.9231103175 -2.4999951056
1.5363094929 -10.9130655952 -2.4999950537
1.5446314372 -10.9357609808 -2.4999950278
1.6328560812 -10.9284854395 -2.4999950019
1.6646915706 -10.9161667091 -2.4999950019
1.7212963362 -10.9197753125 -2.4999949759
1.7371970380 -10.9133779070 -2.4999949759
-2.5871620707 -10.9461504810 -2.4999949500
1.7462529552 -10.9357905295 -2.4999949500
1.7622009238 -10.9293192277 -2.4999949500
1.7781296794 -10.9228007773 -2.4999949500
-2.6281818883 -10.9557156226 -2.4999949241
1.8669984358 -10.9117236133 -2.4999949241
-2.7174329390 -10.9449267352 -2.4999948981
2.0076299466 -10.9289968096 -2.4999948462
-2.8904707320 -10.9482300544 -2.4999948203
-2.9804961636 -10.9331538704 -2.4999947944
-2.9645353132 -10.9406651589 -2.4999947944
2.1554226486 -10.9132787874 -2.4999947944
-3.0068248155 -10.9474215604 -2.4999947684
-3.1239176987 -10.9441724344 -2.4999947166
2.3736106348 -10.9119038227 -2.4999946906
-3.2416991592 -10.9384563155 -2.4999946647
-3.7610406663 -10.7497983848 -2.4999945610
-3.7456187993 -10.7596194674 -2.4999945610
-3.6524836524 -10.8175840464 -2.4999945610
-3.6212117906 -10.8365371018 -2.4999945610
-4.0476057323 -10.5849590960 -2.4999945350
-3.9120634090 -10.6793847417 -2.4999945350
-3.8510251663 -10.7201866490 -2.4999945350
-2.8153412276 -11.2708374712 -2.4999945350
-2.7814024177 -11.2848297782 -2.4999945350
2.6977519835 -10.8982992854 -2.4999945350
-4.2682047555 -10.4500438337 -2.4999945091
-4.1213421473 -10.5613214254 -2.4999945091
-4.0616862339 -10.6046078812 -2.4999945091
-4.4413668875 -10.3412361548 -2.4999944832
-4.3555476943 -10.4116148956 -2.4999944832
2.7699340114 -10.9118223127 -2.4999944832
-4.4282832142 -10.3835108950 -2.4999944572
2.8141566659 -10.9134633461 -2.4999944572
-4.7240613938 -10.1565262888 -2.4999944313
2.9634867706 -10.9063393883 -2.4999943794
-5.3732964484 -9.6076609096 -2.4999943275
3.1589813773 -10.8943000277 -2.4999942757
-1.3905912233 -11.9409702189 -2.4999942497
3.2494815097 -10.8912413290 -2.4999942238
3.0352999312 -11.2033427686 -2.4999940682
3.6640042991 -10.7664144863 -2.4999940682
3.7408357105 -10.7052413065 -2.4999940682
3.8167539428 -10.6429384518 -2.4999940682
3.8318265427 -10.6303435150 -2.4999940682
3.8468618185 -10.6177040458 -2.4999940682
3.8917423876 -10.5795195520 -2.4999940682
3.9214737434 -10.5538425991 -2.4999940682
3.9510526653 -10.5279901949 -2.4999940682
2.7578774836 -11.3917685654 -2.4999940423
2.7924342219 -11.3727857223 -2.4999940423
2.8096703238 -11.3632177151 -2.4999940423
2.8268780464 -11.3535987622 -2.4999940423
2.8612077517 -11.3342083567 -2.4999940423
2.8954221359 -11.3146151845 -2.4999940423
2.9635001551 -11.2748232904 -2.4999940423
4.0112551077 -10.5068960395 -2.4999940423
4.1131163402 -10.4138020474 -2.4999940423
4.1275098165 -10.4003314195 -2.4999940423
2.5590491389 -11.5229610939 -2.4999940163
2.6120140688 -11.4961695674 -2.4999940163
2.6822601640 -11.4597183793 -2.4999940163
3.9531816967 -10.5903384458 -2.4999940163
4.1750551747 -10.4219700284 -2.4999939904
4.4691594248 -10.1264561707 -2.4999939904
4.4827013221 -10.1119335603 -2.4999939904
2.2191661870 -11.7338749840 -2.4999939645
2.2374729645 -11.7260012274 -2.4999939645
2.3468172233 -11.6776246060 -2.4999939645
4.5943242668 -10.0252518353 -2.4999939645
4.6600918342 -9.9503999347 -2.4999939645
2.1364756910 -11.7947882199 -2.4999939385
2.1734277045 -11.7794747450 -2.4999939385
2.2470567019 -11.7481932814 -2.4999939385
2.1270880491 -11.8247486427 -2.4999939126
4.9987250675 -9.6069480574 -2.4999939126
7.7203577230 -8.0314162651 -2.4999920453
7.7665958068 -8.0455364894 -2.4999919934
7.9746671840 -8.1090774989 -2.4999917600
3.4403516118 -6.2249225737 -2.4999897865
3.4534570483 -6.4446651499 -2.4999896540
3.4847110643 -6.2566726707 -2.4999896540
3.4488461583 -6.5868111667 -2.4999895877
3.4394293778 -6.7294967238 -2.4999895214
3.4695858724 -6.8043375817 -2.4999893889
3.4410467385 -6.9860793365 -2.4999893226
3.4451961476 -7.1259758354 -2.4999891900
3.4447120877 -7.2672759929 -2.4999890575
3.4751262890 -7.3223519819 -2.4999889249
3.4458504408 -7.5759439367 -2.4999887261
3.4543409725 -8.0370137669 -2.4999881296
-2.1802823750 -10.9406564841 -2.4999864064
-2.1332434569 -10.9529911298 -2.4999864064
0.7187021912 -10.9208557733 -2.4999864064
-2.2179532094 -10.9555194435 -2.4999863401
0.8190450618 -10.9168062877 -2.4999863401
0.5420202374 -11.0172287579 -2.4999862738
0.8573009026 -10.9304372794 -2.4999862738
-2.4355283150 -10.9419159351 -2.4999862075
-2.4198560188 -10.9468289192 -2.4999862075
0.9427189765 -10.9288355275 -2.4999862075
-2.4899263155 -10.9498892291 -2.4999861412
1.1068920165 -10.9498297478 -2.4999860087
1.1225722236 -10.9442635772 -2.4999860087
1.1382358964 -10.9386510461 -2.4999860087
-2.7175969108 -10.9477801989 -2.4999859424
1.2248245264 -10.9325153367 -2.4999859424
1.6811524394 -10.9244079035 -2.4999854785
-3.2883829512 -10.9433033007 -2.4999853459
-3.9347366349 -10.6699390555 -2.4999851471
-3.8900310942 -10.6978541590 -2.4999851471
-3.7847677358 -10.7614385200 -2.4999851471
-3.7544528294 -10.7792038173 -2.4999851471
-3.6935103568 -10.8141948041 -2.4999851471
-3.6628849237 -10.8314192688 -2.4999851471
-2.9490835174 -11.1699201787 -2.4999851471
-2.7763715506 -11.2607516331 -2.4999850808
-2.7097996521 -11.2841357966 -2.4999850808
-4.6062721424 -10.2720823022 -2.4999849482
-2.4202924225 -11.4260331333 -2.4999849482
2.1118246490 -10.9237979271 -2.4999849482
-2.3581629335 -11.4685101938 -2.4999848820
-4.7056917765 -10.2515305098 -2.4999848157
3.0005887448 -11.2602346058 -2.4999828936
3.0832069352 -11.2038981808 -2.4999828936
2.7260759264 -11.4632442437 -2.4999828273
2.7432678218 -11.4528859879 -2.4999828273
2.8627426283 -11.3789606094 -2.4999828273
3.9349299943 -10.5381615850 -2.4999828273
4.1055790599 -10.3682088599 -2.4999828273
2.3665607679 -11.7733444962 -2.4999825622
2.2601437973 -11.8804016132 -2.4999824297
-0.2040421799 -7.1339697285 -2.4999994886
-0.0607855433 -7.0276645441 -2.4999994886
-0.1060007452 -7.1245333578 -2.4999994367
3.4490148534 -7.2634725867 -2.4999960911
3.4575481276 -7.2366690901 -2.4999960911
3.4453427884 -7.3513821326 -2.4999960652
3.4580337226 -7.6618276074 -2.4999959355
3.4693059184 -7.6979063276 -2.4999959096
3.4615098544 -7.8380055855 -2.4999958577
3.4712412048 -7.9894700788 -2.4999957799
-2.4164841982 -10.9465087194 -2.4999954946
0.3626007409 -10.9193103245 -2.4999954946
0.4079061955 -10.9063324967 -2.4999954946
-2.4835677150 -10.9536185172 -2.4999954687
-2.5662405102 -10.9554743890 -2.4999954427
0.5729461911 -10.9061760819 -2.4999954427
-2.6797056606 -10.9466137915 -2.4999954168
0.6257738410 -10.9142636695 -2.4999954168
-2.7326482750 -10.9552013037 -2.4999953909
-2.7174139669 -10.9600761908 -2.4999953909
0.6788743872 -10.9218133567 -2.4999953909
-2.8315537593 -10.9478846771 -2.4999953649
-2.8163406623 -10.9530521765 -2.4999953649
-2.8011123454 -10.9581746502 -2.4999953649
-2.9236783641 -10.9668916238 -2.4999953131
-3.0387220618 -10.9501362331 -2.4999952871
1.0694266389 -10.9019807304 -2.4999952612
-3.7141890925 -10.8032899720 -2.4999951315
-3.6101871902 -10.8568220576 -2.4999951315
-3.7846509140 -10.7929792458 -2.4999951056
-3.6509822335 -10.8632889395 -2.4999951056
-2.7980787872 -11.2134489516 -2.4999951056
-4.2151531330 -10.5628329915 -2.4999950797
-4.0300150117 -10.6799657788 -2.4999950797
-2.6278773269 -11.2898383694 -2.4999950797
-2.5954163648 -11.2989173396 -2.4999950797
-2.3777094043 -11.4041624160 -2.4999950278
1.6257138136 -10.9052551517 -2.4999950019
1.7240889914 -10.9070955649 -2.4999949500
3.6142989964 -10.7761809606 -2.4999938607
3.6289759594 -10.7622812130 -2.4999938607
3.6436117403 -10.7483381092 -2.4999938607
3.7448983923 -10.6495327028 -2.4999938607
3.7734595568 -10.6209193980 -2.4999938607
3.8018509356 -10.5921376166 -2.4999938607
3.9035534858 -10.5214073444 -2.4999938348
3.9864276465 -10.4322673499 -2.4999938348
4.0992791831 -10.3423599510 -2.4999938089
4.1657814680 -10.2653032809 -2.4999938089
4.2440689440 -10.1715495565 -2.4999938089
2.4955682309 -11.7176522440 -2.4999937829
2.4022521907 -11.8010352330 -2.4999937570
3.1507056530 -11.2987434106 -2.4999937570
4.2944280305 -10.1863358200 -2.4999937570
4.5198523056 -9.8942456067 -2.4999937570
2.4443628086 -11.8324554622 -2.4999937051
2.2580022661 -11.9650897558 -2.4999936792
-0.3449450703 -7.1826065542 -2.5000043119
-0.2878455506 -7.1637149748 -2.5000043608
-0.1175424368 -7.0913120708 -2.5000045078
-0.0803179230 -7.0467335651 -2.5000045078
-2.6391042777 -10.9487285888 -2.5000115131
-2.6245200736 -10.9525068402 -2.5000115131
-2.5953184541 -10.9599338325 -2.5000115131
-2.5807012944 -10.9635825084 -2.5000115131
-0.1194699549 -10.9613373355 -2.5000115131
-0.0319736804 -10.9386378996 -2.5000115131
3.4554350256 -7.6941220422 -2.5000115131
3.4603648487 -7.6798857844 -2.5000115131
-2.7037006190 -10.9565024095 -2.5000115621
-2.6598432634 -10.9682806033 -2.5000115621
0.0035162478 -10.9540328448 -2.5000115621
0.0181045803 -10.9499937235 -2.5000115621
0.0326809005 -10.9459114650 -2.5000115621
0.0617969940 -10.9376176793 -2.5000115621
3.4528659332 -7.7733616984 -2.5000115621
3.4732700255 -7.7163548912 -2.5000115621
-2.7978791775 -10.9549817093 -2.5000116111
0.1414019796 -10.9392578959 -2.5000116111
3.4650724291 -7.8101883225 -2.5000116111
3.4807650944 -7.7673460135 -2.5000116111
-2.8778326173 -10.9561932680 -2.5000116601
-2.8632252867 -10.9606776883 -2.5000116601
-2.8486047543 -10.9651188779 -2.5000116601
-2.8046652263 -10.9781826753 -2.5000116601
0.2068052889 -10.9442544252 -2.5000116601
0.2359085313 -10.9349304902 -2.5000116601
0.2649561009 -10.9254345339 -2.5000116601
0.2939469808 -10.9157668885 -2.5000116601
3.4715857493 -7.8615052105 -2.5000116601
-2.9581360804 -10.9561141928 -2.5000117090
-2.9435286323 -10.9608361656 -2.5000117090
0.3016618266 -10.9386757610 -2.5000117090
0.3162034256 -10.9337547383 -2.5000117090
3.4548339451 -7.9701218427 -2.5000117090
0.3968097878 -10.9312739118 -2.5000117580
0.4113290745 -10.9260714566 -2.5000117580
0.4258329078 -10.9208260736 -2.5000117580
0.5067057546 -10.9165521817 -2.5000118070
-3.1571361124 -10.9642254080 -2.5000118560
0.5878397966 -10.9109530969 -2.5000118560
-3.2386740451 -10.9596099159 -2.5000119050
-3.2094196527 -10.9706703250 -2.5000119050
0.6112877252 -10.9276249374 -2.5000119050
0.6547582698 -10.9099856065 -2.5000119050
3.4580189729 -8.2075779405 -2.5000119050
3.5266262253 -8.0498451853 -2.5000119050
-3.2912472842 -10.9652034868 -2.5000119540
0.6929714196 -10.9203159250 -2.5000119540
3.4669428509 -8.2461437894 -2.5000119540
3.4735056039 -8.2318710739 -2.5000119540
-3.3294165373 -10.9761147252 -2.5000120030
0.7893265486 -10.9053385546 -2.5000120030
3.4620966601 -8.3134287200 -2.5000120030
-3.7858975492 -10.7959889526 -2.5000120520
-3.7717601588 -10.8031602942 -2.5000120520
-3.5860945085 -10.8925568305 -2.5000120520
0.7408290998 -10.9526128080 -2.5000120520
0.8425032345 -10.9081679799 -2.5000120520
0.8569522195 -10.9016471840 -2.5000120520
0.8814230521 -10.9170725251 -2.5000121010
0.8958982081 -10.9104365584 -2.5000121010
0.9247893124 -10.8970363102 -2.5000121010
3.4639193609 -8.4201066747 -2.5000121010
3.4493778002 -8.5022065452 -2.5000121499
1.0322258716 -10.8992408150 -2.5000121989
3.4560216915 -8.5418065654 -2.5000121989
1.0862432228 -10.8994856402 -2.5000122479
1.1548730641 -10.8917521083 -2.5000122969
1.1804059619 -10.9057636393 -2.5000123459
1.2349839035 -10.9044312141 -2.5000123949
1.2494201172 -10.8967494058 -2.5000123949
3.4555827738 -8.7446305460 -2.5000123949
1.2897369537 -10.9025131593 -2.5000124439
1.3185742877 -10.8867829675 -2.5000124439
3.4521458494 -8.7993092713 -2.5000124439
1.7333231015 -10.8657147063 -2.5000128358
2.0280522208 -10.8725198384 -2.5000131787
2.1133431451 -10.8714846188 -2.5000132767
2.2708926611 -10.8761159292 -2.5000134726
2.4887039715 -10.8917483091 -2.5000137665
2.6655561336 -10.9044427955 -2.5000140115
3.0658756624 -11.2631015063 -2.5000150892
3.1429321998 -11.1971475997 -2.5000150892
3.6120960099 -10.7488623555 -2.5000150892
3.6260616219 -10.7341493003 -2.5000150892
3.6538619692 -10.7045995738 -2.5000150892
2.9715720412 -11.3723060699 -2.5000151382
3.0031593929 -11.3466173548 -2.5000151382
3.0345942087 -11.3207422078 -2.5000151382
3.0502540716 -11.3077350052 -2.5000151382
3.0658753883 -11.2946815347 -2.5000151382
3.7404910523 -10.6462589417 -2.5000151382
3.8217872715 -10.5551018548 -2.5000151382
3.8351787874 -10.5397693427 -2.5000151382
3.8750803788 -10.4935350603 -2.5000151382
2.9068602455 -11.4547281258 -2.5000151872
4.0239204060 -10.3520592207 -2.5000151872
4.0367104007 -10.3361296507 -2.5000151872
2.6923306190 -11.6461274920 -2.5000152362
2.7255428774 -11.6220860705 -2.5000152362
4.0811093376 -10.3191517242 -2.5000152362
4.1440934428 -10.2382853718 -2.5000152362
2.4692359289 -11.8290482513 -2.5000152852
2.5717247417 -11.7602673253 -2.5000152852
2.8388948245 -11.5680723009 -2.5000152852
4.2739894916 -10.1046092083 -2.5000152852
4.4268493205 -9.8851878564 -2.5000152852
2.7873073478 -11.6367579100 -2.5000153342
3.2377654677 -11.2748251297 -2.5000153342
3.3302967771 -11.1924915002 -2.5000153342
4.0804007500 -10.3975453536 -2.5000153342
4.4354482495 -9.9157666674 -2.5000153342
2.4611478448 -11.8921076236 -2.5000153832
2.9828084771 -11.5180085265 -2.5000153832
4.3493927218 -10.0825424699 -2.5000153832
4.6014888921 -9.7029894172 -2.5000153832
2.3161182342 -12.0122162729 -2.5000154321
2.3515029811 -11.9903942431 -2.5000154321
2.3691467847 -11.9794048178 -2.5000154321
4.6000828581 -9.7509966467 -2.5000154321
4.6760491700 -9.6269004315 -2.5000154321
4.7596996781 -9.4831858415 -2.5000154321
2.3235112075 -12.0643481166 -2.5000155301
1.7652126434 -12.3974900169 -2.5000155791
4.9814057989 -9.2227315654 -2.5000155791
-0.0438392086 -7.0034789166 -2.5000056732
-2.8975810673 -10.9500650622 -2.5000139147
-2.8837551499 -10.9539099494 -2.5000139147
-2.8560694961 -10.9614769413 -2.5000139147
-0.2895491511 -10.9515393297 -2.5000139147
-0.2757302838 -10.9476691804 -2.5000139147
-2.9872153801 -10.9492988267 -2.5000139781
-2.9595551965 -10.9574780047 -2.5000139781
-2.8205551005 -10.9959115188 -2.5000139781
-0.2830644624 -10.9748263238 -2.5000139781
-0.1585015058 -10.9383459971 -2.5000139781
-3.0218867502 -10.9640752022 -2.5000140415
-0.0195240535 -10.9443803880 -2.5000141049
0.0020550721 -10.9625974248 -2.5000141683
0.0159053753 -10.9578646090 -2.5000141683
0.0237556592 -10.9807274243 -2.5000142317
0.1844840088 -10.9483008547 -2.5000142951
0.7967769145 -10.9130724487 -2.5000148657
3.4542619863 -7.5931940261 -2.5000148657
3.4581298801 -7.5782637005 -2.5000148657
3.4619535903 -7.5633219983 -2.5000148657
3.4731592870 -7.5184299400 -2.5000148657
3.4557454322 -4.9689252989 -2.5000148657
3.4439275581 -4.9241904983 -2.5000148657
3.4399001018 -4.9093024218 -2.5000148657
3.4534083404 -7.6890407735 -2.5000149291
3.4575597698 -7.6741125538 -2.5000149291
3.4737233448 -7.6142788291 -2.5000149291
3.4815393529 -7.5842912924 -2.5000149291
3.4465986161 -4.8432488592 -2.5000149291
3.4380207550 -4.8134702990 -2.5000149291
3.4292668641 -4.7837430096 -2.5000149291
3.4551706011 -7.7703486880 -2.5000149925
3.4724730540 -7.7105364960 -2.5000149925
3.4434642742 -4.7470341120 -2.5000149925
3.4602597051 -7.8370803830 -2.5000150559
3.4574022339 -4.7101051561 -2.5000150559
3.4547648444 -7.9340213989 -2.5000151193
3.4525767230 -8.0163440918 -2.5000151827
3.4678031059 -7.9715174086 -2.5000151827
3.4727900894 -7.9565453706 -2.5000151827
3.4442006025 -4.5159532691 -2.5000151827
3.4597362574 -8.0691125164 -2.5000152460
3.4650119801 -8.0541639145 -2.5000152460
1.1116995066 -10.9335263938 -2.5000153094
1.1529064265 -10.9093588082 -2.5000153094
3.4553567680 -8.1520325548 -2.5000153094
3.4350141436 -4.3504841802 -2.5000153094
1.2064029459 -10.9055132656 -2.5000153728
3.4553915247 -8.2202935796 -2.5000153728
3.4611144874 -8.2053571688 -2.5000153728
3.4667932404 -8.1904038937 -2.5000153728
3.4518336916 -4.3269014967 -2.5000153728
3.4283919112 -4.2673698507 -2.5000153728
3.4545142709 -8.2888165695 -2.5000154362
3.4387929905 -4.2285868591 -2.5000154362
3.4265787192 -4.1988652373 -2.5000154362
3.4465455700 -8.3725003709 -2.5000154996
3.4527188266 -8.3575894620 -2.5000154996
3.4364650283 -4.1598299325 -2.5000154996
3.4499991701 -8.4266000851 -2.5000155630
1.5166502838 -10.8792393288 -2.5000157532
3.4431867505 -8.6200534576 -2.5000157532
1.5710664979 -10.8713913030 -2.5000158166
1.8737367428 -10.8615945425 -2.5000162604
3.4498941551 -9.0352828651 -2.5000162604
3.4250964645 -9.1779897842 -2.5000163872
3.4376154604 -9.3462339537 -2.5000166408
3.4362120566 -9.5744841274 -2.5000169577
3.2337475438 -11.1513931238 -2.5000191766
3.6597383089 -10.6890962214 -2.5000191766
3.6857427137 -10.6579543432 -2.5000191766
3.7371965168 -10.5952117650 -2.5000191766
2.9683884217 -11.4328346803 -2.5000192400
3.0591555284 -11.3511032783 -2.5000192400
3.0741417261 -11.3373253066 -2.5000192400
3.1484577547 -11.2677737990 -2.5000192400
2.8136904182 -11.5970578659 -2.5000193034
2.8918764809 -11.5313301233 -2.5000193034
2.9383184727 -11.4913409250 -2.5000193034
3.1502729132 -11.2993477570 -2.5000193034
3.1946460163 -11.2570745704 -2.5000193034
3.9744429141 -10.3669101649 -2.5000193034
4.0696366209 -10.2340704806 -2.5000193034
4.1045197825 -10.1836804060 -2.5000193034
4.1160479583 -10.1668151657 -2.5000193034
2.6368927377 -11.7691835461 -2.5000193668
3.1369748415 -11.3449841117 -2.5000193668
2.3861864043 -11.9828958071 -2.5000194302
2.4701259213 -11.9234488097 -2.5000194302
2.5366387433 -11.8750013818 -2.5000194302
2.6025736566 -11.8257703349 -2.5000194302
3.1244921947 -11.4223807962 -2.5000194936
2.2940355556 -12.1042454754 -2.5000195570
2.8912963897 -11.6582939351 -2.5000195570
4.3976101220 -9.9076826794 -2.5000195570
4.5822911201 -9.5838158096 -2.5000195570
2.1151824880 -12.2480930559 -2.5000196204
4.7754293212 -9.3088188174 -2.5000196838
5.1171563444 -8.8826365260 -2.5000200642
-0.3336840666 -10.9500087137 -2.5000022911
-0.3207424757 -10.9457142970 -2.5000022911
-0.2741444394 -10.9554644276 -2.5000022968
-0.1883462939 -10.9507870276 -2.5000023026
-0.1540847226 -10.9639707009 -2.5000023084
-0.1411026155 -10.9591449358 -2.5000023084
-0.1151815115 -10.9493783011 -2.5000023084
-0.0805951651 -10.9620025740 -2.5000023141
0.1286125776 -10.9544146817 -2.5000023314
0.2161150683 -10.9418581931 -2.5000023372
0.2908789555 -10.9337109111 -2.5000023429
0.3141995118 -10.9493761561 -2.5000023487
0.4519719920 -10.9351488917 -2.5000023602
0.7537913585 -10.9356664421 -2.5000023948
0.8942001606 -10.9363499289 -2.5000024121
0.9972036277 -10.9289897919 -2.5000024236
3.4493418336 -7.9522581316 -2.5000024813
3.4574103467 -7.9213018473 -2.5000024813
3.4508985302 -5.1997030312 -2.5000024813
3.4468131177 -5.1842382947 -2.5000024813
3.4472997003 -8.0514128467 -2.5000024870
3.4602137768 -8.0049748729 -2.5000024870
3.4644268251 -7.9894703059 -2.5000024870
3.4291689677 -8.1972103061 -2.5000024928
3.4526216410 -8.1200030159 -2.5000024928
3.4616825317 -8.0890243914 -2.5000024928
3.4543680703 -5.0319619639 -2.5000024928
3.4404859357 -4.9855801640 -2.5000024928
3.4473970323 -8.2198746231 -2.5000024985
3.4298408198 -8.3508937073 -2.5000025043
3.4402681361 -8.3200458208 -2.5000025043
3.4454133084 -8.3045988781 -2.5000025043
3.4524504999 -4.8628259201 -2.5000025043
3.4366650293 -8.4050597227 -2.5000025101
3.4703226422 -4.8397788618 -2.5000025101
3.4316839446 -8.4903474812 -2.5000025158
3.4373329376 -8.4749251870 -2.5000025158
3.4429362840 -8.4594862495 -2.5000025158
3.4561012746 -4.7234077576 -2.5000025158
3.4450667062 -4.6924679925 -2.5000025158
3.4193684160 -8.5912731634 -2.5000025216
3.4428853742 -8.5296233251 -2.5000025216
3.4560580585 -4.5828680764 -2.5000025274
3.4441920109 -4.5519310266 -2.5000025274
3.4211609077 -8.7169026260 -2.5000025331
3.4399818620 -8.6706704132 -2.5000025331
3.4485160626 -4.4967352351 -2.5000025331
3.4241959907 -8.7723776442 -2.5000025389
3.4199606183 -8.8434637960 -2.5000025446
3.4489565459 -4.3701691399 -2.5000025446
3.4513936199 -4.3142776446 -2.5000025504
3.4157299006 -8.9708862095 -2.5000025562
3.4545180542 -4.2018526241 -2.5000025619
3.6057765985 -4.4342728249 -2.5000025735
3.3479359786 -3.8740312368 -2.5000025735
3.3399294397 -3.8588768825 -2.5000025735
3.3237820495 -3.8286395597 -2.5000025735
3.3156413395 -3.8135568557 -2.5000025735
3.4136521267 -9.1973521053 -2.5000025792
3.4213926462 -9.1819800590 -2.5000025792
3.7403514311 -4.7324933522 -2.5000025792
3.7348826614 -4.7161744059 -2.5000025792
3.7181870431 -4.6673156316 -2.5000025792
3.7125255629 -4.6510625368 -2.5000025792
3.7010584881 -4.6186069456 -2.5000025792
3.6952529937 -4.6024047333 -2.5000025792
3.3773209100 -3.8780119174 -2.5000025792
3.3121042994 -3.7567530558 -2.5000025792
3.7952118326 -4.8235013766 -2.5000025850
3.2994368386 -3.6847602964 -2.5000025850
3.2822600249 -3.6547655887 -2.5000025850
3.4187281981 -9.3959352313 -2.5000026023
3.4270561402 -9.3805473002 -2.5000026023
3.4271708615 -9.4808135847 -2.5000026138
3.4498302419 -9.9137053656 -2.5000026714
3.4603752293 -10.0306190177 -2.5000026887
3.4599237442 -10.0749896761 -2.5000026945
3.4725882103 -10.6757295700 -2.5000027809
3.1248980339 -11.2971364721 -2.5000028155
3.1666287825 -11.2534318201 -2.5000028155
3.7675501097 -10.5228774087 -2.5000028155
3.8367791959 -10.4238155392 -2.5000028155
2.9124888269 -11.5414374985 -2.5000028213
2.9418015263 -11.5135946002 -2.5000028213
2.9563959745 -11.4996082388 -2.5000028213
3.0287441034 -11.4290322153 -2.5000028213
3.1141721578 -11.3429400774 -2.5000028213
3.7399483971 -10.6024835725 -2.5000028213
3.7518441219 -10.5861401348 -2.5000028213
3.9355239863 -10.3199672388 -2.5000028213
2.6415576540 -11.8156163721 -2.5000028270
2.7032809905 -11.7629442285 -2.5000028270
2.7491621243 -11.7229628483 -2.5000028270
4.0538050743 -10.1792299640 -2.5000028270
2.6571400384 -11.8340967558 -2.5000028328
4.0850455017 -10.1746111014 -2.5000028328
4.1376729548 -10.0874868483 -2.5000028328
2.5783187718 -11.9307540747 -2.5000028386
3.3750633541 -11.1694639151 -2.5000028386
4.0949263183 -10.2046540554 -2.5000028386
4.4335626384 -9.6439071915 -2.5000028443
2.2988113406 -12.2062278930 -2.5000028501
2.1269100957 -12.3559438523 -2.5000028559
2.1780764653 -12.3210540890 -2.5000028559
2.3296897266 -12.2136797751 -2.5000028559
2.5258898389 -12.0960888590 -2.5000028616
1.7309979480 -12.6603252216 -2.5000028674
2.4250697472 -12.2034087770 -2.5000028674
-0.4327175794 -7.4706847753 -2.4999994886
-0.4349935836 -7.7043346869 -2.4999993848
-0.8225075951 -10.9504351082 -2.4999966876
-0.7985393766 -10.9439132579 -2.4999966876
-0.7865698418 -10.9405991846 -2.4999966876
-0.8403744114 -10.9801953950 -2.4999966617
-0.7440296873 -10.9536732465 -2.4999966617
-0.7252717295 -10.9734065114 -2.4999966358
-0.6891339469 -10.9627067694 -2.4999966358
-0.6411006478 -10.9479423809 -2.4999966358
-0.5737309858 -10.9516434520 -2.4999966098
-0.5617395674 -10.9476643210 -2.4999966098
-0.5497599724 -10.9436497346 -2.4999966098
-0.5258366719 -10.9355143365 -2.4999966098
-0.4939764992 -10.9500535086 -2.4999965839
-0.4700162882 -10.9415879647 -2.4999965839
-0.4498674823 -10.9600462722 -2.4999965579
-0.4018824135 -10.9424509580 -2.4999965579
-0.3899189400 -10.9379635080 -2.4999965579
-0.3573753095 -10.9514523309 -2.4999965320
-0.3453854031 -10.9468331815 -2.4999965320
-0.3005751839 -10.9552289916 -2.4999965061
-0.2885743539 -10.9504418006 -2.4999965061
-0.2646154405 -10.9407610219 -2.4999965061
-0.2554932013 -10.9631467323 -2.4999964801
-0.2074850538 -10.9432512742 -2.4999964801
-0.1043579415 -10.9512265614 -2.4999964283
0.0238128041 -10.9452604762 -2.4999963764
0.0822769896 -10.9437436058 -2.4999963505
0.0929642193 -10.9654258198 -2.4999963245
0.1049934914 -10.9594744235 -2.4999963245
0.1170051056 -10.9534874685 -2.4999963245
0.1529329502 -10.9353137765 -2.4999963245
0.2470717094 -10.9406595463 -2.4999962727
0.3183583986 -10.9294231866 -2.4999962467
0.3540083936 -10.9372346439 -2.4999962208
0.6067245804 -10.9279535998 -2.4999960911
3.4238327284 -8.3376759923 -2.4999952612
3.4280740674 -8.3218827820 -2.4999952612
3.4322686686 -8.3060770942 -2.4999952612
3.4364164953 -8.2902590672 -2.4999952612
3.4445716807 -8.2585865492 -2.4999952612
3.4485789680 -8.2427323354 -2.4999952612
3.4525393382 -8.2268663367 -2.4999952612
3.4540391022 -5.5712278929 -2.4999952612
3.4500966551 -5.5553574311 -2.4999952612
3.4461072776 -5.5394987012 -2.4999952612
3.4379878713 -5.5078169922 -2.4999952612
3.4341083099 -8.3914903758 -2.4999952353
3.4428624541 -8.3598297421 -2.4999952353
3.4471692446 -8.3439801415 -2.4999952353
3.4572382682 -5.4858547221 -2.4999952353
3.4488012913 -5.4541080973 -2.4999952353
3.4401766384 -5.4224119441 -2.4999952353
3.4357940275 -5.4065831411 -2.4999952353
3.4529213215 -8.4138809683 -2.4999952093
3.4573879612 -8.3980013753 -2.4999952093
3.4455940441 -5.3524843838 -2.4999952093
3.4410045511 -5.3366398611 -2.4999952093
3.4287345393 -8.5791884247 -2.4999951834
3.4336902942 -8.5633796573 -2.4999951834
3.4482766663 -8.5158663639 -2.4999951834
3.4642131815 -5.3298800715 -2.4999951834
3.4453054989 -5.2663656822 -2.4999951834
3.4262010173 -8.6656137065 -2.4999951575
3.4365771056 -8.6339950574 -2.4999951575
3.4517900361 -8.5864533644 -2.4999951575
3.4486897810 -5.1957723749 -2.4999951575
3.4385367292 -5.1640814027 -2.4999951575
3.4331637195 -8.7207336679 -2.4999951315
3.4438657942 -8.6890728605 -2.4999951315
3.4458876231 -5.1090118673 -2.4999951315
3.4405778931 -5.0931675414 -2.4999951315
3.4526807497 -5.0536760616 -2.4999951056
3.4416869385 -5.0219639644 -2.4999951056
3.4361197234 -5.0061324458 -2.4999951056
3.4280165396 -8.8792303641 -2.4999950797
3.4511089525 -8.8158957943 -2.4999950797
3.4360786380 -4.9346511295 -2.4999950797
3.4267363417 -8.9509695160 -2.4999950537
3.4327919011 -8.9351650329 -2.4999950537
3.4388006814 -8.9193427056 -2.4999950537
3.4447626302 -8.9035026724 -2.4999950537
3.4529238059 -4.9104474765 -2.4999950537
3.4470266557 -4.8945832051 -2.4999950537
3.4410826020 -4.8787364480 -2.4999950537
3.4369933388 -8.9913399729 -2.4999950278
3.4455136291 -4.8225791514 -2.4999950278
3.4393565809 -4.8067371852 -2.4999950278
3.4469587613 -9.0319034192 -2.4999950019
3.4493678133 -4.7661850207 -2.4999950019
3.4366731665 -4.7344975556 -2.4999950019
3.4436589712 -9.1043874285 -2.4999949759
3.4526413062 -4.7095598872 -2.4999949759
3.4396115888 -4.6778540460 -2.4999949759
3.4574311162 -4.5956401840 -2.4999949241
3.4368050914 -4.5480724482 -2.4999949241
3.4526854912 -4.4649847825 -2.4999948722
3.4454705829 -4.4491231652 -2.4999948722
3.4382087846 -4.4332829604 -2.4999948722
3.4573713297 -9.3749237096 -2.4999948462
3.4646808882 -9.3590267477 -2.4999948462
3.4448129869 -4.3335481122 -2.4999948203
3.4788746057 -9.4431347249 -2.4999947944
3.4435752728 -4.2754796331 -2.4999947944
3.4357998138 -4.2596457946 -2.4999947944
3.4417271536 -4.2172321458 -2.4999947684
3.4473390908 -4.1746564574 -2.4999947425
3.4658037784 -9.6343966876 -2.4999947166
3.4444337468 -4.1160609741 -2.4999947166
3.4361866948 -4.1002252937 -2.4999947166
3.6215139059 -4.4278517050 -2.4999946906
3.3546043902 -3.9001942757 -2.4999946906
3.2636907692 -3.7457063546 -2.4999946906
3.2449618776 -3.7151352773 -2.4999946906
3.2165302324 -3.6694877599 -2.4999946906
3.1973512313 -3.6391970341 -2.4999946906
3.4674683359 -9.7362192438 -2.4999946647
3.7611308556 -4.7004501964 -2.4999946647
3.7546111469 -4.6836751117 -2.4999946647
3.7414230015 -4.6501831686 -2.4999946647
3.7280369374 -4.6167698371 -2.4999946647
3.3933191779 -3.9195847389 -2.4999946647
3.3577291887 -3.8570079296 -2.4999946647
3.2655368548 -3.7024464793 -2.4999946647
3.2177362857 -3.6262053121 -2.4999946647
3.1688133089 -3.5506794735 -2.4999946647
3.1588949622 -3.5356616019 -2.4999946647
3.0572849874 -3.3871217709 -2.4999946647
3.8583180901 -4.8952897896 -2.4999946388
3.8030124578 -4.7423670539 -2.4999946388
3.7705339250 -4.6580626644 -2.4999946388
3.7571939691 -4.6244769650 -2.4999946388
2.9597779804 -3.2127023993 -2.4999946388
2.9268987554 -3.1696055141 -2.4999946388
2.9047673522 -3.1410370942 -2.4999946388
3.9045191795 -4.9560700210 -2.4999946128
3.9719018256 -5.0871691485 -2.4999945869
3.4654535173 -3.9000034828 -2.4999945869
2.7226221034 -2.8445160612 -2.4999945869
3.4920623584 -9.8939144361 -2.4999945610
4.0743102736 -5.3616212046 -2.4999945610
4.1067348507 -5.3912076781 -2.4999945350
3.4706131766 -10.0295054313 -2.4999945091
3.4798590483 -10.0135664335 -2.4999945091
3.4746522032 -10.1177989022 -2.4999944572
3.4682427412 -10.2671613799 -2.4999943794
3.4725731408 -10.6123752502 -2.4999941719
3.4647127458 -10.7496128580 -2.4999940941
3.4577004253 -10.8415969346 -2.4999940423
3.4693486671 -10.8256925819 -2.4999940423
3.0835606886 -11.3785392347 -2.4999939904
3.0967989398 -11.3637393056 -2.4999939904
3.1623303104 -11.2891558166 -2.4999939904
3.1753038046 -11.2741232638 -2.4999939904
