36.9392032259 -3.4712147306 -2.4986352921
34.0359792669 3.1564225970 -2.4986352921
34.0549201111 -0.5014540657 -2.4986352921
36.8725850383 -3.4688875183 -2.4986352921
34.0575308904 3.2817144513 -2.4986352921
34.0462063023 3.2525613069 -2.4986352921
36.7914925852 -3.4592049934 -2.4986352921
36.8342846518 -3.4784318831 -2.4986352921
36.7386731004 -3.4615148705 -2.4986352921
36.7529252070 -3.4681222596 -2.4986352921
34.1496094504 3.6182496290 -2.4986352921
34.1005505354 -0.8044920401 -2.4986352921
34.1758797962 3.7284840781 -2.4986352921
34.1277239538 3.6285141464 -2.4986352921
34.1077213845 3.5853686999 -2.4986352921
34.0913509921 -0.8432263016 -2.4986352921
34.1194469931 3.6675722448 -2.4986352921
34.0660382685 3.5519219137 -2.4986352921
34.0890732595 -0.8966208856 -2.4986352921
36.5647205294 -3.4579469574 -2.4986352921
36.5789628426 -3.4650689452 -2.4986352921
34.1396548757 3.7642423967 -2.4986352921
34.0873599819 -0.9502280723 -2.4986352921
36.4715047346 -3.4645902778 -2.4986352921
34.0927949314 -1.0725229469 -2.4986352921
34.0999915447 -1.0869677749 -2.4986352921
36.4174981105 -3.4634863170 -2.4986352921
36.4460390921 -3.4785590505 -2.4986352921
36.3918464223 -3.4771948726 -2.4986352921
34.0891305688 -1.2760062062 -2.4986352921
34.1047704337 -1.3048926285 -2.4986352921
36.2139922277 -3.4614320440 -2.4986352921
34.1235657080 -1.3885841652 -2.4986352921
36.1733928210 -3.4658763787 -2.4986352921
34.1271438612 -1.4436400019 -2.4986352921
36.1183894821 -3.4615658052 -2.4986352921
34.1275133931 -1.5398597211 -2.4986352921
34.1447136322 -1.5685144399 -2.4986352921
36.0221832030 -3.4599157192 -2.4986352921
34.1359359070 -1.6924630327 -2.4986352921
34.1382690296 -1.8739492359 -2.4986352921
34.1301815685 -2.1998089900 -2.4986352921
34.0999406690 -2.5188506832 -2.4986352921
34.0947636304 -2.6662798126 -2.4986352921
33.8153015117 -3.1589017484 -2.4986352921
33.8555457537 -3.2045524898 -2.4986352921
33.8961935356 -3.2498442885 -2.4986352921
34.2648924531 -3.6268144821 -2.4986352921
34.3092714539 -3.6684569303 -2.4986352921
33.7175532181 -3.0821170379 -2.4986352921
33.7571198880 -3.1286382643 -2.4986352921
33.7837263571 -3.1594565491 -2.4986352921
34.3377135999 -3.7275502814 -2.4986352921
34.3527631925 -3.7412589788 -2.4986352921
34.3829837067 -3.7685425160 -2.4986352921
34.3981543638 -3.7821171169 -2.4986352921
34.4592365566 -3.8359649692 -2.4986352921
34.5209516261 -3.8890862990 -2.4986352921
34.5676480588 -3.9284460378 -2.4986352921
34.5989722737 -3.9544549678 -2.4986352921
34.4897485879 -3.8942418810 -2.4986352921
34.5052906192 -3.9075001021 -2.4986352921
34.5993602197 -3.9860786791 -2.4986352921
33.3411302912 -2.6762657715 -2.4986352921
33.4013419076 -2.7592171168 -2.4986352921
33.4876852668 -2.8738336000 -2.4986352921
34.7444220492 -4.1324274980 -2.4986352921
34.8096250364 -4.1821536263 -2.4986352921
34.8919486868 -4.2432206470 -2.4986352921
33.2740163911 -2.6230902898 -2.4986352921
33.2858034455 -2.6399504284 -2.4986352921
33.3575684303 -2.7403723357 -2.4986352921
33.1957977386 -2.5517969423 -2.4986352921
35.1691895801 -4.4933352813 -2.4986352921
35.2038453414 -4.5157754031 -2.4986352921
33.0958748787 -2.4443143049 -2.4986352921
32.9870500773 -2.3166520006 -2.4986352921
34.7183148418 -4.2342718757 -2.4986352921
35.3363487805 -4.6555435296 -2.4986352921
35.3719612947 -4.6769918426 -2.4986352921
35.4615422832 -4.7296875654 -2.4986352921
32.9664354628 -2.3292763007 -2.4986352921
35.0081075709 -4.4731109601 -2.4986352921
35.6131735261 -4.8424192094 -2.4986352921
32.8288028534 -2.1436465614 -2.4986352921
32.6678135539 -1.8970635543 -2.4986352921
32.5987813878 -1.8141049114 -2.4986352921
34.0659401933 2.9541780027 -2.5008041859
34.0540320699 2.9128060542 -2.5008041859
34.0501443437 2.8989921216 -2.5008041859
34.0369416835 0.3324864958 -2.5008041859
34.0483007435 0.2909604403 -2.5008041859
34.0560779917 0.2633331131 -2.5008041859
34.0554214459 0.0209343316 -2.5008041859
34.0515167336 -0.0421528469 -2.5008041859
34.0563703213 -0.0559612911 -2.5008041859
34.0637007635 -0.1469578685 -2.5008041859
38.9399104525 -3.3997475730 -2.5008041859
38.9546750238 -3.3990805736 -2.5008041859
34.0266858513 -0.6190626976 -2.5008041859
37.5164732400 -3.4559753551 -2.5008041859
40.0688463349 -3.4200252721 -2.5008041859
40.1280527800 -3.4037357462 -2.5008041859
37.3911975747 -3.4494120909 -2.5008041859
37.4061158389 -3.4533262470 -2.5008041859
37.4210456166 -3.4571962550 -2.5008041859
40.2234528923 -3.4011395054 -2.5008041859
37.2953539339 -3.4482613439 -2.5008041859
37.3102692134 -3.4524590278 -2.5008041859
40.2896606643 -3.4060866415 -2.5008041859
37.1991340390 -3.4452892256 -2.5008041859
40.3117418955 -3.4244700205 -2.5008041859
37.1323727390 -3.4499739792 -2.5008041859
37.0354667894 -3.4438919558 -2.5008041859
36.9003480343 -3.4480449027 -2.5008041859
36.8771638886 -3.4653439831 -2.5008041859
40.7081659376 -3.4113844574 -2.5008041859
36.7939517320 -3.4600920573 -2.5008041859
40.8448967932 -3.4074793808 -2.5008041859
36.6268105947 -3.4454994703 -2.5008041859
36.5034748352 -3.4452858740 -2.5008041859
36.3792579861 -3.4421055940 -2.5008041859
36.1581993716 -3.4419563450 -2.5008041859
34.1063500030 -1.7069189932 -2.5008041859
35.9756303783 -3.4275477921 -2.5008041859
35.9194052647 -3.4240818776 -2.5008041859
35.5809618834 -3.4202519661 -2.5008041859
33.8053298041 -3.1888651023 -2.5008041859
33.8479480047 -3.2323079173 -2.5008041859
34.2792008029 -3.6321715622 -2.5008041859
34.2946733190 -3.6452907679 -2.5008041859
34.3883172199 -3.7230396260 -2.5008041859
33.8307673904 -3.2493126747 -2.5008041859
34.3572831576 -3.7288864347 -2.5008041859
34.3730414321 -3.7417742355 -2.5008041859
34.4683853950 -3.8181170051 -2.5008041859
34.5488635405 -3.8804351599 -2.5008041859
34.5650692853 -3.8927555681 -2.5008041859
34.6139042015 -3.9294284033 -2.5008041859
34.9553847818 -4.2254773270 -2.5008041859
34.9898669170 -4.2476589951 -2.5008041859
33.1860872585 -2.6174326418 -2.5008041859
35.1926807471 -4.4285315589 -2.5008041859
32.9650828029 -2.3952605390 -2.5008041859
33.0126610621 -2.4630977831 -2.5008041859
33.0978423835 -2.5804412221 -2.5008041859
32.8521583098 -2.2712099034 -2.5008041859
34.9728920866 -4.3514169765 -2.5008041859
32.6765318684 -2.0373191013 -2.5008041859
32.9853473621 -2.5080796581 -2.5008041859
32.4465740413 -1.8302069320 -2.5008041859
34.0539151366 0.1751145991 -2.4996058125
34.0505990144 0.1148931012 -2.4996058183
34.0455606374 -0.1289009466 -2.4996058413
34.0342259520 -0.5505052983 -2.4996058874
34.0943070178 -1.4563783691 -2.4996059912
37.0167820543 -3.4414030151 -2.4996059912
37.0941420867 -3.4616892219 -2.4996059912
37.1251686917 -3.4694829516 -2.4996059912
39.9236154003 -3.4172733595 -2.4996059912
39.9543297057 -3.4083277523 -2.4996059912
39.9696668769 -3.4037868440 -2.4996059912
36.9176411780 -3.4387734731 -2.4996059969
36.9330817000 -3.4432155055 -2.4996059969
36.9640018271 -3.4519624459 -2.4996059969
39.9765636500 -3.4269551371 -2.4996059969
40.0226989619 -3.4129983543 -2.4996059969
40.0533862407 -3.4034666102 -2.4996059969
36.8490206826 -3.4436889562 -2.4996060027
36.8954276560 -3.4574867038 -2.4996060027
36.7800735176 -3.4477077949 -2.4996060084
36.8265188710 -3.4621172517 -2.4996060084
40.2064592059 -3.4040597971 -2.4996060084
40.2450756028 -3.4162570600 -2.4996060142
36.6103251177 -3.4423710765 -2.4996060200
36.6567297952 -3.4582871652 -2.4996060200
34.0987838656 -1.6989531610 -2.4996060257
36.5559173279 -3.4488028617 -2.4996060257
40.4392938460 -3.4219886452 -2.4996060315
40.5403998010 -3.4078401605 -2.4996060373
36.3138485655 -3.4340607522 -2.4996060430
40.6110064308 -3.4047462564 -2.4996060430
36.1718736741 -3.4269600265 -2.4996060546
36.2027109507 -3.4402108137 -2.4996060546
36.1622646172 -3.4491411290 -2.4996060603
36.0035099062 -3.4308357900 -2.4996060718
41.0995425637 -3.3348205321 -2.4996060776
41.2793378751 -3.2367473674 -2.4996060776
41.3089604007 -3.2197840102 -2.4996060776
40.3732190524 -3.6786303471 -2.4996060834
40.4054717646 -3.6670201594 -2.4996060834
41.3949560194 -3.1973719917 -2.4996060834
41.4682278375 -3.1529300061 -2.4996060834
41.4973511655 -3.1348505794 -2.4996060834
40.5038598351 -3.7337111236 -2.4996061064
38.2119134212 -4.1806306983 -2.4996061237
35.4336645735 -3.4346264451 -2.4996061352
35.1738912500 -3.4482444540 -2.4996061698
34.9115244481 -3.4803157136 -2.4996062102
34.7929386315 -3.4874322336 -2.4996062274
34.4117166137 -3.7207166824 -2.4996063254
34.4770681102 -3.7678420126 -2.4996063254
34.4934927550 -3.7795022617 -2.4996063254
34.5099518211 -3.7911138727 -2.4996063254
33.5851624198 -3.0433726192 -2.4996063312
33.6425571305 -3.1003255408 -2.4996063312
33.7006217167 -3.1565953544 -2.4996063312
34.6968975636 -3.9468768241 -2.4996063312
33.5537410041 -3.0460356306 -2.4996063370
33.5823704258 -3.0747828367 -2.4996063370
34.8552845044 -4.0753335217 -2.4996063370
34.9073754796 -4.1067996862 -2.4996063370
33.1137371677 -2.5948587605 -2.4996063427
33.1397049762 -2.6262170735 -2.4996063427
33.2054321827 -2.7039359171 -2.4996063427
34.9299732803 -4.1483390978 -2.4996063427
34.9475215227 -4.1586579066 -2.4996063427
35.0180174337 -4.1994126857 -2.4996063427
33.0053426575 -2.4988791024 -2.4996063485
33.0435163322 -2.5468245416 -2.4996063485
33.0821139925 -2.5944293228 -2.4996063485
33.1605690776 -2.6886019416 -2.4996063485
32.8740259020 -2.3674989614 -2.4996063542
32.9110388227 -2.4166149367 -2.4996063542
32.9990866100 -2.5299273414 -2.4996063542
33.0634050355 -2.6097365175 -2.4996063542
35.3531283655 -4.4863221889 -2.4996063658
35.4461251331 -4.5311001797 -2.4996063658
35.2683103532 -4.4710866300 -2.4996063715
35.4545424783 -4.5617776290 -2.4996063715
35.5675407292 -4.6135340824 -2.4996063715
32.1533295947 -1.5954877861 -2.4996064003
32.0536901374 -1.4570310303 -2.4996064061
37.6260499527 0.5261026795 -2.5001742682
37.6015277996 0.5090953211 -2.5001742797
37.3231383382 0.4752000409 -2.5001743489
34.0431980597 0.8465260161 -2.5001755707
34.0528222291 0.8105309766 -2.5001755707
34.0627654552 0.7746227636 -2.5001755707
34.0498185195 0.7320437465 -2.5001755822
34.0596724026 0.6171628633 -2.5001755938
34.0334632869 0.5420568335 -2.5001756168
34.0627222280 0.4580676686 -2.5001756168
34.0439908635 0.3693908870 -2.5001756399
34.0625396580 0.3214594391 -2.5001756399
34.0567802482 0.2074974816 -2.5001756629
34.0395950413 0.1860796610 -2.5001756745
34.0593850805 -0.2470592067 -2.5001757551
34.0552840312 -0.3898161208 -2.5001757897
34.0759957605 -0.4736323620 -2.5001758012
34.0644496781 -0.7293523631 -2.5001758704
38.0695455830 -3.4215054136 -2.5001761125
38.1011068467 -3.4216156923 -2.5001761125
38.1484485846 -3.4214309943 -2.5001761125
38.1957868192 -3.4208261721 -2.5001761125
38.2115648078 -3.4205312111 -2.5001761125
38.2588925718 -3.4193663033 -2.5001761125
36.6940593566 -3.4321802129 -2.5001762047
36.7574045856 -3.4484886862 -2.5001762047
39.6185484880 -3.4034674462 -2.5001762047
39.6342689012 -3.3989637748 -2.5001762047
39.6656694157 -3.3898170195 -2.5001762047
36.6878940582 -3.4555537958 -2.5001762162
39.4506426998 -3.4733800949 -2.5001762162
39.6882468915 -3.4083420478 -2.5001762162
39.7197019463 -3.3988757764 -2.5001762162
36.5070594631 -3.4298015267 -2.5001762277
36.5545366171 -3.4437627826 -2.5001762277
39.8211673289 -3.3923610461 -2.5001762277
36.5160174573 -3.4576830898 -2.5001762393
39.8758294681 -3.3998442855 -2.5001762393
39.8915380375 -3.3945795462 -2.5001762393
39.9464878926 -3.4013461006 -2.5001762508
39.9778970374 -3.3903521112 -2.5001762508
39.9701866761 -3.4186880702 -2.5001762623
40.0331429110 -3.3962328277 -2.5001762623
36.2557206757 -3.4505205961 -2.5001762738
40.0571627693 -3.4131978655 -2.5001762738
36.1525394289 -3.4395835797 -2.5001762854
40.1758178740 -3.3941313841 -2.5001762854
36.0966341389 -3.4446913976 -2.5001762969
40.4326330042 -3.3923389805 -2.5001763315
35.8706341779 -3.4593589377 -2.5001763430
35.8135687309 -3.4615657402 -2.5001763545
35.8294776578 -3.4683176329 -2.5001763545
40.5151986728 -3.4084500023 -2.5001763545
35.7722029270 -3.4701023844 -2.5001763660
35.7147181432 -3.4712926435 -2.5001763776
35.6570293627 -3.4718848293 -2.5001763891
35.5570030700 -3.4788189300 -2.5001764122
35.5889473934 -3.4937932509 -2.5001764122
40.8193099859 -3.3960144327 -2.5001764122
35.5306748684 -3.4930874508 -2.5001764237
41.1034953895 -3.3245266782 -2.5001764467
41.1344297952 -3.3066887883 -2.5001764467
41.1498572869 -3.2977012893 -2.5001764467
41.1652581245 -3.2886681923 -2.5001764467
41.1806321732 -3.2795895763 -2.5001764467
41.1959792985 -3.2704655209 -2.5001764467
35.3388109871 -3.4791395636 -2.5001764583
40.4075192326 -3.6918992859 -2.5001764583
40.4240894272 -3.6850604343 -2.5001764583
40.4406393188 -3.6781725950 -2.5001764583
40.4571687625 -3.6712358283 -2.5001764583
41.3458017404 -3.2067405738 -2.5001764583
40.2324054719 -3.7865221420 -2.5001764698
40.3164706303 -3.7544182619 -2.5001764698
41.7151603862 -2.9833317063 -2.5001764698
41.8157685084 -2.9075092590 -2.5001764698
40.0706800367 -3.8698682574 -2.5001764813
41.8733188100 -2.8934005972 -2.5001764813
42.2478186363 -2.6073844059 -2.5001764928
39.7556877214 -4.0177920756 -2.5001765044
42.0179546342 -2.8704477654 -2.5001765159
39.4893621707 -4.1600013003 -2.5001765389
42.0207740066 -2.9615243275 -2.5001765505
34.8094745247 -3.4870853762 -2.5001765851
33.7865192758 -3.2267467593 -2.5001767695
33.8630102151 -3.2900412581 -2.5001767695
33.8784202760 -3.3025640062 -2.5001767695
33.9093511941 -3.3274724714 -2.5001767695
33.5025793761 -3.0073338477 -2.5001767810
33.5464256787 -3.0479748151 -2.5001767810
33.5758561720 -3.0748519276 -2.5001767810
33.5906309204 -3.0882250708 -2.5001767810
33.6351916198 -3.1280814448 -2.5001767810
33.6501235711 -3.1412788301 -2.5001767810
34.4603495670 -3.7532614716 -2.5001767810
34.4771273034 -3.7640151550 -2.5001767810
34.5445541563 -3.8065321679 -2.5001767810
34.6466258927 -3.8688043531 -2.5001767810
33.3420353996 -2.8862429411 -2.5001767925
33.3848134102 -2.9283134146 -2.5001767925
34.6342199517 -3.8895511098 -2.5001767925
34.6686104548 -3.9099777371 -2.5001767925
34.7899162381 -3.9798611967 -2.5001767925
33.0754437056 -2.6422296598 -2.5001768041
33.1433671912 -2.7161051779 -2.5001768041
33.1846431479 -2.7599454201 -2.5001768041
33.1984880576 -2.7744772200 -2.5001768041
33.4842370903 -3.0563326833 -2.5001768041
33.8171924619 -3.3462529209 -2.5001768041
34.9544412909 -4.0967153438 -2.5001768041
35.1411117304 -4.2177661212 -2.5001768156
35.1305933772 -4.2395307606 -2.5001768271
32.5656555428 -2.1716933651 -2.5001768502
35.5666690465 -4.5098547011 -2.5001768617
32.2932845713 -1.8634161359 -2.5001768732
35.6725814284 -4.5765118357 -2.5001768732
34.0593372702 1.0860636334 -2.4999333465
34.0698709592 0.7083933348 -2.4999334157
34.0641624516 0.5825499661 -2.4999334503
34.0415672394 0.5739597582 -2.4999334676
34.0675831164 0.2078592581 -2.4999335540
36.4788049431 -3.4627411802 -2.4999346260
39.4543149228 -3.4009701748 -2.4999346606
39.4702509371 -3.3959423182 -2.4999346606
39.6288222165 -3.3942554497 -2.4999346951
39.6447376039 -3.3887113984 -2.4999346951
36.0593538669 -3.4733216553 -2.4999347124
35.9312793501 -3.4827287227 -2.4999347470
35.5658928172 -3.4770147906 -2.4999348335
35.3761709830 -3.4761073936 -2.4999348853
35.3178980614 -3.4767796544 -2.4999349026
41.2143696636 -3.2545303537 -2.4999351101
41.3679393068 -3.1501428053 -2.4999351101
40.2017427897 -3.8479141991 -2.4999351447
41.8972976196 -2.7987582558 -2.4999351447
39.9839985476 -3.9600204892 -2.4999351620
39.8683362888 -4.0275560504 -2.4999351793
42.3005024423 -2.4875591599 -2.4999351793
39.7148114746 -4.1044990403 -2.4999351966
39.7508263141 -4.0928427096 -2.4999351966
33.8120128965 -3.2576690014 -2.4999353176
33.4634212741 -3.0079607476 -2.4999353349
34.7373740276 -3.8677314177 -2.4999353349
35.0775649139 -4.1106214886 -2.4999353867
37.8120527165 0.4671847306 -2.5000256509
37.4410237857 0.3923701879 -2.5000256567
37.5220067020 0.3958000765 -2.5000256567
34.0514596488 0.5404326237 -2.5000261466
34.0645811859 0.5106555802 -2.5000261466
34.0524849520 0.4210358456 -2.5000261581
34.0724997249 0.1688880287 -2.5000261812
34.0678349854 0.1274862990 -2.5000261869
40.9653914395 0.1020436715 -2.5000262330
40.9521783287 0.0275130718 -2.5000262388
38.9542397676 -3.4054031544 -2.5000266134
38.9702352890 -3.4008211847 -2.5000266134
36.0533730685 -3.4786167426 -2.5000266192
36.0858344131 -3.4865667259 -2.5000266192
38.9769263706 -3.4240497170 -2.5000266192
39.0090137113 -3.4147039321 -2.5000266192
39.0730197085 -3.3954436684 -2.5000266192
35.9014603396 -3.4637698724 -2.5000266249
35.9176418775 -3.4682183210 -2.5000266249
35.9662644553 -3.4812761890 -2.5000266249
39.0801220003 -3.4185497874 -2.5000266249
39.0961558610 -3.4135953778 -2.5000266249
39.1121749955 -3.4085935588 -2.5000266249
39.1281792637 -3.4035443742 -2.5000266249
39.1441685254 -3.3984478681 -2.5000266249
35.7977992670 -3.4592565529 -2.5000266307
35.8139679072 -3.4640116695 -2.5000266307
35.8463470334 -3.4733783097 -2.5000266307
35.8625572359 -3.4779897514 -2.5000266307
39.1194138666 -3.4316572538 -2.5000266307
39.2156197810 -3.4005211133 -2.5000266307
35.7261390598 -3.4628564875 -2.5000266365
38.9644449085 -3.5030086359 -2.5000266365
39.3033443492 -3.3960892927 -2.5000266365
35.6379960553 -3.4602944505 -2.5000266422
35.6703562690 -3.4707022643 -2.5000266422
35.6865593253 -3.4758343303 -2.5000266422
39.0689070534 -3.4977594078 -2.5000266422
39.3433808010 -3.4075811292 -2.5000266422
39.3753642945 -3.3960675651 -2.5000266422
35.6305267741 -3.4832845597 -2.5000266480
35.4931654980 -3.4623680691 -2.5000266537
39.5201805820 -3.3931635862 -2.5000266537
39.5609988792 -3.4030700602 -2.5000266595
39.5929518750 -3.3902690734 -2.5000266595
35.3472515404 -3.4606220267 -2.5000266653
35.3634261913 -3.4667099389 -2.5000266653
39.6659483868 -3.3864049762 -2.5000266653
35.2900876554 -3.4646057911 -2.5000266710
39.6912710506 -3.4019939409 -2.5000266710
39.7232153998 -3.3884222391 -2.5000266710
39.7647282770 -3.3968253710 -2.5000266768
35.1427153979 -3.4574734473 -2.5000266826
35.1912731365 -3.4774087761 -2.5000266826
39.9122155039 -3.3835292652 -2.5000266883
34.9846966617 -3.4684991438 -2.5000266998
35.0008962009 -3.4756595244 -2.5000266998
34.8675587813 -3.4683684456 -2.5000267114
34.8837584464 -3.4758753419 -2.5000267114
40.1137359684 -3.3937355957 -2.5000267114
40.1296919017 -3.3857236776 -2.5000267114
34.7658594440 -3.4736456136 -2.5000267229
40.2474446740 -3.3794442601 -2.5000267229
34.6742914298 -3.4554957453 -2.5000267287
40.3339726072 -3.3880433813 -2.5000267344
34.5715253590 -3.4572745258 -2.5000267402
34.5876935015 -3.4656571910 -2.5000267402
40.4808466937 -3.3894500897 -2.5000267517
34.4404327801 -3.4697042965 -2.5000267575
34.3964375579 -3.4731934945 -2.5000267632
40.6007322873 -3.3757515472 -2.5000267632
34.3199268194 -3.4581469798 -2.5000267690
34.2311912120 -3.4629455194 -2.5000267805
34.1257439409 -3.4567016968 -2.5000267921
33.7172833299 -3.2185965829 -2.5000267978
33.7949331926 -3.2726912094 -2.5000267978
33.8262157391 -3.2940064855 -2.5000267978
34.4599440051 -3.6717112989 -2.5000267978
34.5273094952 -3.7062597493 -2.5000267978
33.4146800712 -3.0216368839 -2.5000268036
33.4444839511 -3.0452062590 -2.5000268036
33.5045074310 -3.0918139636 -2.5000268036
33.5195991437 -3.1033546599 -2.5000268036
33.5803054040 -3.1490694959 -2.5000268036
33.6261877561 -3.1828824815 -2.5000268036
33.7969471326 -3.3033484799 -2.5000268036
34.6528531658 -3.7947795482 -2.5000268036
34.7735153384 -3.8506941867 -2.5000268036
33.2231200054 -2.8949257817 -2.5000268094
33.4746809755 -3.0993653781 -2.5000268094
34.7635794415 -3.8727308206 -2.5000268094
34.8682997019 -3.9188333357 -2.5000268094
34.8858319204 -3.9263360692 -2.5000268094
34.9209625569 -3.9411857822 -2.5000268094
34.9385606675 -3.9485326317 -2.5000268094
33.1495173934 -2.8631852594 -2.5000268151
33.2219726896 -2.9257162399 -2.5000268151
33.3696180264 -3.0475293118 -2.5000268151
35.1429012271 -4.0552499893 -2.5000268151
40.6289276862 -3.6110983117 -2.5000268151
41.2385133083 -3.2149499066 -2.5000268151
41.2539354399 -3.2036114760 -2.5000268151
41.2846787426 -3.1807979988 -2.5000268151
41.3152865350 -3.1578030332 -2.5000268151
41.3305392798 -3.1462377435 -2.5000268151
33.0050520975 -2.7657079721 -2.5000268209
33.0617991866 -2.8175348051 -2.5000268209
33.1335888899 -2.8813681651 -2.5000268209
40.3706601390 -3.7784723321 -2.5000268209
40.3877530691 -3.7696987024 -2.5000268209
40.5907954368 -3.6604965500 -2.5000268209
41.1905496256 -3.2795106611 -2.5000268209
41.3145192660 -3.1886497107 -2.5000268209
41.4363041257 -3.0948806754 -2.5000268209
41.5706157252 -2.9859798879 -2.5000268209
41.5853590690 -2.9736600401 -2.5000268209
41.6439660701 -2.9239461370 -2.5000268209
32.8904636300 -2.6908173796 -2.5000268266
33.3093664134 -3.0610806923 -2.5000268266
35.3623326180 -4.1839518783 -2.5000268266
35.4356960040 -4.2077869874 -2.5000268266
40.1563229362 -3.9098264094 -2.5000268266
41.7179424219 -2.8916960278 -2.5000268266
41.7468322071 -2.8661427885 -2.5000268266
41.7755703052 -2.8404190748 -2.5000268266
40.0607099489 -3.9796842095 -2.5000268324
40.0960656419 -3.9639166725 -2.5000268324
41.9055817147 -2.7534134221 -2.5000268324
41.9476250033 -2.7133598310 -2.5000268324
35.6443841904 -4.3206204354 -2.5000268382
39.8916885558 -4.0777550511 -2.5000268382
39.9276274270 -4.0629857851 -2.5000268382
42.1565109439 -2.5383017255 -2.5000268382
42.1966353556 -2.4960297491 -2.5000268382
42.2099265991 -2.4818601658 -2.5000268382
42.3457334589 -2.3686181932 -2.5000268439
42.3767828504 -2.3699903302 -2.5000268497
35.9677178402 -4.4765828821 -2.5000268555
37.2384528701 0.4287490166 -2.4999995405
37.6136763889 0.5196052361 -2.4999995405
37.6179403002 0.4953726459 -2.4999995145
40.9489284094 0.4247580980 -2.4999967136
40.9386305527 0.3353550902 -2.4999966876
40.9622150078 0.3928009527 -2.4999966876
40.9483804654 0.2359194923 -2.4999966358
40.9499960495 0.0674885049 -2.4999965579
40.9460952290 -0.4399989570 -2.4999962986
35.6921338209 -3.4457115352 -2.4999952093
35.7401479213 -3.4576966502 -2.4999952093
35.7722155944 -3.4654498003 -2.4999952093
38.4829218529 -3.4349116869 -2.4999952093
38.5370769636 -3.4454555150 -2.4999951834
35.5036021389 -3.4445740536 -2.4999951575
38.4791013875 -3.4858745822 -2.4999951575
35.4327873492 -3.4488410941 -2.4999951315
35.4487906005 -3.4536506516 -2.4999951315
38.6783360028 -3.4554833437 -2.4999951315
35.3456551797 -3.4471182557 -2.4999951056
35.3616537157 -3.4521855735 -2.4999951056
38.8612722640 -3.4231132978 -2.4999951056
35.2422442876 -3.4386226443 -2.4999950797
38.9327430471 -3.4243410771 -2.4999950797
38.9486585091 -3.4187972399 -2.4999950797
35.2024684314 -3.4505883837 -2.4999950537
35.1304492060 -3.4509111370 -2.4999950278
35.1464599037 -3.4566150564 -2.4999950278
39.0605786508 -3.4298890923 -2.4999950278
35.0581624773 -3.4502837218 -2.4999950019
39.1169095953 -3.4345770997 -2.4999950019
34.9536658768 -3.4362932499 -2.4999949759
34.9696341056 -3.4425201902 -2.4999949759
34.9288339553 -3.4525011395 -2.4999949500
39.2781281296 -3.4228037575 -2.4999949500
34.7985600370 -3.4516627638 -2.4999948981
39.4817693901 -3.4141492371 -2.4999948722
34.6834155271 -3.4548042372 -2.4999948462
39.5076283969 -3.4289997898 -2.4999948462
34.2742769700 -3.4467432468 -2.4999946647
34.1991662310 -3.4346681541 -2.4999946388
33.7235650370 -3.2399347048 -2.4999945610
33.7389577840 -3.2498013651 -2.4999945610
34.4265729680 -3.6298680592 -2.4999945610
34.4431161324 -3.6376533888 -2.4999945610
33.5727512514 -3.1690746171 -2.4999945350
34.6170309195 -3.7422546887 -2.4999945350
33.1883834775 -2.9158214528 -2.4999945091
33.2317936948 -2.9500468139 -2.4999945091
33.2463310527 -2.9613694911 -2.4999945091
33.4233502847 -3.0938554724 -2.4999945091
34.8293389676 -3.8547794846 -2.4999945091
34.8465456984 -3.8613723754 -2.4999945091
34.8810172922 -3.8744053113 -2.4999945091
33.1013850134 -2.8766189085 -2.4999944832
33.1874134411 -2.9766908995 -2.4999944572
35.2976157434 -4.0895536131 -2.4999944313
40.4188748936 -3.4058457986 -2.4999944054
35.5320826417 -4.2279959430 -2.4999943535
40.5687354741 -3.6827248792 -2.4999940682
40.6517893456 -3.6303103953 -2.4999940682
41.2864957491 -3.1679972681 -2.4999940682
41.3016426011 -3.1554917263 -2.4999940682
41.3318249930 -3.1303464952 -2.4999940682
41.3618580890 -3.1050231351 -2.4999940682
40.3612062019 -3.8342113370 -2.4999940423
40.4634986054 -3.7748262706 -2.4999940423
40.5311010225 -3.7342316314 -2.4999940423
40.6814186245 -3.6399882770 -2.4999940423
41.5259228688 -2.9937293086 -2.4999940423
41.5405531570 -2.9805162605 -2.4999940423
41.6131147905 -2.9138050276 -2.4999940423
40.2520684845 -3.9224415387 -2.4999940163
41.8558606858 -2.7101132178 -2.4999940163
42.1339161711 -2.4804603417 -2.4999939645
39.7837295589 -4.2322293679 -2.4999939385
42.3321860627 -2.2820167049 -2.4999939385
42.2542663153 -2.4520013209 -2.4999938867
42.8012855354 -1.8016390291 -2.4999938348
38.1786684860 -5.1019758995 -2.4999935236
37.0431981026 0.4940855518 -2.4999973689
40.9453114190 1.3124417044 -2.4999895481
40.9411809697 0.9930063492 -2.4999894156
40.9486522928 1.0303845194 -2.4999894156
40.9534487632 1.0553394992 -2.4999894156
40.9669511727 1.1303685844 -2.4999894156
40.9403265381 0.8758182801 -2.4999893493
40.9432005000 0.8882682700 -2.4999893493
40.9516012352 0.9256684868 -2.4999893493
40.9622852923 0.9756486112 -2.4999893493
40.9394210927 0.7705079254 -2.4999892830
40.9457552419 0.7954128386 -2.4999892830
40.9393732443 0.6771339724 -2.4999892167
40.9410384534 0.5139253127 -2.4999890842
40.9488906031 0.5388442853 -2.4999890842
40.9565951864 0.5638092779 -2.4999890842
40.9451878626 0.3740288137 -2.4999889516
40.9495461872 0.3864953798 -2.4999889516
40.9538676144 0.3989747841 -2.4999889516
40.9409263779 0.2910903984 -2.4999888853
40.9767215394 0.3910986560 -2.4999888853
40.9682160117 0.2951970723 -2.4999888191
40.9498665127 0.1150950254 -2.4999886865
40.9459020426 0.0433744928 -2.4999886202
40.9565380439 0.0683304755 -2.4999886202
40.9517956130 -0.0036803374 -2.4999885539
40.9515315646 -0.0634688171 -2.4999884877
40.9562703225 -0.1110254051 -2.4999884214
40.9545240064 -0.1713128487 -2.4999883551
40.9642033475 -0.2068360521 -2.4999882888
40.9468124699 -0.4511146027 -2.4999880237
40.9670993345 -0.4136295886 -2.4999880237
40.9466424574 -0.5989494500 -2.4999878249
40.9528782070 -0.6361188004 -2.4999877586
40.9602246972 -0.6236250650 -2.4999877586
35.2820385055 -3.4555147944 -2.4999861017
37.9252885232 -3.5195754677 -2.4999861017
38.2722027218 -3.4306683222 -2.4999861017
38.2878277241 -3.4260922824 -2.4999861017
35.1655660201 -3.4475117993 -2.4999860354
35.2756653363 -3.4788325557 -2.4999860354
38.3103360888 -3.4446382762 -2.4999860354
38.3729165503 -3.4256048801 -2.4999860354
38.3885261334 -3.4207309328 -2.4999860354
35.0644633999 -3.4419112859 -2.4999859691
38.4270769102 -3.4338650780 -2.4999859691
35.0257615202 -3.4549584483 -2.4999859028
34.9083339853 -3.4413222726 -2.4999858365
34.9240052222 -3.4466971183 -2.4999858365
38.5205246072 -3.4540499923 -2.4999858365
38.5518949945 -3.4433821462 -2.4999858365
38.5675563828 -3.4379786705 -2.4999858365
34.8376640950 -3.4421191490 -2.4999857703
38.6225639386 -3.4442589280 -2.4999857703
38.6621294320 -3.4557074409 -2.4999857040
38.6935071469 -3.4442017841 -2.4999857040
34.7740471554 -3.4704614935 -2.4999856377
38.8116382858 -3.4249664362 -2.4999856377
34.6711148740 -3.4573873408 -2.4999855714
34.5837079904 -3.4487110744 -2.4999855052
38.9078593558 -3.4383640568 -2.4999855052
38.9391301608 -3.4254048829 -2.4999855052
34.5117736531 -3.4452005038 -2.4999854389
38.9954093376 -3.4278400866 -2.4999854389
34.4552942860 -3.4474882555 -2.4999853726
39.0675234250 -3.4228078705 -2.4999853726
39.1086103651 -3.4309522008 -2.4999853063
34.3260177912 -3.4432020652 -2.4999852400
34.3002934193 -3.4580357480 -2.4999851738
39.2226282930 -3.4316959639 -2.4999851738
34.2116087638 -3.4432986515 -2.4999851075
34.2272888957 -3.4507345278 -2.4999851075
34.2587148063 -3.4654669640 -2.4999851075
39.2642840526 -3.4386817865 -2.4999851075
34.1278151087 -3.4564957120 -2.4999849749
39.3950802452 -3.4283101802 -2.4999849749
33.6850147088 -3.2434895312 -2.4999849087
33.8217813364 -3.3228250362 -2.4999849087
33.8524575886 -3.3399588300 -2.4999849087
39.4216363812 -3.4419667223 -2.4999849087
33.3607882893 -3.0643621581 -2.4999848424
33.3899434564 -3.0842278651 -2.4999848424
33.7945692082 -3.3352243168 -2.4999848424
34.7568715261 -3.7725375320 -2.4999848424
33.2168689869 -2.9924115408 -2.4999847761
34.8999406028 -3.8461642679 -2.4999847761
32.9487211804 -2.8171832633 -2.4999847098
32.9625546754 -2.8283577290 -2.4999847098
33.6630706964 -3.3148330470 -2.4999847098
34.9943976336 -3.9009417282 -2.4999847098
35.0114281315 -3.9060599710 -2.4999847098
32.8100121708 -2.7331557481 -2.4999846435
35.0730506628 -3.9492692028 -2.4999846435
35.1074112697 -3.9589891032 -2.4999846435
35.1246129877 -3.9637727773 -2.4999846435
32.7266196130 -2.6927656363 -2.4999845773
35.0836439276 -3.9774148492 -2.4999845773
39.6977111553 -3.4315270083 -2.4999845773
35.5447280325 -4.1378522862 -2.4999844447
39.8432879846 -3.4315093430 -2.4999843784
39.8589086006 -3.4222857452 -2.4999843784
35.8368915111 -4.2617678288 -2.4999842459
39.9901194646 -3.4277024325 -2.4999841796
40.2269750887 -3.4196984370 -2.4999838482
40.4511250402 -3.4127891156 -2.4999835168
40.5259473126 -3.4188325236 -2.4999833843
40.8758715626 -3.3972197491 -2.4999828540
40.6160110955 -3.6810178405 -2.4999826552
41.2867537017 -3.1437204586 -2.4999826552
41.3455651966 -3.0894897726 -2.4999826552
41.4037308916 -3.0345669982 -2.4999826552
40.3627343432 -3.8789559602 -2.4999825889
40.5140509089 -3.7803018843 -2.4999825889
40.5804488249 -3.7351696122 -2.4999825889
40.6626876268 -3.6776546444 -2.4999825889
41.4493717536 -3.0242267187 -2.4999825889
41.4781479023 -2.9962383519 -2.4999825889
41.5352009216 -2.9397533255 -2.4999825889
41.5634757952 -2.9112586430 -2.4999825889
41.6334211082 -2.8392944488 -2.4999825889
40.1168896491 -4.0552940215 -2.4999825226
40.1517892589 -4.0351710210 -2.4999825226
40.3415655545 -3.9208292703 -2.4999825226
40.3926680242 -3.8885788505 -2.4999825226
40.4265764645 -3.8668271703 -2.4999825226
40.6437774293 -3.7205952563 -2.4999825226
40.7094597870 -3.6739321795 -2.4999825226
41.5380583202 -2.9710656322 -2.4999825226
41.7880259142 -2.7084977750 -2.4999825226
41.8149281774 -2.6785113423 -2.4999825226
39.9163083393 -4.1930544871 -2.4999824564
40.1813926267 -4.0459016610 -2.4999824564
40.3543758467 -3.9413288239 -2.4999824564
41.8194923880 -2.7096669839 -2.4999824564
41.9128875002 -2.6033709481 -2.4999824564
41.9260492777 -2.5880287241 -2.4999824564
41.9522363899 -2.5572278072 -2.4999824564
41.9706991398 -2.5728310809 -2.4999823901
42.0866761353 -2.4318350198 -2.4999823901
39.6471296496 -4.3806882494 -2.4999823238
40.5340586950 -3.8831776955 -2.4999823238
42.2001644671 -2.3656818238 -2.4999822575
42.3225676868 -2.2021338017 -2.4999822575
39.3672797013 -4.5562956968 -2.4999821913
42.5058284656 -1.9806114213 -2.4999821913
40.0451966302 -4.2612425820 -2.4999821250
42.5933393180 -1.8905669771 -2.4999821250
42.8677865862 -1.5728677683 -2.4999819261
37.1213440703 0.5133798735 -2.4999997220
40.9550314324 0.3374785456 -2.4999961171
40.9629673342 0.3643158383 -2.4999961171
40.9490204563 0.2365263404 -2.4999960911
40.9575537304 0.2633298370 -2.4999960911
40.9727950281 0.1542609341 -2.4999960392
40.9578379075 0.0387457583 -2.4999960133
40.9554716126 -0.0367623232 -2.4999959874
40.9571779936 -0.0991548922 -2.4999959614
40.9525348129 -0.1752363156 -2.4999959355
40.9615154572 -0.3380066584 -2.4999958577
40.9529083902 -0.4151083657 -2.4999958318
40.9591224860 -0.4016985758 -2.4999958318
40.9622181334 -0.4521979778 -2.4999958058
40.9545752507 -0.6318394135 -2.4999957280
35.0835214047 -3.4465097923 -2.4999954946
35.0987286153 -3.4504494469 -2.4999954946
35.1291776663 -3.4581937132 -2.4999954946
37.8020233093 -3.4359887734 -2.4999954946
40.9561876772 -1.0736312806 -2.4999954946
35.0469071347 -3.4618506605 -2.4999954687
35.0927009797 -3.4738589085 -2.4999954687
37.9449476055 -3.4206267845 -2.4999954687
37.9902614909 -3.4069181723 -2.4999954687
34.9185437360 -3.4510477934 -2.4999954427
34.9795068167 -3.4684880331 -2.4999954427
35.1327799356 -3.5089223205 -2.4999954427
38.0276412284 -3.4206196261 -2.4999954427
38.0729517940 -3.4061771548 -2.4999954427
34.8355086154 -3.4513331752 -2.4999954168
34.8507311795 -3.4560064754 -2.4999954168
38.1106660295 -3.4192798099 -2.4999954168
34.7369323070 -3.4453175119 -2.4999953909
38.1940006038 -3.4165975617 -2.4999953909
38.2241952032 -3.4060297520 -2.4999953909
34.6836649405 -3.4530532494 -2.4999953649
38.2776233302 -3.4125634502 -2.4999953649
38.2927161458 -3.4070545222 -2.4999953649
38.3077925990 -3.4015009709 -2.4999953649
34.6301281006 -3.4602463670 -2.4999953390
38.4305718960 -3.4063650011 -2.4999953131
34.4612835410 -3.4501373060 -2.4999952871
34.5222678594 -3.4729881245 -2.4999952871
34.4373977328 -3.4668719566 -2.4999952612
38.5543532214 -3.4083093298 -2.4999952612
38.6392085175 -3.3983900722 -2.4999952353
38.6185699083 -3.4336336780 -2.4999952093
38.6488578685 -3.4205536755 -2.4999952093
38.6941433861 -3.4005982575 -2.4999952093
34.2271152311 -3.4598674447 -2.4999951834
34.2576352569 -3.4727683038 -2.4999951834
38.7492912220 -3.4022305956 -2.4999951834
33.5256901353 -3.1851974702 -2.4999951056
33.7597023390 -3.3168119975 -2.4999951056
34.6540221220 -3.6979644402 -2.4999951056
34.6699750602 -3.7031735311 -2.4999951056
33.4988678819 -3.1973520131 -2.4999950797
33.8832138930 -3.4075710092 -2.4999950797
34.8397215962 -3.7805685810 -2.4999950797
34.8883520427 -3.7944029338 -2.4999950797
38.9718933458 -3.4029303931 -2.4999950797
33.0082601177 -2.8984380329 -2.4999950537
33.0902741327 -2.9583186777 -2.4999950537
35.0454851506 -3.8608527952 -2.4999950537
39.5783964287 -3.4244398802 -2.4999947425
40.8728675951 -3.4296628339 -2.4999939126
40.5917222200 -3.7221307890 -2.4999938607
41.1727648463 -3.2203233939 -2.4999938607
41.2017460885 -3.1921356497 -2.4999938607
41.2161740446 -3.1779776021 -2.4999938607
41.2449039951 -3.1495337756 -2.4999938607
40.3280483539 -3.9447142013 -2.4999938348
40.3613301194 -3.9215114055 -2.4999938348
40.4439288678 -3.8626465219 -2.4999938348
41.1309005019 -3.2937579061 -2.4999938348
41.4313594438 -2.9918586982 -2.4999938348
41.4864332493 -2.9322684228 -2.4999938348
40.1556987813 -4.0890890604 -2.4999938089
40.1727846646 -4.0780214854 -2.4999938089
40.3082779053 -3.9876713041 -2.4999938089
41.7051388159 -2.7186011843 -2.4999938089
39.9780756696 -4.2281960592 -2.4999937829
40.0130407340 -4.2070588579 -2.4999937829
40.4058025965 -3.9493314239 -2.4999937829
41.8774480666 -2.5431773619 -2.4999937829
39.8667386658 -4.3215164334 -2.4999937570
39.9199717641 -4.2907175278 -2.4999937570
42.2244435005 -2.1858809682 -2.4999937051
42.5269274772 -1.7885172927 -2.4999936532
42.4955974634 -1.8907010362 -2.4999936273
34.8608828477 -3.4487275159 -2.5000112747
34.8900623689 -3.4562408594 -2.5000112747
34.9339137202 -3.4671868553 -2.5000112747
40.9748884629 -0.1370893107 -2.5000112747
34.7962865064 -3.4565013366 -2.5000113237
37.4889031560 -3.4580277207 -2.5000113237
34.7313272435 -3.4634332360 -2.5000113727
34.7605960362 -3.4717128166 -2.5000113727
37.6268319916 -3.4436607273 -2.5000113727
37.6704639310 -3.4303199234 -2.5000113727
34.6660159773 -3.4695157249 -2.5000114216
37.7213509310 -3.4396129080 -2.5000114216
37.7358956567 -3.4349294173 -2.5000114216
34.5418510450 -3.4561131199 -2.5000114706
34.5564584930 -3.4608350927 -2.5000114706
34.4758220391 -3.4596938504 -2.5000115196
40.9537088930 -0.5362374418 -2.5000115196
34.3948734302 -3.4572430940 -2.5000115686
38.0211681363 -3.4110236259 -2.5000115686
34.3136338359 -3.4534733658 -2.5000116176
34.3428510130 -3.4642243352 -2.5000116176
34.3574833262 -3.4695349506 -2.5000116176
38.0878269220 -3.4109520240 -2.5000116176
40.9614237474 -0.6407387216 -2.5000116176
40.9676747204 -0.6264827558 -2.5000116176
38.0676494786 -3.4448767242 -2.5000116666
38.1547453952 -3.4099845336 -2.5000116666
40.9580060983 -0.7075768676 -2.5000116666
40.9644548055 -0.6933307194 -2.5000116666
34.2087398412 -3.4652024139 -2.5000117156
38.1784550520 -3.4263504815 -2.5000117156
38.2074441201 -3.4142363453 -2.5000117156
40.9669299763 -0.7461427165 -2.5000117156
34.1412860850 -3.4643432060 -2.5000117646
34.1559196318 -3.4702500864 -2.5000117646
38.2893136740 -3.4053374817 -2.5000117646
40.9552798202 -0.8276662560 -2.5000117646
33.7849868110 -3.3314254421 -2.5000118135
38.3569393449 -3.4016461112 -2.5000118135
38.4247764378 -3.3970352373 -2.5000118625
40.9496252905 -0.9485715465 -2.5000118625
40.9783932929 -0.9451889148 -2.5000119115
38.3428757828 -3.4873985002 -2.5000119605
40.9560088169 -1.0418054925 -2.5000119605
38.5573219271 -3.4138399882 -2.5000120095
38.7638206690 -3.3890238533 -2.5000121565
40.9555698991 -1.2446294731 -2.5000121565
38.8041543794 -3.3946683170 -2.5000122055
38.8185614131 -3.3867818946 -2.5000122055
40.9438917305 -1.3135152450 -2.5000122055
39.1359323900 -3.3697051215 -2.5000124994
39.1773798285 -3.3724267924 -2.5000125484
39.2333102269 -3.3657136334 -2.5000125974
39.2750341415 -3.3676675432 -2.5000126463
40.9344097220 -2.1939293675 -2.5000131852
40.9078937119 -2.7931815314 -2.5000139200
40.9183263930 -2.8537807603 -2.5000140180
40.5813520022 -3.7500009468 -2.5000148508
40.7641563148 -3.5892708095 -2.5000148508
41.1120831353 -3.2488612826 -2.5000148508
41.1260487473 -3.2341482274 -2.5000148508
41.1538490946 -3.2045985009 -2.5000148508
40.4079312835 -3.9231195419 -2.5000148998
40.4238945543 -3.9104865451 -2.5000148998
40.4715591666 -3.8723049971 -2.5000148998
40.5502411970 -3.8077339323 -2.5000148998
41.0872852193 -3.3095740751 -2.5000148998
41.2267720606 -3.1613098115 -2.5000148998
41.2677565334 -3.1160326775 -2.5000148998
41.2813285333 -3.1008596935 -2.5000148998
41.4406533426 -2.9156958083 -2.5000148998
40.2770625423 -4.0540453383 -2.5000149488
40.3907533032 -3.9673094275 -2.5000149488
41.1470987588 -3.2821966577 -2.5000149488
41.4461831111 -2.9468347113 -2.5000149488
41.4981864546 -2.8838034344 -2.5000149488
41.5366975261 -2.8361285778 -2.5000149488
40.1254694275 -4.1936176805 -2.5000149978
41.7783922602 -2.5571555783 -2.5000149978
39.9692230543 -4.3290471784 -2.5000150468
40.0376847741 -4.2833952158 -2.5000150468
41.7739766170 -2.6046081354 -2.5000150468
41.8455755076 -2.5040677386 -2.5000150468
39.8958858320 -4.4053528191 -2.5000150957
42.1446319508 -2.1322554110 -2.5000151447
39.9043236053 -4.4572685546 -2.5000151937
42.3513499396 -1.8673150716 -2.5000152427
42.1741377783 -2.2233066486 -2.5000152917
34.6439462395 -3.4614741995 -2.5000136763
34.6578057337 -3.4651962380 -2.5000136763
37.1550784448 -3.4666078956 -2.5000136763
37.2104665845 -3.4515365879 -2.5000136763
34.5404605391 -3.4574752629 -2.5000137397
34.6237246487 -3.4810289402 -2.5000137397
37.2169512732 -3.4748235820 -2.5000137397
37.2862730256 -3.4549661032 -2.5000137397
37.3415142298 -3.4383432553 -2.5000137397
37.3762989873 -3.4528506955 -2.5000138031
37.4039300852 -3.4440883918 -2.5000138031
37.4177260729 -3.4396459750 -2.5000138031
37.4390201340 -3.4581391899 -2.5000138665
37.4528575330 -3.4535929089 -2.5000138665
37.4942881905 -3.4397087451 -2.5000138665
37.6207947445 -3.4462832606 -2.5000139933
37.6844997444 -3.4482981129 -2.5000140567
37.7396341716 -3.4269637282 -2.5000140567
40.9542777220 -0.0931912843 -2.5000146273
40.9619693259 -0.0633192564 -2.5000146273
40.9671815803 2.4862395270 -2.5000146273
40.9399158375 2.5907003200 -2.5000146273
40.9358443573 2.6055764174 -2.5000146273
40.9595782820 -0.2554121576 -2.5000147540
40.9343329649 2.7827269622 -2.5000147540
38.4405274096 -3.4189345089 -2.5000148174
40.9480521965 2.8197377334 -2.5000148174
40.9385100430 2.8495219478 -2.5000148174
38.3828729445 -3.4772578339 -2.5000148808
38.5070875124 -3.4097392017 -2.5000148808
40.9547805800 -0.4340186571 -2.5000148808
40.9418067972 2.9166332909 -2.5000148808
41.0335888800 -0.2606174902 -2.5000149442
40.9494073734 2.9691469535 -2.5000149442
40.9597519930 -0.5691097746 -2.5000150076
40.9292936918 3.0963841489 -2.5000150076
40.9293053350 3.1643777603 -2.5000150710
40.9496401381 -0.7352102537 -2.5000151344
40.9554072603 -0.7202908378 -2.5000151344
40.9611302230 -0.7053544270 -2.5000151344
40.9545300065 -0.7888138277 -2.5000151978
40.9508469406 3.2416225173 -2.5000151978
40.9388087261 3.2714158827 -2.5000151978
40.9588636826 -0.8426576150 -2.5000152612
38.9218110448 -3.3842357101 -2.5000153880
40.9593972517 -0.9659924053 -2.5000153880
40.9515436874 -1.2152889813 -2.5000156416
40.9338172329 -1.4117159802 -2.5000158318
40.9315585829 -1.4676149703 -2.5000158952
40.9408195946 -1.7469543996 -2.5000162756
40.5875155961 -3.7919602063 -2.5000189382
40.6465131641 -3.7362519310 -2.5000189382
41.0939409552 -3.2662703222 -2.5000189382
41.1857584493 -3.1579516014 -2.5000189382
41.2244184596 -3.1109516779 -2.5000189382
41.2499594196 -3.0794285910 -2.5000189382
40.4684041573 -3.9328319385 -2.5000190016
40.5139690443 -3.8921676182 -2.5000190016
40.5290769237 -3.8785231832 -2.5000190016
40.5891028361 -3.8235003215 -2.5000190016
40.8651367461 -3.5526292576 -2.5000190016
41.1255183331 -3.2666794684 -2.5000190016
41.3694252523 -2.9665540489 -2.5000190016
40.3763329150 -4.0445653308 -2.5000190650
40.4228929988 -4.0047136912 -2.5000190650
40.8398306453 -3.6133481489 -2.5000190650
41.6045355181 -2.6836776642 -2.5000190650
40.2176596802 -4.2060491400 -2.5000191284
40.2656590906 -4.1675992774 -2.5000191284
40.2974683124 -4.1417300398 -2.5000191284
40.4075836692 -4.0497152469 -2.5000191284
41.7043954279 -2.5781664370 -2.5000191284
41.7913720095 -2.4876058194 -2.5000191918
41.8669170983 -2.3650131559 -2.5000191918
41.8985134016 -2.3119995563 -2.5000191918
41.9402074347 -2.2886624809 -2.5000192552
41.9914687584 -2.1990759644 -2.5000192552
39.5037567995 -4.9281110580 -2.5000196356
37.0200598691 0.2991551282 -2.5000012977
37.0812260481 -3.4518880233 -2.5000020469
37.2388049237 -3.4509973150 -2.5000020584
37.3934003299 -3.4719770692 -2.5000020757
37.4582795798 -3.4467615301 -2.5000020757
37.4931816199 -3.4588196908 -2.5000020815
37.5061478348 -3.4535582837 -2.5000020815
37.5152700562 -3.4759440015 -2.5000020872
37.5931312134 -3.4434067640 -2.5000020872
37.6286044713 -3.4544181387 -2.5000020930
37.6544928691 -3.4430558612 -2.5000020930
37.9109443191 -3.4828944221 -2.5000021276
38.1149242115 -3.4308200607 -2.5000021391
38.2537832523 -3.4356698991 -2.5000021564
38.3176098490 -3.4261566939 -2.5000021621
38.4971955215 -3.4289932490 -2.5000021852
40.9410822078 -0.4831695951 -2.5000022428
40.9452308255 -0.4677216942 -2.5000022428
40.9468050115 2.3157582482 -2.5000022428
40.9426738694 2.3312108317 -2.5000022428
40.9384534776 -0.5823104929 -2.5000022486
40.9428953836 -0.5668699346 -2.5000022486
40.9516420708 -0.5359497358 -2.5000022486
40.9618219877 2.3529979222 -2.5000022486
40.9532934248 2.3839789945 -2.5000022486
40.9489604451 2.3994504733 -2.5000022486
40.9445817168 2.4149090667 -2.5000022486
40.9401572784 2.4303546394 -2.5000022486
40.9339427127 -0.6818001913 -2.5000022544
40.9433695226 -0.6509309481 -2.5000022544
40.9543599640 2.4680345790 -2.5000022544
40.9404778294 2.5144163789 -2.5000022544
40.9473889260 -0.7198780802 -2.5000022601
40.9570407822 -0.6889286182 -2.5000022601
40.9492483226 2.5679120318 -2.5000022601
40.9443712534 2.5833707397 -2.5000022601
40.9350691851 -0.8354809326 -2.5000022659
40.9259812481 -1.0057564543 -2.5000022774
40.9373248314 -0.9749286440 -2.5000022774
40.9429281778 -0.9594897065 -2.5000022774
40.9539977348 -0.9285624423 -2.5000022774
40.9312099750 -1.0604864852 -2.5000022832
40.9508346653 2.8622035258 -2.5000022832
40.9298107441 -1.1308782498 -2.5000022889
40.9358754505 -1.1154608580 -2.5000022889
40.9560499523 2.9171284665 -2.5000022889
40.9485079564 3.0032613079 -2.5000022947
40.9554420066 3.1143527639 -2.5000023062
40.9580444070 3.1702368055 -2.5000023120
40.9157217944 -1.4708896665 -2.5000023178
40.9088116905 -1.5425773465 -2.5000023235
40.9160943692 -1.5272202723 -2.5000023235
40.9545099480 3.2981439188 -2.5000023235
40.9150588696 -1.6404593363 -2.5000023350
40.9226310736 -1.6250833536 -2.5000023350
40.8795046897 3.5651130335 -2.5000023350
40.8237739433 3.6713569833 -2.5000023350
40.7826252941 3.7465277095 -2.5000023350
40.7489086762 3.8062209600 -2.5000023350
40.9243321827 3.5300462656 -2.5000023408
40.8612779684 3.6524435037 -2.5000023408
40.6754921919 4.0230175817 -2.5000023466
41.3534426134 2.5674629360 -2.5000023523
40.9240463568 -2.2263986660 -2.5000024042
40.9353308181 -2.2543663841 -2.5000024100
40.9498221356 -2.4137088226 -2.5000024330
40.9502590277 -2.4577204349 -2.5000024388
40.9603671231 -2.5306224748 -2.5000024503
40.9704218981 -3.0995427501 -2.5000025310
40.6388432525 -3.7826128823 -2.5000025771
40.6666206763 -3.7534352772 -2.5000025771
40.7216552258 -3.6945896044 -2.5000025771
41.1725224387 -3.1530224532 -2.5000025771
41.1965656538 -3.1206984418 -2.5000025771
41.2558333525 -3.0392710415 -2.5000025771
41.2908135943 -2.9899969644 -2.5000025771
41.3367710897 -2.9238189963 -2.5000025771
40.4417934200 -4.0135980573 -2.5000025829
40.4709408784 -3.9855822226 -2.5000025829
40.5143500090 -3.9432363615 -2.5000025829
41.2399402909 -3.1024870296 -2.5000025829
41.4685428787 -2.7691106728 -2.5000025829
40.1415495478 -4.3156198291 -2.5000025886
40.2338997533 -4.2363386544 -2.5000025886
40.2643686584 -4.2095488901 -2.5000025886
40.5023063922 -3.9888382236 -2.5000025886
40.0472460720 -4.4248245183 -2.5000025944
41.5528444095 -2.7265121261 -2.5000025944
41.5743575901 -2.6919454668 -2.5000025944
41.6686207538 -2.5348454784 -2.5000025944
41.6991082466 -2.4819280082 -2.5000025944
39.9016940387 -4.5696809040 -2.5000026002
41.8010845161 -2.3984913255 -2.5000026059
39.7150399238 -4.7659263733 -2.5000026117
39.5926199310 -4.8789542937 -2.5000026174
39.9455951792 -4.6274018483 -2.5000026174
42.0569966131 -1.9977049958 -2.5000026174
39.2913396488 -5.1811952631 -2.5000026405
36.7919366926 -3.4431391982 -2.4999966617
36.9502430079 -3.4436481849 -2.4999966098
37.0299866920 -3.4415864150 -2.4999965839
37.1100840402 -3.4379619583 -2.4999965579
37.2565338338 -3.4582245963 -2.4999964801
37.4655965059 -3.4459620301 -2.4999964023
37.4878047529 -3.4622863579 -2.4999963764
37.6290019369 -3.4474634574 -2.4999963245
38.1067275606 -3.4279520501 -2.4999960911
40.9341112901 -0.8914888260 -2.4999952353
40.9428654343 -0.8598281924 -2.4999952353
40.9530462381 2.0300263795 -2.4999952353
40.9488042716 2.0458934524 -2.4999952353
40.9445153859 2.0617479074 -2.4999952353
40.9251398016 -1.0088731864 -2.4999952093
40.9345885881 -0.9772635766 -2.4999952093
40.9392428099 -0.9614379467 -2.4999952093
40.9529243017 -0.9138794185 -2.4999952093
40.9501396262 2.1316591360 -2.4999952093
40.9363711875 2.1791925654 -2.4999952093
40.9453084791 2.2336358675 -2.4999951834
40.9404642327 2.2494791598 -2.4999951834
40.9355731402 2.2653080526 -2.4999951834
40.9314154251 -1.1498105058 -2.4999951575
40.9385397094 2.3359201470 -2.4999951575
40.9385411517 -1.2049096292 -2.4999951315
40.9491495212 -1.1732173015 -2.4999951315
40.9283527967 -1.3077482632 -2.4999951056
40.9395697724 -1.2761144134 -2.4999951056
40.9560438284 -1.2285405922 -2.4999951056
40.9221294462 -1.3950194158 -2.4999950797
40.9506806754 -1.3876435222 -2.4999950537
40.9369963190 -1.4913384232 -2.4999950278
40.9431712566 -1.4755034214 -2.4999950278
40.9516267671 2.6615622877 -2.4999950278
40.9342313121 -1.5635749759 -2.4999950019
40.9406199505 -1.5477478374 -2.4999950019
40.9366761467 2.7655039941 -2.4999950019
40.9770419265 -1.7119989044 -2.4999948981
40.9519451242 2.9775244676 -2.4999948981
40.9454466063 3.1085701981 -2.4999948462
40.9380141453 3.1244100708 -2.4999948462
40.9361896751 3.3997762560 -2.4999947166
40.8187906545 3.6619246345 -2.4999946906
40.8097218252 3.6773874149 -2.4999946906
40.7636937494 3.7542951951 -2.4999946906
41.2676038922 2.7827570555 -2.4999946647
41.1937119545 2.9664134469 -2.4999946647
40.8487191705 3.6585716793 -2.4999946647
