26.5592736794 -19.4837715351 -2.5008041859
26.5550799644 -19.4975704259 -2.5008041859
26.5347246806 -19.5667476420 -2.5008041859
26.5489567628 -22.2986827618 -2.5008041859
26.5469669665 -22.3748797618 -2.5008041859
26.5239022499 -22.3821153774 -2.5008041859
26.5434583834 -22.5917271453 -2.5008041859
26.5534997774 -22.6193764465 -2.5008041859
26.5462463174 -22.6692576703 -2.5008041859
26.5567463593 -22.6968891202 -2.5008041859
32.0549251883 -26.0061025238 -2.5008041859
32.5034572980 -25.9122039645 -2.5008041859
29.9866345659 -25.9487637813 -2.5008041859
30.0164770547 -25.9559833421 -2.5008041859
30.1212511517 -25.9798588118 -2.5008041859
32.5540187452 -25.9239960872 -2.5008041859
32.5984774659 -25.9119760682 -2.5008041859
26.5725761682 -23.2679138526 -2.5008041859
32.6642743033 -25.9185660186 -2.5008041859
32.7086804935 -25.9055677573 -2.5008041859
26.5793964405 -23.3339549544 -2.5008041859
29.8102730281 -25.9524670148 -2.5008041859
32.7896644790 -25.9060946286 -2.5008041859
32.8265774126 -25.9197527744 -2.5008041859
32.8709877434 -25.9053141173 -2.5008041859
26.5807324435 -23.4391129764 -2.5008041859
29.6323765537 -25.9499819662 -2.5008041859
29.6472976126 -25.9546617705 -2.5008041859
32.9230475666 -25.9133689518 -2.5008041859
32.9378459194 -25.9083145162 -2.5008041859
29.5354706041 -25.9438999428 -2.5008041859
29.5652922130 -25.9537888263 -2.5008041859
32.9902000021 -25.9156822523 -2.5008041859
29.5128378498 -25.9617884080 -2.5008041859
29.5427656889 -25.9718108814 -2.5008041859
29.4003518490 -25.9480528897 -2.5008041859
33.1253685666 -25.9176275346 -2.5008041859
29.3174598629 -25.9431711555 -2.5008041859
33.1933611116 -25.9172465332 -2.5008041859
33.2081697523 -25.9113924444 -2.5008041859
29.2491998801 -25.9427923899 -2.5008041859
29.3238772276 -25.9714175285 -2.5008041859
29.1806834618 -25.9415000436 -2.5008041859
33.3449006079 -25.9074873679 -2.5008041859
29.1268144094 -25.9455074573 -2.5008041859
29.0034786499 -25.9452938610 -2.5008041859
28.7691175583 -25.9432077850 -2.5008041859
28.6024723370 -25.9404575484 -2.5008041859
28.3778681073 -25.9284545470 -2.5008041859
28.2374879368 -25.9308356906 -2.5008041859
28.0235937219 -25.9125577802 -2.5008041859
27.2673422019 -25.9073905079 -2.5008041859
26.6752345239 -25.9446632860 -2.5008041859
26.2631026270 -25.6450537723 -2.5008041859
26.2912134335 -25.6743083140 -2.5008041859
26.3053336188 -25.6888730893 -2.5008041859
26.3479518194 -25.7323159043 -2.5008041859
26.3622433534 -25.7467125834 -2.5008041859
26.8257382540 -26.1713995682 -2.5008041859
26.8569532518 -26.1973161566 -2.5008041859
26.9515105577 -26.2739515338 -2.5008041859
26.1072057114 -25.5124875741 -2.5008041859
26.1897266507 -25.6025374732 -2.5008041859
26.2036349689 -25.6174027787 -2.5008041859
26.4466943385 -25.8637033556 -2.5008041859
26.7790712468 -26.1637592960 -2.5008041859
26.8888415768 -26.2546233511 -2.5008041859
27.0165655578 -26.3556587817 -2.5008041859
27.0326981273 -26.3680748530 -2.5008041859
25.8377936260 -25.2330368793 -2.5008041859
25.8634742457 -25.2648149028 -2.5008041859
25.8763849470 -25.2806467997 -2.5008041859
26.0080458584 -25.4368386949 -2.5008041859
26.0214648047 -25.4522421701 -2.5008041859
26.0349292584 -25.4676058822 -2.5008041859
26.1304446991 -25.5740272519 -2.5008041859
27.1984613195 -26.5211215486 -2.5008041859
27.2651560802 -26.5683348784 -2.5008041859
27.2987117901 -26.5916447764 -2.5008041859
25.6929495778 -25.0864725151 -2.5008041859
25.8968228220 -25.3433825191 -2.5008041859
27.5071608615 -26.7586812159 -2.5008041859
25.6001248955 -25.0019164415 -2.5008041859
25.6122590479 -25.0185285236 -2.5008041859
25.6366745114 -25.0516446397 -2.5008041859
27.2374565112 -26.6079590504 -2.5008041859
25.2623972571 -24.6312408942 -2.5008041859
27.8442560854 -27.1251330655 -2.5008041859
25.1692536483 -24.6645823025 -2.5008041859
30.2993704864 -22.4913005837 -2.4996051497
30.1352194908 -22.4773819250 -2.4996051612
30.1875030233 -22.5000316307 -2.4996051612
29.6359966817 -22.5228917519 -2.4996052304
26.5445141898 -22.2261548883 -2.4996058067
26.5555396925 -22.3980566765 -2.4996058183
26.5379744583 -22.4197041090 -2.4996058240
26.5532186409 -22.4585870850 -2.4996058240
26.5359372730 -22.4805072612 -2.4996058298
26.5512225244 -22.6418645620 -2.4996058413
26.5321950463 -22.7755786381 -2.4996058586
26.5630576154 -22.8403543314 -2.4996058586
26.5691547328 -23.1152318472 -2.4996058874
26.5694873136 -23.1656365946 -2.4996058932
26.5339503604 -23.1515144276 -2.4996058989
26.5703729733 -23.2162230378 -2.4996058989
29.6001006009 -25.9382730384 -2.4996059854
29.6464495266 -25.9498428063 -2.4996059854
29.6774050638 -25.9573272752 -2.4996059854
29.6928993023 -25.9610007979 -2.4996059854
29.7084043399 -25.9646284698 -2.4996059854
29.7549828904 -25.9752360649 -2.4996059854
32.3556151275 -25.9113234870 -2.4996059854
32.3862953566 -25.9027802966 -2.4996059854
32.4016163827 -25.8984406705 -2.4996059854
29.5167820543 -25.9414139824 -2.4996059912
32.4236154003 -25.9172843268 -2.4996059912
32.4389791687 -25.9128342378 -2.4996059912
29.4485352948 -25.9476228098 -2.4996059969
29.4640018271 -25.9519734132 -2.4996059969
32.4765636500 -25.9269661043 -2.4996059969
32.5533862407 -25.9034775775 -2.4996059969
32.5687085984 -25.8986436633 -2.4996059969
29.3335791279 -25.9390092213 -2.4996060027
29.3490206826 -25.9436999234 -2.4996060027
29.3954276560 -25.9574976710 -2.4996060027
29.4109236324 -25.9620053332 -2.4996060027
29.2800735176 -25.9477187622 -2.4996060084
29.1799023783 -25.9405890457 -2.4996060142
32.7604349583 -25.9108670053 -2.4996060142
32.7757782693 -25.9054205713 -2.4996060142
29.0794679263 -25.9315428010 -2.4996060200
29.1412458976 -25.9530385352 -2.4996060200
32.8300323962 -25.9115047127 -2.4996060200
29.0404619278 -25.9432560517 -2.4996060257
29.0713891014 -25.9543258620 -2.4996060257
28.9703248526 -25.9432045675 -2.4996060315
32.9853668614 -25.9039365543 -2.4996060315
28.8690734919 -25.9301372145 -2.4996060373
28.8138485655 -25.9340717195 -2.4996060430
33.0956636153 -25.9111953261 -2.4996060430
28.7275706865 -25.9245131960 -2.4996060488
33.2375545300 -25.9025779946 -2.4996060546
33.2781435410 -25.9108356345 -2.4996060603
33.2934844940 -25.9038577250 -2.4996060603
28.4881100729 -25.9236549376 -2.4996060718
28.5035099062 -25.9308467573 -2.4996060718
33.3752409358 -25.9192303362 -2.4996060718
28.4315844160 -25.9236018520 -2.4996060776
28.5553838892 -25.9811940977 -2.4996060776
33.2613382620 -25.9978152228 -2.4996060776
33.6146572765 -25.8269031659 -2.4996060776
33.6297484697 -25.8189301552 -2.4996060776
33.6448160113 -25.8109125368 -2.4996060776
33.6598597694 -25.8028503810 -2.4996060776
33.6748796124 -25.7947437583 -2.4996060776
33.7048470273 -25.7783973964 -2.4996060776
33.7197943371 -25.7701578003 -2.4996060776
28.3902667007 -25.9304803088 -2.4996060834
32.8893539948 -26.1728600729 -2.4996060834
32.9215722209 -26.1611545267 -2.4996060834
33.7014509871 -25.8078139853 -2.4996060834
33.7763772891 -25.7662219346 -2.4996060834
33.8061741830 -25.7492755776 -2.4996060834
33.9536261894 -25.6619159936 -2.4996060834
33.9682278375 -25.6529409733 -2.4996060834
33.9973511655 -25.6348615466 -2.4996060834
34.0696870674 -25.5889119361 -2.4996060834
28.2762797268 -25.9277215348 -2.4996060949
28.2916925167 -25.9355399691 -2.4996060949
28.3071283675 -25.9433127755 -2.4996060949
28.2344290452 -25.9334245586 -2.4996061007
28.1924184870 -25.9388138634 -2.4996061064
27.9918969088 -25.9399267996 -2.4996061295
27.7889581798 -25.9336694610 -2.4996061525
27.4404710436 -25.9705669369 -2.4996062044
27.3669199194 -25.9794526661 -2.4996062159
27.0073427791 -25.9909210269 -2.4996062678
26.6711849506 -26.0057675421 -2.4996063197
26.2173412423 -25.6391480072 -2.4996063254
26.2611688095 -25.6807496459 -2.4996063254
26.2758598289 -25.6945302235 -2.4996063254
26.2905915493 -25.7082672820 -2.4996063254
26.3053638421 -25.7219607013 -2.4996063254
26.3350296268 -25.7492161435 -2.4996063254
26.3948423518 -25.8031981107 -2.4996063254
26.4552896292 -25.8564685669 -2.4996063254
26.9606780304 -26.2561441947 -2.4996063254
27.0099518211 -26.2911248399 -2.4996063254
27.0595341050 -26.3256668304 -2.4996063254
27.0761294128 -26.3370828773 -2.4996063254
27.1261169426 -26.3710357690 -2.4996063254
25.9585150228 -25.4127833558 -2.4996063312
25.9724146736 -25.4274604105 -2.4996063312
26.0003439229 -25.4566908460 -2.4996063312
26.0284456205 -25.4857555311 -2.4996063312
26.0425608302 -25.5002253991 -2.4996063312
26.0567187827 -25.5146534484 -2.4996063312
26.0709193540 -25.5290395528 -2.4996063312
26.1425571305 -25.6003365080 -2.4996063312
27.0791466895 -26.3684261710 -2.4996063312
27.1968975636 -26.4468877913 -2.4996063312
27.2138508639 -26.4578969618 -2.4996063312
27.2308366572 -26.4688559332 -2.4996063312
27.2478547947 -26.4797646095 -2.4996063312
27.2649051276 -26.4906228954 -2.4996063312
27.2819875067 -26.5014306959 -2.4996063312
27.2991017825 -26.5121879163 -2.4996063312
25.7904083012 -25.2646699168 -2.4996063370
25.8038705412 -25.2798449096 -2.4996063370
25.8581666320 -25.3401446567 -2.4996063370
25.8993548560 -25.3849455429 -2.4996063370
27.2690933302 -26.5218775904 -2.4996063370
27.3379831542 -26.5647531909 -2.4996063370
27.3726171098 -26.5858845601 -2.4996063370
27.3899808189 -26.5963733122 -2.4996063370
25.8266099337 -25.3413583215 -2.4996063427
27.5003483229 -26.6893132054 -2.4996063427
27.5357163757 -26.7094817878 -2.4996063427
25.5053426575 -24.9988900696 -2.4996063485
25.5180199200 -25.0149095011 -2.4996063485
25.5692011832 -25.0786101126 -2.4996063485
25.6870906827 -25.2196925079 -2.4996063485
27.5238040493 -26.7305158497 -2.4996063485
27.6309906582 -26.7899693051 -2.4996063485
25.5375360668 -25.0779380441 -2.4996063542
27.6917423541 -26.8499211969 -2.4996063542
27.8010217384 -26.9063752455 -2.4996063542
25.1324863972 -24.6100738456 -2.4996063658
24.6208273992 -24.1370680492 -2.4996064119
30.1963058512 -22.4943083310 -2.5001744987
26.5249079908 -21.5812295261 -2.5001755707
26.5560993178 -21.7014429697 -2.5001755707
26.5627635479 -21.7253719912 -2.5001755707
26.5533278009 -21.7799387419 -2.5001755822
26.5604564867 -21.8038827868 -2.5001755822
26.5575730529 -22.0980998905 -2.5001756283
26.5620608478 -22.1100632347 -2.5001756283
26.5394404775 -22.1185869739 -2.5001756399
26.5562943628 -22.5822593307 -2.5001757206
26.5593831732 -22.7470539615 -2.5001757551
30.5064258675 -25.9207194459 -2.5001761125
30.5222043845 -25.9209846436 -2.5001761125
30.5695436757 -25.9215001684 -2.5001761125
30.6326663031 -25.9215339969 -2.5001761125
30.6642266622 -25.9212708204 -2.5001761125
30.7588906645 -25.9193610581 -2.5001761125
30.7746640584 -25.9188794252 -2.5001761125
32.2354064266 -25.8940676497 -2.5001762162
29.0386952481 -25.9391506077 -2.5001762277
29.0862541706 -25.9528307285 -2.5001762277
28.9842686411 -25.9481890134 -2.5001762393
32.3601034859 -25.9050572877 -2.5001762393
28.8661396104 -25.9364928582 -2.5001762508
32.4778951300 -25.8903468660 -2.5001762508
32.6200460454 -25.8897086206 -2.5001762738
32.6601074790 -25.9002318312 -2.5001762854
32.7318223826 -25.8979696563 -2.5001762969
32.8759388377 -25.8905704274 -2.5001763199
32.9326310968 -25.8923337353 -2.5001763315
27.9987338333 -25.9777631371 -2.5001764237
27.9135799753 -25.9898367749 -2.5001764467
33.7112974586 -25.7612908606 -2.5001764467
33.0722882926 -26.1213084007 -2.5001764583
33.6155067753 -25.8454979929 -2.5001764583
33.6929524965 -25.8003809153 -2.5001764583
33.7849938644 -25.7447358258 -2.5001764583
34.0697109465 -25.5578938600 -2.5001764583
32.6986460905 -26.2990097100 -2.5001764698
34.2584683759 -25.4510863242 -2.5001764698
34.1564038074 -25.5558661572 -2.5001764813
34.5276939815 -25.2682177011 -2.5001764813
27.6062218318 -25.9920144328 -2.5001765159
27.1752885455 -25.9889857923 -2.5001766196
26.9946874794 -25.9867271085 -2.5001766657
26.3017405275 -25.7394908131 -2.5001767695
26.3170013346 -25.7521950234 -2.5001767695
26.3630083077 -25.7900360129 -2.5001767695
26.4716505115 -25.8767329904 -2.5001767695
27.0573244530 -26.2860036167 -2.5001767695
25.9303073067 -25.4387341157 -2.5001767810
26.2102379064 -25.6936196854 -2.5001767810
27.1808915265 -26.3891527006 -2.5001767810
27.2497848621 -26.4292498972 -2.5001767810
27.2670819533 -26.4391466030 -2.5001767810
26.0448180931 -25.5792795724 -2.5001767925
27.3598732771 -26.5186567898 -2.5001767925
27.4833884526 -26.5845566564 -2.5001767925
27.5011439471 -26.5937616410 -2.5001767925
27.5189265940 -26.6029140613 -2.5001767925
25.5889389613 -25.1570797612 -2.5001768041
25.6846412406 -25.2599401749 -2.5001768041
25.7263046295 -25.3034123898 -2.5001768041
27.9064330081 -26.8653630271 -2.5001768271
27.9716311986 -26.9191630910 -2.5001768386
25.2463621936 -24.9444018653 -2.5001768617
24.6321232172 -24.1973779288 -2.5001768963
26.5593353628 -21.4139393468 -2.4999333465
26.5620215250 -21.4248904426 -2.4999333465
26.5525573202 -21.4856639150 -2.4999333638
26.5583864933 -21.5075969584 -2.4999333638
26.5301942335 -21.5865665038 -2.4999333984
26.5586530737 -21.7587879609 -2.4999334157
26.5625318257 -21.8434024335 -2.4999334330
26.5664884033 -21.8543421944 -2.4999334330
26.5518280015 -21.8845757141 -2.4999334503
26.5559064240 -21.8955469588 -2.4999334503
26.5672604193 -22.3464922643 -2.4999335713
26.5738685050 -22.7116921864 -2.4999336923
26.5761132355 -23.1140982793 -2.4999338479
31.7011568554 -25.9239836677 -2.4999346260
28.9085703950 -25.9706336839 -2.4999346433
28.9247258042 -25.9746153801 -2.4999346433
31.8834565836 -25.8974648588 -2.4999346433
28.7733926429 -25.9603811272 -2.4999346606
28.8056568775 -25.9690966480 -2.4999346606
31.9543130154 -25.9009731550 -2.4999346606
31.9702490298 -25.8959452985 -2.4999346606
31.9861701011 -25.8908703223 -2.4999346606
28.7023733206 -25.9656189909 -2.4999346779
28.7185147976 -25.9702106773 -2.4999346779
32.0573495095 -25.8930316118 -2.4999346779
31.9366018407 -25.9570994052 -2.4999346951
32.1128885910 -25.8997553764 -2.4999346951
28.5035462936 -25.9810060164 -2.4999347297
32.2407073031 -25.9056798091 -2.4999347297
28.3911308622 -25.9946782015 -2.4999347643
32.4014525154 -25.8960423193 -2.4999347643
28.2535545420 -25.9715428041 -2.4999347816
28.2697155065 -25.9774621517 -2.4999347816
28.2858939108 -25.9833336663 -2.4999347816
32.5153252879 -25.9018416936 -2.4999347989
28.0658909098 -25.9770177708 -2.4999348335
32.6619425658 -25.8911803159 -2.4999348335
28.0244454803 -25.9863008983 -2.4999348508
27.9342367622 -25.9748360193 -2.4999348680
32.8355960761 -25.8908242080 -2.4999348853
27.7169366432 -25.9838613901 -2.4999349372
27.5990447224 -25.9812842864 -2.4999349718
27.5236691409 -25.9709909545 -2.4999349891
27.4209030910 -25.9727709392 -2.4999350237
33.2587107655 -25.8896530505 -2.4999350237
33.3023666459 -25.8928806436 -2.4999350409
27.3174900719 -25.9726960295 -2.4999350582
33.3620797333 -25.8866340079 -2.4999350582
27.2574776668 -25.9675181881 -2.4999350755
33.4219203994 -25.8797497152 -2.4999350755
33.4501090635 -25.8911773109 -2.4999350928
27.1693045616 -25.9736463414 -2.4999351101
33.6988424328 -25.7647212278 -2.4999351101
33.7761656397 -25.7133238345 -2.4999351101
33.7915385820 -25.7029074294 -2.4999351101
33.8374715869 -25.6713859986 -2.4999351101
33.9133991659 -25.6179484358 -2.4999351101
34.1070830425 -25.5043163008 -2.4999351274
32.6325094119 -26.3763691606 -2.4999351447
32.7362291577 -26.3333844901 -2.4999351447
34.3972957122 -25.2987612361 -2.4999351447
32.3505281976 -26.5337617321 -2.4999351793
26.2965087695 -25.7459623517 -2.4999353176
26.3120109892 -25.7576719816 -2.4999353176
26.0979548503 -25.6206404862 -2.4999353349
26.1587016464 -25.6695612958 -2.4999353349
27.1682887022 -26.3315280420 -2.4999353349
26.0524160782 -25.6145576461 -2.4999353522
27.4191164725 -26.4848854120 -2.4999353522
25.6137223801 -25.2523091933 -2.4999353695
25.4173094415 -25.0866634773 -2.4999353867
25.6108938130 -25.2833503719 -2.4999353867
27.9447010374 -26.8109262171 -2.4999354213
28.0568717626 -26.8510731617 -2.4999354213
29.9614950995 -22.1555171030 -2.5000256682
30.2457772521 -22.4913063042 -2.5000257547
30.3320212670 -22.5243972431 -2.5000257662
26.5471445907 -21.9496181085 -2.5000261466
26.5514570156 -22.0191088629 -2.5000261523
26.5627241442 -22.2094843182 -2.5000261696
26.5670784254 -22.2701774206 -2.5000261754
26.5703365249 -22.6125671581 -2.5000262157
33.4609296609 -22.3020674971 -2.5000262215
26.5680485121 -22.6981493085 -2.5000262273
26.5809945061 -22.7609753282 -2.5000262330
33.4710024992 -22.3874425008 -2.5000262330
33.4578663880 -22.8350792572 -2.5000262849
28.5753480505 -25.9591387341 -2.5000266134
28.6076937595 -25.9669590469 -2.5000266134
28.6400851699 -25.9745878548 -2.5000266134
28.6725211480 -25.9820248907 -2.5000266134
31.4061728581 -25.9188670247 -2.5000266134
31.4222084120 -25.9144271868 -2.5000266134
31.4702352890 -25.9008233305 -2.5000266134
28.5047706615 -25.9663341653 -2.5000266192
28.5371601763 -25.9745719117 -2.5000266192
31.4447842986 -25.9332076445 -2.5000266192
31.5570396451 -25.9003318623 -2.5000266192
28.4338365039 -25.9726210280 -2.5000266249
28.4662644553 -25.9812783347 -2.5000266249
28.4824974965 -25.9855350045 -2.5000266249
31.5480106616 -25.9283183512 -2.5000266249
31.6281792637 -25.9035465199 -2.5000266249
31.6441685254 -25.8984500139 -2.5000266249
28.3139679072 -25.9640138153 -2.5000266307
28.3301505432 -25.9687210813 -2.5000266307
31.7156197810 -25.9005232591 -2.5000266307
31.6750291674 -25.9393033228 -2.5000266365
31.8033443492 -25.8960914385 -2.5000266365
28.1379960553 -25.9602965963 -2.5000266422
28.1703562690 -25.9707044101 -2.5000266422
31.8113297491 -25.9189074125 -2.5000266422
28.0980928165 -25.9726430267 -2.5000266480
31.9636100627 -25.8890550330 -2.5000266480
27.9931654980 -25.9623702149 -2.5000266537
28.0093446756 -25.9680264796 -2.5000266537
27.9527116893 -25.9736733546 -2.5000266595
31.9324463626 -25.9523790849 -2.5000266595
32.1088998324 -25.8837998898 -2.5000266595
27.8958291665 -25.9787442338 -2.5000266653
32.1340169747 -25.8996400482 -2.5000266653
27.6821918267 -25.9998132676 -2.5000266883
27.5267913045 -25.9606214410 -2.5000266941
27.5429673495 -25.9676573326 -2.5000266941
32.4702945636 -25.8829809347 -2.5000266941
27.4685183751 -25.9612930190 -2.5000266998
32.5285598422 -25.8818222144 -2.5000266998
27.4100463464 -25.9613589655 -2.5000267056
32.5710661409 -25.8879375765 -2.5000267056
32.6296919017 -25.8857258234 -2.5000267114
27.2334976467 -25.9578885870 -2.5000267229
32.7587052866 -25.9008364476 -2.5000267287
32.7906328439 -25.8839076345 -2.5000267287
27.1310712204 -25.9607391443 -2.5000267344
32.8499107383 -25.8793821341 -2.5000267344
27.1038863708 -25.9739941371 -2.5000267402
32.8934108653 -25.8830663901 -2.5000267402
26.9242533098 -25.9608881355 -2.5000267575
33.1007322873 -25.8757536929 -2.5000267632
26.8522973963 -25.9763551172 -2.5000267690
33.1892996055 -25.8789616042 -2.5000267748
26.6257439409 -25.9567038426 -2.5000267921
26.2172833299 -25.7185987286 -2.5000267978
26.2327491576 -25.7295094406 -2.5000267978
26.3576238465 -25.8151384562 -2.5000267978
26.4049690280 -25.8464838567 -2.5000267978
26.9431668762 -26.1629519718 -2.5000267978
27.0104298710 -26.1976995502 -2.5000267978
25.8702370122 -25.4859553816 -2.5000268036
26.0195991437 -25.6033568057 -2.5000268036
26.1723683727 -25.7162891012 -2.5000268036
26.2033193578 -25.7383304991 -2.5000268036
27.1872095472 -26.3110120900 -2.5000268036
27.2044235969 -26.3190509927 -2.5000268036
27.2389226611 -26.3349758560 -2.5000268036
26.0965483437 -25.6911397188 -2.5000268094
27.4033862566 -26.4337890522 -2.5000268094
27.4738217034 -26.4630721410 -2.5000268094
25.5214589945 -25.2479576810 -2.5000268151
25.6351377644 -25.3505529910 -2.5000268151
25.6495173934 -25.3631874052 -2.5000268151
25.6783884610 -25.3883283449 -2.5000268151
25.7512124434 -25.4504295611 -2.5000268151
27.5001531303 -26.4998297458 -2.5000268151
27.6608357892 -26.5619419508 -2.5000268151
33.2445053878 -26.0433149732 -2.5000268151
33.6609032551 -25.7709571691 -2.5000268151
33.6920466130 -25.7486929230 -2.5000268151
33.7693239629 -25.6922296192 -2.5000268151
33.8305392798 -25.6462398893 -2.5000268151
33.8457577457 -25.6346295298 -2.5000268151
33.8760913083 -25.6112740084 -2.5000268151
27.8153064664 -26.6426318086 -2.5000268209
32.9388750894 -26.2430771150 -2.5000268209
32.9728243042 -26.2250763671 -2.5000268209
32.9897588259 -26.2160007510 -2.5000268209
33.0572262205 -26.1791985307 -2.5000268209
33.1075384099 -26.1510743823 -2.5000268209
33.7528032324 -25.7344490611 -2.5000268209
33.7991411289 -25.7001695705 -2.5000268209
33.9212028415 -25.6067612070 -2.5000268209
33.9513702053 -25.5829598148 -2.5000268209
33.9664009486 -25.5709922925 -2.5000268209
25.2266870960 -25.0273418882 -2.5000268266
25.2535785891 -25.0549903118 -2.5000268266
25.2670855597 -25.0687547402 -2.5000268266
25.2806331888 -25.0824791524 -2.5000268266
25.5028270048 -25.2965306139 -2.5000268266
27.8989790566 -26.6959800902 -2.5000268266
27.9724821751 -26.7193807397 -2.5000268266
32.6912636536 -26.3934965623 -2.5000268266
32.7086976247 -26.3852531166 -2.5000268266
32.7261071339 -26.3769581342 -2.5000268266
32.7434920289 -26.3686116876 -2.5000268266
32.8300419734 -26.3261100638 -2.5000268266
34.2179424219 -25.3916981735 -2.5000268266
34.2755703052 -25.3404212206 -2.5000268266
25.3597726463 -25.1947787625 -2.5000268324
32.5075030459 -26.5029447676 -2.5000268324
32.5252615887 -26.4952444402 -2.5000268324
32.5783994563 -26.4718287340 -2.5000268324
34.4196356192 -25.2401058476 -2.5000268324
34.5443315834 -25.1184642528 -2.5000268324
28.1443841904 -26.8206225812 -2.5000268382
28.1631015720 -26.8258277584 -2.5000268382
32.3556629337 -26.5923135781 -2.5000268382
35.3842009644 -24.3433542407 -2.5000268670
30.1564965505 -22.5016762225 -2.4999989958
30.1911944842 -22.4908984950 -2.4999989958
33.4447013687 -21.8013841299 -2.4999968173
33.4406120370 -21.8893562857 -2.4999967914
33.4860104709 -21.7510166839 -2.4999967914
33.4398272789 -22.0320444603 -2.4999967395
33.4571938031 -21.9861106992 -2.4999967395
33.4386305527 -22.1646433601 -2.4999966876
33.4363516716 -22.2314086077 -2.4999966617
33.4381207445 -22.2870145177 -2.4999966358
33.4489543721 -22.4891670806 -2.4999965320
33.4383489373 -22.6146484314 -2.4999964801
33.4389828515 -22.9514630571 -2.4999962986
28.1921338209 -25.9457099855 -2.4999952093
28.2241314264 -25.9537474129 -2.4999952093
28.2401479213 -25.9576951004 -2.4999952093
30.9509874116 -25.9431949702 -2.4999952093
30.9409337246 -25.9707004349 -2.4999951834
31.0370769636 -25.9454539653 -2.4999951834
31.0530566171 -25.9410804875 -2.4999951834
27.9876254980 -25.9399251286 -2.4999951575
30.8660668840 -26.0139520735 -2.4999951575
31.1714390847 -25.9323135441 -2.4999951575
27.9487906005 -25.9536491019 -2.4999951315
27.9648080092 -25.9584112978 -2.4999951315
31.2582356632 -25.9310519055 -2.4999951315
27.8296717037 -25.9420020838 -2.4999951056
27.8776671718 -25.9572039928 -2.4999951056
31.3134421660 -25.9388262226 -2.4999951056
31.3294010042 -25.9336352356 -2.4999951056
27.7422442876 -25.9386210945 -2.4999950797
27.7582181445 -25.9439943576 -2.4999950797
27.7742078266 -25.9493203436 -2.4999950797
31.4486585091 -25.9187956902 -2.4999950797
27.6864753167 -25.9450486243 -2.4999950537
31.5363079432 -25.9130670258 -2.4999950537
27.6144554516 -25.9451583304 -2.4999950278
27.6624874045 -25.9622700385 -2.4999950278
31.5286638150 -25.9415900750 -2.4999950278
31.5765099655 -25.9239655202 -2.4999950278
27.5581624773 -25.9502821721 -2.4999950019
27.6544761541 -25.9850769486 -2.4999950019
31.6646900209 -25.9161681396 -2.4999950019
27.4536658768 -25.9362917001 -2.4999949759
27.3968576514 -25.9397569373 -2.4999949500
31.7462514055 -25.9357919600 -2.4999949500
31.7621993741 -25.9293206582 -2.4999949500
31.7781281296 -25.9228022078 -2.4999949500
31.7940375327 -25.9162366657 -2.4999949500
27.3398222204 -25.9426370103 -2.4999949241
27.3718165620 -25.9557170531 -2.4999949241
31.8511005100 -25.9185064326 -2.4999949241
27.2825655113 -25.9449281657 -2.4999948981
31.9083784526 -25.9201849485 -2.4999948981
31.9658653452 -25.9212685833 -2.4999948722
27.1674122122 -25.9477290071 -2.4999948462
32.0553439410 -25.9071236391 -2.4999948462
27.0354631371 -25.9406665894 -2.4999947944
32.1554210989 -25.9132802179 -2.4999947944
32.1977804585 -25.9195838372 -2.4999947684
32.2721122727 -25.9096609466 -2.4999947425
26.7423461875 -25.9301265664 -2.4999946647
32.4325454561 -25.9081065176 -2.4999946647
32.4757592570 -25.9123122272 -2.4999946388
32.4916345764 -25.9036830120 -2.4999946388
26.2082015448 -25.7300210034 -2.4999945610
26.2543796509 -25.7596208979 -2.4999945610
26.3475147979 -25.8175854769 -2.4999945610
26.4259033318 -25.8646203851 -2.4999945610
26.9762711902 -26.1530755153 -2.4999945610
25.8634484765 -25.5200198911 -2.4999945350
25.8929683123 -25.5418420533 -2.4999945350
25.9822952077 -25.6062553281 -2.4999945350
26.0123231613 -25.6273728439 -2.4999945350
26.0273838588 -25.6378648884 -2.4999945350
26.1031492728 -25.6896543154 -2.4999945350
26.1950664608 -25.7503139788 -2.4999945350
26.2104900408 -25.7602648976 -2.4999945350
26.3192698459 -25.8286377635 -2.4999945350
27.1508017900 -26.2566460462 -2.4999945350
27.1677190101 -26.2637675116 -2.4999945350
27.2185960326 -26.2848312087 -2.4999945350
25.7463310527 -25.4613679414 -2.4999945091
25.7755059336 -25.4838840362 -2.4999945091
27.3637718568 -26.3679127870 -2.4999945091
25.6013850134 -25.3766173588 -2.4999944832
25.6733330728 -25.4347360497 -2.4999944832
27.5466900584 -26.4593740709 -2.4999944832
27.5642052525 -26.4653235402 -2.4999944832
25.3060150586 -25.1514477788 -2.4999944572
27.7154836183 -26.5396279606 -2.4999944572
27.7908296808 -26.6127530253 -2.4999944054
27.8087975293 -26.6179796144 -2.4999944054
32.9793407417 -25.8962688481 -2.4999943794
33.2494799600 -25.8912427595 -2.4999942238
33.0185342313 -26.2135803590 -2.4999940682
33.0352983815 -26.2033441991 -2.4999940682
33.0520321779 -26.1930584926 -2.4999940682
33.0854081239 -26.1723388002 -2.4999940682
33.1020499815 -26.1619049956 -2.4999940682
33.1352407375 -26.1408899264 -2.4999940682
33.7864957491 -25.6679957184 -2.4999940682
33.8016426011 -25.6554901765 -2.4999940682
33.8167523931 -25.6429398823 -2.4999940682
32.7924326722 -26.3727871528 -2.4999940423
32.8096687741 -26.3632191456 -2.4999940423
32.8612062019 -26.3342097872 -2.4999940423
32.9295184518 -26.2948213619 -2.4999940423
33.8018583381 -25.6866592160 -2.4999940423
33.9224254317 -25.5849992362 -2.4999940423
33.9965453530 -25.5200237291 -2.4999940423
34.0986815287 -25.4272314682 -2.4999940423
34.1131147905 -25.4138034779 -2.4999940423
34.1275082668 -25.4003328500 -2.4999940423
34.1846818021 -25.3460263275 -2.4999940423
32.5767289582 -26.5140842554 -2.4999940163
32.6647376034 -26.4689104925 -2.4999940163
32.6822586143 -26.4597198098 -2.4999940163
32.6997523608 -26.4504773370 -2.4999940163
34.1871483153 -25.3771437062 -2.4999940163
32.4269676470 -26.6139663853 -2.4999939904
34.4961986500 -25.0973723846 -2.4999939904
32.3286515244 -26.6858234649 -2.4999939645
32.1364741413 -26.7947896504 -2.4999939385
34.7816408404 -24.8440227332 -2.4999939385
34.9257122918 -24.7027187998 -2.4999939126
35.0659714371 -24.5566442023 -2.4999938867
31.8239704510 -26.9911471179 -2.4999938607
31.4388655654 -27.1886488974 -2.4999937829
33.4484372955 -21.1626264683 -2.4999897865
33.4486503855 -21.4696139308 -2.4999896540
33.4534468559 -21.4446589510 -2.4999896540
33.4431985926 -21.6117301803 -2.4999895877
33.4488359659 -21.5868049679 -2.4999895877
33.4410365461 -21.9860731376 -2.4999893226
33.4488886958 -21.9611541649 -2.4999893226
33.4455281607 -22.1964537292 -2.4999891237
33.4494782134 -22.2548040416 -2.4999890575
33.4466405501 -23.0989479003 -2.4999880633
33.4556942988 -23.3618884328 -2.4999876656
27.8824500867 -25.9570036532 -2.4999864064
27.9453818491 -25.9726134762 -2.4999864064
30.7498712530 -25.9119680411 -2.4999864064
27.8449577549 -25.9723113110 -2.4999863401
27.6655641128 -25.9475102495 -2.4999862738
30.8729146430 -25.9256033304 -2.4999862738
30.8885242260 -25.9207293830 -2.4999862738
27.5801337888 -25.9468227203 -2.4999862075
30.9583276048 -25.9237489034 -2.4999862075
27.4787166223 -25.9395961092 -2.4999861412
27.4943824495 -25.9447627522 -2.4999861412
27.5414706743 -25.9599843127 -2.4999861412
27.3926768093 -25.9358995423 -2.4999860750
27.4083320779 -25.9413207229 -2.4999860750
27.4396903830 -25.9520240324 -2.4999860750
31.0518930871 -25.9433805965 -2.4999860750
31.1382257040 -25.9386448472 -2.4999860087
27.1240623865 -25.9388776160 -2.4999858099
31.2418604811 -25.9777503801 -2.4999858099
31.3518192274 -25.9350145175 -2.4999858099
31.4235024349 -25.9319060464 -2.4999857436
31.5675215177 -25.9228063208 -2.4999856110
31.7799265121 -25.9311694059 -2.4999853459
26.2152220718 -25.7614323211 -2.4999851471
26.2912050830 -25.8055085016 -2.4999851471
27.1904372340 -26.2487583663 -2.4999850808
27.3068760000 -26.2898524286 -2.4999850808
25.2425999204 -25.1746283734 -2.4999848820
33.0831967428 -26.2038919819 -2.4999828936
33.8747273729 -25.5621128684 -2.4999828936
32.6915903947 -26.4838017602 -2.4999828273
32.7604188081 -26.4424707218 -2.4999828273
34.1748727843 -25.2956205752 -2.4999828273
32.5467344170 -26.5949172857 -2.4999827611
32.5643166281 -26.5850889482 -2.4999827611
32.3625206702 -26.7210639424 -2.4999826948
32.2466924761 -26.8062724239 -2.4999826285
34.6370063642 -24.8681875665 -2.4999826285
35.0171435060 -24.4635163458 -2.4999824297
31.5935368945 -27.2648203520 -2.4999821646
33.4513071366 -22.0887575372 -2.4999961430
33.4668699862 -22.1222440920 -2.4999961171
33.4543961101 -22.3245959615 -2.4999960652
33.4676787660 -22.2843217379 -2.4999960652
33.4770796204 -22.4074751199 -2.4999960133
33.4571722716 -22.5991509583 -2.4999959614
33.4624517012 -22.5857299205 -2.4999959614
33.4513179928 -22.8013752741 -2.4999958836
33.4494186830 -22.8648191357 -2.4999958577
33.4534096259 -23.0806881441 -2.4999957540
34.0208802697 -21.2490876600 -2.4999957021
30.2260182535 -25.9558215880 -2.4999954946
30.3777152148 -25.9150262012 -2.4999954946
27.4860121500 -25.9452044634 -2.4999954687
30.3843375204 -25.9382744345 -2.4999954687
27.4033298217 -25.9465711828 -2.4999954427
27.4185380139 -25.9510438595 -2.4999954427
27.3964751638 -25.9697519711 -2.4999954168
27.2978345762 -25.9649031297 -2.4999953909
30.7392632027 -25.9006749687 -2.4999953909
30.7927104238 -25.9070505883 -2.4999953649
27.1301223785 -25.9602424331 -2.4999953390
30.8765831437 -25.9014073936 -2.4999953390
33.4512515088 -23.8932906706 -2.4999953131
26.9069037236 -25.9550308021 -2.4999952612
26.9221391130 -25.9609719599 -2.4999952612
26.8126989198 -25.9694011623 -2.4999952093
26.7118782520 -25.9533454250 -2.4999951834
26.6565611293 -25.9556451559 -2.4999951575
26.6717994314 -25.9623268697 -2.4999951575
31.3197034514 -25.8962116374 -2.4999951575
26.2858107882 -25.8032871109 -2.4999951315
26.3154121789 -25.8188015817 -2.4999951315
26.3898126906 -25.8568191965 -2.4999951315
31.3903033378 -25.8892404029 -2.4999951315
25.9395751298 -25.6330049968 -2.4999951056
26.0256844132 -25.6851935363 -2.4999951056
26.0545916753 -25.7022490689 -2.4999951056
27.0427870519 -26.1601787457 -2.4999951056
27.0744866850 -26.1712084445 -2.4999951056
31.4008620490 -25.9109854920 -2.4999951056
31.4310110975 -25.8962357169 -2.4999951056
25.7989268462 -25.5720922519 -2.4999950797
27.3235332447 -26.2758573585 -2.4999950797
27.3883463206 -26.2943989999 -2.4999950797
25.8140338544 -25.6107843176 -2.4999950537
25.5348742363 -25.4480794417 -2.4999950278
31.6407811831 -25.8972345730 -2.4999950019
31.6823575692 -25.9023209159 -2.4999949759
33.0596103029 -26.2466962175 -2.4999938607
33.1236767705 -26.1973679717 -2.4999938607
33.1396018360 -26.1849177302 -2.4999938607
33.1713411288 -26.1598761923 -2.4999938607
33.6727591243 -25.7203194600 -2.4999938607
33.7448982731 -25.6495298417 -2.4999938607
33.8720799433 -25.5194498426 -2.4999938607
32.7610701915 -26.4905231172 -2.4999938348
32.9930613020 -26.3267395128 -2.4999938348
33.9035533666 -25.5214044834 -2.4999938348
33.9864275273 -25.4322644889 -2.4999938348
34.1473648652 -25.2496425652 -2.4999938348
32.6556930592 -26.5890851265 -2.4999938089
34.2569544232 -25.1557866200 -2.4999938089
34.3522887316 -25.0753702099 -2.4999937829
32.2953342989 -26.8618405403 -2.4999937570
32.5605631584 -26.7062862352 -2.4999937570
32.1987410692 -26.9420645966 -2.4999937310
32.2168731290 -26.9323472238 -2.4999937310
32.2710957245 -26.9028738755 -2.4999937310
34.5994124340 -24.8249786527 -2.4999937310
34.6348394945 -24.7744445898 -2.4999937310
34.7586254669 -24.6342389193 -2.4999937051
32.5100728664 -26.8217247729 -2.4999936792
29.9589029451 -22.1507136226 -2.5000047038
29.9418933588 -22.4775818495 -2.5000051447
27.3754689592 -25.9525063633 -2.5000115131
27.3900642763 -25.9562414554 -2.5000115131
27.4046705786 -25.9599333556 -2.5000115131
27.4192877383 -25.9635820316 -2.5000115131
29.9388948640 -25.9463764117 -2.5000115131
29.9534608315 -25.9425284532 -2.5000115131
33.4603538815 -22.6798853075 -2.5000115131
27.2816927364 -25.9524894334 -2.5000115621
27.3108958969 -25.9604712376 -2.5000115621
27.3987815530 -25.9833780706 -2.5000115621
33.4631413307 -22.7448879976 -2.5000115621
33.4682212964 -22.7306286885 -2.5000115621
27.2167132520 -25.9592291413 -2.5000116111
27.2313291509 -25.9634338321 -2.5000116111
30.0392234436 -25.9691787079 -2.5000116111
30.0830852855 -25.9566143929 -2.5000116111
30.1268338989 -25.9436613233 -2.5000116111
30.1559350346 -25.9348104714 -2.5000116111
33.4597461596 -22.8244374593 -2.5000116111
33.4755654916 -22.7816417595 -2.5000116111
27.1221564155 -25.9561927912 -2.5000116601
27.1513842784 -25.9651184010 -2.5000116601
30.1922221413 -25.9488513056 -2.5000116601
30.2358975641 -25.9349300134 -2.5000116601
30.2649451336 -25.9254340570 -2.5000116601
27.0418529524 -25.9561137159 -2.5000117090
27.0710817530 -25.9655144294 -2.5000117090
30.2725243078 -25.9483881721 -2.5000117090
30.3016508594 -25.9386752841 -2.5000117090
30.3452316665 -25.9237832741 -2.5000117090
30.3597290215 -25.9187333967 -2.5000117090
30.3742113746 -25.9136406556 -2.5000117090
27.0050750875 -25.9694857470 -2.5000117580
27.0197222533 -25.9743164569 -2.5000117580
30.3385696838 -25.9516530715 -2.5000117580
30.4258219405 -25.9208255967 -2.5000117580
30.4631717982 -25.9328768942 -2.5000118070
30.5211700436 -25.9110242220 -2.5000118070
33.4578424260 -23.0883730108 -2.5000118070
26.8428529203 -25.9642249312 -2.5000118560
26.8721331924 -25.9748028537 -2.5000118560
30.5733534933 -25.9166772920 -2.5000118560
26.7613149877 -25.9596094391 -2.5000119050
26.7759340042 -25.9651612786 -2.5000119050
30.6112767579 -25.9276244606 -2.5000119050
26.6941229026 -25.9594524034 -2.5000119540
26.7233775418 -25.9709103462 -2.5000119540
30.6348402424 -25.9442001739 -2.5000119540
30.6929604524 -25.9203154482 -2.5000119540
30.7074460275 -25.9142369413 -2.5000119540
30.7363629170 -25.9019515081 -2.5000119540
26.6412879924 -25.9643438021 -2.5000120030
26.6559215391 -25.9702506825 -2.5000120030
30.7458809776 -25.9241718097 -2.5000120030
26.2565669877 -25.8173768811 -2.5000120520
26.2849887183 -25.8314260382 -2.5000120520
26.3134930711 -25.8453067969 -2.5000120520
27.0348619601 -26.1315382663 -2.5000120520
30.8569412523 -25.9016467072 -2.5000120520
33.4632806863 -23.3666667401 -2.5000120520
30.8958872409 -25.9104360816 -2.5000121010
33.4709857735 -23.4058416653 -2.5000121010
26.2780639016 -25.8818537004 -2.5000121499
30.9783949686 -25.8984227308 -2.5000121499
33.4639653496 -23.4737407254 -2.5000121499
26.2098680795 -25.8751083643 -2.5000121989
33.4560107243 -23.5418060886 -2.5000121989
33.4623534471 -23.5815711988 -2.5000122479
33.4699084765 -23.5673105596 -2.5000122479
31.1548620968 -25.8917516315 -2.5000122969
33.4683932830 -23.6214992173 -2.5000122969
31.1514477828 -25.9206755719 -2.5000123459
33.4505002244 -23.7043362440 -2.5000123459
33.4474922967 -23.7588475221 -2.5000123949
33.4730624836 -23.8114071737 -2.5000124929
31.4285351700 -25.8805259948 -2.5000125418
31.4428998223 -25.8722716990 -2.5000125418
31.4837538889 -25.8765053089 -2.5000125908
33.4555847354 -23.9358278441 -2.5000125908
31.6917213422 -25.8634369949 -2.5000127868
31.7333121342 -25.8657142295 -2.5000128358
31.7750360488 -25.8676681392 -2.5000128848
31.8732071427 -25.8610727581 -2.5000129827
31.9153188282 -25.8619232336 -2.5000130317
33.4282024538 -24.6222024719 -2.5000133257
32.1990682785 -25.8691043533 -2.5000133746
32.5181151515 -25.8992905556 -2.5000138155
33.4220498093 -25.1305885214 -2.5000139625
33.4158794858 -25.1746515464 -2.5000140115
33.0868594104 -25.9237550442 -2.5000145993
33.0503367979 -26.2761546389 -2.5000150892
33.1429212325 -26.1971471229 -2.5000150892
33.1734692888 -26.1704476490 -2.5000150892
33.2038588474 -26.1435679099 -2.5000150892
33.2340888446 -26.1165088463 -2.5000150892
33.5980759678 -25.7635335566 -2.5000150892
32.9079331908 -26.4231201379 -2.5000151382
32.9715610740 -26.3723055931 -2.5000151382
32.9873737478 -26.3594845958 -2.5000151382
33.0188849694 -26.3337025519 -2.5000151382
33.0814470549 -26.2815814339 -2.5000151382
33.5730985609 -25.8241727267 -2.5000151382
33.8083394905 -25.5703942084 -2.5000151382
33.8485139212 -25.5243968064 -2.5000151382
33.8618144904 -25.5089853339 -2.5000151382
33.8750694116 -25.4935345834 -2.5000151382
33.8882785686 -25.4780446901 -2.5000151382
33.9145591284 -25.4469480174 -2.5000151382
33.9276303012 -25.4313415102 -2.5000151382
32.8260088478 -26.5171617850 -2.5000151872
32.9229060546 -26.4420977203 -2.5000151872
34.0239094388 -25.3520587439 -2.5000151872
34.0366994335 -25.3361291738 -2.5000151872
34.0494422496 -25.3201618384 -2.5000151872
34.0747859008 -25.2881144304 -2.5000151872
32.6086718167 -26.7053672391 -2.5000152362
32.6422360241 -26.6818196694 -2.5000152362
32.6923196517 -26.6461270151 -2.5000152362
32.7255319101 -26.6220855936 -2.5000152362
34.2180743347 -25.1400288610 -2.5000152362
34.2423493074 -25.1069869217 -2.5000152362
34.2783941676 -25.0571561743 -2.5000152362
34.3455774149 -25.0040683346 -2.5000152852
34.4268383533 -24.8851873796 -2.5000152852
32.3784628748 -26.9164223014 -2.5000153342
32.8863222900 -26.5623616066 -2.5000153342
34.4811225186 -24.8469830317 -2.5000153342
32.2503452086 -27.0238316574 -2.5000153832
32.4088794179 -26.9257384972 -2.5000153832
32.1192278851 -27.1284679264 -2.5000154321
34.7800680977 -24.4469505486 -2.5000154321
34.8002327504 -24.4105957954 -2.5000154321
34.8612251731 -24.3489426820 -2.5000154811
31.6998931185 -27.4557960436 -2.5000156281
35.0497970823 -24.1392522978 -2.5000156281
29.9667021974 -22.1421484830 -2.5000058634
29.9828728886 -22.2576727428 -2.5000060536
27.2830155233 -25.9968407011 -2.5000139147
27.0404567244 -25.9574708522 -2.5000139781
27.0820365218 -25.9694324250 -2.5000139781
29.7862692109 -25.9549616925 -2.5000139781
29.8000978916 -25.9508672790 -2.5000139781
29.8415104151 -25.9383388446 -2.5000139781
29.8762951726 -25.9528462848 -2.5000140415
29.8901172017 -25.9484855674 -2.5000140415
29.9039262705 -25.9440839811 -2.5000140415
29.9177222582 -25.9396415643 -2.5000140415
29.9390163193 -25.9581347792 -2.5000141049
29.9528537183 -25.9535884982 -2.5000141049
30.0573833550 -25.9434134706 -2.5000141683
30.1069744193 -25.9513219515 -2.5000142317
30.1844959297 -25.9482937022 -2.5000142951
30.7967888354 -25.9130652962 -2.5000148657
33.4542739073 -22.5931868735 -2.5000148657
33.4619655112 -22.5633148457 -2.5000148657
33.4557573531 -19.9689181463 -2.5000148657
33.4518621788 -19.9539949147 -2.5000148657
33.4399120228 -19.9092952693 -2.5000148657
33.4534202613 -22.6890336209 -2.5000149291
33.4575716908 -22.6741054012 -2.5000149291
33.4616789417 -22.6591649661 -2.5000149291
33.4657419781 -22.6442124464 -2.5000149291
33.4423436292 -19.8283460828 -2.5000149291
33.4380326760 -19.8134631465 -2.5000149291
33.4292787850 -19.7837358570 -2.5000149291
33.4766999092 -22.6955446328 -2.5000149925
33.4568662511 -19.7917646248 -2.5000149925
30.9679354075 -25.9038720553 -2.5000150559
33.4556380965 -22.8520087240 -2.5000150559
33.4602716261 -22.8370732304 -2.5000150559
33.4527533365 -19.6951710033 -2.5000150559
33.4336691131 -19.6356028351 -2.5000150559
31.0070836977 -25.9097347910 -2.5000151193
33.4596528859 -22.9190809420 -2.5000151193
33.4517421315 -19.6131671920 -2.5000151193
33.4367673253 -19.5684820332 -2.5000151193
33.4336983136 -19.4861874721 -2.5000151827
33.4597481783 -23.0691053638 -2.5000152460
33.4702553800 -23.0391926190 -2.5000152460
31.1117114275 -25.9335192413 -2.5000153094
31.2064148668 -25.9055061130 -2.5000153728
33.4554034456 -23.2202864270 -2.5000153728
33.4518456125 -19.3268943441 -2.5000153728
33.4485563700 -23.3037259380 -2.5000154362
33.4545261918 -23.2888094170 -2.5000154362
33.4448460522 -19.2434674864 -2.5000154362
33.4265906401 -19.1988580848 -2.5000154362
31.3138422690 -25.8960529397 -2.5000154996
33.4500110910 -23.4265929325 -2.5000155630
33.4688783673 -23.3817729684 -2.5000155630
33.4750789774 -23.3667959897 -2.5000155630
33.4485194263 -23.5503805405 -2.5000156898
33.4552188971 -23.5354630495 -2.5000156898
31.5166622047 -25.8792321763 -2.5000157532
33.4513836742 -23.7706492564 -2.5000159434
33.4354771656 -23.8559851852 -2.5000160068
31.7355801093 -25.8735997748 -2.5000160702
33.4499060760 -24.0352757126 -2.5000162604
33.4439099876 -24.2890739715 -2.5000165774
33.4325940477 -24.4460532555 -2.5000167676
33.4368587468 -24.7040149623 -2.5000171479
33.1023229073 -26.2780942350 -2.5000191766
33.1170929633 -26.2641889210 -2.5000191766
33.1903226854 -26.1940103235 -2.5000191766
33.2481541198 -26.1370923986 -2.5000191766
33.6071909648 -25.7509085531 -2.5000191766
33.7244146449 -25.6109472672 -2.5000191766
33.7499556049 -25.5794241802 -2.5000191766
33.8129881669 -25.4999602017 -2.5000191766
32.8916626964 -26.4996976853 -2.5000192400
32.9531320736 -26.4462922442 -2.5000192400
33.0139652296 -26.3921632075 -2.5000192400
33.0290731090 -26.3785187724 -2.5000192400
33.0741536470 -26.3373181540 -2.5000192400
33.1040034417 -26.3096295168 -2.5000192400
33.1632089789 -26.2537248672 -2.5000192400
33.9063756695 -25.4179273118 -2.5000192400
33.9185976781 -25.4016472279 -2.5000192400
33.9549740010 -25.3525910458 -2.5000192400
33.9670025205 -25.3361674852 -2.5000192400
33.9789824036 -25.3197084139 -2.5000192400
33.3541084858 -26.0987365655 -2.5000193034
33.9744548351 -25.3669030124 -2.5000193034
34.0579216158 -25.2507909809 -2.5000193034
34.0696485419 -25.2340633280 -2.5000193034
34.0929536877 -25.2005043175 -2.5000193034
32.6369046586 -26.7691763936 -2.5000193668
32.6854675070 -26.7314406666 -2.5000193668
33.3714178790 -26.1156102191 -2.5000193668
34.2043916132 -25.0781620263 -2.5000193668
34.2378859322 -25.0265823217 -2.5000193668
32.4868197187 -26.9114036373 -2.5000194302
32.5034659117 -26.8993163221 -2.5000194302
32.5696909384 -26.8504762299 -2.5000194302
34.3455882475 -24.9001944644 -2.5000194302
34.3562767870 -24.8826173756 -2.5000194302
34.3774976441 -24.8473687270 -2.5000194302
34.4088127783 -24.8420425999 -2.5000194936
32.2074531684 -27.1610610994 -2.5000195570
34.6113953696 -24.5288946675 -2.5000195570
31.6789314015 -27.5795718969 -2.5000198106
35.1469464252 -23.7348942370 -2.5000200008
29.9834126481 -22.2215132369 -2.5000016398
30.0087504034 -22.1479914796 -2.5000016398
29.5812260481 -25.9518936262 -2.5000022853
29.5941735603 -25.9478508885 -2.5000022853
29.6533535892 -25.9542738880 -2.5000022911
29.6663078271 -25.9500177736 -2.5000022911
29.6998931249 -25.9642995376 -2.5000022968
29.7857174419 -25.9601298302 -2.5000023026
29.7986884236 -25.9554821339 -2.5000023026
29.8116455998 -25.9507960875 -2.5000023026
29.8718570532 -25.9542898482 -2.5000023084
30.0061478348 -25.9535638866 -2.5000023199
30.0412877917 -25.9652574745 -2.5000023256
30.2161069621 -25.9418672530 -2.5000023372
30.3400467456 -25.9369250320 -2.5000023487
30.4519638857 -25.9351579516 -2.5000023602
30.5891001466 -25.9449122217 -2.5000023775
30.6524281058 -25.9377041550 -2.5000023833
30.7537832523 -25.9356755020 -2.5000023948
30.8176098490 -25.9261622967 -2.5000024006
33.4368879105 -22.9986107588 -2.5000024813
33.4410822078 -22.9831751979 -2.5000024813
33.4452308255 -22.9677272971 -2.5000024813
33.4533908775 -22.9367950164 -2.5000024813
33.5868960061 -20.9059923430 -2.5000024813
33.4426738694 -20.1687947712 -2.5000024813
33.4384534776 -23.0823160958 -2.5000024870
33.4532934248 -20.1160266084 -2.5000024870
33.4445817168 -20.0850965361 -2.5000024870
33.4386789469 -23.1663781441 -2.5000024928
33.4792455806 -23.0269180931 -2.5000024928
33.4765804207 -20.1095419259 -2.5000024928
33.4543599640 -20.0319710238 -2.5000024928
33.4451509363 -20.0010361127 -2.5000024928
33.4375541314 -23.2507754996 -2.5000024985
33.4424943747 -23.2353368646 -2.5000024985
33.4540796409 -19.9475666385 -2.5000024985
33.4298327135 -23.3509027672 -2.5000025043
33.4350691851 -23.3354865354 -2.5000025043
33.4402600298 -23.3200548807 -2.5000025043
33.4524423936 -19.8628349800 -2.5000025043
33.4527098360 -23.3587112594 -2.5000025101
33.4547262559 -19.7932721018 -2.5000025101
33.4494385036 -19.7777977966 -2.5000025101
33.4316758384 -23.4903565411 -2.5000025158
33.4450585999 -19.6924770524 -2.5000025158
33.4508346653 -19.6378020770 -2.5000025216
33.4298107441 -23.6308838527 -2.5000025274
33.4332942113 -23.8126748032 -2.5000025446
33.4554420066 -19.3856528389 -2.5000025446
33.4580444070 -19.3297687974 -2.5000025504
33.4227923777 -23.9555180675 -2.5000025562
33.4474726977 -19.1863906063 -2.5000025619
33.4551900984 -19.1453400943 -2.5000025677
33.4479856440 -19.1298672519 -2.5000025677
33.3479278724 -18.8740402967 -2.5000025735
33.6654998914 -19.5216642307 -2.5000025792
33.2440284627 -18.6370804467 -2.5000025792
33.1640918118 -18.5044072259 -2.5000025792
33.1458502838 -18.4752163735 -2.5000025792
27.5109499885 -27.3719532959 -2.5000025850
33.8054569292 -19.8565194845 -2.5000025850
33.7687179013 -19.7412582598 -2.5000025850
33.2994287323 -18.6847693563 -2.5000025850
33.1478214369 -18.4331422494 -2.5000025850
33.4222233625 -24.3383589356 -2.5000025965
33.4103466660 -24.4113075194 -2.5000026023
33.4133552872 -24.5542563433 -2.5000026196
33.4309023357 -24.5234848821 -2.5000026196
33.4333518359 -24.7109991358 -2.5000026426
33.4369783084 -24.7978776533 -2.5000026542
33.4503574581 -25.0018592949 -2.5000026830
33.0260219867 -26.3976702668 -2.5000028155
33.1666206763 -26.2534408800 -2.5000028155
33.1942249895 -26.2240994451 -2.5000028155
33.2079619274 -26.2093676121 -2.5000028155
33.2894629441 -26.1201291414 -2.5000028155
33.7908135943 -25.4900025672 -2.5000028155
33.8138902256 -25.4569815587 -2.5000028155
33.8367710897 -25.4238245991 -2.5000028155
33.8481378584 -25.4071955001 -2.5000028155
32.8977627260 -26.5553028515 -2.5000028213
32.9563878683 -26.4996172987 -2.5000028213
33.0573816345 -26.4005125390 -2.5000028213
33.8221903740 -25.4873561132 -2.5000028213
33.9244067392 -25.3368642593 -2.5000028213
33.9794514157 -25.2520980488 -2.5000028213
33.9903095619 -25.2350476269 -2.5000028213
32.7032728842 -26.7629532884 -2.5000028270
32.8097735020 -26.6690330248 -2.5000028270
33.3389735751 -26.1372945036 -2.5000028270
34.0960589544 -25.1099710697 -2.5000028270
32.6102681709 -26.8732661751 -2.5000028328
32.6571319321 -26.8341058157 -2.5000028328
34.1686207538 -25.0348510812 -2.5000028328
34.2896529736 -24.8689596449 -2.5000028386
34.3235816305 -24.9578601537 -2.5000028559
34.5395823454 -24.5351448628 -2.5000028559
32.3075786271 -27.2892577613 -2.5000028674
29.9894761357 -22.3262847294 -2.4999990996
29.9933678397 -22.4109817880 -2.4999990736
29.2559732930 -25.9536889821 -2.4999966617
29.2679714611 -25.9502136166 -2.4999966617
29.2919366926 -25.9431564836 -2.4999966617
29.3158597523 -25.9359576877 -2.4999966617
29.1657681370 -26.0035914853 -2.4999966358
29.3228936840 -25.9590847084 -2.4999966358
29.3469104387 -25.9517024819 -2.4999966358
29.3948108206 -25.9365124061 -2.4999966358
29.7114286263 -25.9504575363 -2.4999965061
29.8379515065 -25.9501654169 -2.4999964542
30.0822799699 -25.9437593414 -2.4999963505
30.0942451488 -25.9378396548 -2.4999963505
30.7413062755 -25.9277907337 -2.4999960133
29.1939153972 -26.6192370631 -2.4999959874
33.4341112901 -23.3915061114 -2.4999952353
