2.0637213344 -3.5097107460 -2.4999947425
2.2989250771 -3.4231899871 -2.4999947166
-3.3441644483 -3.4388851331 -2.4999946128
-3.3281850613 -3.4474721929 -2.4999946128
2.5350108083 -3.4074377503 -2.4999946128
-3.4036116941 -3.4340144770 -2.4999945869
-3.3716553641 -3.4514930842 -2.4999945869
-3.8224356777 -3.2100621231 -2.4999945610
-3.7917969949 -3.2300225531 -2.4999945610
-3.7764335027 -3.2399347048 -2.4999945610
-3.7456188887 -3.2596224477 -2.4999945610
-3.7301680367 -3.2693978666 -2.4999945610
-3.6055340360 -3.3459471460 -2.4999945610
-3.1229158700 -3.6062189236 -2.4999945610
-4.0773818010 -3.0634907341 -2.4999945350
-4.0476058218 -3.0849620762 -2.4999945350
-3.9876753784 -3.1273743936 -2.4999945350
-3.0505122719 -3.6673072541 -2.4999945350
-2.8153413170 -3.7708404514 -2.4999945350
-2.7983822600 -3.7778617043 -2.4999945350
-2.6362266829 -3.8679143367 -2.4999945091
-4.2245108421 -3.0143025284 -2.4999944832
-4.6391373116 -2.7015402352 -2.4999944572
-4.3562300196 -2.9420706394 -2.4999944572
-2.3022505832 -4.0341272246 -2.4999944572
-4.8719390991 -2.5144912905 -2.4999944313
-2.1306947359 -4.1100620670 -2.4999944313
-4.6175380288 -2.8177841511 -2.4999943794
3.0240755570 -3.3962938367 -2.4999943535
3.2041767383 -3.3929477157 -2.4999942497
3.2336395855 -3.4021154226 -2.4999942238
3.1352421978 -3.6408914761 -2.4999940682
3.6948452845 -3.2420846176 -2.4999940682
3.8167538534 -3.1429414320 -2.4999940682
3.8468617291 -3.1177070260 -2.4999940682
3.8618595493 -3.1050231351 -2.4999940682
3.8768197826 -3.0922949334 -2.4999940682
3.8917422982 -3.0795225323 -2.4999940682
3.9214736540 -3.0538455794 -2.4999940682
2.9465247774 -3.7848497210 -2.4999940423
2.9635000657 -3.7748262706 -2.4999940423
4.0112550183 -3.0068990198 -2.4999940423
4.0986829890 -2.9272330180 -2.4999940423
4.1418632918 -2.8868212524 -2.4999940423
2.7694531054 -3.9129927188 -2.4999940163
3.8324795249 -3.1927276675 -2.4999940163
4.4107689100 -2.6531180399 -2.4999940163
2.4269691073 -4.1139679351 -2.4999939904
4.2038493667 -2.8946226396 -2.4999939904
4.5230683340 -2.5681292444 -2.4999939904
2.2740161540 -4.2100944029 -2.4999939645
2.3286529847 -4.1858250146 -2.4999939645
2.3468171339 -4.1776275862 -2.4999939645
4.3485594612 -2.7864843377 -2.4999939645
4.5274567154 -2.5991258007 -2.4999939645
4.6731120005 -2.4353162622 -2.4999939645
2.1918694851 -4.2717390718 -2.4999939385
4.8196200591 -2.2975746025 -2.4999939385
2.2197406561 -4.2861942641 -2.4999939126
4.8748725496 -2.4209430891 -2.4999938089
3.4462071169 1.0179180187 -2.4999894156
3.4558000157 1.0678277600 -2.4999894156
3.4403349423 0.8758185185 -2.4999893493
3.4596781380 0.9631420212 -2.4999893493
3.4457636461 0.7954130770 -2.4999892830
3.4488754381 0.8078794778 -2.4999892830
3.4428433587 0.6895822500 -2.4999892167
3.4555885523 0.6456204960 -2.4999891504
3.4591434148 0.6581166161 -2.4999891504
3.4695859916 0.6956673058 -2.4999891504
3.4410468577 0.5139255511 -2.4999890842
3.4824036997 0.6515367657 -2.4999890842
3.4560375285 0.4815841985 -2.4999890179
3.4581605106 0.4114671558 -2.4999889516
3.4666185391 0.4364891718 -2.4999889516
3.4501053001 0.3160128464 -2.4999888853
3.4546352256 0.3284941881 -2.4999888853
3.4635842118 0.3534967995 -2.4999888853
3.4549991940 0.1275768032 -2.4999886865
3.4518040173 -0.0036800990 -2.4999885539
3.4627183076 0.0213115756 -2.4999885539
3.4458505600 -0.0759390491 -2.4999884877
3.4620718810 -0.0985236943 -2.4999884214
3.4485186871 -0.2925728918 -2.4999882225
3.4507505444 -0.3410558324 -2.4999881563
3.4516550722 -0.9125107811 -2.4999873609
3.4543058681 -1.2476059183 -2.4999868307
-2.1175396017 -3.4570049645 -2.4999861679
0.7030931149 -3.4252224381 -2.4999861679
0.7187023104 -3.4208508857 -2.4999861679
0.7498815646 -3.4119693524 -2.4999861679
3.4495550248 -1.6461635344 -2.4999861679
-2.2179530902 -3.4555145559 -2.4999861017
-2.1550319335 -3.4723126223 -2.4999861017
0.7878361284 -3.4260920440 -2.4999861017
0.8034475255 -3.4214698026 -2.4999861017
-2.3501002795 -3.4428512921 -2.4999860354
-2.3030351532 -3.4566928909 -2.4999860354
0.6213133240 -3.4972772049 -2.4999860354
0.8573010218 -3.4304323918 -2.4999860354
0.8729249546 -3.4256046417 -2.4999860354
0.9041296344 -3.4158105923 -2.4999860354
-2.4198558996 -3.4468240316 -2.4999859691
0.9427190957 -3.4288306399 -2.4999859691
1.0128181306 -3.4311408933 -2.4999859028
-2.5759863735 -3.4466968798 -2.4999858365
1.0675647870 -3.4379784321 -2.4999858365
1.1225723428 -3.4442586896 -2.4999857703
-2.7332705991 -3.4419815517 -2.4999857040
-2.6547322311 -3.4704859359 -2.4999857040
1.2091787445 -3.4383791520 -2.4999857040
1.2248246456 -3.4325104492 -2.4999857040
-2.7416853205 -3.4646427023 -2.4999856377
-2.8602620483 -3.4450947048 -2.4999855714
1.3518295390 -3.4350158288 -2.4999855714
1.3830815169 -3.4223882543 -2.4999855714
-2.9162836053 -3.4487108360 -2.4999855052
-2.8376256899 -3.4799213172 -2.4999855052
1.5519131314 -3.4296901672 -2.4999853726
1.5675318293 -3.4228076321 -2.4999853726
-3.0856947376 -3.4560715870 -2.4999853063
1.6086187694 -3.4309519624 -2.4999853063
1.6242409518 -3.4239016762 -2.4999853063
-3.1739738045 -3.4432018268 -2.4999852400
-3.1582944589 -3.4502992608 -2.4999852400
1.6342170951 -3.4459201196 -2.4999852400
1.6811525586 -3.4244030159 -2.4999852400
-3.2310808491 -3.4435491964 -2.4999851738
-3.2727027000 -3.4507342893 -2.4999851075
1.7799368237 -3.4311707172 -2.4999851075
1.8530413661 -3.4223161079 -2.4999850412
1.8794522415 -3.4361614251 -2.4999849749
1.8950886495 -3.4283099418 -2.4999849749
-3.9791925651 -3.1416234270 -2.4999849087
-3.8900309750 -3.1978492714 -2.4999849087
-3.8600904128 -3.2162384550 -2.4999849087
-3.8149768869 -3.2434892928 -2.4999849087
-3.6628848045 -3.3314143812 -2.4999849087
-3.0467715105 -3.6303151971 -2.4999849087
-2.9327343772 -3.6763464667 -2.4999849087
-4.1682404312 -3.0443240687 -2.4999848424
-4.0218846089 -3.1427849598 -2.4999848424
-3.7513543223 -3.3089418629 -2.4999848424
-3.5818156699 -3.4033065971 -2.4999848424
-2.9086618887 -3.7116235849 -2.4999848424
-4.3402163710 -2.9504662745 -2.4999847761
-4.3117315307 -2.9715232357 -2.4999847761
-4.2831226088 -2.9924113024 -2.4999847761
-4.2255365306 -3.0336778339 -2.4999847761
-3.9305059422 -3.2296341931 -2.4999847761
-2.6337404592 -3.8352186375 -2.4999847761
-2.6169038207 -3.8407162484 -2.4999847761
-2.6000509930 -3.8461640295 -2.4999847761
-2.5831821234 -3.8515619329 -2.4999847761
-2.5493968496 -3.8622079187 -2.4999847761
-4.3973073301 -2.9378327924 -2.4999847098
-4.6217108359 -2.7906779078 -2.4999846435
-2.1386172766 -4.0489260852 -2.4999845773
-2.1211506192 -4.0529580971 -2.4999845773
2.1977195596 -3.4315267699 -2.4999845773
-2.4121133664 -4.0288278072 -2.4999844447
2.2998370714 -3.4289119977 -2.4999844447
-1.6450058842 -4.2643920052 -2.4999842459
2.5057365809 -3.4180442588 -2.4999841796
2.9506211693 -3.7934428545 -2.4999826552
3.0005888640 -3.7602297182 -2.4999826552
3.0667502226 -3.7152582399 -2.4999826552
3.1160194997 -3.6810176021 -2.4999826552
3.1323748260 -3.6695070579 -2.4999826552
3.7422346288 -3.1839344803 -2.4999826552
3.7867621060 -3.1437202201 -2.4999826552
3.8015250747 -3.1302278488 -2.4999826552
3.8601758880 -3.0758234251 -2.4999826552
3.9037392959 -3.0345667597 -2.4999826552
2.6570043085 -4.0041624592 -2.4999825889
2.7604291197 -3.9424720331 -2.4999825889
2.7946587261 -3.9215018291 -2.4999825889
2.8287636666 -3.9003294783 -2.4999825889
4.0352093259 -2.9397530871 -2.4999825889
4.1472904172 -2.8247776662 -2.4999825889
2.5467447286 -4.0949185970 -2.4999825226
2.5994037556 -4.0652777659 -2.4999825226
2.6168980533 -4.0552937831 -2.4999825226
2.6343627401 -4.0452580927 -2.4999825226
2.7039223249 -4.0046000183 -2.4999825226
2.7212366696 -3.9943071162 -2.4999825226
4.3283210667 -2.6634583325 -2.4999825226
4.3416609642 -2.6483660332 -2.4999825226
2.4341898284 -4.1836113113 -2.4999824564
2.5761529843 -4.1061729527 -2.4999824564
4.4652698998 -2.5417691455 -2.4999824564
4.4911826399 -2.5107370456 -2.4999824564
2.3916210370 -4.2332375862 -2.4999823901
2.1655673710 -4.3720405319 -2.4999823238
2.1203093177 -4.4197782644 -2.4999822575
4.6371704796 -2.4460799384 -2.4999822575
2.1041670242 -4.5333448745 -2.4999819924
3.4513072558 0.4112388866 -2.4999961430
3.4550768751 0.4246403410 -2.4999961430
3.4509983712 0.3240779811 -2.4999961171
3.4590136279 0.3508916806 -2.4999961171
3.4490148534 0.2365266980 -2.4999960911
3.4575481276 0.2633301947 -2.4999960911
3.4447764444 0.0737512770 -2.4999960392
3.4542728268 0.1005325466 -2.4999960392
3.4571723908 -0.0991545346 -2.4999959614
3.4615098544 -0.3380063008 -2.4999958577
3.4534097451 -0.5806917204 -2.4999957540
3.4551768591 -0.6831851193 -2.4999957021
-2.4164841982 -3.4465094347 -2.4999954946
-2.3403336008 -3.4657573396 -2.4999954946
0.2716532481 -3.4440579904 -2.4999954946
0.3323338912 -3.4277393359 -2.4999954946
0.3626007409 -3.4193110398 -2.4999954946
0.4146659295 -3.4295418585 -2.4999954687
0.4973581475 -3.4300239436 -2.4999954427
-2.6340381012 -3.4606343664 -2.4999954168
-2.6187881547 -3.4652175230 -2.4999954168
3.4676050996 -1.1925161941 -2.4999954168
-2.7630732958 -3.4453171543 -2.4999953909
-2.6869024215 -3.4696913764 -2.4999953909
-2.8011123454 -3.4581753655 -2.4999953649
0.7402952543 -3.4516139207 -2.4999953390
0.9305662932 -3.4063646435 -2.4999953131
-2.9930091052 -3.4673427385 -2.4999952871
1.0694266389 -3.4019814456 -2.4999952612
1.0939391567 -3.4178577034 -2.4999952353
-3.2330245658 -3.4504746361 -2.4999952093
1.2191043067 -3.4159047586 -2.4999951834
-3.6845877019 -3.3188051580 -2.4999951315
-3.3684625990 -3.4710169886 -2.4999951315
1.3451109743 -3.4109407046 -2.4999951315
-4.0461377397 -3.1418126729 -2.4999951056
-4.0031213174 -3.1679708534 -2.4999951056
-3.9018593790 -3.2275145275 -2.4999951056
-3.8727030210 -3.2441406450 -2.4999951056
-2.8937488622 -3.6820539809 -2.4999951056
-2.8619209398 -3.6927078228 -2.4999951056
-2.8140622649 -3.7083350500 -2.4999951056
1.4568041556 -3.4104481106 -2.4999950797
1.6106226730 -3.4132289772 -2.4999950019
1.6257138136 -3.4052558670 -2.4999950019
1.9076365664 -3.4141980181 -2.4999948462
2.2948078204 -3.4298227711 -2.4999946128
3.2958499109 -3.4321759155 -2.4999939645
3.1396019552 -3.6849213065 -2.4999938607
3.1554901210 -3.6724240102 -2.4999938607
3.6289759594 -3.2622819283 -2.4999938607
3.7448983923 -3.1495334180 -2.4999938607
3.7876765317 -3.1065502193 -2.4999938607
3.8300715347 -3.0631890813 -2.4999938607
3.0580796570 -3.7781966786 -2.4999938348
3.1225189175 -3.7288843406 -2.4999938348
3.9035534858 -3.0214080597 -2.4999938348
4.0272681666 -2.8871499854 -2.4999938348
4.0677066809 -2.8416712457 -2.4999938348
2.8418085626 -3.9645843674 -2.4999938089
4.1393173816 -2.7962446329 -2.4999938089
4.2697934634 -2.6399920719 -2.4999938089
4.3014123717 -2.6393180860 -2.4999937829
4.3269451911 -2.6074211873 -2.4999937829
2.4022521907 -4.3010359483 -2.4999937570
4.5678136896 -2.3277344958 -2.4999937570
2.3608787487 -4.3526896248 -2.4999937310
4.5710466642 -2.4060646376 -2.4999937051
4.8570899510 -2.0254221660 -2.4999936792
2.0294931656 -4.6104447131 -2.4999936532
-0.0645774285 0.4342851462 -2.5000043184
-0.0194833870 0.4925367858 -2.5000043184
-0.0842556424 0.3732852913 -2.5000043674
-0.0552578540 0.4074943840 -2.5000043674
-0.1275719843 0.2904205723 -2.5000044164
-2.6099247565 -3.4562405018 -2.5000112747
-0.0465282012 -3.4425274995 -2.5000112747
3.4700980473 -0.1513683998 -2.5000112747
-2.6890931358 -3.4604702840 -2.5000113237
-2.7686598819 -3.4634328784 -2.5000113727
0.1122747888 -3.4480211921 -2.5000113727
3.4650724291 -0.3101868920 -2.5000113727
-2.8778326173 -3.4561918375 -2.5000114216
-2.8486047543 -3.4651174474 -2.5000114216
0.1922331086 -3.4488503519 -2.5000114216
3.4550578353 -0.4042609196 -2.5000114216
-2.8996233730 -3.4747410973 -2.5000114706
0.2725352751 -3.4483872185 -2.5000114706
0.3597399887 -3.4187324431 -2.5000114706
0.3742223419 -3.4136397019 -2.5000114706
-3.0241650863 -3.4596934928 -2.5000115196
0.4403211609 -3.4155363780 -2.5000115196
3.4517152006 -0.6025990983 -2.5000115686
0.5676623532 -3.4448763666 -2.5000116666
3.4536908251 -0.7746292362 -2.5000117156
0.9639659565 -3.4053018692 -2.5000119115
3.4560216915 -1.0418051349 -2.5000119605
1.0862432228 -3.3994842097 -2.5000120095
3.6120960099 -3.2488609250 -2.5000148508
3.6399836490 -3.2193935662 -2.5000148508
3.7130343517 -3.1763207855 -2.5000148998
3.8351787874 -3.0397679122 -2.5000148998
2.8746349596 -3.9798437803 -2.5000149488
3.6471116335 -3.2821963001 -2.5000149488
3.8534087150 -3.0556425783 -2.5000149488
4.0367104007 -2.8361282202 -2.5000149488
2.9700030183 -3.9355833551 -2.5000149978
4.2664393352 -2.5738009880 -2.5000149978
2.7064469331 -4.1657491335 -2.5000150468
4.2129683001 -2.6874099649 -2.5000150468
2.3610163100 -4.4274386397 -2.5000150957
4.7590346601 -2.1765253341 -2.5000153897
-0.2771040715 -0.0513925296 -2.5000057518
-0.2363773015 -0.0079743272 -2.5000057518
-0.3777886372 -0.2431419771 -2.5000059420
-0.3265611460 -0.1991639713 -2.5000059420
-2.8837552691 -3.4539069692 -2.5000136763
-2.8283396772 -3.4688770230 -2.5000136763
-0.3449374101 -3.4666076572 -2.5000136763
-2.9872154993 -3.4492958464 -2.5000137397
-0.2137428293 -3.4549658648 -2.5000137397
-0.1999141486 -3.4508714513 -2.5000137397
-0.1585016250 -3.4383430169 -2.5000137397
-2.9941386570 -3.4724562689 -2.5000138031
-0.1791321657 -3.4698838788 -2.5000138031
-2.9451444817 -3.5119718508 -2.5000138665
-0.0748465079 -3.4626442790 -2.5000138665
-0.0609957208 -3.4581389515 -2.5000138665
-0.0471583218 -3.4535926705 -2.5000138665
-0.0195241727 -3.4443774078 -2.5000138665
-0.0057276644 -3.4397085067 -2.5000138665
0.0159052561 -3.4578616287 -2.5000139299
0.0297414982 -3.4530878620 -2.5000139299
0.0792849054 -3.4612896019 -2.5000139933
0.1207788897 -3.4462830222 -2.5000139933
0.1844838896 -3.4482978745 -2.5000140567
0.2622853852 -3.4439938630 -2.5000141201
0.2898573288 -3.4329479954 -2.5000141201
0.3036186732 -3.4273639379 -2.5000141201
0.7830555787 -3.4201124395 -2.5000146273
3.4503498237 -0.1081098642 -2.5000146273
3.4542618671 -0.0931910458 -2.5000146273
3.4657329642 -0.0483660700 -2.5000146273
3.4439274388 2.5758124819 -2.5000146273
0.8627753683 -3.4058492478 -2.5000146906
3.4534082212 -0.1890377933 -2.5000146906
3.4575596506 -0.1741095735 -2.5000146906
3.4657299380 -0.1442166187 -2.5000146906
3.4591345775 2.6119924290 -2.5000146906
3.4550000279 2.6269253326 -2.5000146906
3.4508213222 2.6418459402 -2.5000146906
3.4423315890 2.6716497449 -2.5000146906
3.4380206358 2.6865326812 -2.5000146906
3.4595624271 -0.2554119192 -2.5000147540
3.4639101763 -0.2404652038 -2.5000147540
3.4479716146 2.7380695383 -2.5000147540
3.4871311259 -0.2471825531 -2.5000148174
3.4574021147 2.7898978241 -2.5000148174
3.4527412963 2.8048248244 -2.5000148174
3.4432872917 2.8346371359 -2.5000148174
3.4336570729 2.8643929926 -2.5000148174
3.4547647252 -0.4340184187 -2.5000148808
3.4596408457 -0.4190851143 -2.5000148808
3.4417909423 2.9166335293 -2.5000148808
3.4367552852 2.9315137944 -2.5000148808
1.0463784739 -3.4152996461 -2.5000149442
3.4576962593 -0.5014139198 -2.5000149442
3.4627717351 -0.4864716485 -2.5000149442
3.4678029867 -0.4715144284 -2.5000149442
3.4727899702 -0.4565423903 -2.5000149442
3.4545384468 2.9542293819 -2.5000149442
3.4442004832 2.9840497111 -2.5000149442
3.4544162178 -0.5840424660 -2.5000150076
3.4650118609 -0.5541609343 -2.5000150076
3.4348012438 3.0815255205 -2.5000150076
3.4553566487 -0.6520295745 -2.5000150710
3.4518335724 3.1731014835 -2.5000151344
3.4604398216 -0.7738794737 -2.5000151978
3.4721584987 -0.7439589819 -2.5000151978
3.4387928713 3.2714161211 -2.5000151978
3.4265786000 3.3011377429 -2.5000151978
3.4527187074 -0.8575864818 -2.5000152612
3.4364649091 3.3401730477 -2.5000152612
3.4301763688 3.3550357042 -2.5000152612
3.4499990509 -0.9265971048 -2.5000153246
3.4658311717 -0.9510428779 -2.5000153880
3.4552068570 -1.0354672218 -2.5000154514
3.4618621699 -1.0205299779 -2.5000154514
3.4439764566 -1.2855585453 -2.5000157050
3.4506281973 -1.3262064365 -2.5000157684
1.7769877107 -3.3733398785 -2.5000158952
3.4448412942 -1.4939343944 -2.5000159586
3.4295986016 -1.6214461001 -2.5000160854
3.4319996248 -1.7618259321 -2.5000162756
3.4214460532 -1.9183496668 -2.5000164657
3.4307132398 -1.9035084305 -2.5000164657
2.2821114638 -3.3440653731 -2.5000166559
3.4236105180 -2.5543947117 -2.5000174167
3.4376322606 -3.0025101849 -2.5000181774
3.2193105496 -3.6656410717 -2.5000189382
3.6203872611 -3.2355162272 -2.5000189382
3.6335499942 -3.2200807236 -2.5000189382
3.6466670086 -3.2046063498 -2.5000189382
3.6727634230 -3.1735415336 -2.5000189382
3.6857425945 -3.1579513630 -2.5000189382
3.7371963976 -3.0952087848 -2.5000189382
3.8320251250 -3.0148462740 -2.5000190016
3.9307594338 -2.8853352328 -2.5000190016
2.9383183535 -3.9913379447 -2.5000190650
2.9844036347 -3.9509381745 -2.5000190650
3.0452895241 -3.8964386508 -2.5000190650
3.2240187924 -3.7286714136 -2.5000190650
3.9501552525 -2.8997622040 -2.5000190650
3.9865135666 -2.8504259336 -2.5000190650
4.0461332174 -2.7674880425 -2.5000190650
4.0579095756 -2.7507951532 -2.5000190650
4.1045196633 -2.6836774257 -2.5000190650
2.8919540496 -4.0629992955 -2.5000191284
2.9075678144 -4.0497150085 -2.5000191284
2.9850434333 -3.9826039594 -2.5000191284
3.1369747223 -3.8449811315 -2.5000191284
3.1965961978 -3.7886837334 -2.5000191284
3.2847689953 -3.7029247617 -2.5000191284
3.3856940605 -3.6009137568 -2.5000191284
4.0539979128 -2.7981682941 -2.5000191284
4.2043795731 -2.5781661986 -2.5000191284
4.2378738921 -2.5265864940 -2.5000191284
4.3455762074 -2.4001986367 -2.5000191918
2.6663872078 -4.3074873581 -2.5000192552
4.1408786600 -2.7586701440 -2.5000192552
4.4608550733 -2.2529186990 -2.5000192552
4.5327245239 -2.1747554843 -2.5000193186
2.6130660844 -4.4085886600 -2.5000193820
2.5265911840 -4.5019380275 -2.5000194454
1.7902421985 -5.0205497677 -2.5000195722
1.5311322671 -5.2078780048 -2.5000196990
-0.4836795557 -3.4715261150 -2.5000020469
-0.4446963451 -3.4598583881 -2.5000020469
-0.4317251413 -3.4558923230 -2.5000020469
-0.4187657265 -3.4518879041 -2.5000020469
-0.4058182142 -3.4478451665 -2.5000020469
-0.3336839474 -3.4500120516 -2.5000020526
-0.3207423565 -3.4457176349 -2.5000020526
-0.2611868508 -3.4509971958 -2.5000020584
-0.2013033510 -3.4554764119 -2.5000020642
-0.1540846034 -3.4639740388 -2.5000020699
-0.1281347214 -3.4542841262 -2.5000020699
-0.0676190824 -3.4569627599 -2.5000020757
-0.0417121947 -3.4467614109 -2.5000020757
-0.0458013897 -3.4743733337 -2.5000020815
-0.0068101547 -3.4588195716 -2.5000020815
0.1545010945 -3.4430557420 -2.5000020930
0.1902327768 -3.4535883590 -2.5000020988
0.2622700602 -3.4738398703 -2.5000021103
0.5017929713 -3.4366058081 -2.5000021276
0.7537914777 -3.4356697799 -2.5000021564
0.9456273801 -3.4329585704 -2.5000021794
1.0101954526 -3.4493781945 -2.5000021910
3.4410904332 -0.4831694759 -2.5000022428
3.4452390509 -0.4677215750 -2.5000022428
3.4533991030 -0.4367892943 -2.5000022428
3.4613760065 -0.4058092773 -2.5000022428
3.4628801536 2.2538278570 -2.5000022428
3.4426820949 2.3312109509 -2.5000022428
3.4384617031 -0.5823103737 -2.5000022486
3.4429036090 -0.5668698153 -2.5000022486
3.4472998195 -0.5514161846 -2.5000022486
3.4559550009 -0.5204702469 -2.5000022486
3.4602138961 -0.5049782107 -2.5000022486
3.4660257216 2.3374887190 -2.5000022486
3.4618302131 2.3529980414 -2.5000022486
3.4575888437 2.3684948848 -2.5000022486
3.4533016503 2.3839791137 -2.5000022486
3.4291690869 -0.6972136439 -2.5000022544
3.4433777481 -0.6509308289 -2.5000022544
3.4616826509 -0.5890277292 -2.5000022544
3.4589040298 2.4525469466 -2.5000022544
3.4543681895 2.4680346982 -2.5000022544
3.4404860549 2.5144164981 -2.5000022544
3.4275449680 -0.7816028676 -2.5000022601
3.4425026001 -0.7353311426 -2.5000022601
3.4540878664 2.5524390835 -2.5000022601
3.4245588863 -0.8662977190 -2.5000022659
3.4350774106 -0.8354808134 -2.5000022659
3.4402682553 -0.8200491586 -2.5000022659
3.4454134276 -0.8046022159 -2.5000022659
3.4574868028 2.6216879229 -2.5000022659
3.4524506191 2.6371707421 -2.5000022659
3.4473686564 2.6526385956 -2.5000022659
3.4202014707 -0.9512762977 -2.5000022716
3.4366651485 -0.9050630606 -2.5000022716
3.4651725432 2.6757384221 -2.5000022716
3.4494467291 2.7222079254 -2.5000022716
3.4316840638 -0.9903508191 -2.5000022774
3.4484940539 -0.9440341416 -2.5000022774
3.4615499857 2.7610946756 -2.5000022774
3.4506069910 2.7920669477 -2.5000022774
3.4450668254 2.8075286696 -2.5000022774
3.4312182004 -1.0604863660 -2.5000022832
3.4508428908 2.8622036450 -2.5000022832
3.4358836759 -1.1154607388 -2.5000022889
3.4538037810 -1.0691018655 -2.5000022889
3.4560581777 2.9171285857 -2.5000022889
3.4501480333 2.9326058861 -2.5000022889
3.4337539268 -1.1861030248 -2.5000022947
3.4399819812 -1.1706737511 -2.5000022947
3.4485161818 3.0032614271 -2.5000022947
3.4522701585 3.0586924386 -2.5000023005
3.4266543637 -1.3280779743 -2.5000023062
3.4333024368 -1.3126690812 -2.5000023062
3.4618979937 3.0988591027 -2.5000023062
3.4147685139 -1.4147596376 -2.5000023120
3.4712328774 3.1392139831 -2.5000023120
3.4157300198 -1.4708895473 -2.5000023178
3.4368051498 -1.4246955301 -2.5000023178
3.4545181734 3.2981440380 -2.5000023235
3.4232871898 -1.5683672601 -2.5000023293
3.4226392990 -1.6250832344 -2.5000023350
3.3716862501 3.5803611832 -2.5000023350
3.3399295589 3.6411197796 -2.5000023350
3.3156414587 3.6864398064 -2.5000023350
3.2992263651 3.7165326395 -2.5000023350
3.2826335195 3.7465278287 -2.5000023350
3.2489169016 3.8062210792 -2.5000023350
3.7457720217 2.7511682575 -2.5000023408
3.7403515503 2.7675033100 -2.5000023408
3.7181871623 2.8326810305 -2.5000023408
3.7125256822 2.8489341253 -2.5000023408
3.7010586073 2.8813897165 -2.5000023408
3.6775494132 2.9460945320 -2.5000023408
3.4243404081 3.5300463848 -2.5000023408
3.4010346980 3.5761198845 -2.5000023408
3.3121044186 3.7432436063 -2.5000023408
3.3037511064 3.7582914509 -2.5000023408
3.2953533165 3.7733145189 -2.5000023408
3.1911377149 3.9516111402 -2.5000023408
3.1821685431 3.9663002317 -2.5000023408
3.1088589469 4.0828447336 -2.5000023408
3.7296083975 2.8732232647 -2.5000023466
3.4225564809 3.5871266162 -2.5000023466
3.2296691901 3.9345981222 -2.5000023466
3.1570964686 4.0522755218 -2.5000023466
3.1197708904 4.1104619554 -2.5000023466
3.2324371115 3.9767448022 -2.5000023523
3.4187283173 -1.8959385691 -2.5000023639
3.4165264537 -2.0970779359 -2.5000023869
3.4193636491 -2.1400466038 -2.5000023927
3.4218735396 -2.1831542651 -2.5000023984
3.4240545822 -2.2263985468 -2.5000024042
3.4353390435 -2.2543662649 -2.5000024100
3.4596898248 -2.3982265013 -2.5000024330
3.4503656835 -2.5018535728 -2.5000024445
3.4611093923 -2.8280639687 -2.5000024907
3.4776327001 -3.1298224806 -2.5000025368
3.2894711695 -3.6201234194 -2.5000025771
3.3029001278 -3.6051103102 -2.5000025771
3.6965738793 -3.1206983226 -2.5000025771
3.7322790774 -3.0719470065 -2.5000025771
3.7440844932 -3.0556263900 -2.5000025771
3.7675502289 -3.0228807466 -2.5000025771
3.8023845560 -2.9735034072 -2.5000025771
2.9418016455 -4.0135979381 -2.5000025829
2.9854605487 -3.9715096411 -2.5000025829
2.9999303011 -3.9573943128 -2.5000025829
3.1282611441 -3.8284478970 -2.5000025829
3.1702696020 -3.7847121675 -2.5000025829
3.1980588968 -3.7553486455 -2.5000025829
3.2118882756 -3.7406053587 -2.5000025829
3.2256739807 -3.7258212266 -2.5000025829
3.2667678485 -3.6812250541 -2.5000025829
3.7872406079 -3.0369030238 -2.5000025829
3.8337533697 -2.9707641466 -2.5000025829
3.9355241055 -2.8199705766 -2.5000025829
3.9465832402 -2.8030498271 -2.5000025829
3.9575922718 -2.7860964366 -2.5000025829
2.6260298934 -4.3286733400 -2.5000025886
2.6879087734 -4.2761840156 -2.5000025886
3.7233678066 -3.1657320621 -2.5000025886
3.9557390398 -2.8332254518 -2.5000025886
3.9668372963 -2.8162448448 -2.5000025886
4.0644474843 -2.6619632712 -2.5000025886
4.0960671799 -2.6099653477 -2.5000025886
2.6571401576 -4.3341000936 -2.5000025944
2.7498159018 -4.2545394490 -2.5000025944
2.7803922112 -4.2276552496 -2.5000025944
2.8861455410 -4.1321459040 -2.5000025944
4.0956741116 -2.6572520140 -2.5000025944
4.1376730741 -2.5874901861 -2.5000025944
4.1480436052 -2.5699724605 -2.5000025944
2.3691090446 -4.5943185414 -2.5000026002
2.4017022642 -4.5696807848 -2.5000026002
2.5783188910 -4.4307574126 -2.5000026002
2.6414090173 -4.3788254804 -2.5000026002
2.9474025481 -4.1081717184 -2.5000026002
3.1231261471 -3.9372588341 -2.5000026002
3.1803388292 -3.8789150374 -2.5000026002
3.4021673562 -3.6388941186 -2.5000026002
4.1688630325 -2.5822560564 -2.5000026002
2.5135722601 -4.5135941535 -2.5000026059
3.1402851100 -3.9542854390 -2.5000026059
3.2261437349 -3.8662096764 -2.5000026059
4.3686457160 -2.2718866663 -2.5000026059
2.1643695820 -4.8011462902 -2.5000026117
2.2150481492 -4.7659262541 -2.5000026117
2.4799251275 -4.5705830512 -2.5000026117
3.0401523585 -4.0867509487 -2.5000026117
2.3296898458 -4.7136831129 -2.5000026174
4.3942954020 -2.3786368086 -2.5000026232
4.5614778406 -2.0453998768 -2.5000026232
4.6300385153 -1.8945330405 -2.5000026232
-0.7865700802 -3.4405975157 -2.4999966876
-0.7200439228 -3.4466853689 -2.4999966617
-0.3125903611 -3.4599789921 -2.4999965061
3.4296607943 -0.9072994629 -2.4999952353
3.4341080715 -0.8914887068 -2.4999952353
3.4401764000 2.0775897248 -2.4999952353
3.4357937891 2.0934185278 -2.4999952353
3.4363679688 2.1791926846 -2.4999952093
3.4434611620 -1.0317168194 -2.4999951834
3.4467657073 -1.1023139043 -2.4999951575
3.4385364907 2.3359202662 -2.4999951575
3.4277422469 -1.2365385202 -2.4999951315
3.4226709554 -1.3235400441 -2.4999951056
3.4267361033 -1.4509678471 -2.4999950537
3.4369931004 -1.4913383040 -2.4999950278
3.4595013409 -1.5001538807 -2.4999950019
3.4526410678 2.7904417817 -2.4999949759
3.4378053557 3.0092230172 -2.4999948981
3.4570175381 -1.9328076358 -2.4999948203
3.4372090612 3.1822913107 -2.4999948203
3.7347544417 2.8665350657 -2.4999946647
3.0882285048 4.0686344737 -2.4999946647
3.0676429480 4.0981619572 -2.4999946647
3.2837891729 -3.6064931371 -2.4999940163
3.3025710522 -3.6217107680 -2.4999939904
3.6565664157 -3.1428423324 -2.4999939904
2.6849567218 -4.3526960951 -2.4999939385
2.7722045787 -4.2703124820 -2.4999939385
4.0090743092 -2.6578089295 -2.4999939385
2.6422135573 -4.4246683015 -2.4999939126
4.3330592712 -2.1678254337 -2.4999938607
-0.9924988299 -3.4416214951 -2.4999989057
-0.9815453011 -3.4386584054 -2.4999989057
-0.9531801105 -3.4559220832 -2.4999988913
-0.8982943463 -3.4401998994 -2.4999988913
-0.8804484860 -3.4601263827 -2.4999988769
-0.8584427216 -3.4535045624 -2.4999988769
-0.8474546271 -3.4501448585 -2.4999988769
-0.7303561741 -3.4376518016 -2.4999988625
-0.4882518589 -3.4507715814 -2.4999988049
-0.3912166667 -3.4364187895 -2.4999987905
-0.3802811593 -3.4316770212 -2.4999987905
-0.2729695387 -3.4364406983 -2.4999987616
-0.2298444569 -3.4429069970 -2.4999987472
-0.1318644872 -3.4489316996 -2.4999987184
3.4390867252 0.0668102251 -2.4999979548
3.4413894743 0.1471104036 -2.4999979548
3.4423763847 0.2113695880 -2.4999979548
3.4425846893 0.2435024346 -2.4999979548
3.4425406851 0.2917026094 -2.4999979548
3.4418166328 0.3559652931 -2.4999979548
3.4510691150 -1.0695861145 -2.4999978539
3.4588558315 -1.0373794199 -2.4999978539
3.4701782945 -0.9889844085 -2.4999978539
3.4564730459 1.5726120382 -2.4999978539
3.4446333926 1.6208831259 -2.4999978539
3.4405917028 1.6369499046 -2.4999978539
3.4624593055 -1.1237667050 -2.4999978395
3.4386700628 1.7394398913 -2.4999978395
3.4342776867 1.7554885107 -2.4999978395
3.4558826787 -1.2427818877 -2.4999978251
3.4690280904 -1.1944051729 -2.4999978251
3.4394625530 1.8262420210 -2.4999978251
3.4701410637 -1.2815472662 -2.4999978107
3.4339626646 1.9294376530 -2.4999978107
3.4681903652 -1.4568600729 -2.4999977819
3.4832351161 -1.4083657042 -2.4999977819
3.4597356938 -1.5611117522 -2.4999977675
3.4343182363 2.1606454017 -2.4999977675
3.4435168300 2.3461841304 -2.4999977243
3.4345455748 2.4352901123 -2.4999977098
3.4638474946 -1.9664692292 -2.4999976810
3.4704177578 -1.9503299155 -2.4999976810
3.4769402492 -1.9341712364 -2.4999976810
3.4593554558 -2.0402416725 -2.4999976666
3.4728847516 -2.0079689650 -2.4999976666
3.4356212815 2.7396536728 -2.4999976378
3.4694460043 -2.1983228788 -2.4999976234
3.4502291493 2.7657951166 -2.4999976234
3.4353244772 2.7979297162 -2.4999976234
3.4484985227 2.8829202849 -2.4999975946
3.4307675063 2.9738669226 -2.4999975802
3.4573472094 -2.4494547043 -2.4999975658
3.4246411404 3.0920197452 -2.4999975514
3.4372356884 3.2223778855 -2.4999975081
3.4638730619 -2.6987146151 -2.4999974937
3.4616155987 -2.8027358313 -2.4999974649
3.4458906560 -2.8791100213 -2.4999974505
3.7120913087 2.9478728537 -2.4999974361
3.6961048206 2.9815535311 -2.4999974361
3.6717521655 3.0318957342 -2.4999974361
3.6552692758 3.0653362811 -2.4999974361
3.6469537107 3.0820198387 -2.4999974361
3.6385888290 3.0986787244 -2.4999974361
3.3552333191 3.6020807114 -2.4999974361
3.3153454473 3.6650785872 -2.4999974361
3.3052572233 3.6807539646 -2.4999974361
3.2747149477 3.7276000810 -2.4999974361
3.1267430660 3.9425480340 -2.4999974361
3.8406552023 2.7189292144 -2.4999974217
3.8111832067 2.7877326534 -2.4999974217
3.2111194335 3.8649448065 -2.4999974217
3.0348594652 4.1069301860 -2.4999974217
3.9400525786 2.5366323569 -2.4999974073
2.8170551559 4.4130417352 -2.4999974073
2.7354132105 4.5418274072 -2.4999973929
2.7227339424 4.5557834040 -2.4999973929
2.6844492104 4.5974254956 -2.4999973929
4.0809501116 2.2867001883 -2.4999973785
2.5350235211 4.8215068846 -2.4999973640
2.4943880340 4.8614726877 -2.4999973640
3.1626178663 -3.8110857503 -2.4999972776
2.9951208165 -4.0513989534 -2.4999972632
3.0205569191 -4.0218376154 -2.4999972632
3.0458176817 -3.9921263061 -2.4999972632
3.7756025563 -2.9345868466 -2.4999972632
3.8037491978 -2.8833061763 -2.4999972632
2.8432293555 -4.2563327934 -2.4999972488
2.8963617264 -4.1988430498 -2.4999972488
3.9246404336 -2.7040279602 -2.4999972488
3.3855599287 -3.6369042246 -2.4999972344
3.9195893381 -2.7674196128 -2.4999972344
4.0724821031 -2.4486741845 -2.4999972344
2.4276667023 -4.7602216632 -2.4999972056
4.2244522908 -2.2132977954 -2.4999972056
4.2533138284 -2.1396078052 -2.4999972056
1.8723635400 -5.3460110444 -2.4999971335
1.6109242053 -5.5741571113 -2.4999971047
-0.5035704780 -0.4307156116 -2.5000013756
-0.4800088397 -0.4361178780 -2.5000013785
-0.4003535708 -0.2494368689 -2.5000013843
-0.4610093284 -3.4394733653 -2.5000016321
-0.3004163434 -3.4423310374 -2.5000016407
-0.0759369421 -3.4306677510 -2.5000016522
-0.1665102813 3.4447607102 -2.5000016667
-0.0275005794 3.4521778714 -2.5000016753
0.0802539781 3.4460536053 -2.5000016811
0.0488209019 3.4644117401 -2.5000016811
3.4511433587 -1.4569471566 -2.5000018626
3.4630889228 -1.4084811962 -2.5000018626
3.4746039083 -1.3599111341 -2.5000018626
3.4526870802 1.2774336152 -2.5000018626
3.4486279199 1.2935697352 -2.5000018626
3.4445210439 1.3096937769 -2.5000018626
3.4579211881 -1.5275658729 -2.5000018655
3.4621597008 -1.5114019964 -2.5000018655
3.4663503792 -1.4952256523 -2.5000018655
3.4465971469 1.3964746939 -2.5000018655
3.4547479898 -1.6308592320 -2.5000018684
3.4637883547 -1.5985359773 -2.5000018684
3.4564880765 1.4513415097 -2.5000018684
3.4544722518 -1.7183515640 -2.5000018713
3.4780082798 -1.6374390641 -2.5000018713
3.4610957909 1.5226741757 -2.5000018713
3.4514786820 1.5549797941 -2.5000018713
3.4465984952 1.5711111250 -2.5000018713
3.4527975692 -1.8061720418 -2.5000018741
3.4678422432 -1.7576776492 -2.5000018741
3.4496433729 1.6427970619 -2.5000018741
3.4443430630 -1.9104237345 -2.5000018770
3.4655410649 -1.8458278497 -2.5000018770
3.4623143141 1.6824761121 -2.5000018770
3.4517517420 1.7147861429 -2.5000018770
3.4355499284 1.7631326039 -2.5000018770
3.4452127489 -1.9827079544 -2.5000018799
3.4563349359 -1.9504349555 -2.5000018799
3.4618243788 -1.9342739211 -2.5000018799
3.4417356696 1.8193188061 -2.5000018799
3.4360735630 1.8354201589 -2.5000018799
3.4531321711 1.8596249658 -2.5000018828
3.4473507816 1.8757598552 -2.5000018828
3.4415216875 1.8918775715 -2.5000018828
3.4560752197 -2.0958195016 -2.5000018857
3.4403499058 1.9646969798 -2.5000018857
3.4342577502 1.9807935971 -2.5000018857
3.4606411662 -2.1527447802 -2.5000018885
3.4455671546 -2.2583566936 -2.5000018914
3.4480157666 2.0788489375 -2.5000018914
3.4680228469 -2.2673052781 -2.5000018943
3.4439635847 -2.3895536554 -2.5000018972
3.4507520742 -2.3734272964 -2.5000018972
3.4328767481 2.2422552178 -2.5000018972
3.4411664283 2.2840306971 -2.5000019001
3.4348296587 2.4164831192 -2.5000019058
3.4274010622 2.4325614299 -2.5000019058
3.4455804554 -2.6809023205 -2.5000019116
3.4330988464 2.5336082848 -2.5000019116
3.4207865187 2.6675137246 -2.5000019174
3.4341371617 2.6945561478 -2.5000019202
3.4258859779 2.7106311933 -2.5000019202
3.4222376451 2.7699695332 -2.5000019231
3.4218354739 2.8730658676 -2.5000019289
3.4396981684 -3.0641432836 -2.5000019318
3.4484822347 -3.0480265909 -2.5000019318
3.4342430832 2.9007422398 -2.5000019318
3.4247445687 3.0650038831 -2.5000019404
3.4440437590 -3.3010942626 -2.5000019462
3.1745188116 -3.8442518563 -2.5000019548
3.1856117404 -3.8289161988 -2.5000019548
3.2076612588 -3.7981467749 -2.5000019548
3.2186176555 -3.7827132777 -2.5000019548
3.2295283491 -3.7672474371 -2.5000019548
3.3774265087 -3.5474059013 -2.5000019548
3.6891053161 -3.0064204000 -2.5000019548
2.9377857460 -4.1885214152 -2.5000019577
2.9859747200 -4.1297598713 -2.5000019577
3.0098076246 -4.1001663018 -2.5000019577
3.1263231394 -3.9501120599 -2.5000019577
3.2383494425 -3.7966772264 -2.5000019577
3.7363985932 -2.9666213736 -2.5000019577
3.7533368462 -2.9326084013 -2.5000019577
3.7866081804 -2.8642847994 -2.5000019577
3.8190687488 -2.7955722986 -2.5000019577
3.8349935712 -2.7610732155 -2.5000019577
3.8584974070 -2.7091494451 -2.5000019577
2.7688682531 -4.4199447412 -2.5000019606
2.8071356257 -4.3774169109 -2.5000019606
2.8825306342 -4.2913508460 -2.5000019606
2.9319402020 -4.2332359075 -2.5000019606
2.9563862513 -4.2039602133 -2.5000019606
3.9263557560 -2.6141638479 -2.5000019606
3.9630895776 -2.5261740213 -2.5000019606
3.4220237163 3.3940782056 -2.5000019606
2.7609485618 -4.4644615251 -2.5000019635
4.0210262198 -2.4464660843 -2.5000019635
4.0279805416 -2.4286324207 -2.5000019635
4.0552693712 -2.3570943883 -2.5000019635
4.0619591656 -2.3391598183 -2.5000019635
4.1364156453 -2.2028629860 -2.5000019663
3.7160116461 2.9897628082 -2.5000019663
3.6977102867 3.0235509178 -2.5000019663
3.3017777581 3.6592274441 -2.5000019663
3.1538363366 3.8604516232 -2.5000019663
3.1303935288 3.8908984765 -2.5000019663
2.5134782524 -4.7866946350 -2.5000019692
3.8347238317 2.8127865502 -2.5000019692
3.2079883151 3.8290422671 -2.5000019692
3.1257927547 3.9361228045 -2.5000019692
2.4173296430 -4.9100980187 -2.5000019721
2.9857698644 4.1460131790 -2.5000019721
2.8454207645 4.3061135536 -2.5000019721
2.8324048783 4.3204400183 -2.5000019721
2.8062462502 4.3489771245 -2.5000019721
4.0629994925 2.4276318208 -2.5000019750
2.8763578361 4.3079240476 -2.5000019750
2.8108261546 4.3796268352 -2.5000019750
2.7307990008 4.4643790666 -2.5000019750
4.2827955031 -2.0677097168 -2.5000019779
4.3889325036 -1.6925060053 -2.5000019779
4.1503513815 2.2738888696 -2.5000019779
2.6249452950 4.6060203053 -2.5000019779
2.5409293477 4.6874378305 -2.5000019779
4.1937034508 2.2276349721 -2.5000019808
1.8893943248 -5.4653215585 -2.5000019836
4.4850405226 -1.4939101189 -2.5000019836
4.3071843829 1.9765567380 -2.5000019836
4.2886258164 2.0324843757 -2.5000019836
2.3267314272 4.9465174276 -2.5000019836
2.1758493687 5.1035794968 -2.5000019865
1.5574715313 -5.8617471003 -2.5000020009
-0.5139060596 3.4571995216 -2.5000021816
-0.2915322373 3.4462888509 -2.5000021989
-0.0675067911 3.4500031575 -2.5000022219
3.4537469423 -1.7758505054 -2.5000025216
3.4630705010 0.8709598557 -2.5000025216
3.4552587973 0.9030133155 -2.5000025216
3.4481258350 -1.8939334187 -2.5000025274
3.4540498871 1.0050972627 -2.5000025274
3.4537254843 -1.9643856176 -2.5000025331
3.4584116344 -2.0351739081 -2.5000025389
3.4541056762 1.2654925635 -2.5000025446
3.4545998859 -2.2097687352 -2.5000025504
3.4505879871 -2.2975135103 -2.5000025562
3.4560788121 -2.2815040654 -2.5000025562
3.4509109646 -2.3695327347 -2.5000025619
3.4736701037 -2.3776787074 -2.5000025677
3.4588018716 -2.5551316775 -2.5000025792
3.4422046728 1.7303023956 -2.5000025792
3.4435233653 2.0916956488 -2.5000026138
3.4392463295 2.2670535158 -2.5000026311
3.4379040186 2.4279991306 -2.5000026484
3.2399389114 -3.7764175603 -2.5000026657
3.3175908475 -3.6524675578 -2.5000026657
3.2701758961 -3.7740395134 -2.5000026714
2.9272785226 -4.2971637901 -2.5000026772
3.8679149944 -2.6362087859 -2.5000026772
3.8744059153 -2.6189633303 -2.5000026772
3.6723231986 3.0854268724 -2.5000027752
3.2052250953 3.7408514554 -2.5000027752
2.9804961362 4.0405697521 -2.5000027809
3.9871219834 2.6296341304 -2.5000027867
2.9043766392 4.1584740864 -2.5000027867
2.5973523918 4.4962140525 -2.5000027925
-0.4896474517 -0.4769341555 -2.5000009537
-1.1756884752 3.4254849529 -2.5000009537
-1.1880932242 3.4274719077 -2.5000009537
-1.0102328567 3.4200199064 -2.5000009537
-1.0226221631 3.4224963327 -2.5000009537
-0.8936719101 3.4196476579 -2.5000009537
-0.9432760861 3.4307125438 -2.5000009537
-0.9805632391 3.4386256024 -2.5000009537
-0.7889153701 3.4191882258 -2.5000009537
-0.8013031846 3.4223193530 -2.5000009537
-0.6836463393 3.4161024868 -2.5000009537
-0.7084147626 3.4229509429 -2.5000009537
-0.7456422843 3.4329485696 -2.5000009537
-0.8203561610 3.4519507605 -2.5000009537
-0.6026670891 3.4178400172 -2.5000009537
-0.5513224542 3.4527703092 -2.5000009537
-0.3944404380 3.4267246859 -2.5000009537
-0.4690991703 3.4519610504 -2.5000009537
-0.5370656310 3.4989664575 -2.5000009537
-0.2538112621 3.4269036287 -2.5000009537
-0.2910917634 3.4409354508 -2.5000009537
-0.2327300230 3.4447129027 -2.5000009537
-0.0901790596 3.4395164694 -2.5000009537
-0.0309215729 3.4405379144 -2.5000009537
0.1484248700 3.4386786043 -2.5000009537
0.1235083161 3.4504494781 -2.5000009537
0.1962513558 3.4424795300 -2.5000009537
0.2925717617 3.4485196277 -2.5000009537
2.3072098321 1.5832597068 -2.5000009537
0.4395135012 3.4256138368 -2.5000009537
2.2928646652 1.6567405628 -2.5000009537
-0.3560406071 3.7964798449 -2.5000009537
0.5375101236 3.4262530761 -2.5000009537
-0.2865326585 3.8241951654 -2.5000009537
0.7108473063 3.4362381670 -2.5000009537
0.6358456317 3.4810898779 -2.5000009537
0.7985205805 3.4387436975 -2.5000009537
0.8363708064 3.4433497949 -2.5000009537
3.4448110083 -2.1646123923 -2.5000009537
3.4585289545 0.5777703765 -2.5000009537
3.4422465103 0.6405314736 -2.5000009537
3.4338270871 0.6718386746 -2.5000009537
3.4468381460 -2.2493356197 -2.5000009537
3.4485095790 0.7095802135 -2.5000009537
3.4441187345 0.7252582658 -2.5000009537
3.4237487505 -2.4126567802 -2.5000009537
3.4381462548 -2.3657587223 -2.5000009537
3.4428528645 -2.3500978707 -2.5000009537
3.4538768323 0.7789733158 -2.5000009537
3.4399492236 0.8260130616 -2.5000009537
3.4535385821 0.8644057366 -2.5000009537
3.4238214298 -2.5681754859 -2.5000009537
3.4291268875 -2.5525561241 -2.5000009537
3.4498859791 -2.4899237842 -2.5000009537
3.4618949958 0.9187462024 -2.5000009537
3.4518292171 0.9501647812 -2.5000009537
3.4467266654 0.9658516008 -2.5000009537
3.4573090420 -2.5445941277 -2.5000009537
3.4697030857 0.9733628853 -2.5000009537
3.4487390249 1.0362285060 -2.5000009537
3.4250911074 -2.7092467423 -2.5000009537
3.4716249596 1.0440111324 -2.5000009537
3.4553445900 1.0911979461 -2.5000009537
3.4592253354 -2.6861956861 -2.5000009537
3.4557071379 1.1621402510 -2.5000009537
3.4287576780 -2.8357604835 -2.5000009537
3.4348546789 -2.8201253486 -2.5000009537
3.4668721132 1.2019070644 -2.5000009537
3.4551309725 1.2333501337 -2.5000009537
3.4263103186 -2.9071999033 -2.5000009537
3.4450965149 -2.8602596385 -2.5000009537
3.4319672493 -3.0195259753 -2.5000009537
3.4798942560 1.3698112146 -2.5000009537
3.4288794639 -3.2623748645 -2.5000009537
3.4821098903 1.6126696267 -2.5000009537
3.4507362917 -3.2727002876 -2.5000009537
3.4270972391 -3.3771590992 -2.5000009537
3.4347958023 -3.3615265073 -2.5000009537
3.4754323579 1.7432405479 -2.5000009537
3.1225332464 -4.0086873357 -2.5000009537
3.3314165654 -3.6628824477 -2.5000009537
3.3399607686 -3.6475316463 -2.5000009537
3.4656167330 1.8745464051 -2.5000009537
2.9831871549 -4.2546312128 -2.5000009537
3.1997706372 -3.9326933837 -2.5000009537
3.6988565500 -2.9415474392 -2.5000009537
3.7783604911 -2.7264658101 -2.5000009537
3.4714825726 1.9168494983 -2.5000009537
2.9610183142 -4.3259873392 -2.5000009537
3.0438902122 -4.2110618071 -2.5000009537
3.8515636139 -2.5831795242 -2.5000009537
2.7720800385 -4.6062699270 -2.5000009537
2.5789360196 -4.8634224215 -2.5000009537
4.0997187573 -2.0210877038 -2.5000009537
4.1034028730 -2.0034713092 -2.5000009537
3.7265735100 3.0502623842 -2.5000009537
3.7152572877 3.0667527584 -2.5000009537
3.7038923333 3.0832095849 -2.5000009537
3.2369345607 3.6823151647 -2.5000009537
3.8025714566 2.9806638311 -2.5000009537
3.1750832795 3.7881900271 -2.5000009537
3.1208335015 3.8473725145 -2.5000009537
3.0102522079 3.9637911382 -2.5000009537
4.0351700238 2.6518003480 -2.5000009537
2.9710639889 4.0380689134 -2.5000009537
2.8850249045 4.1229405597 -2.5000009537
2.8414438630 4.1648003830 -2.5000009537
4.1836106539 2.4341925825 -2.5000009537
3.9626509615 2.8200389486 -2.5000009537
2.7096652095 4.3195028594 -2.5000009537
2.5728647028 4.5022895559 -2.5000009537
4.5085336437 1.9806395668 -2.5000009537
2.1099197032 4.9766708725 -2.5000009537
-0.4445015711 3.4355097891 -2.5000009537
-0.9039131483 3.5379881570 -2.5000009537
-0.3444086202 3.4318673198 -2.5000009537
-0.4783624834 3.4697601225 -2.5000009537
-0.2572618148 3.4302694560 -2.5000009537
-0.3106955703 3.4469332385 -2.5000009537
-0.3643227587 3.4629636014 -2.5000009537
-0.1486236885 3.4453449816 -2.5000009537
-0.0521750648 3.4627061340 -2.5000009537
0.0769113380 3.4399461321 -2.5000009537
0.2916323645 3.4291970366 -2.5000009537
0.3414810020 3.4334504676 -2.5000009537
0.3281290774 3.4394468458 -2.5000009537
0.2879676918 3.4571986306 -2.5000009537
-0.5437207197 3.7355904346 -2.5000009537
0.4049055136 3.4309882989 -2.5000009537
0.4016916612 3.4591199008 -2.5000009537
-0.4321226017 3.7575607000 -2.5000009537
-0.5037669499 3.7756694865 -2.5000009537
0.5698454196 3.4318066649 -2.5000009537
3.4303038183 -2.4771869493 -2.5000009537
3.4581955321 -2.3708203403 -2.5000009537
3.4440562084 0.2716608232 -2.5000009537
3.4400438542 0.2868490142 -2.5000009537
3.4278489534 -2.5746682611 -2.5000009537
3.4494385012 -2.4987763602 -2.5000009537
3.4577596236 -2.4683315832 -2.5000009537
3.4339303903 0.3995158053 -2.5000009537
3.4437926224 0.4518465032 -2.5000009537
3.4466171459 -2.6796980817 -2.5000009537
3.4436807973 0.5348820389 -2.5000009537
3.4521716540 0.5878402408 -2.5000009537
3.4371936569 0.6334284431 -2.5000009537
3.4321161290 -2.8770928436 -2.5000009537
3.4426758019 -2.8467439304 -2.5000009537
3.4651853740 0.6258263696 -2.5000009537
3.4341491654 0.7170930444 -2.5000009537
3.4288191855 0.7322499796 -2.5000009537
3.4495521320 -2.9003223799 -2.5000009537
3.4297469722 0.8010400485 -2.5000009537
3.4241686812 0.8161835939 -2.5000009537
3.4390195341 -2.9997743726 -2.5000009537
3.4354984531 0.8549439157 -2.5000009537
3.4239780841 0.8852475230 -2.5000009537
3.4501401254 -3.0387144776 -2.5000009537
3.4559204334 -3.0234938050 -2.5000009537
3.4406948128 0.9090971111 -2.5000009537
3.4369441832 -3.1386883783 -2.5000009537
3.4208271584 1.0241412944 -2.5000009537
3.4465308949 1.0882070685 -2.5000009537
3.4271126450 1.1337255085 -2.5000009537
3.4205502217 1.1488598055 -2.5000009537
3.4467894605 -3.3033259583 -2.5000009537
3.4226718191 1.2039909868 -2.5000009537
3.4421538972 -3.3738481531 -2.5000009537
3.2313240435 -3.8462309130 -2.5000009537
3.2796955445 -3.7584104513 -2.5000009537
3.2954720560 -3.7289478849 -2.5000009537
3.3568268059 -3.6101797458 -2.5000009537
3.3791076357 -3.5652723632 -2.5000009537
3.4009890603 -3.5201690192 -2.5000009537
3.0702067906 -4.1596888568 -2.5000009537
3.1241669772 -4.0746785597 -2.5000009537
3.1852016911 -3.9743082802 -2.5000009537
3.2022571804 -3.9454009926 -2.5000009537
3.2605983552 -3.8434415074 -2.5000009537
3.7083378904 -2.8140542939 -2.5000009537
2.9968434211 -4.3129311488 -2.5000009537
3.0348030054 -4.2572212105 -2.5000009537
3.0904997901 -4.1728239037 -2.5000009537
3.0996365725 -4.1586621500 -2.5000009537
3.7989205677 -2.5954082581 -2.5000009537
3.4253467246 1.4265781386 -2.5000009537
3.8883842278 -2.4438293549 -2.5000009537
3.9002934202 -2.3942506277 -2.5000009537
3.9041653180 -2.3777011400 -2.5000009537
3.4504936420 1.5915113840 -2.5000009537
3.4398804055 1.6635627441 -2.5000009537
3.4798479688 2.2623392850 -2.5000009537
3.3038438706 3.5848294030 -2.5000009537
3.2062436984 3.6872779296 -2.5000009537
3.1921283716 3.7017476834 -2.5000009537
3.1352408815 3.7592072479 -2.5000009537
3.7536298169 3.0903802639 -2.5000009537
3.7412778263 3.1064718965 -2.5000009537
3.0800043505 3.8474377660 -2.5000009537
3.0214008369 3.9035604278 -2.5000009537
2.9621373566 3.9589857367 -2.5000009537
2.9472193370 3.9727321910 -2.5000009537
2.9322607183 3.9864344549 -2.5000009537
3.9529611170 2.8585336628 -2.5000009537
2.8423531503 4.0992858568 -2.5000009537
2.7807862902 4.1525788884 -2.5000009537
4.1641601155 2.5825956943 -2.5000009537
4.0982847180 2.6859596847 -2.5000009537
3.9960579895 2.8387728789 -2.5000009537
3.8290525372 3.0709263633 -2.5000009537
3.6971565511 3.2794644138 -2.5000009537
4.3628284555 2.3429906625 -2.5000009537
2.7334156281 4.2870814560 -2.5000009537
4.4730838596 2.1919133880 -2.5000009537
4.4536353706 2.2283322998 -2.5000009537
2.3697931156 4.6268907251 -2.5000009537
4.7041169020 1.8896617040 -2.5000009537
3.4525068664 -2.6245160432 -2.5000011921
3.4576598431 -0.1048554415 -2.5000011921
3.4539412883 -0.0902559023 -2.5000011921
3.4463746961 -0.0610901437 -2.5000011921
0.2367372215 3.4403944264 -2.5000011921
0.2225452693 3.4454503819 -2.5000011921
0.1798805440 3.4603660466 -2.5000011921
0.1370851307 3.4749024983 -2.5000011921
3.4443356027 -2.7474476994 -2.5000011921
3.4524900177 -2.7182922660 -2.5000011921
3.4565025043 -2.7036965852 -2.5000011921
3.4604717967 -2.6890890986 -2.5000011921
3.4376153805 0.0618010115 -2.5000011921
1.6826823955 2.6684391576 -2.5000011921
3.4566125525 0.0831002867 -2.5000011921
3.4523379952 0.0976959054 -2.5000011921
3.4480202801 0.1122788153 -2.5000011921
3.4470951633 -2.9070031361 -2.5000011921
3.4606779212 -2.8632212493 -2.5000011921
3.4396115440 0.2213678248 -2.5000011921
0.4610352913 3.4324330509 -2.5000011921
0.4042571143 3.4550592274 -2.5000011921
3.4483861678 0.2725393019 -2.5000011921
0.5127208219 3.4373442651 -2.5000011921
0.4985366850 3.4432166434 -2.5000011921
3.4497311319 -3.0533537587 -2.5000011921
3.4596952954 -3.0241610497 -2.5000011921
3.4466207054 0.3531645044 -2.5000011921
3.4312713230 0.3968137998 -2.5000011921
0.5646456211 3.4417133741 -2.5000011921
3.4468015694 -3.1342864540 -2.5000011921
3.4520446669 -3.1197057805 -2.5000011921
3.4572446092 -3.1051096607 -2.5000011921
0.6451666178 3.4330500840 -2.5000011921
3.4588720308 -3.1717486159 -2.5000011921
3.4391448129 0.5152996910 -2.5000011921
3.4279958094 0.5443673104 -2.5000011921
3.4540154254 -3.2532725426 -2.5000011921
3.4596104738 -3.2386700086 -2.5000011921
3.4334161378 0.5967669820 -2.5000011921
0.7075727021 3.4580206274 -2.5000011921
3.4594534962 -3.3058620938 -2.5000011921
0.8030334191 3.4402722304 -2.5000011921
3.3166558220 -3.6901711269 -2.5000011921
3.3303899400 -3.6617545907 -2.5000011921
3.3439556958 -3.6332572962 -2.5000011921
3.3705802276 -3.5760244250 -2.5000011921
3.4583948101 -3.3733130140 -2.5000011921
3.3521852847 -3.6722091701 -2.5000011921
3.3925576891 -3.5860905300 -2.5000011921
3.4401263508 0.7699764666 -2.5000011921
3.4274705768 0.7990454359 -2.5000011921
0.9093256339 3.4422828660 -2.5000011921
3.4302128702 0.8524181769 -2.5000011921
0.9769483550 3.4351906929 -2.5000011921
3.4271381438 0.9743352907 -2.5000011921
3.4202272811 0.9888398192 -2.5000011921
1.0843935763 3.4334590783 -2.5000011921
1.0702184313 3.4410225850 -2.5000011921
