35.7261390598 -25.9628586333 -2.5000266365
35.7909446415 -25.9824394966 -2.5000266365
39.3753642945 -25.8960697109 -2.5000266422
39.4476471953 -25.8950965460 -2.5000266480
35.4203377195 -25.9619778304 -2.5000266595
35.0848590060 -25.9593477669 -2.5000266883
35.0008962009 -25.9756616702 -2.5000266998
34.7334976467 -25.9578885870 -2.5000267229
34.7066401191 -25.9716073891 -2.5000267287
40.3934108653 -25.8830663901 -2.5000267402
40.4370569675 -25.8864236226 -2.5000267460
33.8262157391 -25.7940086313 -2.5000267978
34.4096907392 -26.1452803287 -2.5000267978
33.4444839511 -25.5452084048 -2.5000268036
33.2667610401 -25.4319207409 -2.5000268094
33.4445561436 -25.5759758566 -2.5000268094
34.9914843202 -26.4702625278 -2.5000268094
40.7280805872 -26.0531449313 -2.5000268151
41.2075687595 -25.7374918016 -2.5000268151
41.2846787426 -25.6808001446 -2.5000268151
41.3457577457 -25.6346295298 -2.5000268151
33.0191813151 -25.2787297202 -2.5000268209
35.2971325332 -26.6363985921 -2.5000268209
41.6439660701 -25.4239482828 -2.5000268209
32.9438862356 -25.2748559228 -2.5000268324
45.0323402715 -24.3749052273 -2.5000273108
37.4996155079 -21.7903881929 -2.4999997739
37.5687991981 -22.5757863779 -2.4999989440
40.9485190347 -21.8664129463 -2.4999967914
40.9594145801 -21.9088215626 -2.4999967654
40.9511969209 -22.1970004951 -2.4999966617
40.9373629442 -22.5121020963 -2.4999965320
40.9658087501 -22.6145341640 -2.4999964542
38.5050791937 -25.9540590135 -2.4999951834
38.5370769636 -25.9454539653 -2.4999951834
38.5530566171 -25.9410804875 -2.4999951834
35.5516135689 -25.9582307766 -2.4999951575
38.3660668840 -26.0139520735 -2.4999951575
38.5755079007 -25.9599467665 -2.4999951575
38.6075392719 -25.9509249353 -2.4999951575
35.4008238793 -25.9390785135 -2.4999951315
35.4327873492 -25.9488395444 -2.4999951315
35.3296717037 -25.9420020838 -2.4999951056
38.8134421660 -25.9388262226 -2.4999951056
38.8294010042 -25.9336352356 -2.4999951056
35.2422442876 -25.9386210945 -2.4999950797
38.9327430471 -25.9243395274 -2.4999950797
38.9486585091 -25.9187956902 -2.4999950797
35.1864753167 -25.9450486243 -2.4999950537
38.9566438696 -25.9416116780 -2.4999950537
39.0446298875 -25.9357624113 -2.4999950278
39.0765099655 -25.9239655202 -2.4999950278
35.0421708952 -25.9443170807 -2.4999950019
39.1646900209 -25.9161681396 -2.4999950019
35.0016254750 -25.9548306747 -2.4999949759
34.8968576514 -25.9397569373 -2.4999949500
39.2781281296 -25.9228022078 -2.4999949500
39.3511005100 -25.9185064326 -2.4999949241
39.4242795435 -25.9132341138 -2.4999948981
34.6931555083 -25.9326787627 -2.4999948722
34.7091141892 -25.9396763557 -2.4999948722
39.4817693901 -25.9141476873 -2.4999948722
34.6354687079 -25.9334397792 -2.4999948462
34.6514298925 -25.9406080169 -2.4999948462
39.4916803082 -25.9361955667 -2.4999948462
39.5814416818 -25.9216369925 -2.4999948203
39.5973463109 -25.9141741992 -2.4999948203
39.6395188603 -25.9209148108 -2.4999947944
39.7136785049 -25.9117769018 -2.4999947684
34.4187399229 -25.9382958388 -2.4999947425
34.4347164209 -25.9461051781 -2.4999947425
34.3601102233 -25.9361910791 -2.4999947166
39.7829914401 -25.9312474934 -2.4999947166
39.7989236168 -25.9231884374 -2.4999947166
34.2742769700 -25.9467416970 -2.4999946647
34.2311246296 -25.9515371227 -2.4999946388
39.9598584803 -25.9208944426 -2.4999946388
33.7389577840 -25.7497998153 -2.4999945610
33.7698305030 -25.7693963169 -2.4999945610
33.8163556161 -25.7984477384 -2.4999945610
34.4928827936 -26.1607137270 -2.4999945610
33.6796723849 -25.7403174778 -2.4999945350
33.7104900408 -25.7602648976 -2.4999945350
34.6339057105 -26.2494745677 -2.4999945350
34.6508017900 -26.2566460462 -2.4999945350
34.6846572227 -26.2708389017 -2.4999945350
33.6664773281 -25.7605715084 -2.4999945091
34.8982818536 -26.3808436927 -2.4999945091
35.3988643612 -26.6433140360 -2.4999944054
35.5561405693 -26.7090276655 -2.4999943794
32.1027312487 -24.5783648708 -2.4999943275
40.6883286024 -25.9036832524 -2.4999942497
40.7494799600 -25.8912427595 -2.4999942238
40.5520321779 -26.1930584926 -2.4999940682
40.5687354741 -26.1827233295 -2.4999940682
40.6683065805 -26.1196788572 -2.4999940682
41.1018914199 -25.8145320931 -2.4999940682
41.2255403978 -25.7175681788 -2.4999940682
41.2864957491 -25.6679957184 -2.4999940682
41.3468602688 -25.6177054763 -2.4999940682
41.3618580890 -25.6050215854 -2.4999940682
41.4510511156 -25.5279916254 -2.4999940682
40.2232074916 -26.4105480574 -2.4999940423
40.2751683417 -26.3823041307 -2.4999940423
40.3268764967 -26.3536001928 -2.4999940423
40.3612062019 -26.3342097872 -2.4999940423
40.4295184518 -26.2948213619 -2.4999940423
41.5986815287 -25.4272314682 -2.4999940423
40.1296144021 -26.4871361663 -2.4999940163
40.1997523608 -26.4504773370 -2.4999940163
40.2346574486 -26.4318373450 -2.4999940163
39.9807453862 -26.5883434107 -2.4999939904
41.9826997724 -25.1119349908 -2.4999939904
42.0230668737 -25.0681276946 -2.4999939904
39.8104632052 -26.6939671245 -2.4999939645
39.8468156736 -26.6776260365 -2.4999939645
41.7248413153 -25.4746990934 -2.4999939126
42.1834852928 -24.9971987896 -2.4999939126
42.3760987934 -24.7658385749 -2.4999939126
42.7450433003 -24.3860438698 -2.4999938348
37.3355552478 -22.2453478986 -2.4999967457
37.3906079052 -22.3018010852 -2.4999965469
40.9461987127 -21.4820806699 -2.4999896540
40.9625983633 -21.3946660436 -2.4999896540
40.9403265381 -21.6241801702 -2.4999895877
40.9432005000 -21.6117301803 -2.4999895877
40.9570171892 -21.5493557040 -2.4999895877
40.9596697338 -21.5368566675 -2.4999895877
40.9748075050 -21.4617026492 -2.4999895877
40.9394210927 -21.7294905249 -2.4999895214
40.9457552419 -21.7045856117 -2.4999895214
40.9519419343 -21.6796436594 -2.4999895214
40.9428349545 -21.8104164387 -2.4999894551
40.9660337864 -21.7230010703 -2.4999894551
40.9488906031 -21.9611541649 -2.4999893226
40.9603920562 -21.9236896918 -2.4999893226
40.9495461872 -22.1135030704 -2.4999891900
40.9538676144 -22.1010236662 -2.4999891900
40.9447053353 -22.3973697511 -2.4999889249
40.9459020426 -22.4566239575 -2.4999888586
40.9580897771 -22.7193418309 -2.4999885272
35.3353767937 -25.9448082111 -2.4999864064
38.2498731603 -25.9119680411 -2.4999864064
35.2193205162 -25.9379718419 -2.4999863401
38.2878277241 -25.9260907327 -2.4999863401
38.3034391213 -25.9214684913 -2.4999863401
35.1812544413 -25.9521241293 -2.4999862738
38.4041212301 -25.9158092810 -2.4999862738
38.4427106914 -25.9288293286 -2.4999862075
38.4583295122 -25.9237489034 -2.4999862075
34.9943843569 -25.9447627522 -2.4999861412
38.5128097263 -25.9311395820 -2.4999861412
34.9083339853 -25.9413207229 -2.4999860750
34.9240052222 -25.9466955685 -2.4999860750
38.6935071469 -25.9442002344 -2.4999859424
38.7091703402 -25.9383778407 -2.4999859424
38.7404447133 -25.9265941773 -2.4999859424
34.6397295474 -25.9450933935 -2.4999858099
38.8674564624 -25.9287238425 -2.4999858099
34.5994025052 -25.9550446405 -2.4999857436
39.2226282930 -25.9316944142 -2.4999854122
39.2642840526 -25.9386802368 -2.4999853459
39.2799284194 -25.9311694059 -2.4999853459
33.6699500178 -25.7344488669 -2.4999851471
33.6850147088 -25.7434879815 -2.4999851471
33.7912069904 -25.8055085016 -2.4999851471
33.8371067912 -25.8314130699 -2.4999851471
33.8524575886 -25.8399572803 -2.4999851471
33.8832346731 -25.8569092832 -2.4999851471
33.5822584615 -25.7091099517 -2.4999850808
33.2168689869 -25.4924099911 -2.4999850145
33.0462442954 -25.3945391874 -2.4999849482
35.0968036283 -26.4308927297 -2.4999849482
32.5031496927 -24.9856184595 -2.4999848157
32.4734073027 -24.9903458915 -2.4999847494
33.3820307690 -25.7243167124 -2.4999847494
39.7998286671 -25.9289106864 -2.4999846831
35.7863738869 -26.7296865436 -2.4999845506
40.0497304272 -25.9190503372 -2.4999843517
40.4673013892 -26.2824197852 -2.4999828936
41.1823044475 -25.7369344885 -2.4999828936
41.3162396616 -25.6166905537 -2.4999828936
41.3309225465 -25.6031110759 -2.4999828936
41.3601674838 -25.5758221138 -2.4999828936
41.3747292802 -25.5621128684 -2.4999828936
41.4037308916 -25.5345654484 -2.4999828936
41.4181704528 -25.5207275151 -2.4999828936
41.5634757952 -25.4112570933 -2.4999828273
41.5915815898 -25.3825956258 -2.4999828273
41.6334211082 -25.3392928991 -2.4999828273
40.2039139206 -26.5045987070 -2.4999827611
40.2212282653 -26.4943058049 -2.4999827611
39.9341814241 -26.6836100000 -2.4999826948
41.5694179686 -25.4739063484 -2.4999826948
41.8464010179 -25.1794928148 -2.4999826948
41.8731306655 -25.1491615230 -2.4999826948
41.8864280784 -25.1339367065 -2.4999826948
39.9455052717 -26.7049666327 -2.4999826285
41.8103030639 -25.2559270259 -2.4999826285
39.6471296496 -26.8806866997 -2.4999825622
39.9748004464 -26.7167603146 -2.4999825622
42.0928025088 -24.9628135563 -2.4999825622
42.3780300711 -24.6663915026 -2.4999824297
37.4226847996 -21.8479269470 -2.4999996442
37.2599923626 -22.2695175850 -2.4999993848
37.3698349939 -22.2008765501 -2.4999993848
37.3568763047 -22.3527339680 -2.4999992552
37.4824774627 -22.2992083384 -2.4999992292
40.9533031011 -22.2500742881 -2.4999960911
40.9781880272 -22.1694407214 -2.4999960911
40.9720287353 -22.2708709975 -2.4999960652
40.9763369884 -22.2574074536 -2.4999960652
40.9495462298 -22.4128615349 -2.4999960392
40.9682216865 -22.3591878004 -2.4999960392
40.9578340928 -22.4612503078 -2.4999960133
40.9503332654 -22.5501589761 -2.4999959874
40.9605626665 -22.5233426723 -2.4999959874
40.9706332342 -22.4964663173 -2.4999959874
40.9571741789 -22.5991509583 -2.4999959614
40.9780533647 -22.5453739249 -2.4999959614
40.9580355107 -22.6618247463 -2.4999959355
40.9693077065 -22.6979034666 -2.4999959096
40.9513199001 -22.8013752741 -2.4999958836
40.9571975715 -22.7879706696 -2.4999958836
40.9630355639 -22.7745487364 -2.4999958836
40.9582556557 -23.0163385520 -2.4999957799
40.9682421564 -23.1049839211 -2.4999957280
40.9551786472 -23.1831815430 -2.4999957021
35.0987248006 -25.9504455130 -2.4999954946
35.1749320035 -25.9694680665 -2.4999954946
40.9724683437 -23.5467585164 -2.4999954946
35.0164340731 -25.9536156561 -2.4999954687
35.0469033200 -25.9618467266 -2.4999954687
35.2306928117 -26.0074348905 -2.4999954687
37.9298123476 -25.9251029570 -2.4999954687
37.9902576762 -25.9069142384 -2.4999954687
38.0053350494 -25.9022554033 -2.4999954687
34.9033317290 -25.9465711828 -2.4999954427
34.9185399213 -25.9510438595 -2.4999954427
34.9489956658 -25.9598541497 -2.4999954427
34.9642429517 -25.9641916860 -2.4999954427
34.9795030020 -25.9684840992 -2.4999954427
37.9822004636 -25.9346554890 -2.4999954427
38.0276374137 -25.9206156922 -2.4999954427
38.0729479793 -25.9061732208 -2.4999954427
40.9556736538 -23.6661618925 -2.4999954427
34.8202961275 -25.9466109305 -2.4999954168
38.1106622148 -25.9192758760 -2.4999954168
40.9590533722 -23.7059440573 -2.4999954168
34.7521336924 -25.9502785111 -2.4999953909
38.0878344416 -25.9521703335 -2.4999953909
38.2091019042 -25.9113320533 -2.4999953909
38.2241913885 -25.9060258181 -2.4999953909
38.2927123311 -25.9070505883 -2.4999953649
38.3077887843 -25.9014970370 -2.4999953649
34.6148901445 -25.9549165306 -2.4999953390
34.6453741155 -25.9655232470 -2.4999953390
38.3615085621 -25.9071644570 -2.4999953390
34.5458325827 -25.9558734954 -2.4999953131
38.4305680813 -25.9063610672 -2.4999953131
34.4765003903 -25.9559137030 -2.4999952871
34.4917380870 -25.9616489831 -2.4999952871
34.4221410203 -25.9609719599 -2.4999952612
34.3370604800 -25.9532185991 -2.4999952353
38.6241360022 -25.9049200914 -2.4999952353
34.3127008271 -25.9694011623 -2.4999952093
38.6941395714 -25.9005943236 -2.4999952093
34.2423618885 -25.9663365113 -2.4999951834
38.7191060948 -25.9159011823 -2.4999951834
38.8197053588 -25.8962116374 -2.4999951575
38.8347474425 -25.8890991929 -2.4999951575
40.9656088731 -24.1245098715 -2.4999951575
33.9197308822 -25.8717174203 -2.4999951315
33.9347219471 -25.8791000937 -2.4999951315
38.8903052452 -25.8892404029 -2.4999951315
33.4395770372 -25.6330049968 -2.4999951056
33.4825158906 -25.6592903132 -2.4999951056
33.6272987671 -25.7441370687 -2.4999951056
33.6565529805 -25.7605903964 -2.4999951056
33.9542502338 -25.9154965514 -2.4999951056
34.6699712455 -26.2031695972 -2.4999951056
34.7019230009 -26.2134460905 -2.4999951056
34.7179215386 -26.2185134030 -2.4999951056
33.4412128475 -25.6624072129 -2.4999950797
34.7589460068 -26.2565501168 -2.4999950797
34.8397177815 -26.2805646471 -2.4999950797
34.8721244612 -26.2898355084 -2.4999950797
39.0019896566 -25.8877566140 -2.4999950797
33.3997704427 -25.6652044862 -2.4999950537
33.4429966161 -25.6918417958 -2.4999950537
32.9666145673 -25.3974616662 -2.4999950278
33.2016992088 -25.5653996649 -2.4999950278
35.1720085383 -26.4154813496 -2.4999950278
34.8852589390 -26.3688108629 -2.4999950019
35.3170994957 -26.4705183602 -2.4999950019
39.1257156018 -25.9052522907 -2.4999950019
39.1407830905 -25.8972345730 -2.4999950019
39.2659747283 -25.9115482841 -2.4999949241
39.6927001419 -25.9383605828 -2.4999946647
40.4608447454 -25.9257118116 -2.4999941979
40.4949665531 -26.2952629457 -2.4999938607
40.5111817728 -26.2831930296 -2.4999938607
40.5435047428 -26.2589095593 -2.4999938607
40.5596122103 -26.2466962175 -2.4999938607
41.2161702299 -25.6779736682 -2.4999938607
41.2592019236 -25.6352443117 -2.4999938607
40.6545203975 -26.2039395259 -2.4999938348
40.7180743039 -26.1534912756 -2.4999938348
41.1603131254 -25.7658126262 -2.4999938348
41.4035552740 -25.5214044834 -2.4999938348
41.4589806717 -25.4621410861 -2.4999938348
40.2407947460 -26.5332432796 -2.4999938089
41.5588350955 -25.3881159908 -2.4999938089
41.6126724912 -25.3270245815 -2.4999938089
41.7051350012 -25.2185972504 -2.4999938089
40.2201457788 -26.5759217186 -2.4999937829
40.2711854798 -26.5419961603 -2.4999937829
41.8269469792 -25.1074176111 -2.4999937829
41.9024069377 -25.0108283923 -2.4999937829
41.9090861991 -25.0417883462 -2.4999937570
41.9711090685 -24.9601824143 -2.4999937570
39.6736535994 -26.9827282737 -2.4999937051
39.7646282406 -26.9339729469 -2.4999937051
41.9410871385 -25.1188181632 -2.4999936792
39.4359359995 -27.1556994488 -2.4999936532
39.5481258423 -27.1012236936 -2.4999936532
39.1213793788 -27.3741386970 -2.4999935754
39.5449453397 -27.2374359271 -2.4999935236
37.4402048435 -21.8531721286 -2.5000043119
37.3330797565 -22.2488711946 -2.5000046548
37.5749574812 -22.5525369441 -2.5000054386
34.9485522109 -25.9707495834 -2.5000115131
37.4243156699 -25.9501812646 -2.5000115131
37.4534589242 -25.9425284532 -2.5000115131
40.9603519741 -22.6798853075 -2.5000115131
34.7962865064 -25.9565019326 -2.5000115621
34.8255131508 -25.9643973137 -2.5000115621
37.5326680259 -25.9459109881 -2.5000115621
37.6994853744 -25.9212117598 -2.5000116111
34.6221545081 -25.9561927912 -2.5000116601
37.6922202340 -25.9488513056 -2.5000116601
37.7358956567 -25.9349300134 -2.5000116601
37.7794458159 -25.9206216745 -2.5000116601
40.9661057393 -22.8757733903 -2.5000116601
40.9769977769 -22.8472199667 -2.5000116601
34.5564584930 -25.9608356887 -2.5000117090
34.5857149747 -25.9701498970 -2.5000117090
37.7579377028 -25.9531799525 -2.5000117090
37.8742094673 -25.9136406556 -2.5000117090
34.5050731801 -25.9694857470 -2.5000117580
40.9655505103 -23.0077551497 -2.5000117580
38.0211681363 -25.9110242220 -2.5000118070
34.3428510130 -25.9642249312 -2.5000118560
34.3574833262 -25.9695355466 -2.5000118560
38.0443504266 -25.9279980491 -2.5000118560
38.0733515859 -25.9166772920 -2.5000118560
38.0878269220 -25.9109526201 -2.5000118560
39.5015925605 -25.0733383177 -2.5000118560
40.9551306301 -23.1549767295 -2.5000118560
40.9614237474 -23.1407393176 -2.5000118560
38.0676494786 -25.9448773203 -2.5000119050
38.1402726283 -25.9159077627 -2.5000119050
38.1547453952 -25.9099851296 -2.5000119050
34.1941209952 -25.9594524034 -2.5000119540
34.2087398412 -25.9652030100 -2.5000119540
38.2363610096 -25.9019515081 -2.5000119540
40.9603250308 -23.2603965517 -2.5000119540
40.9669299763 -23.2461433125 -2.5000119540
34.3993723598 -26.0868537352 -2.5000120520
34.5348600528 -26.1315382663 -2.5000120520
38.4247764378 -25.8970358334 -2.5000121010
38.5322129970 -25.8992403382 -2.5000121989
38.6548601895 -25.8917516315 -2.5000122969
40.9529185927 -23.6499881714 -2.5000122969
38.7638206690 -25.8890244493 -2.5000123949
40.9555698991 -23.7446300692 -2.5000123949
38.8041543794 -25.8946689131 -2.5000124439
38.8734676684 -25.8839507078 -2.5000124929
38.9981044983 -25.8680876837 -2.5000125908
40.9500821339 -23.9911128487 -2.5000126398
40.9439774108 -24.0465288240 -2.5000126888
39.2333102269 -25.8657142295 -2.5000128358
39.2750341415 -25.8676681392 -2.5000128848
39.3732052353 -25.8610727581 -2.5000129827
39.8430952404 -25.8822307554 -2.5000135706
40.9035305897 -25.6864054409 -2.5000146973
40.6886820396 -26.1570302540 -2.5000150892
40.7340869372 -26.1165088463 -2.5000150892
41.1538490946 -25.7045990969 -2.5000150892
41.1952206019 -25.6599674088 -2.5000150892
40.4238945543 -26.4104871411 -2.5000151382
40.4557086351 -26.3850797575 -2.5000151382
40.4715591666 -26.3723055931 -2.5000151382
40.6433861320 -26.2287237010 -2.5000151382
41.1155324896 -25.7802529625 -2.5000151382
41.1295909471 -25.7655295662 -2.5000151382
41.1575768914 -25.7359583336 -2.5000151382
41.1992265475 -25.6912923285 -2.5000151382
41.2130214771 -25.6763217392 -2.5000151382
41.2267720606 -25.6613104075 -2.5000151382
41.3217743969 -25.5551013779 -2.5000151382
41.4014399386 -25.4625157895 -2.5000151382
40.4068473709 -26.4547276490 -2.5000151872
41.5747839935 -25.2881144304 -2.5000151872
41.5873846067 -25.2720346384 -2.5000151872
40.3406406283 -26.5364021192 -2.5000152362
40.3894259438 -26.4989544447 -2.5000152362
41.6315795447 -25.2545325516 -2.5000152362
41.7423474000 -25.1069869217 -2.5000152362
41.7783922602 -25.0571561743 -2.5000152362
40.0376847741 -26.7833958118 -2.5000152852
40.2894852468 -26.6050682272 -2.5000152852
40.4204739512 -26.5054416930 -2.5000152852
41.6381234270 -25.2855686718 -2.5000152852
41.7980410539 -25.0712366640 -2.5000152852
41.9038704850 -24.9193247000 -2.5000152852
42.0370774099 -24.7602518151 -2.5000153342
42.1123434192 -24.6853536582 -2.5000153832
39.7805921256 -27.0338280959 -2.5000154321
39.1617643921 -27.4737548502 -2.5000156281
42.6041385464 -24.0250945889 -2.5000156281
37.3987516653 -22.0645723991 -2.5000056098
37.4191573858 -22.0246381992 -2.5000056098
37.3553667052 -22.2326475433 -2.5000057366
37.4041146598 -22.1543209130 -2.5000057366
37.4194287250 -22.1276489832 -2.5000057366
37.3812422839 -22.2372692041 -2.5000058000
37.4855379635 -22.2985853180 -2.5000061170
34.5128003556 -25.9492916741 -2.5000139781
34.5681686294 -25.9654862402 -2.5000139781
34.5820403365 -25.9694324250 -2.5000139781
34.6794606351 -25.9959043663 -2.5000139781
37.2724322933 -25.9590151804 -2.5000139781
37.3001017063 -25.9508672790 -2.5000139781
37.3139182145 -25.9467319756 -2.5000139781
37.3762989873 -25.9528462848 -2.5000140415
37.3901210164 -25.9484855674 -2.5000140415
37.4039300852 -25.9440839811 -2.5000140415
37.4251693469 -25.9626401067 -2.5000141049
37.4666814227 -25.9490013036 -2.5000141049
37.5159211109 -25.9578574564 -2.5000141683
37.5573871697 -25.9434134706 -2.5000141683
37.6483827081 -25.9360701421 -2.5000142317
37.6568388300 -25.9587158765 -2.5000142951
37.6844997444 -25.9482937022 -2.5000142951
37.7120985136 -25.9377080590 -2.5000142951
37.7898731836 -25.9329438231 -2.5000143585
37.8036345280 -25.9273597655 -2.5000143585
40.9503656786 -22.6081056919 -2.5000148657
40.9542777220 -22.5931868735 -2.5000148657
40.9619693259 -22.5633148457 -2.5000148657
40.9657488191 -22.5483618976 -2.5000148657
40.9731750226 -22.5184227875 -2.5000148657
40.9439432937 -19.9241833457 -2.5000148657
40.9399158375 -19.9092952693 -2.5000148657
40.9358443573 -19.8944191719 -2.5000148657
38.3627912232 -25.9058450755 -2.5000149291
40.9534240760 -22.6890336209 -2.5000149291
40.9575755055 -22.6741054012 -2.5000149291
40.9697645792 -22.6292479729 -2.5000149291
40.9591504324 -19.8880033987 -2.5000149291
40.9595782820 -22.7554077469 -2.5000149925
40.9639260312 -22.7404610315 -2.5000149925
40.9724887896 -22.7105293435 -2.5000149925
40.9612451247 -19.8067033692 -2.5000149925
40.9524508345 -19.7768388880 -2.5000149925
40.9434800098 -19.7470269594 -2.5000149925
40.9389284950 -19.7321410286 -2.5000149925
38.4405274096 -25.9189300982 -2.5000150559
40.9648647682 -22.8221240954 -2.5000150559
40.9527571512 -19.6951710033 -2.5000150559
40.9480521965 -19.6802578558 -2.5000150559
40.9385100430 -19.6504736414 -2.5000150559
38.5207770622 -25.9020291853 -2.5000151193
40.9547805800 -22.9340142464 -2.5000151193
40.9596567006 -22.9190809420 -2.5000151193
40.9692763091 -22.8891713866 -2.5000151193
40.9418067972 -19.5833622983 -2.5000151193
40.9367711400 -19.5684820332 -2.5000151193
38.5463943287 -25.9152954738 -2.5000151827
40.9525924586 -23.0163369392 -2.5000151827
40.9627875899 -22.9864674761 -2.5000151827
40.9728058250 -22.9565382180 -2.5000151827
41.1961003057 -21.9892272420 -2.5000151827
40.9494073734 -19.5308486357 -2.5000151827
40.9389812411 -19.5010590186 -2.5000151827
40.9337021283 -19.4861874721 -2.5000151827
40.9702591947 -23.0391926190 -2.5000152460
40.9754463841 -23.0242130658 -2.5000152460
40.9564704549 -19.4780672143 -2.5000152460
38.6117152422 -25.9335192413 -2.5000153094
40.9553725036 -23.1520254022 -2.5000153094
40.9574877487 -19.4100812125 -2.5000153094
40.9519394261 -19.3951553185 -2.5000153094
40.9407104423 -19.3653530957 -2.5000153094
40.9350298792 -19.3504770277 -2.5000153094
40.9554072603 -23.2202864270 -2.5000153728
40.9611302230 -23.2053500162 -2.5000153728
41.3154183322 -21.1852896033 -2.5000153728
40.9518494272 -19.3268943441 -2.5000153728
40.9284076468 -19.2673626982 -2.5000153728
40.9485601847 -23.3037259380 -2.5000154362
40.9265944548 -19.1988580848 -2.5000154362
38.8274938179 -25.8874399465 -2.5000154996
40.9465613056 -23.3724932183 -2.5000154996
40.9649486132 -23.3277060333 -2.5000154996
40.9301922236 -19.1449601234 -2.5000154996
40.9500149057 -23.4265929325 -2.5000155630
40.9529032823 -23.4809181385 -2.5000156264
39.0166660194 -25.8792321763 -2.5000157532
40.9501080642 -23.6051442491 -2.5000157532
40.9511160561 -23.6601142392 -2.5000158166
39.1666713339 -25.8635271184 -2.5000159434
40.9506440521 -23.8262022642 -2.5000160068
39.2491633924 -25.8637393031 -2.5000160702
40.9394923698 -23.9527414275 -2.5000161336
40.9417319068 -24.0501753003 -2.5000162604
40.9349850635 -24.3039547113 -2.5000165774
40.9341382202 -24.4887333102 -2.5000168310
40.9369861532 -24.6607158911 -2.5000170845
40.9251298526 -25.5173629080 -2.5000184159
40.9548302268 -25.7781039875 -2.5000189230
40.6465131641 -26.2362475203 -2.5000191766
40.6611592367 -26.2222116779 -2.5000191766
40.7193264044 -26.1656368994 -2.5000191766
40.7481579345 -26.1370923986 -2.5000191766
40.7768200810 -26.1083778204 -2.5000191766
40.7910873218 -26.0939570661 -2.5000191766
40.8336322167 -26.0504424581 -2.5000191766
41.1597540445 -25.6890890689 -2.5000191766
41.1857584493 -25.6579471907 -2.5000191766
41.2115781532 -25.6266520067 -2.5000191766
41.2244184596 -25.6109472672 -2.5000191766
41.2626598496 -25.5636061086 -2.5000191766
40.4988208684 -26.4057628910 -2.5000192400
40.5290769237 -26.3785187724 -2.5000192400
40.6336927134 -26.2817647627 -2.5000192400
40.6779104943 -26.2396395479 -2.5000192400
41.1651456144 -25.7202054499 -2.5000192400
41.2687862251 -25.5945861944 -2.5000192400
41.3817912563 -25.4503786589 -2.5000192400
41.3941093695 -25.4341711695 -2.5000192400
41.4186014928 -25.4016472279 -2.5000192400
41.4789862183 -25.3197084139 -2.5000192400
40.2345565047 -26.6616148642 -2.5000193034
40.2504626933 -26.6487958030 -2.5000193034
40.3294210037 -26.5839977956 -2.5000193034
40.3918922166 -26.5313229707 -2.5000193034
41.4256896086 -25.4324687827 -2.5000193034
41.4744586498 -25.3669030124 -2.5000193034
41.5343233850 -25.2841418498 -2.5000193034
40.0716407187 -26.8188174812 -2.5000193668
40.2974683124 -26.6417256290 -2.5000193668
41.5658808492 -25.2814478331 -2.5000193668
41.6128531261 -25.2142338273 -2.5000193668
40.0696947531 -26.8504762299 -2.5000194302
41.7582215182 -25.0396572733 -2.5000194302
41.7693229962 -25.0223380322 -2.5000194302
41.8132151234 -24.9527349436 -2.5000194302
41.8446198542 -24.9479654420 -2.5000194936
41.8982478512 -24.8597752771 -2.5000194936
39.6900377970 -27.1722716101 -2.5000195570
39.8763637579 -27.0778134148 -2.5000196204
40.1130819393 -26.9085844876 -2.5000196204
39.4851534723 -27.3549461562 -2.5000196838
39.7336811603 -27.2016767818 -2.5000196838
42.0750184747 -24.6982013382 -2.5000196838
39.8516801190 -27.1529361995 -2.5000197472
37.4312787541 -21.9758187398 -2.5000016110
37.3534325636 -22.3441795383 -2.5000016225
37.4059486076 -22.2214611638 -2.5000016225
37.4914432427 -22.0344654785 -2.5000016283
37.0032949948 -25.9753441432 -2.5000022853
37.0423125500 -25.9637917867 -2.5000022853
37.0812260481 -25.9518936262 -2.5000022853
37.0941735603 -25.9478508885 -2.5000022853
37.1144161273 -25.9668120462 -2.5000022911
37.1608648584 -25.9772503133 -2.5000022968
37.2388049237 -25.9510029179 -2.5000022968
37.4801998975 -25.9640483213 -2.5000023199
37.4105802253 -26.0171732941 -2.5000023256
37.6156351770 -25.9600473938 -2.5000023314
37.7520906873 -25.9519165467 -2.5000023429
37.8141914056 -25.9493852160 -2.5000023487
40.9452308255 -22.9677272971 -2.5000024813
40.9468050115 -20.1842473546 -2.5000024813
40.9472915941 -23.0514219066 -2.5000024870
40.9588958044 -20.0474587755 -2.5000024928
40.9325682395 -23.2661994530 -2.5000024985
40.9375541314 -23.2507754996 -2.5000024985
40.9588651659 -19.9630539303 -2.5000024985
40.9443712534 -19.9166348631 -2.5000024985
40.9350691851 -23.3354865354 -2.5000025043
40.9494385036 -19.7777977966 -2.5000025101
40.9441049987 -19.7623392012 -2.5000025101
40.9316758384 -23.4903565411 -2.5000025158
40.9505987655 -19.7079387744 -2.5000025158
40.9428772680 -23.5296323850 -2.5000025216
40.9450870216 -19.6223399641 -2.5000025216
40.9735053176 -19.6294129883 -2.5000025274
40.9501398079 -19.5673998359 -2.5000025274
40.9441839047 -19.5519400865 -2.5000025274
40.9211528015 -23.7169116859 -2.5000025331
40.9546271198 -19.5122170772 -2.5000025331
40.9306712065 -23.7569853266 -2.5000025389
40.9199525121 -23.8434728559 -2.5000025446
40.9266461383 -23.8280836964 -2.5000025446
40.9398966730 -23.7972463112 -2.5000025446
40.9147602884 -23.9147653597 -2.5000025504
40.9513855136 -19.3142867045 -2.5000025504
40.9157217944 -23.9708952694 -2.5000025562
40.9532405613 -19.2581792179 -2.5000025562
40.9158745337 -24.0837511296 -2.5000025677
40.9074412139 -24.1558184547 -2.5000025735
40.7658552772 -18.7235813979 -2.5000025735
41.2181789369 -19.6673246915 -2.5000025792
41.2125174567 -19.6510715967 -2.5000025792
40.7089372781 -18.5778520404 -2.5000025792
40.6274363722 -18.4461339551 -2.5000025792
40.6088507214 -18.4171609885 -2.5000025792
40.9090036523 -24.3116760893 -2.5000025908
40.9369783084 -24.7978776533 -2.5000026542
40.9604776679 -24.9863751236 -2.5000026830
40.9501160055 -25.0461117283 -2.5000026887
40.9603671231 -25.0306280777 -2.5000026887
40.9794254670 -25.7061937765 -2.5000027867
40.6108936902 -26.3116312390 -2.5000028155
40.6942249895 -26.2240994451 -2.5000028155
41.3253551788 -25.4404200004 -2.5000028155
40.3830038064 -26.5691155456 -2.5000028213
40.4124807207 -26.5414465584 -2.5000028213
40.4709408784 -26.4855878254 -2.5000028213
40.5858579849 -26.3718148249 -2.5000028213
41.4465750148 -25.3030555491 -2.5000028213
40.1570387448 -26.8025259247 -2.5000028270
40.3097735020 -26.6690330248 -2.5000028270
40.3846433922 -26.6006069531 -2.5000028270
40.4143065916 -26.5729277145 -2.5000028270
41.4668290709 -25.3162505668 -2.5000028270
41.5107183297 -25.2480020655 -2.5000028270
41.5431036360 -25.1964774972 -2.5000028270
40.0788333895 -26.8991413639 -2.5000028328
40.2190728462 -26.7812480003 -2.5000028328
41.3266131404 -25.5649533003 -2.5000028328
40.2657155995 -26.7727460849 -2.5000028386
40.8340614594 -26.2150306734 -2.5000028386
41.7302003960 -24.9761467408 -2.5000028386
41.7206906515 -25.0414387157 -2.5000028443
39.8154494305 -27.1941496421 -2.5000028501
39.3027719104 -27.6183771686 -2.5000028674
37.2467487165 -22.3024782534 -2.4999993589
37.2324346726 -22.5125184950 -2.4999993070
37.3916661541 -21.9504490564 -2.4999992552
37.3924606034 -21.8863708610 -2.4999992552
36.5515140351 -25.9574078410 -2.4999967136
36.5635240988 -25.9545372866 -2.4999967136
36.5995026050 -25.9457126333 -2.4999967136
36.7134331384 -25.9406149203 -2.4999966876
36.7559732930 -25.9536889821 -2.4999966617
36.7799592959 -25.9467027735 -2.4999966617
36.7919366926 -25.9431564836 -2.4999966617
36.8589023324 -25.9479581165 -2.4999966358
36.9940276984 -25.9542488202 -2.4999965839
37.0299866920 -25.9416037003 -2.4999965839
37.1426276707 -25.9514680665 -2.4999965320
37.1665937668 -25.9421943196 -2.4999965320
37.1874128575 -25.9599963966 -2.4999965061
37.2353875397 -25.9407767575 -2.4999965061
37.2685432800 -25.9532857476 -2.4999964801
37.4416027834 -25.9570219967 -2.4999964023
37.4998252027 -25.9566633502 -2.4999963764
37.5342457118 -25.9670833642 -2.4999963505
37.5942451488 -25.9378396548 -2.4999963505
37.8420468015 -25.9439385042 -2.4999962208
37.9256711770 -25.9241859436 -2.4999961949
37.9617222144 -25.9311132239 -2.4999961689
38.2293679919 -25.9356245882 -2.4999960133
38.2665728061 -25.9400728620 -2.4999959874
38.5025814288 -25.9235754622 -2.4999958577
40.9280770476 -23.3218985176 -2.4999952612
40.9364194755 -23.2902748028 -2.4999952612
40.9420739848 -20.5236675777 -2.4999952612
40.9379908515 -20.5078327278 -2.4999952612
40.9341112901 -23.3915061114 -2.4999952353
40.9572412485 -20.4858704578 -2.4999952353
40.9401796186 -20.4224276797 -2.4999952353
40.9298875717 -23.4930926547 -2.4999952093
40.9345885881 -23.4772808620 -2.4999952093
40.9410075313 -20.3366555968 -2.4999952093
40.9363711875 -20.3208247200 -2.4999952093
40.9287375195 -23.5792041603 -2.4999951834
40.9642161618 -20.3298958071 -2.4999951834
40.9548562644 -20.2981106462 -2.4999951834
40.9404642327 -20.2505381255 -2.4999951834
40.9355731402 -20.2347092327 -2.4999951834
40.9262039975 -23.6656294421 -2.4999951575
40.9365800858 -23.6340107930 -2.4999951575
40.9416979344 -23.6181785860 -2.4999951575
40.9517930163 -23.5864691001 -2.4999951575
40.9586581410 -20.2275385969 -2.4999951575
40.9536989321 -20.2116559838 -2.4999951575
40.9385397094 -20.1640971383 -2.4999951575
40.9333929172 -20.1482743168 -2.4999951575
40.9331666998 -23.7207494036 -2.4999951315
40.9385411517 -23.7049269145 -2.4999951315
40.9405808734 -20.0931832770 -2.4999951315
40.9283527967 -23.8077655485 -2.4999951056
40.9339846793 -23.7919569191 -2.4999951056
40.9280195198 -23.8792460997 -2.4999950797
40.9418602881 -19.9504985749 -2.4999950797
40.9360816182 -19.9346668651 -2.4999950797
40.9327948813 -23.9351807686 -2.4999950537
40.9447656104 -23.9035184080 -2.4999950537
40.9469617416 -24.0319191548 -2.4999950019
40.9366761467 -19.7345132912 -2.4999950019
40.9566336668 -24.0726735487 -2.4999949759
40.9461528757 -19.6937130661 -2.4999949759
40.9527960724 -24.1454012061 -2.4999949500
40.9506056697 -19.5797796922 -2.4999949241
40.9571251039 -24.3172481636 -2.4999948722
40.9454735631 -19.4491389009 -2.4999948722
40.9382117648 -19.4332986960 -2.4999948722
40.9788775859 -24.4431504605 -2.4999947944
40.9417301338 -19.2172478814 -2.4999947684
40.9738838482 -24.6184893813 -2.4999947166
40.9791919294 -24.6613425526 -2.4999946906
40.8983405657 -18.9784455406 -2.4999946906
40.8634465073 -18.9158052317 -2.4999946906
41.2611338358 -19.7004659321 -2.4999946647
41.2144564032 -19.5834520224 -2.4999946647
40.8214042333 -18.7948723540 -2.4999946647
40.7177392660 -18.6262210478 -2.4999946647
41.3642143307 -19.9123864679 -2.4999946388
41.3342435238 -19.8271583275 -2.4999946388
40.5665924913 -18.3584502592 -2.4999946388
40.4488637312 -18.1983201065 -2.4999946388
40.4379039576 -18.1839544362 -2.4999946388
41.4215090171 -20.0077881261 -2.4999946128
40.4126631047 -18.1119011466 -2.4999946128
40.3561665082 -18.0409437605 -2.4999946128
40.2636071015 -17.9291725371 -2.4999946128
41.5080968443 -20.2094214786 -2.4999945869
40.9680973847 -24.9855795160 -2.4999945350
41.6198551226 -20.4447031988 -2.4999945350
40.9706161568 -25.0295211669 -2.4999945091
40.9664870010 -25.1780890806 -2.4999944313
40.9858106034 -25.1462056332 -2.4999944313
40.9781946328 -25.2512440900 -2.4999943794
40.9786967313 -25.2959746333 -2.4999943535
40.9683286553 -25.4017359026 -2.4999943016
40.9591564579 -25.6739428603 -2.4999941460
40.5569561138 -26.4080370217 -2.4999939904
40.6623332906 -26.2891715522 -2.4999939904
40.7011200828 -26.2439590892 -2.4999939904
40.7395041124 -26.1984041956 -2.4999939904
40.7648682143 -26.1678457979 -2.4999939904
40.8025742708 -26.1217281726 -2.4999939904
41.1565696343 -25.6428597369 -2.4999939904
41.2436723121 -25.5100197100 -2.4999939904
41.2649548764 -25.4764905318 -2.4999939904
40.3830945359 -26.6269078630 -2.4999939645
40.6280846975 -26.3649517986 -2.4999939645
41.3790393963 -25.3364204562 -2.4999939645
41.3992925199 -25.3020934392 -2.4999939645
41.4391877316 -25.2330829403 -2.4999939645
40.2577682445 -26.7841678286 -2.4999939385
41.4100107817 -25.3315555051 -2.4999939385
41.5282717529 -25.1227330934 -2.4999939385
41.5660356603 -25.0522090087 -2.4999939385
41.5753460415 -25.0345085531 -2.4999939385
39.9610403353 -27.1146227251 -2.4999938867
40.0071801596 -27.0756013386 -2.4999938867
40.1134797597 -26.9829704201 -2.4999938867
41.6823236466 -24.9313966064 -2.4999938867
41.7001752052 -24.8952823465 -2.4999938867
41.7438666059 -24.8045401671 -2.4999938867
41.8218053623 -24.7516194937 -2.4999938348
41.8956130865 -24.5846375408 -2.4999938348
41.9337027015 -24.5566131846 -2.4999938089
39.8966663337 -27.2922167044 -2.4999937829
41.9871419873 -24.4904127718 -2.4999937829
39.7168416734 -27.4611775318 -2.4999937570
42.0837384572 -24.3083961979 -2.4999937570
36.3809368636 -25.9485391263 -2.4999989201
36.4028782257 -25.9433291959 -2.4999989201
36.4247883802 -25.9379895442 -2.4999989201
36.5797729836 -25.9465902599 -2.4999988913
36.6235875206 -25.9336880929 -2.4999988913
36.6635171627 -25.9467567474 -2.4999988769
36.6817240496 -25.9663957909 -2.4999988625
36.8624949872 -25.9562477628 -2.4999988337
36.9808225609 -25.9371219097 -2.4999988193
38.0012767517 -19.0695468101 -2.4999987905
37.1073456055 -25.9633525654 -2.4999987761
37.3354505693 -25.9381741347 -2.4999987328
37.3571415579 -25.9544123368 -2.4999987184
37.4229866314 -25.9481943898 -2.4999987040
37.4449077164 -25.9368193490 -2.4999987040
40.9425343670 -22.2083014735 -2.4999979548
40.9510627969 -23.5695901974 -2.4999978539
40.9446270745 -20.8791209571 -2.4999978539
40.9599124618 -20.8409983240 -2.4999978395
40.9430086268 -20.7766257342 -2.4999978395
40.9386637447 -20.7605641916 -2.4999978395
40.9603058606 -23.7266733847 -2.4999978251
40.9646876773 -23.7105477661 -2.4999978251
40.9394562349 -20.6737620619 -2.4999978251
40.9609032526 -23.8138205376 -2.4999978107
40.9437227518 -20.6026777725 -2.4999978107
40.9339563465 -20.5705664300 -2.4999978107
40.9782617069 -23.9245493882 -2.4999977819
40.9388593152 -20.4274215817 -2.4999977819
40.9334814421 -20.4113738415 -2.4999977819
40.9543105369 -24.0772252523 -2.4999977675
40.9651005361 -24.0449904585 -2.4999977675
40.9286735592 -20.3233247783 -2.4999977675
40.9661839334 -24.1172717912 -2.4999977531
40.9399988840 -20.2831198056 -2.4999977531
40.9283419317 -20.2510360875 -2.4999977531
40.9546702501 -24.2220702068 -2.4999977387
40.9663171944 -24.1898307497 -2.4999977387
40.9391411070 -20.2105657950 -2.4999977387
40.9331217342 -20.1945181700 -2.4999977387
40.9472984448 -20.0968376152 -2.4999977098
40.9345392567 -20.0647139706 -2.4999977098
40.9737059781 -24.3767688963 -2.4999976954
40.9396769621 -19.9500309254 -2.4999976810
40.9608789579 -24.5981122117 -2.4999976522
40.9618090385 -24.6561864328 -2.4999976378
40.9689405163 -24.6400523005 -2.4999976378
40.9760242352 -24.6238971425 -2.4999976378
40.9344124986 -19.6436093151 -2.4999976090
40.9562196656 -19.6331794182 -2.4999975946
40.9250246147 -19.5689350778 -2.4999975946
40.9387577634 -19.5421807269 -2.4999975802
40.9280089857 -19.4671426555 -2.4999975658
40.9627740896 -24.9925354740 -2.4999975514
40.9642488206 -25.0953063577 -2.4999975225
40.9513268271 -25.1711020212 -2.4999975081
40.9459610575 -19.2936899853 -2.4999975081
40.9616092806 -25.3027399142 -2.4999974649
40.9643768963 -25.3469063774 -2.4999974505
41.2120849906 -19.5521312292 -2.4999974361
41.2041166550 -19.5352790678 -2.4999974361
41.1799130279 -19.4848650454 -2.4999974361
40.8153391292 -18.8349254957 -2.4999974361
40.6699209705 -18.6182417183 -2.4999974361
40.6267367479 -18.5574560489 -2.4999974361
41.2961361094 -19.6780016884 -2.4999974217
40.4189507770 -18.2461719088 -2.4999974217
40.9416844969 -25.5285550366 -2.4999974073
41.4400462605 -19.9633717260 -2.4999974073
41.5086042057 -20.0784309208 -2.4999973929
41.5809437935 -20.2133038947 -2.4999973785
40.2278265209 -17.9139680997 -2.4999973785
40.5894988737 -26.4018743193 -2.4999972776
40.6866229456 -26.2805417322 -2.4999972776
40.7341014473 -26.2190220299 -2.4999972776
41.1872674369 -25.5410994231 -2.4999972776
40.4951144984 -26.5514030364 -2.4999972632
40.5583757158 -26.4772188200 -2.4999972632
40.5708959020 -26.4622701486 -2.4999972632
40.6205328002 -26.4021070604 -2.4999972632
40.6450834226 -26.3718063184 -2.4999972632
40.6694543460 -26.3413608571 -2.4999972632
40.6936447173 -26.3107717420 -2.4999972632
41.2565794617 -25.4686383999 -2.4999972632
41.2944112455 -25.4004315455 -2.4999972632
41.3222540008 -25.3489852477 -2.4999972632
41.3496391026 -25.2972938869 -2.4999972632
41.3765643942 -25.2453615343 -2.4999972632
40.2758570903 -26.8273083704 -2.4999972488
40.3698742558 -26.7276705924 -2.4999972488
40.3831361483 -26.7132784466 -2.4999972488
40.4357562377 -26.6553194469 -2.4999972488
41.4333841947 -25.1865263934 -2.4999972488
41.4763557275 -25.0986141009 -2.4999972488
41.5644286951 -24.9665964159 -2.4999972344
41.6273164006 -24.8225956974 -2.4999972344
41.6648253512 -24.7956458990 -2.4999972200
41.7603864945 -24.6211364327 -2.4999972056
41.8311639276 -24.4993792523 -2.4999971912
44.8226129967 -25.8842378840 -2.4999952316
37.4203750071 -22.9036895480 -2.5000014246
37.4165619119 -22.0334246642 -2.5000014304
37.4917437414 -22.1314402895 -2.5000014361
37.4199448185 -21.8876193751 -2.5000014361
37.5902784454 -22.5196831040 -2.5000014419
37.2095073653 -25.9372738236 -2.5000016407
37.2404345405 -25.9485333574 -2.5000016436
37.3113395945 -25.9382973322 -2.5000016465
37.3427756510 -25.9486849020 -2.5000016494
37.7772761345 -19.0620976725 -2.5000016926
38.1274929688 -19.0705270938 -2.5000017156
40.9692168808 -23.7736141894 -2.5000018597
40.9524908618 -21.3250713869 -2.5000018597
40.9487349391 -21.3089354123 -2.5000018597
40.9591593943 -23.9246454704 -2.5000018626
40.9892904008 -23.7949929267 -2.5000018626
40.9645824428 -21.2710430009 -2.5000018626
40.9567030190 -21.2387116406 -2.5000018626
40.9493053388 -24.0598528562 -2.5000018655
40.9786395747 -23.9466204294 -2.5000018655
40.9466016769 -21.1035225047 -2.5000018655
40.9682413141 -24.0823516327 -2.5000018684
40.9610184497 -21.0648157510 -2.5000018684
40.9564926064 -21.0486556889 -2.5000018684
40.9544767817 -24.2183487626 -2.5000018713
40.9640347855 -24.1860256079 -2.5000018713
40.9466030252 -20.9288860735 -2.5000018713
40.9416751404 -20.9127692496 -2.5000018713
40.9366996008 -20.8966670738 -2.5000018713
40.9727659547 -24.2414806162 -2.5000018741
40.9445079448 -20.8410746191 -2.5000018741
40.9340850350 -20.8088695514 -2.5000018741
40.9410027277 -20.7529640822 -2.5000018770
40.9563394659 -24.4504321540 -2.5000018799
40.9473546508 -20.6967964244 -2.5000018799
40.9360780929 -20.6645770397 -2.5000018799
40.9356494698 -20.5920192247 -2.5000018828
40.9463989479 -20.5514147874 -2.5000018857
40.9319103771 -20.4461427328 -2.5000018885
40.9351128999 -20.3889297625 -2.5000018914
40.9615527399 -24.7834803900 -2.5000018943
40.9509734858 -20.3637270476 -2.5000018943
40.9310312689 -20.3154041308 -2.5000018943
40.9328812780 -20.2577419808 -2.5000018972
40.9593696018 -24.9151345147 -2.5000019001
40.9662337050 -24.8989624834 -2.5000019001
40.9730499384 -24.8827702176 -2.5000019001
40.9341341522 -20.1998688659 -2.5000019001
40.9464281992 -25.0054915275 -2.5000019030
40.9275300964 -20.1257124348 -2.5000019030
40.9540589138 -25.0476320443 -2.5000019058
40.9613149919 -25.0314751433 -2.5000019058
40.9389506383 -25.1383514107 -2.5000019087
40.9378869517 -25.1970092342 -2.5000019116
40.9419605171 -25.2987638890 -2.5000019174
40.9289147055 -19.8485432457 -2.5000019174
40.9306689083 -19.7460921781 -2.5000019231
40.9218400038 -19.6269313310 -2.5000019289
40.6745233415 -26.3442490549 -2.5000019548
40.6856162703 -26.3289133974 -2.5000019548
40.7186221854 -26.2827104763 -2.5000019548
40.7295328790 -26.2672446357 -2.5000019548
40.7727167199 -26.2050605494 -2.5000019548
40.7940319588 -26.1737779776 -2.5000019548
40.8151617466 -26.1423698452 -2.5000019548
40.4377902760 -26.6885186138 -2.5000019577
40.6829081921 -26.3738060925 -2.5000019577
41.2700781005 -25.3984930104 -2.5000019577
41.2948040412 -25.3471399571 -2.5000019577
40.9119161548 -19.1349773293 -2.5000019577
40.4563907812 -26.7039574119 -2.5000019606
41.3883290789 -25.2015979411 -2.5000019606
41.4412099573 -25.0790303924 -2.5000019606
41.1792138757 -19.4427670395 -2.5000019663
40.7457985461 -18.7627038850 -2.5000019663
40.6654946175 -18.6548208797 -2.5000019663
40.5589946079 -18.5185977714 -2.5000019663
40.0550149114 -27.2464160041 -2.5000019692
41.3517803703 -19.7218056874 -2.5000019692
41.3087673295 -19.6355087626 -2.5000019692
41.3000118161 -19.6183262503 -2.5000019692
40.6257972846 -18.5638743941 -2.5000019692
40.4548436458 -18.3549331423 -2.5000019692
41.4718446468 -19.9215934567 -2.5000019721
41.4317734113 -19.8334988813 -2.5000019721
40.4982736234 -18.3687634024 -2.5000019721
40.3583987434 -18.2082485503 -2.5000019721
40.3454252944 -18.1938836449 -2.5000019721
41.7655558915 -24.5419038468 -2.5000019750
40.2037950892 -18.0076846794 -2.5000019750
40.0409338777 -17.8125593681 -2.5000019779
40.0267912976 -17.7991353126 -2.5000019779
41.7005270148 -20.2907065016 -2.5000019808
38.7918110426 -30.3443181261 -2.5000021969
44.3446467122 -17.9283255790 -2.5000023842
37.2400486611 -22.3218826396 -2.5000016225
37.2326943822 -22.3018264384 -2.5000016225
37.6030249222 -22.5584618781 -2.5000016917
37.4209214189 -22.0069519931 -2.5000016917
37.4946872816 -22.1103200485 -2.5000016974
36.7481885868 -19.0637367470 -2.5000021585
36.7252734355 -19.0566648011 -2.5000021585
36.9236591136 -19.0715002306 -2.5000021700
36.7741602339 -19.0212125302 -2.5000021700
36.9860871455 -19.0428036076 -2.5000021816
36.9515036907 -19.0301361681 -2.5000021816
37.2525649738 -19.0465371859 -2.5000022046
37.5345513553 -19.0469700088 -2.5000022334
37.6146249363 -19.0616465170 -2.5000022392
37.7065893183 -19.0568434743 -2.5000022507
37.7878844151 -19.0474359872 -2.5000022622
37.8689666151 -19.0672091740 -2.5000022680
37.9043895211 -19.0604119226 -2.5000022738
37.9986640515 -19.0621428650 -2.5000022853
38.0460572499 -19.0638089887 -2.5000022911
40.9615880258 -24.2438090126 -2.5000025216
40.9692461801 -24.2117185207 -2.5000025216
40.9630637061 -21.6290432735 -2.5000025216
40.9566656350 -24.3619231156 -2.5000025274
40.9399185992 -24.5123596061 -2.5000025331
40.9537186893 -24.4643887469 -2.5000025331
40.9584048395 -24.5351770374 -2.5000025389
40.9649060418 -21.3537085937 -2.5000025389
40.9602093971 -21.3376718415 -2.5000025389
40.9471106185 -24.6543299021 -2.5000025446
40.9640551541 -21.2665635472 -2.5000025446
40.9386153290 -24.7577408206 -2.5000025504
40.9545930910 -24.7097718645 -2.5000025504
40.9598243336 -24.6937509356 -2.5000025504
40.9618078771 -21.1790996465 -2.5000025504
40.9450430323 -24.8135097715 -2.5000025562
40.9615154594 -24.7654815770 -2.5000025562
40.9581546160 -21.0913392079 -2.5000025562
40.9566080392 -24.8535251485 -2.5000025619
40.9443119378 -24.9578141953 -2.5000025677
40.9571530251 -20.8744855512 -2.5000025735
40.9587950767 -25.0551348067 -2.5000025792
40.9557124405 -25.1281684930 -2.5000025850
40.9583424839 -25.1854106365 -2.5000025908
40.9629845515 -20.6299799744 -2.5000025965
40.9423297919 -20.5819573005 -2.5000025965
40.9574852009 -20.5562757754 -2.5000026023
40.9433267420 -20.5242740952 -2.5000026023
40.9482276887 -25.3904573600 -2.5000026080
40.9554725500 -25.3744522829 -2.5000026080
40.9437235020 -20.4663887801 -2.5000026080
40.9397831885 -25.5227921219 -2.5000026196
40.9474195568 -25.5068114460 -2.5000026196
40.9350369154 -20.3340696886 -2.5000026196
40.9361880593 -25.6398748924 -2.5000026311
40.9365840582 -20.1741465405 -2.5000026369
40.9549755444 -25.7097059729 -2.5000026426
40.9416214337 -20.1311413118 -2.5000026426
40.9333083158 -20.1151787889 -2.5000026426
40.6797801716 -26.3681583130 -2.5000026657
40.7596197634 -26.2456060144 -2.5000026657
40.7984464110 -26.1836299284 -2.5000026657
40.8459440258 -26.1055208930 -2.5000026657
41.1530721339 -25.5237132504 -2.5000026657
40.5526874896 -26.5922097930 -2.5000026714
40.5742467280 -26.5624973931 -2.5000026714
40.6168359588 -26.5026925427 -2.5000026714
40.6273724628 -26.4876629157 -2.5000026714
40.6483118597 -26.4575104841 -2.5000026714
40.6690724982 -26.4272346957 -2.5000026714
40.7898421496 -26.2430491169 -2.5000026714
40.8854381586 -26.0863655781 -2.5000026714
41.2276569692 -25.4166384152 -2.5000026714
41.2422493194 -25.3829532436 -2.5000026714
41.2494706957 -25.3660784301 -2.5000026714
41.2637635343 -25.3322650861 -2.5000026714
41.2848270730 -25.2813879980 -2.5000026714
40.4386801696 -26.7826967692 -2.5000026772
40.5173337731 -26.6804696683 -2.5000026772
41.3613662917 -25.1534380940 -2.5000026772
41.3679081994 -25.1362119152 -2.5000026772
40.9284240056 -19.8059584780 -2.5000026772
40.2328428655 -27.0677087946 -2.5000026830
40.4462323599 -26.8121612418 -2.5000026830
41.4533677121 -24.9707909654 -2.5000026830
40.1765760872 -27.1666234260 -2.5000026887
40.2632353976 -27.0697410947 -2.5000026887
40.0796508746 -27.3052845152 -2.5000026945
40.9353605234 -19.6288484196 -2.5000027003
40.2985048788 -27.1758385644 -2.5000027118
40.9166318311 -19.5076527686 -2.5000027118
41.1513995071 -19.3813235447 -2.5000027752
41.1196562027 -19.3316779642 -2.5000027752
40.7298239836 -18.7897755171 -2.5000027752
40.7175437898 -18.7744453984 -2.5000027752
40.6928476234 -18.7438944772 -2.5000027752
41.3439087331 -19.6559281572 -2.5000027809
41.3145948098 -19.6045633517 -2.5000027809
41.3047223471 -19.5874998101 -2.5000027809
41.2748027038 -19.5364854564 -2.5000027809
40.5068721917 -18.4887328940 -2.5000027809
41.4596986681 -19.8177248720 -2.5000027867
41.4411619044 -19.7827648541 -2.5000027867
41.4129697560 -19.7305319866 -2.5000027867
41.3552004342 -19.6268270845 -2.5000027867
41.3056595004 -19.5412006495 -2.5000027867
41.5622235166 -19.9656895490 -2.5000027925
41.5445603673 -19.9301203701 -2.5000027925
41.5266870880 -19.8946563148 -2.5000027925
40.3254779602 -18.2248657383 -2.5000027925
40.1984397891 -18.0991801592 -2.5000027925
41.6358145120 -20.0627146244 -2.5000027982
41.6187241077 -20.0267083583 -2.5000027982
40.0696676372 -17.9456545165 -2.5000027982
40.0400794045 -17.9189511533 -2.5000027982
40.0413153870 -17.8876243787 -2.5000028040
39.9510538619 -17.8085541229 -2.5000028040
41.9359062194 -20.5240221696 -2.5000028213
42.6052182123 -21.8422026746 -2.5000028962
37.2489579889 -22.5465181517 -2.5000011921
37.4740029042 -22.9568381381 -2.5000011921
37.4214890445 -22.5189356593 -2.5000011921
37.5947950922 -22.4323020473 -2.5000011921
37.4983782960 -22.1398420223 -2.5000011921
36.2092442092 -19.0819189837 -2.5000011921
36.3491009725 -19.0786054368 -2.5000011921
36.2994940575 -19.0705842790 -2.5000011921
36.2870777700 -19.0686707496 -2.5000011921
36.4897649976 -19.0799865309 -2.5000011921
36.5939372290 -19.0775375430 -2.5000011921
36.7110824841 -19.0808182115 -2.5000011921
36.6490524145 -19.0655294358 -2.5000011921
36.4491493914 -19.0227970404 -2.5000011921
36.8973307652 -19.0821664201 -2.5000011921
36.7415437296 -19.0137575447 -2.5000011921
36.7037564446 -19.0042064818 -2.5000011921
37.0481615608 -19.0792331470 -2.5000011921
37.0109432608 -19.0669584446 -2.5000011921
