39.6724984995 -10.9130086927 -2.5001762162
39.7354083339 -10.8940762327 -2.5001762162
36.5386971555 -10.9391591908 -2.5001762277
36.5545366171 -10.9437661205 -2.5001762277
39.7740177012 -10.9073946672 -2.5001762277
36.5160174573 -10.9576864276 -2.5001762393
39.9622005956 -10.8958756723 -2.5001762508
36.2794028089 -10.9330905558 -2.5001762623
39.9859505760 -10.9131474608 -2.5001762623
36.2715949944 -10.9559679095 -2.5001762738
40.2565823963 -10.9140727479 -2.5001763084
40.3037722855 -10.8947597107 -2.5001763084
35.9840982957 -10.9531889988 -2.5001763199
35.9999816866 -10.9594364709 -2.5001763199
35.8706341779 -10.9593622756 -2.5001763430
35.5889473934 -10.9937965888 -2.5001764122
35.4402872940 -10.9761099225 -2.5001764352
40.9201841386 -10.8979886599 -2.5001764352
41.1344297952 -10.8066921262 -2.5001764467
41.1652581245 -10.7886715301 -2.5001764467
35.3547739777 -10.9872991365 -2.5001764583
40.4736776136 -11.1642535327 -2.5001764583
41.3911088106 -10.6777728280 -2.5001764583
41.8157685084 -10.4075125969 -2.5001764698
35.2526340519 -10.9888020706 -2.5001764813
40.0706800367 -11.3698715953 -2.5001764813
42.0828114801 -10.2214711733 -2.5001764813
35.1498531715 -10.9884556800 -2.5001765044
39.7556877214 -11.5177954134 -2.5001765044
39.8257478494 -11.4978362812 -2.5001765044
33.7713338981 -10.7139558210 -2.5001767695
33.7865192758 -10.7267500971 -2.5001767695
33.8938673141 -10.8150444515 -2.5001767695
33.9093511941 -10.8274758093 -2.5001767695
34.5404832116 -11.2754956635 -2.5001767695
34.5742005452 -11.2964788650 -2.5001767695
33.4880443039 -10.4937039239 -2.5001767810
34.6295374292 -11.3585549566 -2.5001767810
34.9722328642 -11.6060092496 -2.5001768041
32.9376225537 -10.0225031168 -2.5001768156
35.1592605770 -11.7265072925 -2.5001768156
32.6582200724 -9.7546571064 -2.5001768386
35.3782659835 -11.8795458214 -2.5001768386
32.8299236487 -10.0076466229 -2.5001768502
35.5188504673 -11.9646854147 -2.5001768502
37.5034543188 -7.0288344929 -2.4999317213
34.0566835151 -6.4029789223 -2.4999333465
34.0496933280 -6.4746831260 -2.4999333638
34.0601411268 -6.6855436887 -2.4999333984
34.0477839592 -6.8735910222 -2.4999334503
34.0559083313 -6.8955455283 -2.4999334503
34.0415672394 -6.9260417915 -2.4999334676
34.0386058604 -7.1722264942 -2.4999335367
34.0675831164 -7.2921422916 -2.4999335540
34.0779259357 -8.0319904536 -2.4999338134
36.3924287424 -10.9666027840 -2.4999346433
36.4247277115 -10.9746139495 -2.4999346433
39.3834584910 -10.8974634283 -2.4999346433
36.2733945503 -10.9603796967 -2.4999346606
39.4861720084 -10.8908688918 -2.4999346606
36.2508400549 -10.9792492712 -2.4999346779
36.2670216449 -10.9836975302 -2.4999346779
36.2832163229 -10.9880979017 -2.4999346779
39.5095215302 -10.9087452991 -2.4999346779
39.5732634878 -10.8876975589 -2.4999346779
36.1148840889 -10.9650839269 -2.4999346951
36.1310243701 -10.9699344302 -2.4999346951
36.1471789294 -10.9747371664 -2.4999346951
39.6128904984 -10.8997539459 -2.4999346951
36.0755187644 -10.9783379407 -2.4999347124
36.0916984257 -10.9833048358 -2.4999347124
39.6846393437 -10.9002519607 -2.4999347124
39.7164881399 -10.8887864640 -2.4999347124
35.9873757299 -10.9757769365 -2.4999347297
35.9312793501 -10.9827302725 -2.4999347470
35.8425451970 -10.9778522523 -2.4999347643
35.8749203456 -10.9891165167 -2.4999347643
39.9014544228 -10.8960408888 -2.4999347643
39.9173738944 -10.8896903343 -2.4999347643
39.9332745102 -10.8832927150 -2.4999347643
35.7697174139 -10.9774607211 -2.4999347816
39.9901165931 -10.8861492787 -2.4999347816
35.7289986012 -10.9882354907 -2.4999347989
35.5082613497 -10.9796545285 -2.4999348508
40.2196342593 -10.8916632938 -2.4999348508
40.2355393890 -10.8843715250 -2.4999348508
35.3761709830 -10.9761089433 -2.4999348853
35.3340764325 -10.9839892851 -2.4999349026
35.2756048576 -10.9842288873 -2.4999349199
40.4522993092 -10.8875471461 -2.4999349199
40.5109109285 -10.8849878952 -2.4999349372
35.1419094056 -10.9751503774 -2.4999349545
40.5378656331 -10.8983235078 -2.4999349545
35.0398335738 -10.9790680070 -2.4999349891
34.9804509003 -10.9762312837 -2.4999350064
34.9209049983 -10.9727695087 -2.4999350237
40.8023685532 -10.8928792131 -2.4999350409
40.6539961197 -11.0831957499 -2.4999351101
41.1677036203 -10.7849575825 -2.4999351101
41.2761675470 -10.7133224040 -2.4999351101
41.3068825508 -10.6924441635 -2.4999351101
41.3679393068 -10.6501443551 -2.4999351101
34.6088555457 -10.9669059542 -2.4999351274
40.3802979881 -11.2434828477 -2.4999351274
40.5987447364 -11.1386039351 -2.4999351274
41.5774777282 -10.5269725016 -2.4999351274
41.6218381622 -10.4929204662 -2.4999351274
40.1671691377 -11.3622441395 -2.4999351447
41.7247846736 -10.4424858738 -2.4999351447
40.0191538923 -11.4467756357 -2.4999351620
42.0395567349 -10.2048639546 -2.4999351620
34.4141402824 -10.9634102646 -2.4999351966
39.7508263141 -11.5928442593 -2.4999351966
34.3691702110 -10.9640270593 -2.4999352138
39.3505687609 -11.7842433237 -2.4999352484
33.7965106769 -10.7459609212 -2.4999353176
33.8120128965 -10.7576705511 -2.4999353176
33.8743661277 -10.8040489561 -2.4999353176
34.4254480007 -11.1677182948 -2.4999353176
33.7663879190 -10.7534294033 -2.4999353349
34.3963852112 -11.1786046640 -2.4999353349
34.6339107658 -11.3131175276 -2.4999353349
34.6682906095 -11.3315266115 -2.4999353349
34.7373740276 -11.3677329674 -2.4999353349
33.2294495320 -10.3299446656 -2.4999353522
33.3012139689 -10.3964652594 -2.4999353522
33.3301939144 -10.4227750681 -2.4999353522
33.4774004215 -10.5517271707 -2.4999353522
34.9545094600 -11.5016026751 -2.4999353522
33.0718341939 -10.2108645353 -2.4999353695
33.0997200777 -10.2385346801 -2.4999353695
33.1701467158 -10.3069840215 -2.4999353695
33.1985995541 -10.3340708341 -2.4999353695
33.2272121491 -10.3609888361 -2.4999353695
34.9798680229 -11.5400594000 -2.4999353695
32.9308670901 -10.1009753920 -2.4999353867
33.0408251353 -10.2140258402 -2.4999353867
32.7924382811 -9.9869001104 -2.4999354040
32.8323518183 -10.0308316393 -2.4999354040
32.8457427748 -10.0453965545 -2.4999354040
32.8861733360 -10.0888527324 -2.4999354040
32.6438036189 -9.8535728293 -2.4999354213
32.7085863923 -9.9288074599 -2.4999354213
34.0514596488 -6.9595671379 -2.5000261466
34.0558041261 -6.9695057433 -2.5000261466
34.0645811859 -6.9893441814 -2.5000261466
34.0605276062 -7.0389697677 -2.5000261523
34.0594284532 -7.1490505883 -2.5000261639
34.0627241442 -7.2094819340 -2.5000261696
34.0463187343 -7.2304564681 -2.5000261754
34.0753468471 -7.6651444988 -2.5000262215
34.0745425714 -7.7943554939 -2.5000262388
40.9753183818 -7.4304749756 -2.5000262388
40.9614564482 -7.5053012920 -2.5000262445
40.9965606449 -7.4420119397 -2.5000262445
34.0694902439 -7.8714859680 -2.5000262503
40.9544068789 -7.6135121238 -2.5000262561
40.9513896062 -7.8008702221 -2.5000262791
40.9570246783 -7.8799337087 -2.5000262907
34.0909279920 -8.3311044490 -2.5000263137
38.8258019438 -10.9403512355 -2.5000266134
38.8419014106 -10.9361490552 -2.5000266134
38.9542397676 -10.9054029160 -2.5000266134
38.9702352890 -10.9008209463 -2.5000266134
36.0047706615 -10.9663317811 -2.5000266192
36.0371601763 -10.9745695275 -2.5000266192
36.0533730685 -10.9786165042 -2.5000266192
36.0695978614 -10.9826155025 -2.5000266192
39.0090137113 -10.9147036937 -2.5000266192
39.0250365065 -10.9099596521 -2.5000266192
39.0570396451 -10.9003294781 -2.5000266192
35.9176418775 -10.9682180826 -2.5000266249
39.0319334647 -10.9331278900 -2.5000266249
39.0480106616 -10.9283159670 -2.5000266249
35.8139679072 -10.9640114311 -2.5000266307
35.8463470334 -10.9733780713 -2.5000266307
39.1996240737 -10.9058287376 -2.5000266307
39.2156197810 -10.9005208749 -2.5000266307
39.2315997168 -10.8951657173 -2.5000266307
35.7585128886 -10.9727425345 -2.5000266365
35.7909446415 -10.9824371124 -2.5000266365
35.9703038448 -11.0323156940 -2.5000266365
39.1750291674 -10.9393009386 -2.5000266365
39.3033443492 -10.8960890543 -2.5000266365
39.3193107910 -10.8904744109 -2.5000266365
35.6379960553 -10.9602942121 -2.5000266422
35.6541684651 -10.9655220509 -2.5000266422
39.3273636498 -10.9132666628 -2.5000266422
39.3753642945 -10.8960673267 -2.5000266422
35.5657223981 -10.9618052599 -2.5000266480
35.5093446756 -10.9680240954 -2.5000266537
39.5042053070 -10.8993721887 -2.5000266537
39.5201805820 -10.8931633478 -2.5000266537
35.4365160550 -10.9678471504 -2.5000266595
39.5609988792 -10.9030698218 -2.5000266595
39.5929518750 -10.8902688350 -2.5000266595
35.3472515404 -10.9606217883 -2.5000266653
35.4283027609 -10.9905820812 -2.5000266653
39.4408354468 -10.9750473547 -2.5000266653
39.6499924671 -10.8930448157 -2.5000266653
39.7072532621 -10.8952314759 -2.5000266710
35.2165131281 -10.9615286770 -2.5000266768
35.2651039507 -10.9808089327 -2.5000266768
35.1427153979 -10.9574732088 -2.5000266826
35.1588816297 -10.9641661898 -2.5000266826
35.1912731365 -10.9774085377 -2.5000266826
35.2074981282 -10.9839577888 -2.5000266826
39.8224114809 -10.8978221623 -2.5000266826
39.8383807784 -10.8906720168 -2.5000266826
35.1010310292 -10.9662095051 -2.5000266883
35.1172232869 -10.9730257577 -2.5000266883
39.9122155039 -10.8835290267 -2.5000266883
35.0267913045 -10.9606190568 -2.5000266941
35.0591641372 -10.9746429576 -2.5000266941
39.9702945636 -10.8829785505 -2.5000266941
34.9685183751 -10.9612906348 -2.5000266998
34.8938895148 -10.9539275129 -2.5000267056
40.0710661409 -10.8879351923 -2.5000267056
34.8675587813 -10.9683682072 -2.5000267114
34.7925297384 -10.9596577458 -2.5000267171
34.8087039647 -10.9673866297 -2.5000267171
40.3339726072 -10.8880431429 -2.5000267344
40.3499107383 -10.8793797499 -2.5000267344
40.7337789853 -10.8800582390 -2.5000267805
34.1866184776 -10.9648424440 -2.5000267863
34.1419123393 -10.9664028282 -2.5000267921
33.7172833299 -10.7185963445 -2.5000267978
33.7637773019 -10.7511909899 -2.5000267978
33.8419041663 -10.8045943873 -2.5000267978
33.8733746421 -10.8256312090 -2.5000267978
33.9685251023 -10.8876194127 -2.5000267978
34.5442143746 -11.2147718852 -2.5000267978
33.3850161573 -10.4978913531 -2.5000268036
33.4444839511 -10.5452060206 -2.5000268036
33.4744267538 -10.5685986534 -2.5000268036
33.5650781929 -10.6377079413 -2.5000268036
33.6569419173 -10.7051974456 -2.5000268036
34.5503685694 -11.2448725509 -2.5000268036
34.6528531658 -11.2947793098 -2.5000268036
34.6700193533 -11.3029199160 -2.5000268036
34.6872095472 -11.3110097058 -2.5000268036
34.7216613518 -11.3270365538 -2.5000268036
34.7562073737 -11.3428592929 -2.5000268036
33.1798089797 -10.3575468968 -2.5000268094
33.2521775725 -10.4196304697 -2.5000268094
33.3550193625 -10.5047348615 -2.5000268094
33.4445561436 -10.5759734724 -2.5000268094
34.8507897546 -11.4112785331 -2.5000268094
34.8682997019 -11.4188330973 -2.5000268094
34.9385606675 -11.4485323933 -2.5000268094
34.9738217034 -11.4630697568 -2.5000268094
33.0779948800 -10.2995892386 -2.5000268151
33.1351377644 -10.3505506068 -2.5000268151
33.1928796471 -10.4008322663 -2.5000268151
35.0713632271 -11.5279608365 -2.5000268151
35.0892173766 -11.5348623939 -2.5000268151
41.1920466130 -10.7486905388 -2.5000268151
41.2075687595 -10.7374894174 -2.5000268151
41.2693239629 -10.6922272351 -2.5000268151
41.2846787426 -10.6807977604 -2.5000268151
41.3152865350 -10.6578027948 -2.5000268151
41.3457577457 -10.6346271456 -2.5000268151
35.2246235735 -11.6109265492 -2.5000268209
35.2789771186 -11.6301092568 -2.5000268209
40.3535413298 -11.2871951209 -2.5000268209
40.3877530691 -11.2696984640 -2.5000268209
40.4048199703 -11.2608743088 -2.5000268209
40.4218606935 -11.2519997051 -2.5000268209
40.4388750894 -11.2430747308 -2.5000268209
40.4558630092 -11.2340994639 -2.5000268209
40.4897588259 -11.2159983668 -2.5000268209
40.5235469573 -11.1976970475 -2.5000268209
40.6075384099 -11.1510719981 -2.5000268209
41.4060664851 -10.6185924845 -2.5000268209
41.4363041257 -10.5948804369 -2.5000268209
41.4963559005 -10.5469217350 -2.5000268209
41.5558360016 -10.4982558299 -2.5000268209
41.5706157252 -10.4859796495 -2.5000268209
41.6730479525 -10.3988297638 -2.5000268209
40.1563229362 -11.4098261710 -2.5000268266
40.1912636536 -11.3934941781 -2.5000268266
40.2261071339 -11.3769557500 -2.5000268266
40.3988234137 -11.2911875950 -2.5000268266
40.4159538353 -11.2823305977 -2.5000268266
33.0582232275 -10.3792769420 -2.5000268324
40.0252615887 -11.4952420560 -2.5000268324
41.5866715295 -10.5354917178 -2.5000268324
41.9055817147 -10.2534131836 -2.5000268324
35.6818342696 -11.8309751593 -2.5000268382
35.7005821193 -11.8360695072 -2.5000268382
39.8736865099 -11.5850596459 -2.5000268382
42.1430529697 -10.0523128103 -2.5000268382
42.1966353556 -9.9960295107 -2.5000268382
39.8284085216 -11.6291462714 -2.5000268439
39.6541333838 -11.7206393075 -2.5000268497
42.4788981010 -9.7513136602 -2.5000268497
39.3335946819 -11.8773730658 -2.5000268612
39.4089687076 -11.8542048166 -2.5000268612
35.8800534948 -12.0060823622 -2.5000268670
39.1181809290 -11.9882652912 -2.5000268727
38.5603191967 -12.2568106192 -2.5000269073
37.4558188841 -7.0058614382 -2.4999995664
37.3554918485 -7.0535233802 -2.4999995405
34.0637654846 -7.7286832337 -2.4999972063
40.9371791702 -6.8243045903 -2.4999968173
40.9447013687 -6.8013826994 -2.4999968173
40.9406120370 -6.8893548552 -2.4999967914
40.9601246731 -6.8319097977 -2.4999967914
40.9529031463 -6.9976119238 -2.4999967395
40.9656729421 -6.9630661327 -2.4999967395
40.9623872577 -7.0407253474 -2.4999967136
40.9560774083 -7.1855005844 -2.4999966617
40.9534593953 -7.2525870854 -2.4999966358
40.9497029554 -7.3199536827 -2.4999966098
40.9387398060 -7.4554506851 -2.4999965579
40.9499960495 -7.4325085148 -2.4999965579
40.9383489373 -7.6146470008 -2.4999964801
40.9472575484 -7.6490540760 -2.4999964542
40.9525589278 -7.7879065239 -2.4999963764
40.9395826298 -7.9044115895 -2.4999963245
40.9534950620 -7.8814565753 -2.4999963245
40.9509357682 -8.0231419149 -2.4999962467
40.9541565734 -8.1069500745 -2.4999961949
40.9478831091 -8.2028836797 -2.4999961430
35.7081266796 -10.9497509324 -2.4999952093
35.7401479213 -10.9576936699 -2.4999952093
35.8364857437 -10.9803832790 -2.4999952093
38.3869742776 -10.9591956825 -2.4999952093
38.4029952426 -10.9552661755 -2.4999952093
38.4509874116 -10.9431935396 -2.4999952093
38.4829218529 -10.9349087067 -2.4999952093
35.5900609299 -10.9437801715 -2.4999951834
35.6060485307 -10.9481245075 -2.4999951834
35.6220489129 -10.9524215302 -2.4999951834
35.6380619364 -10.9566712021 -2.4999951834
35.6540874612 -10.9608734860 -2.4999951834
38.4569884824 -10.9666098252 -2.4999951834
38.4890613572 -10.9582890781 -2.4999951834
38.5210844425 -10.9497787228 -2.4999951834
38.5370769636 -10.9454525348 -2.4999951834
35.4876254980 -10.9399236981 -2.4999951575
35.5036021389 -10.9445710734 -2.4999951575
38.3660668840 -11.0139506430 -2.4999951575
38.6075392719 -10.9509235048 -2.4999951575
38.6714390847 -10.9323121136 -2.4999951575
35.4008238793 -10.9390770830 -2.4999951315
35.4327873492 -10.9488381139 -2.4999951315
38.6783360028 -10.9554803635 -2.4999951315
38.7103391581 -10.9458502449 -2.4999951315
35.3296717037 -10.9420006533 -2.4999951056
35.3936954077 -10.9621751386 -2.4999951056
38.7654744943 -10.9541141826 -2.4999951056
38.7814787712 -10.9490650257 -2.4999951056
38.7974680417 -10.9439685473 -2.4999951056
38.8453444168 -10.9283956316 -2.4999951056
35.2422442876 -10.9386196640 -2.4999950797
35.2582181445 -10.9439929271 -2.4999950797
35.2742078266 -10.9493189131 -2.4999950797
35.3062341066 -10.9598288678 -2.4999950797
38.9486585091 -10.9187942596 -2.4999950797
35.2024684314 -10.9505854034 -2.4999950537
39.0044930479 -10.9246248284 -2.4999950537
35.1144554516 -10.9451568998 -2.4999950278
39.0126805730 -10.9473690522 -2.4999950278
35.0261970289 -10.9383032789 -2.4999950019
35.0421708952 -10.9443156502 -2.4999950019
39.1328545314 -10.9284854395 -2.4999950019
39.1646900209 -10.9161667091 -2.4999950019
34.9536658768 -10.9362902696 -2.4999949759
39.2212947864 -10.9197753125 -2.4999949759
34.8968576514 -10.9397555068 -2.4999949500
34.9128363796 -10.9461504810 -2.4999949500
39.2621993741 -10.9293192277 -2.4999949500
39.2781281296 -10.9228007773 -2.4999949500
39.3511005100 -10.9185050021 -2.4999949241
34.7985600370 -10.9516597836 -2.4999948981
39.4658653452 -10.9212671528 -2.4999948722
34.6354687079 -10.9334383487 -2.4999948462
34.6514298925 -10.9406065864 -2.4999948462
34.6674122122 -10.9477275765 -2.4999948462
34.6095277182 -10.9482300544 -2.4999948203
39.5814416818 -10.9216355620 -2.4999948203
39.5973463109 -10.9141727687 -2.4999948203
39.6554210989 -10.9132787874 -2.4999947944
39.6659154307 -10.9350550194 -2.4999947684
39.7136785049 -10.9117754713 -2.4999947684
34.4507159504 -10.9538657914 -2.4999947425
39.7403046511 -10.9255720744 -2.4999947425
39.7562202300 -10.9176393185 -2.4999947425
34.3601102233 -10.9361896486 -2.4999947166
39.5737610614 -11.0316966229 -2.4999947166
39.7989236168 -10.9231870068 -2.4999947166
39.8736090851 -10.9119038227 -2.4999946906
39.9325454561 -10.9081050871 -2.4999946647
39.9598584803 -10.9208930121 -2.4999946388
40.0350093480 -10.9074347701 -2.4999946128
40.0508699840 -10.8986303037 -2.4999946128
33.6622879396 -10.7000110392 -2.4999945610
33.7698305030 -10.7693948864 -2.4999945610
34.4265729680 -11.1298650790 -2.4999945610
33.4822952077 -10.6062538976 -2.4999945350
33.5424755277 -10.6483109041 -2.4999945350
33.6489732840 -10.7201866490 -2.4999945350
33.6796723849 -10.7403160473 -2.4999945350
34.5665357530 -11.2202883547 -2.4999945350
34.6001775646 -11.2349803926 -2.4999945350
34.7016162797 -11.2778587240 -2.4999945350
40.1977504338 -10.8982992854 -2.4999945350
33.2317936948 -10.4500438337 -2.4999945091
33.2755059336 -10.4838826056 -2.4999945091
33.3048135167 -10.5062256979 -2.4999945091
34.6924025503 -11.3002069337 -2.4999945091
34.8637718568 -11.3679113565 -2.4999945091
34.9245871985 -11.4162792895 -2.4999944832
34.9942511461 -11.4412137205 -2.4999944832
35.0817379695 -11.4712197399 -2.4999944832
40.2858050489 -10.9023228821 -2.4999944832
33.0005359107 -10.3238948401 -2.4999944572
35.2332354794 -11.5450763264 -2.4999944572
40.3300323644 -10.9038330897 -2.4999944572
35.3334294396 -11.5999108934 -2.4999944313
32.6110328026 -10.0316472403 -2.4999944054
35.4530808548 -11.6578728517 -2.4999944054
35.6109340411 -11.7221881554 -2.4999943794
35.5262629816 -11.7514549924 -2.4999943275
35.8032449960 -11.8136705612 -2.4999943275
40.6431293406 -10.9049034119 -2.4999942757
40.7494799600 -10.8912413290 -2.4999942238
40.9459142898 -10.9005013234 -2.4999940941
40.4680611266 -11.2439892351 -2.4999940682
40.5185342313 -11.2135789285 -2.4999940682
40.6020499815 -11.1619035651 -2.4999940682
40.6683065805 -11.1196774267 -2.4999940682
41.3016426011 -10.6554887460 -2.4999940682
41.3768183223 -10.5922919531 -2.4999940682
41.3917408379 -10.5795195520 -2.4999940682
40.3440556894 -11.3439289479 -2.4999940423
40.3612062019 -11.3342083567 -2.4999940423
40.3783278841 -11.3244370738 -2.4999940423
40.4124841585 -11.3047427749 -2.4999940423
41.5405531570 -10.4805132803 -2.4999940423
40.0767289582 -11.5140828249 -2.4999940163
40.0943839863 -11.5051522900 -2.4999940163
40.1647376034 -11.4689090620 -2.4999940163
40.3214323555 -11.3843353247 -2.4999940163
41.7014330214 -10.3634528037 -2.4999940163
41.7581650166 -10.3082741508 -2.4999940163
41.8142401408 -10.2524280814 -2.4999940163
41.8558606858 -10.2101102375 -2.4999940163
39.8729646360 -11.6391096732 -2.4999939904
39.9807453862 -11.5883419802 -2.4999939904
40.0164699690 -11.5709952942 -2.4999939904
41.8313990708 -10.2694547195 -2.4999939904
41.9555730765 -10.1409386582 -2.4999939904
41.9961986500 -10.0973709540 -2.4999939904
42.1339161711 -9.9804573615 -2.4999939645
42.1600902845 -9.9503999347 -2.4999939645
42.1731105402 -9.9353132820 -2.4999939645
42.3321860627 -9.7820137246 -2.4999939385
39.5525600619 -11.8546052222 -2.4999939126
42.4264933051 -9.7801010699 -2.4999938607
42.5809965795 -9.6178475682 -2.4999938348
39.4548637621 -11.9954075287 -2.4999938089
42.8766819581 -9.2293615248 -2.4999938089
38.8465544423 -12.2389734881 -2.4999937570
37.2589722061 -7.0675261400 -2.4999972759
40.9436922297 -6.2000219888 -2.4999897865
40.9386168509 -6.5194437277 -2.4999896540
40.9461987127 -6.4820878225 -2.4999896540
40.9625983633 -6.3946731961 -2.4999896540
40.9669511727 -6.3696370184 -2.4999896540
40.9596697338 -6.5368638201 -2.4999895877
40.9648638419 -6.5118424805 -2.4999895877
40.9394210927 -6.7294976774 -2.4999895214
40.9457552419 -6.7045927642 -2.4999895214
40.9488670338 -6.6921263635 -2.4999895214
40.9393732443 -6.8228716305 -2.4999894551
40.9428349545 -6.8104235912 -2.4999894551
40.9529989332 -6.7730187944 -2.4999894551
40.9628305652 -6.7355252709 -2.4999894551
40.9519883353 -6.8668708947 -2.4999893889
40.9555801481 -6.8543853452 -2.4999893889
40.9451878626 -7.1259767891 -2.4999891900
40.9495461872 -7.1135102230 -2.4999891900
40.9409263779 -7.2089152045 -2.4999891237
40.9500968958 -7.1839929949 -2.4999891237
40.9895330561 -7.0711896717 -2.4999891237
40.9447038026 -7.2672769466 -2.4999890575
40.9476860876 -7.3259456319 -2.4999889912
40.9498665127 -7.3849105774 -2.4999889249
40.9459020426 -7.4566311100 -2.4999888586
40.9512384993 -7.4441609845 -2.4999888586
40.9515315646 -7.5634744199 -2.4999887261
40.9545240064 -7.6713184515 -2.4999885935
40.9519392345 -7.7318381723 -2.4999885272
40.9485102829 -7.7925787331 -2.4999884610
40.9543326875 -8.0370147206 -2.4999881296
40.9613859870 -8.0245171162 -2.4999881296
35.3353767937 -10.9448153637 -2.4999864064
38.1874626516 -10.9295536378 -2.4999864064
38.2186939062 -10.9208567269 -2.4999864064
35.2349804858 -10.9424339004 -2.4999863401
35.3449596623 -10.9723184635 -2.4999863401
37.9252885232 -11.0195810706 -2.4999863401
38.2565642511 -10.9352037233 -2.4999863401
38.2878277241 -10.9260978853 -2.4999863401
35.1342304669 -10.9381505164 -2.4999862738
35.1655660201 -10.9475174021 -2.4999862738
35.1969564426 -10.9566987322 -2.4999862738
36.2726385694 -11.1552126558 -2.4999862738
38.3885261334 -10.9207365356 -2.4999862738
35.0644633999 -10.9419168888 -2.4999862075
35.1272388252 -10.9612903572 -2.4999862075
35.1429681570 -10.9660175554 -2.4999862075
38.4427106914 -10.9288364812 -2.4999862075
34.9943843569 -10.9447699048 -2.4999861412
35.0257615202 -10.9549640511 -2.4999861412
38.5128097263 -10.9311467345 -2.4999861412
38.5284350745 -10.9258589336 -2.4999861412
38.5518949945 -10.9433877491 -2.4999860750
34.8690283515 -10.9532461542 -2.4999860087
34.9004578571 -10.9641818004 -2.4999860087
38.6225639386 -10.9442645309 -2.4999860087
38.6382276114 -10.9386519997 -2.4999860087
34.7823948042 -10.9477811526 -2.4999859424
34.7980856821 -10.9535285209 -2.4999859424
38.6621294320 -10.9557130437 -2.4999859424
38.7248162413 -10.9325162904 -2.4999859424
34.7111878722 -10.9469138576 -2.4999858761
34.7425826763 -10.9587834519 -2.4999858761
38.7333393149 -10.9551369115 -2.4999858761
38.7960143221 -10.9310976102 -2.4999858761
38.8116382858 -10.9249720391 -2.4999858761
38.8674564624 -10.9287309951 -2.4999858099
34.5680322848 -10.9423351620 -2.4999857436
34.5837079904 -10.9487166773 -2.4999857436
34.5117736531 -10.9452061066 -2.4999856773
38.9954093376 -10.9278456895 -2.4999856773
34.4300138886 -10.9629136605 -2.4999855447
34.3260177912 -10.9432076680 -2.4999854785
34.3416971368 -10.9503051021 -2.4999854785
34.3160167582 -10.9652148173 -2.4999854122
39.2226282930 -10.9317015667 -2.4999854122
39.3374144687 -10.9300490752 -2.4999852796
33.7303682941 -10.7703445416 -2.4999851471
33.7455388855 -10.7792047710 -2.4999851471
33.7607356207 -10.7880200842 -2.4999851471
33.7759583668 -10.7967904042 -2.4999851471
33.8524575886 -10.8399644328 -2.4999851471
33.8678335940 -10.8484631954 -2.4999851471
33.8832346731 -10.8569164357 -2.4999851471
34.4857045026 -11.1437136468 -2.4999851471
33.5672959165 -10.6997741686 -2.4999850808
34.7568715261 -11.2725431348 -2.4999850808
39.5109259755 -10.9230187502 -2.4999850808
33.2456009888 -10.5131355848 -2.4999850145
33.3617396196 -10.5942986791 -2.4999850145
33.5996149744 -10.7482681251 -2.4999850145
34.8662511365 -11.3352244788 -2.4999850145
34.9505947461 -11.3622137600 -2.4999850145
34.9844424139 -11.3726596744 -2.4999850145
32.9487211804 -10.3171888661 -2.4999849482
33.1026842656 -10.4378386337 -2.4999849482
33.1310953612 -10.4592335852 -2.4999849482
35.0796992925 -11.4260340870 -2.4999849482
32.7560145261 -10.1864203537 -2.4999848820
32.7694620274 -10.1981654526 -2.4999848820
39.9462498374 -10.9262354790 -2.4999844843
35.9971354049 -11.8074663680 -2.4999844180
40.4506127650 -11.2934486958 -2.4999828936
40.5005804598 -11.2602355594 -2.4999828936
40.5171706149 -11.2490661333 -2.4999828936
40.5337276562 -11.2378476793 -2.4999828936
40.5831986502 -11.2038991345 -2.4999828936
40.5996217905 -11.1924855553 -2.4999828936
40.6160110955 -11.1810234434 -2.4999828936
40.6323664218 -11.1695128991 -2.4999828936
40.6649745660 -11.1463469168 -2.4999828936
40.6974450818 -11.1229884192 -2.4999828936
40.7297768327 -11.0994382239 -2.4999828936
41.2422262245 -10.6839403215 -2.4999828936
41.2719508848 -10.6571747021 -2.4999828936
41.2867537017 -10.6437260614 -2.4999828936
41.3309225465 -10.6031182285 -2.4999828936
41.3747292802 -10.5621200209 -2.4999828936
41.3892504585 -10.5483677590 -2.4999828936
40.2775510271 -11.4320180867 -2.4999828273
40.3796763145 -11.3681993912 -2.4999828273
40.4134643772 -11.3465249311 -2.4999828273
40.4973683499 -11.2914675479 -2.4999828273
41.3178508358 -10.6480530707 -2.4999828273
41.4924737548 -10.4821860501 -2.4999828273
41.6055707748 -10.3682098136 -2.4999828273
41.6610999143 -10.3102260237 -2.4999828273
40.1168896491 -11.5552996244 -2.4999827611
40.1691942655 -11.5250377821 -2.4999827611
41.6229300066 -10.3850321902 -2.4999827611
41.7062612883 -10.2975003797 -2.4999827611
41.7609467120 -10.2383301229 -2.4999827611
41.8149281774 -10.1785169452 -2.4999827611
40.1113459212 -11.5862959645 -2.4999826948
41.8329690170 -10.1946061772 -2.4999826948
41.8731306655 -10.1491686755 -2.4999826948
41.8864280784 -10.1339438590 -2.4999826948
41.9782408153 -10.0262781005 -2.4999826948
42.1119363419 -9.9000921169 -2.4999826285
42.1494733580 -9.8521905343 -2.4999826285
42.3345407397 -9.6855870280 -2.4999824960
39.3383666381 -12.0941863608 -2.4999823634
40.9353374398 -5.7569213695 -2.4999963505
40.9469330763 -7.1893097763 -2.4999961171
40.9510001593 -7.1759208268 -2.4999961171
40.9550276177 -7.1625199047 -2.4999961171
40.9533031011 -7.2500766723 -2.4999960911
40.9720287353 -7.2708733817 -2.4999960652
40.9479720988 -7.4880539393 -2.4999960133
40.9503332654 -7.5501613603 -2.4999959874
40.9624536086 -7.5857323047 -2.4999959614
40.9513199001 -7.8013776583 -2.4999958836
40.9591186713 -7.9016970261 -2.4999958318
37.8777171222 -10.9150285854 -2.4999954946
34.9860140573 -10.9452068476 -2.4999954687
35.0316626093 -10.9577561090 -2.4999954687
37.9449437908 -10.9206252347 -2.4999954687
37.9600619148 -10.9161003864 -2.4999954687
37.9902576762 -10.9069166226 -2.4999954687
37.9822004636 -10.9346578732 -2.4999954427
34.8202961275 -10.9466133147 -2.4999954168
38.1257756291 -10.9142631927 -2.4999954168
34.7369284923 -10.9453159622 -2.4999953909
34.7521336924 -10.9502808953 -2.4999953909
34.7825878213 -10.9600757139 -2.4999953909
38.2241913885 -10.9060282023 -2.4999953909
34.6988894427 -10.9581741734 -2.4999953649
38.2927123311 -10.9070529724 -2.4999953649
38.3765850511 -10.9014097778 -2.4999953390
34.5763234240 -10.9668911470 -2.4999953131
34.4917380870 -10.9616513672 -2.4999952871
38.5543494067 -10.9083077800 -2.4999952612
38.6392047029 -10.8983885225 -2.4999952353
34.2669772224 -10.9504734440 -2.4999952093
38.7492874073 -10.9022290459 -2.4999951834
34.1565630366 -10.9556475401 -2.4999951575
33.8898145979 -10.8568215807 -2.4999951315
38.9053263979 -10.8819215259 -2.4999951315
33.6272987671 -10.7441394529 -2.4999951056
33.8191543906 -10.8479720346 -2.4999951056
34.6859395232 -11.2083338579 -2.4999951056
33.3839791003 -10.6267890209 -2.4999950797
35.0126514833 -11.3526047789 -2.4999950537
35.0290603110 -11.3567522914 -2.4999950537
35.0454813359 -11.3608512455 -2.4999950537
35.0619144145 -11.3649016053 -2.4999950537
39.1407830905 -10.8972369572 -2.4999950019
39.1823594765 -10.9023233001 -2.4999949759
39.2928862347 -10.9242007257 -2.4999948981
39.3925195279 -10.9230038756 -2.4999948462
39.4349910683 -10.9261784182 -2.4999948203
40.5756834780 -11.2344376645 -2.4999938607
40.5917184053 -11.2221292393 -2.4999938607
40.6554919091 -11.1724228181 -2.4999938607
40.6713430361 -11.1598785765 -2.4999938607
41.4451901251 -10.4770207394 -2.4999938348
40.2238410154 -11.5445146321 -2.4999938089
41.6657832562 -10.2653028041 -2.4999938089
41.6789465376 -10.2497739069 -2.4999938089
41.6920638242 -10.2342061384 -2.4999938089
40.0478763170 -11.6857136118 -2.4999937829
40.8117520243 -11.1396239269 -2.4999937829
41.7236897143 -10.2340934367 -2.4999937829
41.8014141599 -10.1393168939 -2.4999937829
41.8774442519 -10.0431758121 -2.4999937829
41.9024069377 -10.0108307765 -2.4999937829
39.8667348511 -11.8215148836 -2.4999937570
40.7474964836 -11.2228421781 -2.4999937570
41.9340401365 -10.0092585146 -2.4999937570
40.0029606697 -11.7696419223 -2.4999937310
42.0755477571 -9.8584948871 -2.4999937310
34.8900623689 -10.9562433628 -2.5000115131
34.9046686713 -10.9599352630 -2.5000115131
37.4243156699 -10.9501831720 -2.5000115131
40.9700851727 -7.6513712608 -2.5000115131
40.9748884629 -7.6370918141 -2.5000115131
34.8255131508 -10.9643992211 -2.5000115621
34.8547859953 -10.9721215493 -2.5000115621
34.8694394225 -10.9759177339 -2.5000115621
37.4889031560 -10.9580302241 -2.5000115621
37.5617841194 -10.9376191099 -2.5000115621
40.9580172982 -7.7591341242 -2.5000115621
40.9631394233 -7.7448899050 -2.5000115621
40.9881167743 -7.6734449587 -2.5000115621
34.7021079479 -10.9549831398 -2.5000116111
34.7459555167 -10.9675971753 -2.5000116111
34.7752486739 -10.9757901373 -2.5000116111
37.6268319916 -10.9436632307 -2.5000116111
37.6559331273 -10.9348123788 -2.5000116111
34.6221545081 -10.9561946985 -2.5000116601
34.6953218991 -10.9781841058 -2.5000116601
37.7794458159 -10.9206235818 -2.5000116601
40.9605964186 -7.8900277191 -2.5000116601
34.5418510450 -10.9561156233 -2.5000117090
34.5710798456 -10.9655163368 -2.5000117090
37.8016489520 -10.9386771915 -2.5000117090
37.8161905510 -10.9337561688 -2.5000117090
34.4612183199 -10.9547358487 -2.5000117580
34.4758220391 -10.9596963538 -2.5000117580
40.9714080740 -7.9934894654 -2.5000117580
34.3948734302 -10.9572455974 -2.5000118070
34.4094848640 -10.9624023517 -2.5000118070
34.4241114884 -10.9675158601 -2.5000118070
34.4387531756 -10.9725860779 -2.5000118070
34.4534097973 -10.9776129608 -2.5000118070
40.9639365983 -8.0741297813 -2.5000118070
40.9760022056 -8.0455857195 -2.5000118070
34.3428510130 -10.9642268385 -2.5000118560
37.9861497161 -10.9501257440 -2.5000118560
38.0878269220 -10.9109545274 -2.5000118560
40.9551306301 -8.1549786369 -2.5000118560
34.2613130803 -10.9596113464 -2.5000119050
34.3198867901 -10.9815588923 -2.5000119050
34.1266700759 -10.9583955662 -2.5000120030
33.7565650803 -10.8173787884 -2.5000120520
38.2990285526 -10.9274749442 -2.5000120520
38.3424903599 -10.9081694104 -2.5000120520
38.4247764378 -10.8970377407 -2.5000121010
40.9567869403 -8.4343516392 -2.5000121010
38.5322129970 -10.8992422455 -2.5000121989
38.5862303482 -10.8994870707 -2.5000122479
40.9699065692 -8.5673124670 -2.5000122479
38.6548601895 -10.8917535388 -2.5000122969
38.6514458754 -10.9206774793 -2.5000123459
38.6948334814 -10.8982447071 -2.5000123459
38.8185614131 -10.8867843980 -2.5000124439
38.8446461273 -10.9000077004 -2.5000124929
38.9837519816 -10.8765072163 -2.5000125908
40.9439774108 -9.0465307314 -2.5000126888
39.1630136897 -10.8813772308 -2.5000127868
40.9392044956 -9.1435627355 -2.5000127868
40.9408191493 -9.1851845167 -2.5000128358
40.9341303581 -9.3671077653 -2.5000130317
40.9282005464 -9.6222043793 -2.5000133257
39.8141204812 -10.8738663224 -2.5000135216
40.6122138405 -11.2236673043 -2.5000150892
40.6582130988 -11.1838218850 -2.5000150892
40.6886820396 -11.1570321613 -2.5000150892
40.7189919501 -11.1300626420 -2.5000150892
41.0980740605 -10.7635354640 -2.5000150892
40.4715591666 -11.3723075005 -2.5000151382
40.5345813341 -11.3207436383 -2.5000151382
40.5658625137 -11.2946829653 -2.5000151382
40.5814451475 -11.2815833413 -2.5000151382
41.3351659128 -10.5397707732 -2.5000151382
41.3750675042 -10.4935364908 -2.5000151382
40.2770625423 -11.5540478417 -2.5000151872
40.0918357090 -11.7170683615 -2.5000152362
40.1756584214 -11.6580758422 -2.5000152362
40.2420826475 -11.6099932096 -2.5000152362
40.3243052424 -11.5487901923 -2.5000152362
41.5683564979 -10.3352141391 -2.5000152362
41.6440805682 -10.2382868023 -2.5000152362
41.7302343498 -10.1235277512 -2.5000152362
41.7664264606 -10.0738038491 -2.5000152362
40.0547154255 -11.7718584021 -2.5000152852
41.7375108158 -10.1544003312 -2.5000152852
41.9038704850 -9.9193266073 -2.5000152852
40.0683043606 -11.7918503036 -2.5000153342
40.4026956495 -11.5497938368 -2.5000153342
41.9554920381 -9.9292612644 -2.5000153832
39.7983647259 -12.0230501170 -2.5000154321
37.1442993520 -7.1969770974 -2.5000052294
34.6300978165 -10.9577134434 -2.5000139147
37.1550784448 -10.9666101606 -2.5000139147
37.2242854518 -10.9476687035 -2.5000139147
37.2380928100 -10.9437576924 -2.5000139147
34.5128003556 -10.9492983498 -2.5000139781
34.5404605391 -10.9574775279 -2.5000139781
37.2447151589 -10.9670059133 -2.5000139781
37.3139182145 -10.9467386513 -2.5000139781
37.3415142298 -10.9383455203 -2.5000139781
37.2234359620 -10.9981128411 -2.5000140415
37.3624641190 -10.9571727707 -2.5000140415
37.3762989873 -10.9528529605 -2.5000140415
37.4039300852 -10.9440906568 -2.5000140415
37.5573871697 -10.9434201463 -2.5000141683
37.6621539198 -10.9309113011 -2.5000142317
37.7396341716 -10.9269659932 -2.5000142951
37.7623012400 -10.9439963664 -2.5000143585
37.8036345280 -10.9273664413 -2.5000143585
40.9503656786 -7.6081123676 -2.5000148657
40.9542777220 -7.5931935492 -2.5000148657
40.9596121794 -4.9838595110 -2.5000148657
38.3627912232 -10.9058517512 -2.5000149291
40.9534240760 -7.6890402967 -2.5000149291
40.9697645792 -7.6292546486 -2.5000149291
40.9966541779 -7.5241796414 -2.5000149291
40.9508371771 -4.8581565632 -2.5000149291
40.9423474439 -4.8283527585 -2.5000149291
40.9551863367 -7.7703482112 -2.5000149925
40.9595782820 -7.7554144226 -2.5000149925
40.9479874695 -4.7619329651 -2.5000149925
40.9389284950 -4.7321477043 -2.5000149925
40.9739106563 -7.7921921000 -2.5000150559
40.9527571512 -4.6951776790 -2.5000150559
40.9385100430 -4.6504803171 -2.5000150559
40.9336729278 -4.6356095108 -2.5000150559
40.9525924586 -8.0163436149 -2.5000151827
40.9337021283 -4.4861941478 -2.5000151827
40.9544320727 -8.0840449694 -2.5000152460
40.9663703647 -8.1221437924 -2.5000153094
40.9718029360 -8.1071753802 -2.5000153094
40.9460550475 -4.3119921690 -2.5000153728
40.9545300065 -8.2888160927 -2.5000154362
40.9448498669 -4.2434741622 -2.5000154362
40.9527345622 -8.3575889852 -2.5000154996
40.9550822032 -4.2045281300 -2.5000154996
40.9427253104 -4.1747106499 -2.5000154996
40.9301922236 -4.1449667991 -2.5000154996
40.9618780248 -8.5205324813 -2.5000156898
40.9658740459 -8.6854157554 -2.5000158800
39.1666713339 -10.8635337941 -2.5000159434
40.9439923114 -8.7855610487 -2.5000159434
39.2491633924 -10.8637459788 -2.5000160702
40.9338172329 -8.9117182452 -2.5000160702
40.7481579345 -11.1370990743 -2.5000191766
41.1335658490 -10.7200832270 -2.5000191766
41.1597540445 -10.6890957446 -2.5000191766
41.2115781532 -10.6266586824 -2.5000191766
41.2499594196 -10.5794308559 -2.5000191766
40.3762007639 -11.5129417810 -2.5000192400
40.8368029072 -11.0818695876 -2.5000192400
40.8509914496 -11.0672715093 -2.5000192400
40.8792386731 -11.0379497556 -2.5000192400
41.3445500052 -10.4987881763 -2.5000192400
41.3817912563 -10.4503853346 -2.5000192400
41.4063794842 -10.4179339875 -2.5000192400
41.4670063352 -10.3361741609 -2.5000192400
40.3137061539 -11.5970573890 -2.5000193034
40.3607345213 -11.5577594599 -2.5000193034
40.4383342083 -11.4913404481 -2.5000193034
40.4997013528 -11.4373833986 -2.5000193034
40.5453053789 -11.3964411542 -2.5000193034
40.5755054306 -11.3689221809 -2.5000193034
40.6055421422 -11.3412250156 -2.5000193034
40.7677776599 -11.1857490591 -2.5000193034
41.4623391764 -10.3833551595 -2.5000193034
40.0716407187 -11.8188241569 -2.5000193668
40.1043480200 -11.7941001504 -2.5000193668
41.7043954279 -10.0781687020 -2.5000193668
41.4653268356 -10.5401176378 -2.5000195570
41.9921221149 -9.7469780616 -2.5000195570
40.3425906001 -11.7297065587 -2.5000196204
42.0538794267 -9.6864830008 -2.5000196204
42.0739363891 -9.6500687240 -2.5000196204
37.1274076258 -10.9626634317 -2.5000022911
37.1403868176 -10.9584840334 -2.5000022911
37.2388049237 -10.9509952885 -2.5000022968
37.2517491116 -10.9464864079 -2.5000022968
37.2206594280 -10.9827840175 -2.5000023026
37.2986884236 -10.9554745045 -2.5000023026
37.4453336804 -10.9518793374 -2.5000023141
37.4582795798 -10.9467595035 -2.5000023141
37.7779620904 -10.9398160977 -2.5000023429
37.8400467456 -10.9369174026 -2.5000023487
37.8529466579 -10.9306300015 -2.5000023487
38.0000003797 -10.9647878523 -2.5000023717
38.0518062223 -10.9375150766 -2.5000023717
38.3558246743 -10.9314032801 -2.5000024063
38.4456191547 -10.9329566631 -2.5000024179
40.9667740687 -5.2616822300 -2.5000024813
40.9428953836 -8.0668679080 -2.5000024870
40.9472915941 -8.0514142772 -2.5000024870
40.9433695226 -8.1509289215 -2.5000024928
40.9588958044 -5.0474511461 -2.5000024928
40.9497783280 -5.0164891283 -2.5000024928
40.9473889260 -8.2198760536 -2.5000024985
40.9492483226 -4.9320859416 -2.5000024985
40.9298327135 -8.3508951378 -2.5000025043
40.9454052022 -8.3046003086 -2.5000025043
40.9599682092 -4.8087543521 -2.5000025101
40.9494385036 -4.7777901672 -2.5000025101
40.9505987655 -4.7079311450 -2.5000025158
40.9486423970 -8.5141691536 -2.5000025216
40.9450870216 -4.6223323347 -2.5000025216
40.9298107441 -8.6308762233 -2.5000025274
40.9560499523 -4.5828695069 -2.5000025274
40.9441839047 -4.5519324571 -2.5000025274
40.9485079564 -4.4967366656 -2.5000025331
40.9585450550 -4.4567897838 -2.5000025389
40.9147602884 -8.9147577303 -2.5000025504
40.9646574724 -4.3452628913 -2.5000025504
40.9513855136 -4.3142790751 -2.5000025504
40.9463699141 -4.2427040195 -2.5000025562
40.9233315870 -9.0118396953 -2.5000025619
40.8872862140 -3.9501560563 -2.5000025735
40.7992181397 -3.7834654531 -2.5000025735
41.2403433249 -4.7324947827 -2.5000025792
41.2181789369 -4.6673170621 -2.5000025792
41.3003547395 -4.8399997484 -2.5000025850
40.9303947113 -3.9282700198 -2.5000025850
40.8498902433 -3.7753482256 -2.5000025850
40.9254411866 -9.5816937309 -2.5000026253
40.9284054787 -9.6246538178 -2.5000026311
40.9401748510 -9.6523282923 -2.5000026369
40.9382928071 -9.8415060971 -2.5000026599
40.9490482206 -9.8698192845 -2.5000026657
40.9779204366 -10.1777461664 -2.5000027118
40.5544820701 -11.3691505072 -2.5000028155
40.5686487292 -11.3548314244 -2.5000028155
40.6108936902 -11.3116236096 -2.5000028155
41.2675420035 -10.5228788393 -2.5000028155
41.3023763305 -10.4735014998 -2.5000028155
40.5287359972 -11.4290336458 -2.5000028213
40.5716410330 -11.3861771121 -2.5000028213
40.5858579849 -11.3718071955 -2.5000028213
41.4132476893 -10.3537116538 -2.5000028213
41.4888746465 -10.2821836033 -2.5000028270
41.5215642225 -10.2308515390 -2.5000028270
41.5537969681 -10.1792313945 -2.5000028270
41.1937713464 -10.7452047166 -2.5000028328
41.6062429692 -10.1398563164 -2.5000028328
41.6480353797 -10.0699705532 -2.5000028328
41.6991082466 -9.9819259816 -2.5000028328
39.9985911456 -11.9946146837 -2.5000028386
40.4025241189 -11.6499149831 -2.5000028386
41.7309245739 -10.0236679569 -2.5000028443
41.8613511329 -9.8376629696 -2.5000028501
39.1458006676 -12.7639670501 -2.5000028789
38.8704258710 -12.9624333889 -2.5000028904
37.0122646520 -7.4108590315 -2.4999995664
37.0534233468 -7.2781898500 -2.4999995664
37.0733105496 -7.2974913658 -2.4999995405
37.0362215781 -7.4834325076 -2.4999995145
37.1048179573 -7.4392249367 -2.4999994626
37.1847575169 -7.3479474678 -2.4999994108
36.5394955323 -10.9602271192 -2.4999967136
36.6234441557 -10.9396365618 -2.4999967136
36.6174097012 -10.9661183548 -2.4999966876
36.7319463771 -10.9605174236 -2.4999966617
36.7919366926 -10.9431407480 -2.4999966617
36.9022541069 -10.9594952090 -2.4999966098
36.9502430079 -10.9436497346 -2.4999966098
36.9940276984 -10.9542330846 -2.4999965839
37.0741540575 -10.9513195897 -2.4999965579
37.0981205667 -10.9424509580 -2.4999965579
37.1546175771 -10.9468331815 -2.4999965320
37.1874128575 -10.9599806610 -2.4999965061
37.1994277964 -10.9552289916 -2.4999965061
37.2234152424 -10.9456191300 -2.4999965061
37.2353875397 -10.9407610219 -2.4999965061
37.2805380126 -10.9482783735 -2.4999964801
37.2925179264 -10.9432512742 -2.4999964801
37.4757676708 -10.9678926173 -2.4999963764
37.5822799699 -10.9437436058 -2.4999963505
37.6409779201 -10.9414070921 -2.4999963245
37.6529359304 -10.9353137765 -2.4999963245
37.7944593408 -10.9425532329 -2.4999962467
37.8540113738 -10.9372346439 -2.4999962208
37.8659561092 -10.9305111550 -2.4999962208
38.5788431802 -10.9276051700 -2.4999958058
38.6052186641 -10.9381069512 -2.4999957799
38.6556048297 -10.9304043534 -2.4999957540
38.9398522942 -10.9203274334 -2.4999955724
40.9428654343 -8.3598297421 -2.4999952353
40.9488042716 -5.4541080973 -2.4999952353
40.9392428099 -8.4614394964 -2.4999952093
40.9438501963 -8.4456001676 -2.4999952093
40.9529243017 -8.4138809683 -2.4999952093
40.9546352974 -5.3842138121 -2.4999952093
40.9501396262 -5.3683424137 -2.4999952093
40.9363711875 -5.3208089843 -2.4999952093
40.9287375195 -8.5791884247 -2.4999951834
40.9577693929 -8.4841197287 -2.4999951834
40.9642161618 -5.3298800715 -2.4999951834
40.9548562644 -5.2980949106 -2.4999951834
40.9453084791 -5.2663656822 -2.4999951834
40.9404642327 -5.2505223899 -2.4999951834
40.9355731402 -5.2346934971 -2.4999951834
40.9436396723 -5.1799193801 -2.4999951575
40.9385397094 -5.1640814027 -2.4999951575
40.9222774964 -8.7523306042 -2.4999951315
40.9331666998 -8.7207336679 -2.4999951315
40.9543833458 -8.6573492900 -2.4999951315
40.9472102769 -5.0378118826 -2.4999951056
40.9416899187 -5.0219639644 -2.4999951056
40.9361227037 -5.0061324458 -2.4999951056
40.9280195198 -8.8792303641 -2.4999950797
40.9532770027 -4.9821971954 -2.4999950797
40.9475920997 -4.9663315741 -2.4999950797
40.9418602881 -4.9504828393 -2.4999950797
40.9267393219 -8.9509695160 -2.4999950537
40.9327948813 -8.9351650329 -2.4999950537
40.9388036617 -8.9193427056 -2.4999950537
40.9447656104 -8.9035026724 -2.4999950537
40.9470296359 -4.8945832051 -2.4999950537
40.9410855822 -4.8787364480 -2.4999950537
40.9431712566 -8.9755049712 -2.4999950278
40.9492993244 -8.9596517721 -2.4999950278
40.9674017747 -8.9119843791 -2.4999950278
40.9516267671 -4.8384392620 -2.4999950278
40.9393595612 -4.8067371852 -2.4999950278
40.9331556766 -4.7909135019 -2.4999950278
40.9406199505 -9.0477493871 -2.4999950019
40.9493707935 -4.7661850207 -2.4999950019
40.9430469045 -4.7503318999 -2.4999950019
40.9501712747 -9.0885322140 -2.4999949759
40.9566336668 -9.0726578130 -2.4999949759
40.9590887445 -4.7254415772 -2.4999949759
40.9527960724 -9.1453854705 -2.4999949500
40.9594266353 -9.1295030561 -2.4999949500
40.9553332979 -4.6527096316 -2.4999949500
40.9750894049 -9.1547311973 -2.4999949241
40.9562766223 -9.2597415838 -2.4999948981
40.9632454560 -9.2438483730 -2.4999948981
40.9589430101 -4.5383575225 -2.4999948981
40.9642640022 -9.3013364557 -2.4999948722
40.9713558462 -9.2854194348 -2.4999948722
40.9454735631 -4.4491231652 -2.4999948722
40.9646838684 -9.3590267477 -2.4999948462
40.9380141453 -4.3755914789 -2.4999948462
40.9523727703 -4.3494082898 -2.4999948203
40.9372122798 -4.3177103583 -2.4999948203
40.9513068386 -4.2913364034 -2.4999947944
40.9435782530 -4.2754796331 -2.4999947944
40.9840183989 -9.5438970746 -2.4999947425
40.9392683424 -4.1588119261 -2.4999947425
40.9819137993 -9.6025267799 -2.4999947166
41.1215168862 -4.4278517050 -2.4999946906
40.8634465073 -3.9157894961 -2.4999946906
40.8546073704 -3.9001942757 -2.4999946906
40.8457221388 -3.8846252712 -2.4999946906
40.8367908901 -3.8690826190 -2.4999946906
40.7914471403 -3.7917693940 -2.4999946906
40.7636937494 -3.7457063546 -2.4999946906
40.7543519124 -3.7304069651 -2.4999946906
40.7165332126 -3.6694877599 -2.4999946906
41.2740242397 -4.7340578581 -2.4999946647
41.2676038922 -4.7172444942 -2.4999946647
41.2611338358 -4.7004501964 -2.4999946647
40.5882317235 -3.4313671953 -2.4999946647
41.3642143307 -4.9123707323 -2.4999946388
41.3583210703 -4.8952897896 -2.4999946388
41.3342435238 -4.8271425919 -2.4999946388
41.3156571147 -4.7762217676 -2.4999946388
40.5665924913 -3.3584345236 -2.4999946388
40.5455758191 -3.3290363414 -2.4999946388
40.4706555504 -3.2271326599 -2.4999946388
40.9672912072 -9.8386851701 -2.4999946128
41.4270692571 -5.0250397624 -2.4999946128
41.3987579934 -4.9388696492 -2.4999946128
40.3901904591 -3.0834022418 -2.4999946128
40.3332750436 -3.0127803504 -2.4999946128
40.9797363673 -9.8662501636 -2.4999945869
41.4980146615 -5.1744049098 -2.4999945869
41.4928959602 -5.1569270150 -2.4999945869
41.4500897135 -5.0176645425 -2.4999945869
40.9742341730 -9.9258393039 -2.4999945610
41.4786627386 -5.0277093291 -2.4999945610
40.9772132800 -9.9696324259 -2.4999945350
41.6241220210 -5.4625396671 -2.4999945350
41.6642444840 -5.5287664466 -2.4999945091
40.9746551834 -10.1177989022 -2.4999944572
40.9664870010 -10.1780733450 -2.4999944313
40.9781946328 -10.2512283544 -2.4999943794
40.9683286553 -10.4017201670 -2.4999943016
40.9666638652 -10.4920149025 -2.4999942497
40.9760594061 -10.5214058879 -2.4999942238
40.5435870429 -11.4227031503 -2.4999939904
40.6362531794 -11.3191054598 -2.4999939904
40.6623332906 -11.2891558166 -2.4999939904
40.6753067849 -11.2741232638 -2.4999939904
40.6882357533 -11.2590523988 -2.4999939904
40.7139596607 -11.2287962602 -2.4999939904
40.7267543746 -11.2136112514 -2.4999939904
40.7648682143 -11.1678300623 -2.4999939904
40.7774823564 -11.1524947235 -2.4999939904
40.8025742708 -11.1217124370 -2.4999939904
41.2329567341 -10.5267211985 -2.4999939904
41.2543383907 -10.4932551247 -2.4999939904
41.2649548764 -10.4764747962 -2.4999939904
41.2755216765 -10.4596631356 -2.4999939904
41.2860386984 -10.4428202900 -2.4999939904
41.2965058501 -10.4259464069 -2.4999939904
41.3172901769 -10.3921061189 -2.4999939904
40.4248895444 -11.5841444521 -2.4999939645
40.4387367073 -11.5698130102 -2.4999939645
40.4800229796 -11.5265737895 -2.4999939645
40.5073332774 -11.4975448256 -2.4999939645
40.5344713522 -11.4683547928 -2.4999939645
40.5748534698 -11.4242699762 -2.4999939645
40.6015568443 -11.3946817537 -2.4999939645
40.6148427692 -11.3798285269 -2.4999939645
40.6280846975 -11.3649360629 -2.4999939645
40.6412825133 -11.3500044921 -2.4999939645
41.3065616361 -10.4555930857 -2.4999939645
41.4391877316 -10.2330672047 -2.4999939645
41.4588284231 -10.1983861385 -2.4999939645
40.2866063520 -11.7564335546 -2.4999939385
40.7379531252 -11.2752589746 -2.4999939385
41.4994026403 -10.1753144802 -2.4999939385
41.5187005935 -10.1402781731 -2.4999939385
41.5753460415 -10.0344928174 -2.4999939385
40.0522498593 -12.0047221668 -2.4999939126
40.1123858524 -11.9515313071 -2.4999939126
40.1422167759 -11.9246699704 -2.4999939126
40.2453625944 -11.8292753631 -2.4999939126
40.4456188516 -11.6321821578 -2.4999939126
41.5590672324 -10.1166023600 -2.4999939126
41.6336046057 -9.9743852780 -2.4999939126
41.7134095864 -9.8123343761 -2.4999939126
40.1285080379 -11.9695427040 -2.4999938867
41.7778504139 -9.7314716037 -2.4999938867
39.9610564538 -12.1460951740 -2.4999938607
40.5779535730 -11.5635913120 -2.4999938607
41.8330624899 -9.6678271027 -2.4999938607
39.8347194624 -12.2796480133 -2.4999938348
40.0231127165 -12.1255065992 -2.4999938348
41.9114093690 -9.5472517222 -2.4999938348
41.9192245307 -9.5285317980 -2.4999938348
39.6880315849 -12.4223375778 -2.4999938089
39.7206553834 -12.3979786236 -2.4999938089
40.5006248043 -11.7142327852 -2.4999938089
42.0173918632 -9.4144876519 -2.4999937829
39.5839957511 -12.5573256614 -2.4999937570
