48.4596849926 0.9631417828 -2.4999893493
48.4929271130 1.1388965687 -2.4999893493
48.4394363515 0.7705079254 -2.4999892830
48.4457705007 0.7954128386 -2.4999892830
48.4519571931 0.8203547909 -2.4999892830
48.4410067704 0.5957425756 -2.4999891504
48.4591502694 0.6581163776 -2.4999891504
48.4489058619 0.5388442853 -2.4999890842
48.4395147615 0.4317124491 -2.4999890179
48.4538828732 0.3989747841 -2.4999889516
48.4581673651 0.4114669174 -2.4999889516
48.4790344952 0.4741146880 -2.4999889516
48.4409416367 0.2910903984 -2.4999888853
48.4501121546 0.3160126079 -2.4999888853
48.4546420802 0.3284939497 -2.4999888853
48.4494953796 0.2451944086 -2.4999888191
48.4575641373 0.1990242215 -2.4999887528
48.4600933806 0.1400732080 -2.4999886865
48.4512537581 0.0558446184 -2.4999886202
48.4681268122 0.0338312799 -2.4999885539
48.4458574146 -0.0759392875 -2.4999884877
48.4849063452 0.0117024663 -2.4999884877
48.4485308212 -0.1837916995 -2.4999883551
48.4590767220 -0.3772553977 -2.4999880900
42.8197245987 -3.4406518349 -2.4999861679
42.8353920525 -3.4448097609 -2.4999861679
45.7498884191 -3.4119695909 -2.4999861679
42.7349957446 -3.4424282976 -2.4999861017
42.7820537643 -3.4555147944 -2.4999861017
45.7878429829 -3.4260922824 -2.4999861017
45.8034543801 -3.4214700410 -2.4999861017
42.6499065750 -3.4428515305 -2.4999860354
42.6655812789 -3.4475117993 -2.4999860354
42.7441578108 -3.4701165064 -2.4999860354
45.8885413922 -3.4207309328 -2.4999860354
42.5644786587 -3.4419112859 -2.4999859691
42.5958377161 -3.4516908711 -2.4999859691
42.6272540840 -3.4612847543 -2.4999859691
45.9270921690 -3.4338650780 -2.4999859691
42.4787337884 -3.4395976589 -2.4999859028
42.4943996157 -3.4447643019 -2.4999859028
42.5257767790 -3.4549584483 -2.4999859028
42.6202624423 -3.4844245951 -2.4999859028
45.9815277039 -3.4415779504 -2.4999859028
45.9971840630 -3.4363826868 -2.4999859028
46.0128249851 -3.4311411317 -2.4999859028
46.0284503333 -3.4258533308 -2.4999859028
42.4240204810 -3.4466971183 -2.4999858365
46.0205398660 -3.4540499923 -2.4999858365
42.3376793537 -3.4421191490 -2.4999857703
42.3690436103 -3.4532405513 -2.4999857703
42.3847502757 -3.4587316180 -2.4999857703
42.2112031310 -3.4469082547 -2.4999856377
42.2268917549 -3.4528662698 -2.4999856377
46.2803875650 -3.4371713331 -2.4999856377
46.2960295809 -3.4310920073 -2.4999856377
42.1711301328 -3.4573873408 -2.4999855714
46.3674717212 -3.4287253923 -2.4999855714
42.0837232492 -3.4487110744 -2.4999855052
42.1151309505 -3.4613348510 -2.4999855052
46.4235196010 -3.4319075961 -2.4999855052
41.9710010041 -3.4542032476 -2.4999853726
41.8986153781 -3.4491891291 -2.4999853063
41.7689260054 -3.4435494348 -2.4999851738
41.7587300651 -3.4654669640 -2.4999851075
46.7642993114 -3.4386817865 -2.4999851075
41.6698110978 -3.4500522379 -2.4999850412
41.6278303674 -3.4564957120 -2.4999849749
46.9107086174 -3.4204124759 -2.4999849749
41.1399164418 -3.2162386934 -2.4999849087
41.2455541443 -3.2791991681 -2.4999849087
41.2912222492 -3.3055100513 -2.4999849087
41.3678488528 -3.3484575925 -2.4999849087
41.3986759498 -3.3653184771 -2.4999849087
41.4296022619 -3.3819966830 -2.4999849087
40.9045802459 -3.0940959470 -2.4999848424
41.0225902841 -3.1714747613 -2.4999848424
41.0673111753 -3.1997685657 -2.4999848424
42.2735384793 -3.7783589818 -2.4999848424
46.9796745723 -3.4393552993 -2.4999848424
40.6597904835 -2.9504665129 -2.4999847761
41.0695009123 -3.2296344315 -2.4999847761
40.5042679070 -2.8616349113 -2.4999847098
47.1390689077 -3.4364412613 -2.4999846435
42.7394676299 -4.0192580201 -2.4999845773
43.3007420552 -4.2563584794 -2.4999842459
44.5415246237 -4.3435942984 -2.4999841796
48.6217749880 -3.2892246250 -2.4999826552
48.6973588806 -3.2237522388 -2.4999826552
48.7123589889 -3.2105240086 -2.4999826552
48.7273199001 -3.1972514631 -2.4999826552
47.7775662858 -3.9320124839 -2.4999825889
47.9471388741 -3.8246453459 -2.4999825889
47.9639198154 -3.8136337729 -2.4999825889
47.9806681092 -3.8025726071 -2.4999825889
48.1299095212 -3.7008065484 -2.4999825889
48.2116346716 -3.6425640222 -2.4999825889
48.9204457788 -3.0520443462 -2.4999825889
49.0352161804 -2.9397533255 -2.4999825889
49.0775651478 -2.8969486948 -2.4999825889
47.6518045176 -4.0351710210 -2.4999825226
47.7557804902 -3.9735681192 -2.4999825226
48.0941710902 -3.7550807461 -2.4999825226
49.1786722398 -2.8268362173 -2.4999825226
49.3149434362 -2.6785113423 -2.4999825226
49.1543504193 -2.8873118290 -2.4999824564
49.2239316111 -2.8140064090 -2.4999824564
49.3731459243 -2.6491630727 -2.4999824564
47.2649183929 -4.2973322896 -2.4999823901
47.4991601700 -4.1762213864 -2.4999823901
49.0433579089 -3.0338657743 -2.4999823901
49.3375008126 -2.7258095137 -2.4999823901
49.4444346490 -2.6037409565 -2.4999823901
49.5612437948 -2.4634335219 -2.4999823901
49.6245111551 -2.3841563570 -2.4999823901
49.7001797259 -2.3656818238 -2.4999822575
50.0171606722 -1.9635178955 -2.4999821913
44.4554442372 -5.0970725607 -2.4999821250
46.8192968810 -4.6018593710 -2.4999821250
50.1372467085 -1.8209638914 -2.4999821250
46.9047539955 -4.5931380042 -2.4999820587
46.4834327190 -4.8285816298 -2.4999818599
44.4559215542 -5.8225853840 -2.4999801366
48.4355213225 1.6629819034 -2.4999963505
48.4624912585 0.4514764103 -2.4999961430
48.4469254469 0.3106890316 -2.4999961171
48.4509925299 0.3240779811 -2.4999961171
48.4590077866 0.3508916806 -2.4999961171
48.4629558901 0.3643161959 -2.4999961171
48.4575422864 0.2633301947 -2.4999960911
48.4617494190 0.2767507579 -2.4999960911
48.4543903880 0.1754004622 -2.4999960652
48.4495386004 0.0871348888 -2.4999960392
48.4589557174 0.1139441333 -2.4999960392
48.4503256361 -0.0501625523 -2.4999959874
48.4571665495 -0.0991545346 -2.4999959614
48.4634927076 -0.1484044626 -2.4999959355
48.4689177998 -0.1349644954 -2.4999959355
48.4967587795 -0.1304571811 -2.4999959096
48.4688261968 -0.2611131684 -2.4999958836
48.4494129609 -0.3648227120 -2.4999958577
48.4558431936 -0.4656163466 -2.4999958058
48.4516947968 -0.5297488637 -2.4999957799
42.5835099606 -3.4465094347 -2.4999954946
45.2412357376 -3.4519477776 -2.4999954946
45.2716474069 -3.4440579904 -2.4999954946
45.3777094928 -3.4150297775 -2.4999954946
42.4860064279 -3.4452080397 -2.4999954687
42.5621484425 -3.4658982020 -2.4999954687
45.4449361614 -3.4206264268 -2.4999954687
45.4600542854 -3.4161015785 -2.4999954687
45.4902500468 -3.4069178147 -2.4999954687
45.5427475253 -3.4158497975 -2.4999954427
45.5880151692 -3.4012733524 -2.4999954427
42.3202884981 -3.4466145068 -2.4999954168
42.3659560575 -3.4606343664 -2.4999954168
45.6106545854 -3.4192794523 -2.4999954168
45.7241837592 -3.4060293944 -2.4999953909
42.1684403994 -3.4478853924 -2.4999953649
42.2141252167 -3.4632527687 -2.4999953649
42.0996641955 -3.4495491623 -2.4999953390
42.1453664861 -3.4655268233 -2.4999953390
42.1606318706 -3.4707625023 -2.4999953390
45.8765774217 -3.4014109699 -2.4999953390
42.0306041049 -3.4503018382 -2.4999953131
45.9154690728 -3.4122813768 -2.4999953131
41.9612720969 -3.4501369484 -2.4999952871
42.0069850535 -3.4673427385 -2.4999952871
45.9998711474 -3.4046377948 -2.4999952871
41.9068980016 -3.4550343783 -2.4999952612
46.0694207977 -3.4019814456 -2.4999952612
41.8370528506 -3.4532221754 -2.4999952353
46.1185584642 -3.4336333203 -2.4999952093
46.1941319420 -3.4005978999 -2.4999952093
41.7271037870 -3.4598670871 -2.4999951834
46.2744461610 -3.4172851301 -2.4999951575
46.3046346715 -3.4032831298 -2.4999951575
41.3154064568 -3.3188051580 -2.4999951315
41.3450991182 -3.3341442255 -2.4999951315
41.4197232528 -3.3717209965 -2.4999951315
40.8968655127 -3.1063432335 -2.4999951056
41.2006079092 -3.2849487252 -2.4999951056
41.2301022737 -3.3009675720 -2.4999951056
42.1062452966 -3.6820539809 -2.4999951056
42.1699636161 -3.7031731735 -2.4999951056
40.7427659862 -3.0347980030 -2.4999950797
40.8413249496 -3.0996317178 -2.4999950797
41.1890081274 -3.3061567507 -2.4999950797
42.3073588891 -3.7711057956 -2.4999950797
42.3235275227 -3.7758609348 -2.4999950797
40.5628067504 -2.9385199643 -2.4999950537
40.6872707727 -3.0263261364 -2.4999950537
40.9285540172 -3.1830089055 -2.4999950537
46.5843049133 -3.3997341356 -2.4999950278
47.6766237879 -3.4293216124 -2.4999943794
48.0917107759 -3.7221304314 -2.4999938607
48.6142931552 -3.2761816758 -2.4999938607
48.6582003696 -3.2343524863 -2.4999938607
48.7876706904 -3.1065502193 -2.4999938607
47.7946184513 -3.9677193273 -2.4999938348
47.8113446942 -3.9562413000 -2.4999938348
48.8474248950 -3.0800114892 -2.4999938348
48.8895820286 -3.0361211111 -2.4999938348
48.9864218052 -2.9322680651 -2.4999938348
47.5524913224 -4.1544283712 -2.4999938089
47.5697709438 -4.1436657828 -2.4999938089
47.6385687887 -4.1001056862 -2.4999938089
47.7407871166 -4.0332468559 -2.4999938089
48.6770050929 -3.2832935806 -2.4999938089
48.9070898360 -3.0527888034 -2.4999938089
49.0992733418 -2.8423606663 -2.4999938089
49.1393115403 -2.7962446329 -2.4999938089
49.2367527900 -2.7183945705 -2.4999937829
49.3014065305 -2.6393180860 -2.4999937829
47.0373669420 -4.5795767397 -2.4999936792
47.2215092201 -4.4847142962 -2.4999936792
42.4046991888 -3.4599325212 -2.5000112747
42.4778910018 -3.4777430256 -2.5000112747
44.9243461875 -3.4501804301 -2.5000112747
44.9534894417 -3.4425276187 -2.5000112747
48.4554526685 -0.1941207309 -2.5000112747
48.4603824917 -0.1798844731 -2.5000112747
42.2817213467 -3.4524885990 -2.5000113237
42.3988101633 -3.4833772361 -2.5000113237
44.9889336736 -3.4580274822 -2.5000113237
45.0035338907 -3.4540315335 -2.5000113237
48.4528835762 -0.2733603871 -2.5000113237
42.2021384655 -3.4549803980 -2.5000113727
42.2313577611 -3.4634329976 -2.5000113727
42.1221850257 -3.4561919567 -2.5000114216
45.2213814486 -3.4396126696 -2.5000114216
45.2359261743 -3.4349291789 -2.5000114216
48.4661362569 -0.3757725558 -2.5000114216
42.0418815626 -3.4561128815 -2.5000114706
42.0564890106 -3.4608348543 -2.5000114706
42.0857454923 -3.4701490626 -2.5000114706
42.1003942700 -3.4747412165 -2.5000114706
45.3016794696 -3.4386744497 -2.5000114706
45.3742399849 -3.4136398212 -2.5000114706
42.0051036977 -3.4694849126 -2.5000115196
45.3385982940 -3.4516522371 -2.5000115196
45.3677430059 -3.4415485453 -2.5000115196
45.3968274308 -3.4312726005 -2.5000115196
45.4113467175 -3.4260701453 -2.5000115196
45.4548113499 -3.4102053964 -2.5000115196
41.8949039478 -3.4572428556 -2.5000115686
41.9387836931 -3.4725833361 -2.5000115686
45.4861802337 -3.4501230022 -2.5000116176
45.5443809442 -3.4279972146 -2.5000116176
41.7613435979 -3.4596086046 -2.5000116666
45.7074746377 -3.4142361069 -2.5000117156
48.4669604939 -0.7461424781 -2.5000117156
41.6413166026 -3.4643429676 -2.5000117646
41.2141200938 -3.2959876413 -2.5000118135
41.3421076585 -3.3590178369 -2.5000118135
45.8959158511 -3.4104352471 -2.5000118625
45.9248069554 -3.3970349989 -2.5000118625
48.4639370038 -0.9201053634 -2.5000118625
48.4710143837 -0.9058408308 -2.5000118625
48.4919929093 -0.8629224909 -2.5000118625
45.8331259851 -3.4652921378 -2.5000119115
45.9639835995 -3.4053019884 -2.5000119115
48.4493954432 -1.0022052339 -2.5000119115
48.4639939598 -0.9737398909 -2.5000119115
46.0389183151 -3.4497689738 -2.5000120585
46.1548907071 -3.3917507970 -2.5000120585
46.1948639990 -3.3982419653 -2.5000121075
48.4584470771 -1.1901092971 -2.5000121075
47.0706584400 -3.3721683129 -2.5000129893
48.1429498428 -3.6971462884 -2.5000148508
48.1582436164 -3.6838191432 -2.5000148508
48.1887125572 -3.6570294195 -2.5000148508
48.6677141041 -3.1897618497 -2.5000148508
48.6952511194 -3.1599665743 -2.5000148508
48.7362249164 -3.1149694947 -2.5000148508
48.0189135797 -3.8337017175 -2.5000148998
48.0502717146 -3.8077336939 -2.5000148998
48.6155630072 -3.2802521281 -2.5000148998
48.8750980218 -2.9935337490 -2.5000148998
47.9229346649 -3.9420968858 -2.5000149488
47.9389540093 -3.9294195135 -2.5000149488
48.7584060167 -3.1625063586 -2.5000149488
48.9592843296 -2.9311344111 -2.5000149488
48.9723085298 -2.9153957524 -2.5000149488
49.0367280437 -2.8361283394 -2.5000149488
49.0494708599 -2.8201610039 -2.5000149488
47.6422646343 -4.1818188350 -2.5000149978
47.6756889390 -4.1580731004 -2.5000149978
47.8243357600 -4.0487874505 -2.5000149978
47.9217945477 -3.9737486063 -2.5000149978
49.2423779176 -2.6069860872 -2.5000149978
47.6393830817 -4.2134061712 -2.5000150468
47.8716603600 -4.0431638111 -2.5000150468
48.8080061553 -3.1797523493 -2.5000150468
49.4268669635 -2.3851865451 -2.5000150468
47.2908802090 -4.4709900619 -2.5000150957
49.4354658924 -2.4157653561 -2.5000150957
49.4469634542 -2.3986203213 -2.5000150957
49.5148791978 -2.2950427101 -2.5000150957
47.3035080431 -4.4916025118 -2.5000151447
49.1890201251 -2.7988386267 -2.5000151447
49.5685919878 -2.2556999870 -2.5000151447
49.6329720565 -2.1980040192 -2.5000151937
49.7078340926 -2.0732385323 -2.5000151937
47.2034839246 -4.6078049965 -2.5000152427
47.1067109448 -4.6910779754 -2.5000152917
47.4302167607 -4.4981151654 -2.5000152917
46.9076724876 -4.8530125586 -2.5000153897
49.7590523031 -2.1765254533 -2.5000153897
46.8244066372 -4.9222203299 -2.5000154387
46.8810931189 -4.8937565505 -2.5000154387
42.1024194095 -3.4500625588 -2.5000136763
42.1994341707 -3.4761163725 -2.5000136763
44.7380775512 -3.4437556658 -2.5000136763
44.8414989710 -3.4383434937 -2.5000137397
44.9390048752 -3.4581394283 -2.5000138665
45.1069629752 -3.4513266007 -2.5000139933
48.4542624632 -0.0931915227 -2.5000146273
48.4731597638 -0.0184274366 -2.5000146273
48.4671663215 2.4862392885 -2.5000146273
48.4439280349 2.5758120051 -2.5000146273
48.4358290985 2.6055761790 -2.5000146273
48.4551710779 -0.2703461846 -2.5000147540
48.4595630232 -0.2554123961 -2.5000147540
48.4343177061 2.7827267238 -2.5000147540
48.4480369377 2.8197374950 -2.5000148174
48.4432878878 2.8346366591 -2.5000148174
48.4384947842 2.8495217094 -2.5000148174
48.4547653212 -0.4340188956 -2.5000148808
48.4787035355 -0.3592100911 -2.5000148808
48.4576968554 -0.5014143966 -2.5000149442
48.4457166676 3.0517586175 -2.5000150076
48.4663551060 -0.6221417659 -2.5000150710
48.4350146205 3.1495183231 -2.5000150710
48.4343188473 3.2177758108 -2.5000151344
48.4545147477 -0.7888140661 -2.5000151978
48.4527193034 -0.8575869586 -2.5000152612
48.4427100516 3.3252913767 -2.5000152612
48.4364655052 3.3401725709 -2.5000152612
48.4301769648 3.3550352274 -2.5000152612
48.4436222563 -0.9415001433 -2.5000153246
48.4417644120 -1.0652827971 -2.5000154514
48.4362375965 -1.1349325171 -2.5000155148
48.4515284286 -1.2152892197 -2.5000156416
48.4373886532 -1.7049730888 -2.5000162122
48.4320002209 -1.7618264089 -2.5000162756
48.4791721333 -1.7292934901 -2.5000163390
48.4164910374 -2.2337056334 -2.5000169095
47.8228909448 -3.3431941710 -2.5000176069
48.1170815192 -3.7641935702 -2.5000189382
48.1464979053 -3.7362521694 -2.5000189382
48.2048321770 -3.6798497074 -2.5000189382
48.2193111456 -3.6656415485 -2.5000189382
48.2337480206 -3.6513906204 -2.5000189382
48.0890875773 -3.8235005599 -2.5000190016
48.8694099935 -2.9665542873 -2.5000190016
47.9996860940 -3.9373813721 -2.5000190650
48.0301291719 -3.9101314910 -2.5000190650
48.0754901718 -3.8689201544 -2.5000190650
49.0579101717 -2.7507956300 -2.5000190650
49.0696370978 -2.7340679772 -2.5000190650
47.2901360220 -4.6358611642 -2.5000193820
49.4923482476 -2.3431543369 -2.5000194454
44.4700244524 0.4249804396 -2.5000012746
44.4965390384 -3.4521297853 -2.5000020411
44.5163160336 -3.4715261150 -2.5000020469
44.5293219233 -3.4676753183 -2.5000020469
44.5941773750 -3.4478451665 -2.5000020469
44.6144199420 -3.4668063242 -2.5000020526
44.6274114405 -3.4626653390 -2.5000020526
44.6663116418 -3.4500120516 -2.5000020526
44.6998969396 -3.4642938155 -2.5000020584
44.7258512690 -3.4554677654 -2.5000020584
44.7388087384 -3.4509971958 -2.5000020584
44.7517529263 -3.4464883153 -2.5000020584
44.8329146600 -3.4687613794 -2.5000020699
44.8977529669 -3.4444408549 -2.5000020699
45.0061516495 -3.4535581645 -2.5000020815
45.0801984626 -3.4489254089 -2.5000020872
45.0896507796 -3.4711737568 -2.5000020930
45.1544966838 -3.4430557420 -2.5000020930
45.1902283660 -3.4535883590 -2.5000020988
45.2031782439 -3.4477440862 -2.5000020988
45.2779659051 -3.4398180050 -2.5000021045
45.2908746639 -3.4337142490 -2.5000021045
45.3529504726 -3.4306319089 -2.5000021103
45.4001968283 -3.4612437899 -2.5000021218
45.5017885606 -3.4366058081 -2.5000021276
45.8558284890 -3.4314051875 -2.5000021679
48.4326517851 -0.5140281227 -2.5000022428
48.4493375421 -0.4522614694 -2.5000022428
48.4628757429 2.2538278570 -2.5000022428
48.4428991983 -0.5668698153 -2.5000022486
48.4516458855 -0.5359496166 -2.5000022486
48.4559505902 -0.5204702469 -2.5000022486
48.4489642598 2.3994505925 -2.5000022486
48.4386827616 -0.6663724220 -2.5000022544
48.4526173494 -0.6200063538 -2.5000022544
48.4792493953 -0.5269123711 -2.5000022544
48.4543637787 2.4680346982 -2.5000022544
48.4497821427 2.4835089643 -2.5000022544
48.4451547510 2.4989696094 -2.5000022544
48.4404816441 2.5144164981 -2.5000022544
48.4473927407 -0.7198779610 -2.5000022601
48.4350729998 -0.8354808134 -2.5000022659
48.4402638445 -0.8200491586 -2.5000022659
48.4574823921 2.6216879229 -2.5000022659
48.4494423183 2.7222079254 -2.5000022716
48.4259850628 -1.0057563351 -2.5000022774
48.4506025802 2.7920669477 -2.5000022774
48.4253117278 -1.0758901970 -2.5000022832
48.4312137897 -1.0604863660 -2.5000022832
48.4370702584 -1.0450651430 -2.5000022832
48.4600391827 -0.9832090325 -2.5000022832
48.4508384800 2.8622036450 -2.5000022832
48.4211566162 -1.2169059639 -2.5000022947
48.4176628454 -1.2877631134 -2.5000023005
48.8598585424 0.5897720584 -2.5000023005
48.4522657477 3.0586924386 -2.5000023005
48.4459368484 3.0741579139 -2.5000023005
48.4147641031 -1.4147596376 -2.5000023120
48.4513893283 3.1857190176 -2.5000023120
48.4600692374 3.2263386782 -2.5000023178
48.4532443760 3.2418265042 -2.5000023178
48.4545137627 3.2981440380 -2.5000023235
48.4074450286 -1.6558127326 -2.5000023350
48.3638101021 3.5955859942 -2.5000023350
48.3399251482 3.6411197796 -2.5000023350
48.2992219544 3.7165326395 -2.5000023350
48.7125212714 2.8489341253 -2.5000023408
48.7010541965 2.8813897165 -2.5000023408
48.3531968585 3.6676373533 -2.5000023408
48.2953489058 3.7733145189 -2.5000023408
48.2698894068 3.8182337509 -2.5000023408
48.2353252230 3.8777712395 -2.5000023408
48.1911333041 3.9516111402 -2.5000023408
48.1731515469 3.9809627264 -2.5000023408
48.4116305067 -1.7544279023 -2.5000023466
48.8003585542 2.6599983443 -2.5000023466
48.7952075411 2.6764952856 -2.5000023466
48.4103504807 -1.9113017974 -2.5000023639
48.4357455606 -1.9654036451 -2.5000023754
48.4165220429 -2.0970779359 -2.5000023869
48.4193592384 -2.1400466038 -2.5000023927
48.4333556506 -2.2109934137 -2.5000024042
48.4447227961 -2.2389276279 -2.5000024100
48.4575427450 -2.3105839770 -2.5000024215
48.4498259503 -2.4137087034 -2.5000024330
48.4685881680 -2.6485700309 -2.5000024676
48.4634975609 -2.7830325156 -2.5000024849
48.4725839188 -3.1757329079 -2.5000025425
48.4984341693 -3.2211262448 -2.5000025541
47.9686020690 -3.9541811777 -2.5000025771
48.0827767827 -3.8404724040 -2.5000025771
48.1108975049 -3.8116255169 -2.5000025771
48.1248937423 -3.7971398100 -2.5000025771
48.1942288042 -3.7240937230 -2.5000025771
48.2759934478 -3.6350967375 -2.5000025771
48.2894667588 -3.6201234194 -2.5000025771
48.3028957170 -3.6051103102 -2.5000025771
48.3693711178 -3.5294525101 -2.5000025771
48.7204210232 -3.0882326291 -2.5000025771
48.7440800824 -3.0556263900 -2.5000025771
47.8235652806 -4.1239221967 -2.5000025829
47.9417972347 -4.0135979381 -2.5000025829
47.9709446931 -3.9855821034 -2.5000025829
48.1702651913 -3.7847121675 -2.5000025829
48.8681181734 -2.9208013437 -2.5000025829
48.8794758786 -2.9040795388 -2.5000025829
48.9244105539 -2.8368585373 -2.5000025829
48.9355196948 -2.8199705766 -2.5000025829
48.9575878611 -2.7860964366 -2.5000025829
48.9794552304 -2.7520923267 -2.5000025829
47.6724929379 -4.2893749329 -2.5000025886
47.7795473556 -4.1960864066 -2.5000025886
47.8248321308 -4.1554308001 -2.5000025886
48.9998255873 -2.7651070815 -2.5000025886
49.0215680372 -2.7308534464 -2.5000025886
49.0431074507 -2.6964717751 -2.5000025886
49.0538007828 -2.6792333019 -2.5000025886
49.0855741592 -2.6273291426 -2.5000025886
49.0960627691 -2.6099653477 -2.5000025886
47.4995853253 -4.4630060106 -2.5000025944
47.5472498867 -4.4248243991 -2.5000025944
47.6571357468 -4.3341000936 -2.5000025944
49.1062467838 -2.6398582237 -2.5000025944
49.1686245685 -2.5348453591 -2.5000025944
49.2091700512 -2.4642288646 -2.5000025944
49.2402449460 -2.4583500435 -2.5000026002
42.3787335716 -5.9516682584 -2.5000026059
49.3010883308 -2.3984912063 -2.5000026059
49.3874592427 -2.2354596257 -2.5000026059
47.4309652804 -4.6081614143 -2.5000026117
49.3729808411 -2.3672257271 -2.5000026174
49.5570004278 -1.9977048765 -2.5000026174
46.8791690703 -5.0441230419 -2.5000026232
47.1060347555 -4.8990658651 -2.5000026232
46.8384793294 -5.0970751102 -2.5000026290
49.7397020332 -1.7605134515 -2.5000026347
46.4458116633 -5.4247233945 -2.5000026520
46.0348824748 -5.6960085517 -2.5000026693
44.1414564999 -3.4599501674 -2.4999966876
44.2559580342 -3.4536716968 -2.4999966617
44.4741510495 -3.4355127868 -2.4999966098
44.5299714333 -3.4415864150 -2.4999965839
44.5981053080 -3.4424494083 -2.4999965579
44.9076179115 -3.4458573922 -2.4999964283
45.0582820805 -3.4554751148 -2.4999963505
45.1529206716 -3.4353122268 -2.4999963245
46.0406333862 -3.4257359695 -2.4999958318
48.4579223057 1.9128916020 -2.4999952612
48.4379755927 1.9921845575 -2.4999952612
48.4487890128 2.0458934524 -2.4999952353
48.4501243675 2.1316591360 -2.4999952093
48.4455817655 2.1475171659 -2.4999952093
48.4237197623 -1.0949809132 -2.4999951834
48.4209305898 -1.1813983222 -2.4999951575
48.4458753446 2.3909896825 -2.4999951315
48.4405656146 2.4068340083 -2.4999951315
48.4283375379 -1.3077482632 -2.4999951056
48.4416746599 2.4780375853 -2.4999951056
48.4367928128 2.9519291015 -2.4999949241
48.4448850330 2.9933841375 -2.4999948981
48.4791464889 -1.8271667532 -2.4999948462
48.4379988865 3.1244100708 -2.4999948462
48.4448007083 3.1664534376 -2.4999948203
48.4357875352 3.2403557551 -2.4999947944
48.2822261858 3.7236138464 -2.4999946906
48.7414107230 2.8498183811 -2.4999946647
48.1489199547 3.9793284134 -2.4999946647
48.8583058115 2.6047117601 -2.4999946388
48.8156418559 2.7237797822 -2.4999946388
48.0030072724 4.2293859794 -2.4999946388
49.0030663789 2.3081036796 -2.4999945869
49.0884955658 2.1799151691 -2.4999945350
48.4706008980 -2.5295038815 -2.4999945091
48.4682304627 -2.7671598301 -2.4999943794
48.1099810736 -3.8488987304 -2.4999939904
48.2267391158 -3.7136097017 -2.4999939904
48.7964905913 -2.9259448572 -2.4999939904
47.9936843380 -4.0120779551 -2.4999939645
49.0753307827 -2.5344912677 -2.4999939385
49.1152708608 -2.5101027495 -2.4999939126
49.1606700408 -2.4206035510 -2.4999939126
48.0877134531 -4.0175738809 -2.4999938867
49.2438513471 -2.3045228817 -2.4999938867
49.2828688386 -2.2782426603 -2.4999938607
47.1007101805 -5.0454759275 -2.4999937570
44.5956921004 0.1584864970 -2.5000002457
44.6370275848 0.0781911687 -2.5000002169
43.8809483076 -3.4485353116 -2.4999989201
43.9028896698 -3.4433253812 -2.4999989201
43.9247998243 -3.4379857295 -2.4999989201
43.8754114795 -3.4746433006 -2.4999989057
44.0184598249 -3.4386586736 -2.4999989057
44.0358202935 -3.4589692750 -2.4999988913
44.0468250155 -3.4559223515 -2.4999988913
44.0797844277 -3.4465864452 -2.4999988913
44.1235989647 -3.4336842782 -2.4999988913
44.1305644194 -3.4568320151 -2.4999988769
44.1415624044 -3.4535048306 -2.4999988769
44.1635286068 -3.4467529327 -2.4999988769
44.1854544782 -3.4398711935 -2.4999988769
44.2073392512 -3.4328598540 -2.4999988769
44.1817354937 -3.4663919762 -2.4999988625
44.2257772418 -3.4522820903 -2.4999988625
44.2477347361 -3.4450319706 -2.4999988625
44.2696489519 -3.4376520698 -2.4999988625
44.2994369844 -3.4529821459 -2.4999988481
44.3433118214 -3.4374805000 -2.4999988481
44.3625064313 -3.4562439481 -2.4999988337
44.3735016619 -3.4522306398 -2.4999988337
44.4259523559 -3.4584479950 -2.4999988193
44.4369538288 -3.4542469926 -2.4999988193
44.4808340050 -3.4371180950 -2.4999988193
44.5649075968 -3.4550620208 -2.4999987905
44.5758984455 -3.4504499784 -2.4999987905
44.6087884593 -3.4364190577 -2.4999987905
45.5012881957 3.4304570046 -2.4999987905
44.6622913401 -3.4393352691 -2.4999987761
44.7270355873 -3.4364409665 -2.4999987616
45.6029383667 3.4419760179 -2.4999987472
44.8135348287 -3.4488977518 -2.4999987328
44.8245063545 -3.4435502521 -2.4999987328
44.8354620134 -3.4381703200 -2.4999987328
44.8791120269 -3.4434229340 -2.4999987184
45.0000075043 -3.4349666476 -2.4999986896
45.0999198821 -3.4350918991 -2.4999986608
45.1787790535 -3.4455352965 -2.4999986320
45.2349486447 -3.4403530820 -2.4999986176
45.6030909376 -3.4315975615 -2.4999985023
45.6498314156 -3.4281163606 -2.4999984879
45.9823122050 -3.4801500630 -2.4999983438
48.4425898153 0.2435021664 -2.4999979548
48.4510742409 -1.0695863827 -2.4999978539
48.4525792249 1.5887137837 -2.4999978539
48.4446385186 1.6208828576 -2.4999978539
48.4365076283 1.6530043887 -2.4999978539
48.4541665557 -1.1559934753 -2.4999978395
48.4823737170 -1.0429908754 -2.4999978395
48.4599239059 1.6590054907 -2.4999978395
48.4557693756 1.6751173195 -2.4999978395
48.4515672017 1.6912167880 -2.4999978395
48.4473174211 1.7073037553 -2.4999978395
48.4430200709 1.7233780805 -2.4999978395
48.4386751888 1.7394396231 -2.4999978395
48.4342828127 1.7554882424 -2.4999978395
48.4558878047 -1.2427821559 -2.4999978251
48.4603173047 -1.2266695700 -2.4999978251
48.4646991214 -1.2105439514 -2.4999978251
48.4749475650 1.6973563235 -2.4999978251
48.4531299809 1.7780084667 -2.4999978251
48.4440693341 1.8101774861 -2.4999978251
48.4394676790 1.8262417528 -2.4999978251
48.4562273970 -1.3299306947 -2.4999978107
48.4609146967 -1.3138167230 -2.4999978107
48.4655543078 -1.2976889558 -2.4999978107
48.4485461124 1.8812488433 -2.4999978107
48.4437341959 1.8973260422 -2.4999978107
48.4388747411 1.9133889362 -2.4999978107
48.4339677906 1.9294373847 -2.4999978107
48.4601211908 -1.4013058910 -2.4999977963
48.4650196141 -1.3851800884 -2.4999977963
48.4620017716 1.9204228356 -2.4999977963
48.4520983983 1.9526418510 -2.4999977963
48.4368863637 2.0008591056 -2.4999977963
48.4317206694 2.0169012895 -2.4999977963
48.4579268229 -1.4891149204 -2.4999977819
48.4881594493 -1.3921717486 -2.4999977819
48.4388707592 2.0725822330 -2.4999977819
48.4334928862 2.0886299732 -2.4999977819
48.4280675646 2.1046617345 -2.4999977819
48.4651119802 -1.5449866438 -2.4999977675
48.4704354154 -1.5288454489 -2.4999977675
48.4757110787 -1.5126885769 -2.4999977675
48.4809389240 -1.4965161692 -2.4999977675
48.4861189055 -1.4803283674 -2.4999977675
48.4343233623 2.1606451335 -2.4999977675
48.4661953775 -1.6172679765 -2.4999977531
48.4772220977 -1.5849622348 -2.4999977531
48.4571393395 2.1686305243 -2.4999977531
48.4457675713 2.2008164279 -2.4999977531
48.4400103281 2.2168840091 -2.4999977531
48.4283533758 2.2489677272 -2.4999977531
48.4663286385 -1.6898269350 -2.4999977387
48.4720805321 -1.6736815073 -2.4999977387
48.4777846395 -1.6575191350 -2.4999977387
48.4834409107 -1.6413399597 -2.4999977387
48.4510487503 2.2572897017 -2.4999977387
48.4451244259 2.2733726585 -2.4999977387
48.4391525511 2.2894380197 -2.4999977387
48.4331331782 2.3054856447 -2.4999977387
48.4435219560 2.3461838621 -2.4999977243
48.4373346995 2.3622441643 -2.4999977243
48.4574880724 -1.8518479924 -2.4999977098
48.4637192923 -1.8357280078 -2.4999977098
48.4409540518 2.4192374578 -2.4999977098
48.4345507008 2.4352898441 -2.4999977098
48.4673647634 -1.8929144630 -2.4999976954
48.4569900023 2.4442794509 -2.4999976954
48.4439874050 2.4764596466 -2.4999976954
48.4374147671 2.4925207557 -2.4999976954
48.4307946464 2.5085623515 -2.4999976954
48.4396884062 2.5499728893 -2.4999976810
48.4593605818 -2.0402419407 -2.4999976666
48.4728898776 -2.0079692332 -2.4999976666
48.4795828650 -1.9918030041 -2.4999976666
48.4281384276 2.6976071215 -2.4999976522
48.4618204826 -2.1561826181 -2.4999976378
48.4830715774 -2.1077172856 -2.4999976378
48.4621472633 -2.2144585011 -2.4999976234
48.4278060374 2.8139635391 -2.4999976234
48.4693440822 -2.2567951149 -2.4999976090
48.4420729979 2.8403406458 -2.4999976090
48.4344239427 2.8563944996 -2.4999976090
48.4532789314 -2.3477003113 -2.4999975946
48.4762299746 -2.2993032386 -2.4999975946
48.4250360588 2.9310687369 -2.4999975946
48.4594731247 -2.3904343959 -2.4999975802
48.4387692075 2.9578230878 -2.4999975802
48.4307726323 2.9738666543 -2.4999975802
48.4227286324 2.9898864954 -2.4999975802
48.4653513855 -2.4333327746 -2.4999975658
48.4460695300 3.1032167562 -2.4999975369
48.4419700763 3.1627221577 -2.4999975225
48.4333673586 3.1787742965 -2.4999975225
48.4599930084 -2.6549928295 -2.4999975081
48.4771593658 -2.6227056211 -2.4999975081
48.4372408144 3.2223776173 -2.4999975081
48.4318787662 3.2821766283 -2.4999974937
48.4674359967 -2.7425846325 -2.4999974793
48.4616207247 -2.8027360995 -2.4999974649
48.4643883404 -2.8469025627 -2.4999974505
48.4494496753 3.3982423940 -2.4999974505
48.4668233923 -2.8912086535 -2.4999974361
48.7278833769 2.9140979161 -2.4999974361
48.7200148838 2.9309969260 -2.4999974361
48.6880420473 2.9983579860 -2.4999974361
48.6046427327 3.1650643672 -2.4999974361
48.4610556985 3.4264521837 -2.4999974361
48.3552384451 3.6020804432 -2.4999974361
48.3353876892 3.6336383791 -2.4999974361
48.3052623493 3.6807536964 -2.4999974361
48.2951277988 3.6963991623 -2.4999974361
48.2849470106 3.7120145800 -2.4999974361
48.2747200737 3.7275998128 -2.4999974361
48.2644470776 3.7431547242 -2.4999974361
48.2437632678 3.7741730388 -2.4999974361
48.2333526351 3.7896361707 -2.4999974361
48.2123943697 3.8204697067 -2.4999974361
48.2018469203 3.8358398410 -2.4999974361
48.1267481920 3.9425477658 -2.4999974361
48.1158399884 3.9576640091 -2.4999974361
48.0938896705 3.9877993601 -2.4999974361
48.4499066185 -2.9678849885 -2.4999974217
48.8479009581 2.7016739732 -2.4999974217
48.8406603283 2.7189289462 -2.4999974217
48.8333686868 2.7361624246 -2.4999974217
48.8260260974 2.7533742577 -2.4999974217
48.7498124287 2.9242690504 -2.4999974217
48.7098182654 3.0088523468 -2.4999974217
48.1023024053 4.0171657335 -2.4999974217
48.0911735753 4.0322093353 -2.4999974217
48.0462147047 4.0920525612 -2.4999974217
48.0348645912 4.1069299178 -2.4999974217
47.9890255340 4.1661016388 -2.4999974217
47.9774566202 4.1808094955 -2.4999974217
47.9541885206 4.2101222185 -2.4999974217
48.4416959410 -3.0285512219 -2.4999974073
48.4706896103 -2.9802301308 -2.4999974073
48.9265002635 2.5716686589 -2.4999974073
48.9057760320 2.6240715875 -2.4999974073
48.8845875700 2.6762885366 -2.4999974073
48.8629365461 2.7283153938 -2.4999974073
47.9258429328 4.2836394554 -2.4999974073
47.9139265973 4.2981598922 -2.4999974073
47.8779205984 4.3415088107 -2.4999974073
49.0149759118 2.4038223797 -2.4999973929
48.9693539486 2.5276738120 -2.4999973929
48.9626275113 2.5452888263 -2.4999973929
48.2828719799 3.8458352874 -2.4999973929
49.0869162044 2.2687360024 -2.4999973785
49.0627538615 2.3404847716 -2.4999973785
49.0503547465 2.3762506863 -2.4999973785
47.5846826303 4.7371953920 -2.4999973785
49.1389862104 2.1858951002 -2.4999973640
48.4540198927 -3.1921036775 -2.4999973496
49.2007036390 2.0653643240 -2.4999973496
47.3304634381 5.0483777389 -2.4999973496
49.2649908895 1.9246072750 -2.4999973352
49.2448879713 1.9984871977 -2.4999973352
49.2020667490 2.1455076156 -2.4999973352
48.4532687903 -3.2826523685 -2.4999973208
49.3029098999 1.8750451620 -2.4999973208
49.1726815916 2.3172881611 -2.4999973208
47.0701423623 5.3331345738 -2.4999973208
48.4629722784 -3.3119899951 -2.4999973064
44.4852868522 -6.1124366605 -2.4999972920
48.0771687120 -3.9168744712 -2.4999972776
48.1985722084 -3.7652107282 -2.4999972776
48.2104646341 -3.7498482917 -2.4999972776
48.2341128914 -3.7190182152 -2.4999972776
48.2458685158 -3.7035508450 -2.4999972776
48.2692422422 -3.6725121176 -2.4999972776
48.2808601395 -3.6569410319 -2.4999972776
48.2924319239 -3.6413356466 -2.4999972776
48.3039574941 -3.6256960981 -2.4999972776
48.3154367493 -3.6100225233 -2.4999972776
48.3268695890 -3.5943150593 -2.4999972776
48.3495956221 -3.5627990141 -2.4999972776
49.4621057973 1.4949485786 -2.4999972776
48.0332143993 -4.0070009105 -2.4999972632
48.0458228077 -3.9921265743 -2.4999972632
48.0709073461 -3.9622663339 -2.4999972632
48.0833832566 -3.9472806910 -2.4999972632
48.1205442443 -3.9021032457 -2.4999972632
48.1328419644 -3.8869710310 -2.4999972632
48.1573028443 -3.8565977965 -2.4999972632
48.1815835978 -3.8260803747 -2.4999972632
48.2296013325 -3.7646172475 -2.4999972632
48.6585040308 -3.1371516580 -2.4999972632
48.7565909058 -2.9686345852 -2.4999972632
48.8037543238 -2.8833064446 -2.4999972632
48.8222654449 -2.8489814330 -2.4999972632
48.8314447698 -2.8317780080 -2.4999972632
48.8405731637 -2.8145475041 -2.4999972632
48.8586768394 -2.7800058633 -2.4999972632
48.8676519628 -2.7626950286 -2.4999972632
48.8765758383 -2.7453577196 -2.4999972632
48.9204237807 -2.6582793783 -2.4999972632
47.8298453889 -4.2706069488 -2.4999972488
47.8565812907 -4.2420196295 -2.4999972488
47.8698856998 -4.2276667777 -2.4999972488
47.8831475924 -4.2132746319 -2.4999972488
47.8963668524 -4.1988433180 -2.4999972488
48.8801205122 -2.7911640073 -2.4999972488
48.9158437339 -2.7215079172 -2.4999972488
48.9246455596 -2.7040282284 -2.4999972488
48.9333956388 -2.6865225787 -2.4999972488
48.9678769649 -2.6162434381 -2.4999972488
49.0015243016 -2.5455612184 -2.4999972488
47.6267688279 -4.5108884384 -2.4999972344
47.6968663607 -4.4421021056 -2.4999972344
47.7384338315 -4.4003352955 -2.4999972344
47.7522070839 -4.3863312526 -2.4999972344
47.7796290083 -4.3582012422 -2.4999972344
49.0317227913 -2.5380247986 -2.4999972344
49.0644401392 -2.4665926012 -2.4999972344
49.0724872291 -2.4486744527 -2.4999972344
47.5865589878 -4.5827421840 -2.4999972200
47.6151458444 -4.5555887658 -2.4999972200
47.7556430769 -4.4173110769 -2.4999972200
47.9187493668 -4.2459832667 -2.4999972200
49.1025763072 -2.4405379337 -2.4999972200
49.1105461559 -2.4225070855 -2.4999972200
49.1648367953 -2.2956420843 -2.4999972200
49.1798647771 -2.2591910727 -2.4999972200
47.4276718283 -4.7602219314 -2.4999972056
47.6031549080 -4.6003180400 -2.4999972056
47.6887403610 -4.5180554635 -2.4999972056
47.8005576069 -4.4060338644 -2.4999972056
49.2533189544 -2.1396080734 -2.4999972056
47.3534664562 -4.8562470895 -2.4999971912
47.5177073176 -4.7122687671 -2.4999971912
47.5616794210 -4.6720812543 -2.4999971912
49.3176818983 -2.0367262008 -2.4999971912
49.3510006568 -1.9432012431 -2.4999971912
47.1683671037 -5.0384261577 -2.4999971767
47.3080111413 -4.9258849113 -2.4999971767
47.5944530063 -4.7076232468 -2.4999971623
49.4412955392 -1.8263987735 -2.4999971623
49.4260599627 -1.9480661262 -2.4999971479
49.4765763762 -1.7956534941 -2.4999971479
49.5578678366 -1.6101754244 -2.4999971335
49.7646019299 -1.1809834272 -2.4999970759
49.7987109718 -1.2513837376 -2.4999970471
46.2985607432 -5.8929841373 -2.4999970327
44.4717776299 0.4298537446 -2.5000013785
44.5655607188 -0.3262010515 -2.5000013814
44.5490253578 0.2434840812 -2.5000013814
44.6996034454 -3.4423317973 -2.5000016407
45.2563988903 3.4513342917 -2.5000016926
48.4470857702 -1.4730794430 -2.5000018626
48.4591746531 -1.4246490318 -2.5000018626
48.4669949276 -1.3923033136 -2.5000018626
48.4527068689 1.2774328552 -2.5000018626
48.4445408327 1.3096930169 -2.5000018626
48.4403862768 1.3258048392 -2.5000018626
48.4493205976 -1.5598564176 -2.5000018655
48.4786548335 -1.4466239908 -2.5000018655
48.4509805162 1.3803433711 -2.5000018655
48.4547677785 -1.6308599920 -2.5000018684
48.4813143831 -1.5337326008 -2.5000018684
48.4565078652 1.4513407497 -2.5000018684
48.4473128650 1.4836203557 -2.5000018684
48.4592949469 -1.7021978152 -2.5000018713
48.4734166461 -1.6536500321 -2.5000018713
48.4611155796 1.5226734158 -2.5000018713
48.4416903992 1.5872271890 -2.5000018713
48.4758728561 -1.8134377372 -2.5000018770
48.4473699096 1.8032000143 -2.5000018799
48.4567027426 -2.0229939618 -2.5000018828
48.4624068243 -2.0068315805 -2.5000018828
48.4560950084 -2.0958202616 -2.5000018857
48.4382339290 2.0377637261 -2.5000018885
48.4519873215 -2.2422269250 -2.5000018914
48.4680426357 -2.2673060380 -2.5000018943
48.4455132853 -2.4474208693 -2.5000019001
48.4551168164 2.2517725700 -2.5000019001
48.4464434580 -2.5054950888 -2.5000019030
48.4491711173 2.3259846882 -2.5000019030
48.4464904056 -2.6222423671 -2.5000019087
48.4342896089 2.4749517450 -2.5000019087
48.4379022105 -2.6970127956 -2.5000019116
48.4456002441 -2.6809030805 -2.5000019116
48.4233840751 2.6085105805 -2.5000019145
48.4259057667 2.7106304333 -2.5000019202
48.4535485388 -3.2849644380 -2.5000019462
48.2295481378 -3.7672481971 -2.5000019548
48.2404130330 -3.7517501483 -2.5000019548
48.6541787820 -3.0735811124 -2.5000019548
48.6804630644 -3.0232498413 -2.5000019548
48.6891251049 -3.0064211600 -2.5000019548
48.6977373252 -2.9895669284 -2.5000019548
48.7232743136 -2.9388524081 -2.5000019548
48.4218504654 3.3040090366 -2.5000019548
47.9979328469 -4.1149814720 -2.5000019577
48.0452474438 -4.0555136221 -2.5000019577
48.1491105197 -3.9196920461 -2.5000019577
48.2163278700 -3.8276289976 -2.5000019577
48.7449126626 -2.9496281740 -2.5000019577
48.8960539746 -2.6841592780 -2.5000019606
48.9338263612 -2.5966102629 -2.5000019606
47.5791452941 -4.6886489395 -2.5000019663
47.6332771087 -4.6340962182 -2.5000019663
49.1301485045 -2.2210191680 -2.5000019663
48.7341325721 2.9558662529 -2.5000019663
48.6977300754 3.0235501579 -2.5000019663
48.6792291345 3.0572293992 -2.5000019663
48.2458138049 3.7372925536 -2.5000019663
48.1655098763 3.8451755589 -2.5000019663
48.1538561254 3.8604508633 -2.5000019663
48.1304133176 3.8908977165 -2.5000019663
48.1186244658 3.9060689989 -2.5000019663
48.0949123824 3.9363066114 -2.5000019663
48.0829893582 3.9513726769 -2.5000019663
47.7572404786 -4.5396000399 -2.5000019692
48.8852841337 2.7087010477 -2.5000019692
48.8602448051 2.7608555509 -2.5000019692
48.8432952094 2.7955008815 -2.5000019692
48.7912207708 2.8988267251 -2.5000019692
48.7281610328 3.0181825842 -2.5000019692
48.0899104489 3.9814883293 -2.5000019692
47.9922179534 4.1008890770 -2.5000019692
48.9797175479 2.5607134839 -2.5000019721
48.9718599056 2.5784029820 -2.5000019721
47.8842331347 4.2629032589 -2.5000019721
47.8584140022 4.2917478884 -2.5000019721
47.8324246670 4.3204392583 -2.5000019721
47.4479854601 -4.9147693304 -2.5000019750
49.3258641663 -1.8368944825 -2.5000019750
49.0630192813 2.4276310608 -2.5000019750
47.8108459434 4.3796260752 -2.5000019750
47.5259471751 -4.9413661921 -2.5000019836
47.7006834679 4.5988706855 -2.5000019836
49.3948260791 1.8595017428 -2.5000019894
49.4676727581 1.6948862770 -2.5000019923
47.0020832120 5.2992381941 -2.5000019923
52.8238307222 1.7606618089 -2.5000023842
44.5551873752 -0.1534534674 -2.5000015591
44.5003407593 0.0579537656 -2.5000015591
44.4913909694 0.0837697679 -2.5000015591
44.5187626266 0.0787995260 -2.5000015649
44.5094399607 0.1049391995 -2.5000015649
44.5894357545 -0.0802675386 -2.5000015707
44.4758141956 0.2474780793 -2.5000015707
44.5992909361 -0.0193406006 -2.5000015764
45.0666039179 -3.4318346622 -2.5000020548
44.3699832140 3.4217338333 -2.5000021643
44.3471519097 3.4295266566 -2.5000021643
44.5119337197 3.4216399622 -2.5000021758
44.4087903726 3.4594199388 -2.5000021758
44.3741902554 3.4714013931 -2.5000021758
44.3510650274 3.4792182375 -2.5000021758
44.5663270820 3.4264522188 -2.5000021816
44.6324621110 3.4258241212 -2.5000021873
44.5866870237 3.4443800397 -2.5000021873
44.5522133718 3.4579408192 -2.5000021873
44.4944942152 3.4798605613 -2.5000021873
44.7313774894 3.4363580345 -2.5000021989
44.7869833939 3.4381272804 -2.5000022046
44.8875515919 3.4448061113 -2.5000022161
45.0571262922 3.4685965489 -2.5000022392
45.1719465718 3.4347279308 -2.5000022450
45.2413907378 3.4513159722 -2.5000022565
45.8849667691 3.4371729743 -2.5000023372
48.4497375179 -1.7918553839 -2.5000025216
48.4654332060 -1.7277664202 -2.5000025216
48.4744177191 0.8227942936 -2.5000025216
48.4630560767 0.8709597365 -2.5000025216
48.4552443729 0.9030131963 -2.5000025216
48.4481114107 -1.8939335379 -2.5000025274
48.4566580056 -1.8619201056 -2.5000025274
48.4665878547 0.9570064713 -2.5000025274
48.4624511506 0.9730490495 -2.5000025274
48.4540354628 1.0050971435 -2.5000025274
48.4399109698 -2.0123565961 -2.5000025331
48.4537110599 -1.9643857369 -2.5000025331
48.4643628566 1.0594903211 -2.5000025331
48.4554357198 1.0915482126 -2.5000025331
48.4509010657 1.1075572120 -2.5000025331
48.4536350640 -2.0511914509 -2.5000025389
48.4876689259 1.0659061156 -2.5000025389
48.4741492805 1.1141795822 -2.5000025389
48.4554577039 1.1783539571 -2.5000025389
48.4506662627 1.1943626418 -2.5000025389
48.4471029891 -2.1543268920 -2.5000025446
48.4571901763 -2.1223148686 -2.5000025446
48.4786259324 1.1852509474 -2.5000025446
48.4590930930 1.2494733167 -2.5000025446
48.4540912518 1.2654924443 -2.5000025446
48.4720842152 1.2888038033 -2.5000025504
48.4450354029 -2.3135067615 -2.5000025562
48.4722523757 -2.2333793742 -2.5000025562
48.4581469867 1.4086638021 -2.5000025562
48.4566004098 -2.3535221385 -2.5000025619
48.4530785029 1.4966982484 -2.5000025619
48.4443043084 -2.4578111853 -2.5000025677
48.4642847729 1.5369365675 -2.5000025677
48.4584325408 1.5529697953 -2.5000025677
48.4465859174 1.5849839644 -2.5000025677
48.4486857205 -2.5143613818 -2.5000025735
48.4632122426 1.6094877213 -2.5000025735
48.4571453957 1.6255174589 -2.5000025735
48.4510311565 1.6415291795 -2.5000025735
48.4448695785 1.6575227430 -2.5000025735
48.4674136628 1.6662462484 -2.5000025792
48.4548967007 1.6983115703 -2.5000025792
48.4485671332 1.7143163204 -2.5000025792
48.4421902485 1.7303022764 -2.5000025792
48.4426248679 -2.6601598653 -2.5000025850
48.4608733491 1.8125644239 -2.5000025908
48.4542057748 1.8285863541 -2.5000025908
48.4603735710 -2.7428685760 -2.5000025965
48.4423221625 1.9180457095 -2.5000025965
48.4405964608 -2.8485521995 -2.5000026023
48.4361689451 1.9916982025 -2.5000026023
48.4482200593 -2.8904543500 -2.5000026080
48.4331441555 -2.9804798285 -2.5000026138
48.4481193852 -2.9485359311 -2.5000026138
48.4435089410 2.0916955296 -2.5000026138
48.4360157224 2.1076648714 -2.5000026138
48.4474119274 -3.0068084360 -2.5000026196
48.4426948775 2.1499666427 -2.5000026196
48.4538562906 -3.0492661003 -2.5000026253
48.4392319051 2.2670533966 -2.5000026311
48.4365764288 2.3258564695 -2.5000026369
48.4333006864 2.3848242211 -2.5000026426
48.4427659860 -3.3876300009 -2.5000026599
48.2791171265 -3.7146723898 -2.5000026657
48.2888009136 -3.6991639433 -2.5000026657
48.3175764232 -3.6524676770 -2.5000026657
48.3270760293 -3.6368457332 -2.5000026657
48.6907629062 -2.9404283376 -2.5000026657
48.0634814531 -4.0773665271 -2.5000026714
48.0742390986 -4.0624943830 -2.5000026714
48.1273648335 -3.9876599056 -2.5000026714
48.1998690667 -3.8815890286 -2.5000026714
48.2898345202 -3.7430461068 -2.5000026714
48.3572389934 -3.6336636047 -2.5000026714
48.6517124865 -3.0837339467 -2.5000026714
48.7128579521 -2.9502336540 -2.5000026714
48.7276493398 -2.9166354052 -2.5000026714
48.7708272423 -2.8153238414 -2.5000026714
48.7848194436 -2.7813849880 -2.5000026714
48.4258479906 2.6501057532 -2.5000026714
47.9043190484 -4.3260026487 -2.5000026772
47.9386725402 -4.2826937591 -2.5000026772
47.9838767628 -4.2244775799 -2.5000026772
48.8679005700 -2.6362089051 -2.5000026772
48.8872201458 -2.5844153119 -2.5000026772
47.7450448405 -4.5538096064 -2.5000026830
47.8174343754 -4.4696796098 -2.5000026830
48.9593612846 -2.4532904188 -2.5000026830
48.9770539598 -2.4006923661 -2.5000026830
48.4212471838 2.7540496907 -2.5000026830
47.6640254382 -4.6803135351 -2.5000026887
49.0172912743 -2.3553405799 -2.5000026887
49.0789666423 -2.2381161362 -2.5000026945
49.2625598448 -1.8210727797 -2.5000027118
48.4367978010 2.9604887047 -2.5000027118
48.4161730607 3.0821765209 -2.5000027233
48.4200352159 3.2928390207 -2.5000027521
48.2298163542 3.7102274929 -2.5000027752
48.8535709715 2.8268956902 -2.5000027809
48.7444238854 3.0142643784 -2.5000027809
48.7239267472 3.0479449932 -2.5000027809
48.1361534456 3.8624595779 -2.5000027809
48.1106487455 3.8925266157 -2.5000027809
48.0849666050 3.9224422328 -2.5000027809
48.0591079233 3.9522053823 -2.5000027809
48.0199908672 3.9965619519 -2.5000027809
47.9804817119 4.0405696329 -2.5000027809
47.9672253972 4.0551607293 -2.5000027809
47.9405835689 4.0842249594 -2.5000027809
48.9034618715 2.7868261271 -2.5000027867
48.8843075509 2.8214516446 -2.5000027867
48.8746536531 2.8387217554 -2.5000027867
48.0116584250 4.0421147886 -2.5000027867
47.9314439592 4.1296227353 -2.5000027867
47.8907574509 4.1728393725 -2.5000027867
49.0622158872 2.5343134610 -2.5000027925
49.0266794586 2.6053466952 -2.5000027925
48.1602917091 3.9087859712 -2.5000027925
49.1526839626 2.4011816372 -2.5000027982
49.1442721252 2.4192474928 -2.5000027982
49.1100914662 2.4912597099 -2.5000027982
49.0661713391 2.5806979701 -2.5000027982
47.5710813084 4.5856674075 -2.5000028040
47.4812891693 4.6652702969 -2.5000028040
47.4510462325 4.6914488871 -2.5000028040
49.2623744903 2.2750739733 -2.5000028098
47.3438701097 4.8130518476 -2.5000028098
49.4070795240 2.1168570886 -2.5000028270
47.1321822753 5.1004487950 -2.5000028328
46.7422802121 5.3971033228 -2.5000028386
47.2754252112 5.0528330493 -2.5000028443
49.6186774509 1.8250449805 -2.5000028501
52.5463892056 2.6739409388 -2.5000035763
44.4908233638 -0.3967945607 -2.5000009537
44.4768416475 -0.3493141979 -2.5000009537
43.7092480239 3.4180866787 -2.5000009537
43.6720865946 3.4229165660 -2.5000009537
43.7870815847 3.4313349129 -2.5000009537
43.7497995198 3.4368550077 -2.5000009537
43.7373614598 3.4386214878 -2.5000009537
43.9773795059 3.4224955579 -2.5000009537
44.0691388471 3.4280005866 -2.5000009537
44.0194384298 3.4386248275 -2.5000009537
43.8069324265 3.4771923844 -2.5000009537
44.2915869063 3.4229501681 -2.5000009537
44.3973345799 3.4178392424 -2.5000009537
44.4291309666 3.4334842971 -2.5000009537
44.2415475443 3.4862481178 -2.5000009537
44.7921604951 3.4350489801 -2.5000009537
44.7672716459 3.4447121278 -2.5000009537
44.9690800961 3.4405371395 -2.5000009537
45.0883931774 3.4401243569 -2.5000009537
45.3174756080 3.4357477768 -2.5000009537
45.4760042621 3.4331120828 -2.5000009537
48.4422481792 0.6405306987 -2.5000009537
48.4338287561 0.6718378997 -2.5000009537
48.4289276876 -2.3119495137 -2.5000009537
48.4334751580 -2.2963161727 -2.5000009537
48.4441204034 0.7252574909 -2.5000009537
48.4396831997 0.7409224856 -2.5000009537
48.4351996754 0.7565742858 -2.5000009537
48.4381479238 -2.3657594971 -2.5000009537
48.4446398062 0.8103461278 -2.5000009537
48.4399508925 0.8260122867 -2.5000009537
48.4319493985 -2.4668272162 -2.5000009537
48.4516938991 -2.4041675004 -2.5000009537
48.4535402511 0.8644049618 -2.5000009537
48.4437961150 0.8957750523 -2.5000009537
48.4618966648 0.9187454275 -2.5000009537
48.4467283343 0.9658508260 -2.5000009537
48.4308155428 -2.6936237821 -2.5000009537
48.4608195701 1.0754843097 -2.5000009537
48.4302584962 -2.7645648265 -2.5000009537
48.4388824136 -2.8759256698 -2.5000009537
48.4423328332 -2.9319576773 -2.5000009537
48.4761296798 1.3136046451 -2.5000009537
48.4798959250 1.3698104398 -2.5000009537
48.4735518605 1.3855784448 -2.5000009537
48.4491924822 -3.1013898395 -2.5000009537
48.4877019739 1.5397842222 -2.5000009537
48.4754340268 1.7432397730 -2.5000009537
48.3017593444 -3.6663588162 -2.5000009537
48.1523959954 -4.0070887422 -2.5000009537
47.9078528183 -4.3968084386 -2.5000009537
48.9404769826 -2.3689346226 -2.5000009537
47.7447449947 -4.6763925830 -2.5000009537
48.9869296996 -2.2891600096 -2.5000009537
49.3763120336 -1.3061893063 -2.5000009537
48.4804372944 2.5883531155 -2.5000009537
48.9109417115 2.8117287064 -2.5000009537
48.8246458800 2.9471338314 -2.5000009537
48.8136342992 2.9639147677 -2.5000009537
48.7914624558 2.9973785506 -2.5000009537
48.1480475961 3.8178607366 -2.5000009537
48.0102538769 3.9637903633 -2.5000009537
47.9680802659 4.0067677758 -2.5000009537
