53.1717165794 3.5642596470 -3.0000117417
53.6874088653 3.6675644959 -3.0000116398
53.3649262612 3.6245647647 -3.0000116822
53.0608419178 3.5650734456 -3.0000117409
53.6385228455 3.6866754006 -3.0000116209
53.4378713238 3.6605244696 -3.0000116468
52.8440172720 3.5361125759 -3.0000117695
54.2601853233 3.7426995594 -3.0000115657
54.1976348799 3.7428271403 -3.0000115655
53.8382945323 3.7292031082 -3.0000115790
52.8861089505 3.6222381248 -3.0000116845
52.8250800565 3.6061154288 -3.0000117004
54.2290582034 3.8153748011 -3.0000114940
54.1339481167 3.8147247221 -3.0000114946
53.8963544375 3.8057165939 -3.0000115035
53.7519790733 3.8193373631 -3.0000114900
52.9667603540 3.6920869571 -3.0000116156
52.6523803193 3.6320716378 -3.0000116748
53.1294523150 3.8516776743 -3.0000114581
52.9012565669 3.8254545502 -3.0000114840
55.9773808037 -1.9490118144 -3.0000171820
55.9846453910 -1.8843324793 -3.0000171182
55.9850275574 -1.8800099178 -3.0000171139
55.9853969353 -1.8756862446 -3.0000171096
56.0146997466 -1.7587589761 -3.0000169943
56.0291640270 -1.9243356255 -3.0000171576
56.0348440900 -1.6424075576 -3.0000168794
56.0244537800 -1.5443602662 -3.0000167827
56.0460398771 -1.9812449979 -3.0000172138
56.0620364461 -1.8090273584 -3.0000170439
56.0477629465 -1.5365224838 -3.0000167750
56.0813564544 -1.8883829766 -3.0000171222
56.0870085071 -1.7266630036 -3.0000169626
56.0868254343 -1.7174139138 -3.0000169535
56.0862951445 -1.6989197929 -3.0000169352
56.0855460607 -1.6804332413 -3.0000169170
56.1103504518 -1.8107874668 -3.0000170456
56.0962822505 -1.5343758602 -3.0000167728
56.0815184398 -1.4463751189 -3.0000166860
56.1347701157 -1.7020140854 -3.0000169383
56.0875898225 -1.3625959661 -3.0000166033
56.1210287973 -1.3991402622 -3.0000166394
56.1368474015 -1.3604250159 -3.0000166012
56.1847794432 -2.0322773912 -3.0000172641
56.2249446225 -1.9110109574 -3.0000171445
56.2310643635 -1.6888538713 -3.0000169253
56.0112919801 0.1732608039 -3.0000150878
55.7424687008 0.3536714839 -3.0000149098
55.7671403056 0.3672748622 -3.0000148964
55.1988608754 0.6857985344 -3.0000145821
55.2922570474 0.7086876134 -3.0000145595
55.1305373046 0.7534642167 -3.0000145153
52.9025478470 3.7591363624 -3.0000115494
52.6679463920 3.7101818808 -3.0000115978
52.2888425925 3.6449384445 -3.0000116621
51.8011763066 3.4979879371 -3.0000118071
51.6544214099 3.4744775299 -3.0000118303
55.9664241767 -1.8793859776 -3.0000171133
55.9663511653 -1.8761199949 -3.0000171101
55.9869534076 -1.8088827688 -3.0000170437
55.9816966665 -1.7590889624 -3.0000169946
55.9784886105 -1.7359424800 -3.0000169717
55.9759040460 -1.7194524076 -3.0000169555
55.9736609649 -1.7062889987 -3.0000169425
56.0148258252 -1.8817861312 -3.0000171157
56.0118459961 -1.8170767184 -3.0000170518
56.0023971135 -1.7323761425 -3.0000169682
55.9937314735 -1.6819725871 -3.0000169185
55.9930743580 -1.6786266882 -3.0000169152
55.9859599758 -1.6452802396 -3.0000168823
55.9910115042 -1.5691743704 -3.0000168072
56.0618284869 -1.8418634916 -3.0000170763
56.0228406172 -1.5931125723 -3.0000168308
56.0079773706 -1.5419392581 -3.0000167803
55.9808181721 -1.4648862248 -3.0000167043
56.0452595446 -1.5833861318 -3.0000168212
55.9838712735 -1.4092222112 -3.0000166493
56.0217565811 -1.4369655576 -3.0000166767
56.0889460952 -1.5598975528 -3.0000167980
56.0344347912 -1.1927024658 -3.0000164357
55.8381675089 0.3008054086 -3.0000149620
55.5234102007 0.4147820011 -3.0000148495
55.4855324009 0.5252143390 -3.0000147405
55.5922197514 0.5457905140 -3.0000147202
51.2600251622 3.7041565209 -3.0000116037
55.9470606427 -1.8274526884 -3.0000170620
55.9481602728 -1.7415338020 -3.0000169773
55.9459506667 -1.7351059528 -3.0000169709
55.9389808276 -1.7159435950 -3.0000169520
55.9348890123 -1.7053800830 -3.0000169416
55.9834874918 -1.7739622950 -3.0000170093
55.9761439720 -1.7493254751 -3.0000169849
55.9640408777 -1.7139468714 -3.0000169500
55.9590725897 -1.7008335285 -3.0000169371
55.9493628018 -1.6770297432 -3.0000169136
55.9408457345 -1.6577971341 -3.0000168946
55.9470243568 -1.6152223636 -3.0000168526
55.9685259773 -1.6041762964 -3.0000168417
55.9616087550 -1.5910006413 -3.0000168287
55.9458259725 -1.5628871534 -3.0000168010
55.9588062033 -1.5375163164 -3.0000167759
55.9534326211 -1.5288385545 -3.0000167674
56.0028561880 -1.5169142610 -3.0000167556
55.6895170810 0.3520860772 -3.0000149114
55.8331496914 0.3437785644 -3.0000149196
55.5536942084 0.3995359334 -3.0000148645
55.4545888447 0.4111909318 -3.0000148530
55.7412630163 0.3906697030 -3.0000148733
55.7342262819 0.3921931263 -3.0000148718
55.7060352031 0.3980784629 -3.0000148660
55.3504799560 0.4673943664 -3.0000147976
55.8515194144 0.4139324725 -3.0000148503
55.2789032302 0.5184319990 -3.0000147472
55.8625754968 0.4859898944 -3.0000147792
55.5960561618 0.5399865101 -3.0000147260
55.6071336175 0.5627741903 -3.0000147035
55.0655609806 0.6110020859 -3.0000146559
55.3448605858 0.6612860985 -3.0000146063
55.3630404812 0.7087980975 -3.0000145594
55.7082403761 0.6930056257 -3.0000145750
54.6909384962 0.6841971216 -3.0000145837
55.8161506151 0.6959614317 -3.0000145720
55.0621405261 0.8045207115 -3.0000144649
54.8645022525 0.7860938054 -3.0000144831
49.0621655549 3.2940116896 -3.0000120084
55.8572508397 0.3906837938 -3.0000148733
55.8005009172 0.3962746021 -3.0000148678
55.3946728198 0.3971100762 -3.0000148669
55.8956558333 0.4104931218 -3.0000148537
55.4573288221 0.4256647312 -3.0000148388
55.2540776910 0.4789758080 -3.0000147862
55.8481909002 0.5131849834 -3.0000147524
55.7736147460 0.5196419621 -3.0000147460
54.9789699267 0.4505836223 -3.0000148142
55.4931565643 0.6209290806 -3.0000146461
55.4755093489 0.6685942366 -3.0000145991
55.7059840363 0.6929523518 -3.0000145750
55.6989476244 0.7174304436 -3.0000145509
55.4358255631 0.8118349554 -3.0000144577
54.7578678583 0.7404115603 -3.0000145282
53.8591790285 0.7514618996 -3.0000145173
49.0376974036 1.4065435571 -3.0000138709
49.0577144972 1.6965969916 -3.0000135847
49.0489613263 1.7786423730 -3.0000135037
49.0266940254 1.7398615405 -3.0000135420
49.0297466746 1.8417352809 -3.0000134415
49.0165013585 2.0079708199 -3.0000132774
49.0197946188 2.0595195978 -3.0000132266
59.7544983978 6.2300624983 -3.0000091113
59.5091220318 6.3495572363 -3.0000089933
59.7654023192 6.2516365517 -3.0000090900
59.5935594815 6.3362669235 -3.0000090065
59.8496007602 6.2357569860 -3.0000091056
59.6534193626 6.3341831532 -3.0000090085
59.6287345194 6.3461591771 -3.0000089967
59.8851164797 6.2445716057 -3.0000090969
59.7626412814 6.3071566320 -3.0000090352
59.7380359096 6.3194558723 -3.0000090230
59.6144692323 6.3798573290 -3.0000089634
59.8962749121 6.2660151285 -3.0000090758
59.3843348742 6.5393346053 -3.0000088061
59.4900105698 6.5713700531 -3.0000087745
60.1245984592 6.2811712532 -3.0000090608
60.1000683731 6.2945413420 -3.0000090476
59.8242446400 6.4925613686 -3.0000088522
59.6219935105 6.5903156182 -3.0000087558
59.6322545540 6.6122027438 -3.0000087342
59.9323869678 6.5192987950 -3.0000088258
59.7549661653 6.6073293366 -3.0000087390
60.0190176680 6.5018938792 -3.0000088430
59.8996772791 6.6440286780 -3.0000087028
60.2017169110 6.5418763443 -3.0000088036
59.6200280748 6.8574611418 -3.0000084922
59.5412253200 6.8928529503 -3.0000084572
60.3259685455 6.5290191176 -3.0000088163
59.6562918833 6.8674859608 -3.0000084823
59.5510309729 6.9149478468 -3.0000084354
60.6383127886 6.3763631854 -3.0000089669
60.1339360338 6.6600460082 -3.0000086870
59.6136678309 6.9134090912 -3.0000084370
60.4745071972 6.5564094712 -3.0000087892
61.0098179860 6.2570353158 -3.0000090846
60.2935118694 6.7120854618 -3.0000086356
59.7964312503 6.9623967538 -3.0000083886
60.9129448711 6.3770709204 -3.0000089662
60.3565993744 6.7053288751 -3.0000086423
55.3397842275 0.8076490624 -3.0000144618
55.1378005872 0.8079881850 -3.0000144615
55.1986994878 0.8413927711 -3.0000144285
55.0981087404 0.8258109779 -3.0000144439
55.5616599634 0.8869884249 -3.0000143836
55.1011478481 0.8508806869 -3.0000144192
55.0781559136 0.8959204163 -3.0000143747
54.5894804035 0.7564967462 -3.0000145123
55.7535238341 0.9737757056 -3.0000142979
54.8097122190 0.8828934535 -3.0000143876
54.4593033897 0.7536487767 -3.0000145151
55.4633680406 1.0074103586 -3.0000142647
55.3249529670 1.0004637190 -3.0000142716
54.7660988942 0.8951731693 -3.0000143755
54.6629956384 0.8870066211 -3.0000143835
54.4008529764 0.8065630423 -3.0000144629
54.8160759319 1.0352368175 -3.0000142373
54.3120593390 0.8442372503 -3.0000144257
52.5171246378 1.2998891282 -3.0000139761
49.0426531560 1.4171259552 -3.0000138604
49.0337713316 1.3979380361 -3.0000138794
49.0443740277 1.5336864846 -3.0000137454
49.0259775376 1.4952925975 -3.0000137833
49.0341658594 1.7302415501 -3.0000135515
49.0192830443 1.9097786155 -3.0000133743
49.0189197469 2.0099392955 -3.0000132755
48.9662843496 2.0645042927 -3.0000132216
59.6469898090 7.2764918495 -3.0000080787
59.5944313903 7.3007260894 -3.0000080548
60.2383893391 7.0320405024 -3.0000083199
60.2445923527 7.1661836063 -3.0000081875
60.1256450020 7.2564843288 -3.0000080984
55.9233015531 -1.3078361340 -3.0000165493
55.9379903630 -1.2742054517 -3.0000165161
55.9341783462 -1.2631588363 -3.0000165052
55.9639201850 -1.2756379634 -3.0000165175
55.9494759150 -1.2347635907 -3.0000164772
55.9486098631 -1.2325159725 -3.0000164750
55.9738081744 -1.2307420632 -3.0000164732
55.9518921104 -1.1780871471 -3.0000164213
55.9445164200 -1.1623706354 -3.0000164058
55.9434362384 -1.1601380050 -3.0000164036
55.9390496092 -1.1512397300 -3.0000163948
55.9489137138 -1.1177753066 -3.0000163618
55.9427868399 -1.1065842415 -3.0000163507
55.9415416396 -1.1043569716 -3.0000163485
55.9377665832 -1.0976973995 -3.0000163419
55.9677033024 -1.1017110145 -3.0000163459
55.9664435772 -1.0994100585 -3.0000163436
55.9613367761 -1.0902438013 -3.0000163346
55.9426164984 -1.0586511540 -3.0000163034
55.9559616198 -1.0345065453 -3.0000162796
55.9672214678 -1.0075640452 -3.0000162530
55.9646113297 -0.9615653104 -3.0000162076
55.6998026293 0.8285563025 -3.0000144412
55.5455689669 0.8567744833 -3.0000144134
55.8999474520 0.8013615259 -3.0000144680
55.8792618509 0.8075769284 -3.0000144619
55.1544827345 0.9071897812 -3.0000143636
55.7171499766 0.8742535891 -3.0000143961
55.6244617498 0.8927748905 -3.0000143778
55.6101414571 0.8953074266 -3.0000143753
55.3938509650 0.9230807478 -3.0000143479
55.0669316240 0.9285658925 -3.0000143425
55.0306350473 0.9264882651 -3.0000143446
55.0088732489 0.9249840803 -3.0000143461
54.9871256563 0.9232868310 -3.0000143477
55.2492411669 0.9550590045 -3.0000143164
55.1684767533 0.9556972304 -3.0000143158
54.9412649398 0.9433657795 -3.0000143279
54.8974700805 0.9385755303 -3.0000143326
54.8392222962 0.9309809006 -3.0000143401
55.3904858118 0.9718652538 -3.0000142998
55.1682744790 0.9798694121 -3.0000142919
55.7254112736 0.9466773395 -3.0000143247
55.4520571952 0.9904460463 -3.0000142815
55.4073462913 0.9947140139 -3.0000142773
55.6935465520 0.9780342752 -3.0000142937
55.6683685939 1.0075782327 -3.0000142646
55.3049470594 1.0498795334 -3.0000142228
55.7383003923 1.0428096094 -3.0000142298
55.8350254734 1.0451497637 -3.0000142275
54.4627306178 1.0235160358 -3.0000142488
54.3122965231 1.1289717454 -3.0000141448
55.9320258651 -1.2543622985 -3.0000164965
55.9566810383 -1.2584099144 -3.0000165005
55.9551272633 -1.2425093376 -3.0000164848
55.9547882958 -1.2393320774 -3.0000164817
55.9533384825 -1.2266334810 -3.0000164692
55.9455044685 -1.1728871861 -3.0000164161
55.9420956137 -1.1540211837 -3.0000163975
55.9804577316 -1.2529838191 -3.0000164952
55.9761263923 -1.2140243082 -3.0000164567
55.9698770587 -1.1720208742 -3.0000164153
55.9658443667 -1.1495120802 -3.0000163931
55.9606660550 -1.1238964592 -3.0000163678
55.9517657750 -1.0857206945 -3.0000163301
55.9942638820 -1.1712971965 -3.0000164146
55.9856824265 -1.1253588730 -3.0000163692
55.9849967730 -1.1220917377 -3.0000163660
55.9783918601 -1.0927828612 -3.0000163371
56.0113891585 -1.1304525654 -3.0000163743
55.9779672848 -1.0018142795 -3.0000162473
55.9685918391 -0.9061818498 -3.0000161530
56.0544573929 -1.1001444941 -3.0000163444
56.0521449816 -1.0897398983 -3.0000163341
56.0480860697 -1.0724458226 -3.0000163170
56.0195404782 -0.9734798374 -3.0000162194
55.9962817102 -0.9101189889 -3.0000161569
55.9909335899 -0.8969524700 -3.0000161439
55.9840299729 -0.8805848223 -3.0000161277
56.0353582923 -0.9452366020 -3.0000161915
56.0266158083 -0.9214205854 -3.0000161680
56.0240275559 -0.9146497511 -3.0000161613
56.0213992902 -0.9078943482 -3.0000161547
55.9739845577 -0.8020977865 -3.0000160503
56.0556399489 -0.9301843724 -3.0000161767
55.7599231341 0.8621298251 -3.0000144081
55.8281487469 0.8601708690 -3.0000144100
55.6696834576 0.9469723579 -3.0000143244
55.6499473152 0.9791038293 -3.0000142927
55.5805588122 1.0008288975 -3.0000142712
55.7406931104 0.9730155413 -3.0000142987
55.6853518949 0.9927090084 -3.0000142792
55.8251012863 0.9662022675 -3.0000143054
55.7837464537 0.9825944019 -3.0000142892
55.6584028551 1.0526242031 -3.0000142201
55.1690126053 1.1585726362 -3.0000141156
54.8851787237 1.1750238192 -3.0000140993
55.3655390246 1.2758073205 -3.0000139999
55.8666979009 1.3387681112 -3.0000139378
52.9045989272 1.7329673392 -3.0000135488
51.6147221638 3.7487272545 -3.0000115597
51.1160312782 3.6675322813 -3.0000116398
55.9738910982 -1.3033602959 -3.0000165449
55.9750111335 -1.2525409003 -3.0000164947
55.9949142957 -1.3560241030 -3.0000165969
55.9988172332 -1.2804790399 -3.0000165223
55.9983341607 -1.2008544629 -3.0000164437
55.9915421574 -1.1055510610 -3.0000163497
56.0233102560 -1.2607832795 -3.0000165029
56.0095431421 -1.0547156964 -3.0000162995
56.0420666089 -1.3722050583 -3.0000166128
56.0471399958 -1.2156235652 -3.0000164583
56.0372666366 -1.0799146164 -3.0000163244
56.0767926537 -1.0149140940 -3.0000162603
56.0433624433 -0.7097329714 -3.0000159591
56.1101322913 -0.8326697739 -3.0000160804
56.1076058626 -0.6748989262 -3.0000159247
56.0850286594 -0.5627235984 -3.0000158141
52.1369285395 3.5917154308 -3.0000117147
52.3189946789 3.7355257157 -3.0000115727
55.9735316327 -1.3446172377 -3.0000165856
55.9742204597 -1.4544911586 -3.0000166940
55.9989754100 -1.3397334189 -3.0000165808
55.9684598040 -1.5612040751 -3.0000167993
56.0406188421 -1.2116722899 -3.0000164544
56.0651288551 -1.2090889085 -3.0000164519
56.0955886893 -1.0935762098 -3.0000163379
56.0921426885 -0.6438826056 -3.0000158941
54.5123080410 3.8121808731 -3.0000114971
54.1663180299 3.8053438448 -3.0000115039
56.0720960311 -1.2362764187 -3.0000164787
56.0022500247 -1.5492097654 -3.0000167875
56.0680115254 -1.3545847513 -3.0000165954
56.0910043408 -1.2630007465 -3.0000165051
56.1138756141 -1.1429704619 -3.0000163866
56.1249708543 -1.0603933748 -3.0000163051
56.1255801100 -1.0548718229 -3.0000162997
55.9774254842 -1.6664596438 -3.0000169032
56.1590654535 -0.7709602211 -3.0000160195
56.0206170465 -1.6301886406 -3.0000168674
56.1723756708 -1.0714286679 -3.0000163160
56.1765155512 -1.0317582348 -3.0000162769
56.1845792335 -0.8895671116 -3.0000161366
56.1781821804 -0.6903259815 -3.0000159400
56.1705595856 -0.6166487462 -3.0000158673
56.1660871322 -0.5827545076 -3.0000158338
56.1266635234 -1.4128031041 -3.0000166529
56.1630178228 -1.2732538623 -3.0000165152
56.1767802299 -1.2054041063 -3.0000164482
56.1855169031 -1.1542196058 -3.0000163977
56.2076042743 -0.7746733075 -3.0000160232
56.0198046138 -1.7447217973 -3.0000169804
56.1340217411 -1.4698976832 -3.0000167092
56.2068889077 -0.5298151792 -3.0000157816
56.2483259048 -0.6606963097 -3.0000159107
56.2185512946 -1.3529552756 -3.0000165938
56.3055311515 -0.8858900195 -3.0000161329
56.3298186274 -0.8250250595 -3.0000160729
56.1877083051 -1.6701377706 -3.0000169068
56.3482741363 -0.6946890628 -3.0000159443
56.4134630165 -0.6126327172 -3.0000158633
56.4842247588 0.4985525466 -3.0000147668
55.8482147724 1.2401881833 -3.0000140350
55.6893079933 1.3519119374 -3.0000139248
53.7744825363 3.5134009219 -3.0000117919
53.7099743190 3.5057610497 -3.0000117995
53.5941715278 3.4896083061 -3.0000118154
54.1496757630 3.5630066074 -3.0000117430
54.1105022188 3.5618648503 -3.0000117441
54.0061048890 3.5571211261 -3.0000117488
53.6939952413 3.5280931667 -3.0000117774
53.5646995132 3.5094731124 -3.0000117958
53.5389096324 3.5052905889 -3.0000117999
53.4616947760 3.4918285805 -3.0000118132
53.9391849816 3.5770125994 -3.0000117292
53.9129889603 3.5750444757 -3.0000117311
53.7169678216 3.5553501631 -3.0000117505
53.5349693157 3.5291403098 -3.0000117764
54.3069469898 3.6124395035 -3.0000116942
54.0956809627 3.6097208114 -3.0000116969
53.4659618733 3.5417450561 -3.0000117640
53.4270039372 3.5345365589 -3.0000117711
53.6715546696 3.5982992487 -3.0000117082
54.3475126306 3.6601726334 -3.0000116471
53.8807304056 3.6451856139 -3.0000116619
54.1466906248 3.6838348781 -3.0000116238
54.5910395063 3.6972710509 -3.0000116105
53.4402060794 3.6844780559 -3.0000116231
54.9676392074 3.7518220858 -3.0000115567
55.1487003646 3.7448958926 -3.0000115635
55.0260218107 3.7669580399 -3.0000115417
55.4580076705 3.7240540127 -3.0000115841
53.7371669628 3.8497597531 -3.0000114600
54.0148315827 3.8965154152 -3.0000114139
56.2363123434 -0.4394963125 -3.0000156925
56.2166186732 -1.1728084440 -3.0000164161
56.2883361271 -0.4932346198 -3.0000157455
56.3155582290 -0.6021358725 -3.0000158530
56.4298687535 -1.1146030766 -3.0000163586
54.2204673133 3.4681144984 -3.0000118366
54.2084080008 3.4683836420 -3.0000118363
54.1722260250 3.4689770161 -3.0000118358
54.4270488351 3.4821910281 -3.0000118227
54.3544015480 3.4869349601 -3.0000118180
54.2938055946 3.4899027916 -3.0000118151
54.2453013629 3.4916315566 -3.0000118134
54.2331723740 3.4919740610 -3.0000118131
54.5261182739 3.4979192344 -3.0000118072
54.4653410759 3.5034256212 -3.0000118018
54.4288380044 3.5062977524 -3.0000117989
54.2948095215 3.5140549636 -3.0000117913
54.5773208538 3.5168953112 -3.0000117885
54.4795772107 3.5264801362 -3.0000117790
54.5676881949 3.5422556320 -3.0000117635
54.8163215099 3.5325679359 -3.0000117730
54.4094286279 3.5803831505 -3.0000117258
54.9848202424 3.5502089150 -3.0000117556
55.2233937200 3.5685995409 -3.0000117375
55.2667813723 3.5819942651 -3.0000117242
55.2171193574 3.5952292846 -3.0000117112
54.3680119187 3.7282817770 -3.0000115799
54.2539182860 3.7815798784 -3.0000115273
54.1632110742 3.8075121268 -3.0000115017
54.1768520397 3.8557177978 -3.0000114541
55.8756737886 3.5765323345 -3.0000117296
54.1645168037 3.9525444171 -3.0000113586
56.2915727559 -0.5354650281 -3.0000157872
56.2560397809 -0.8978260831 -3.0000161447
56.2860619915 -0.7588703616 -3.0000160076
56.2919337375 -0.7255302463 -3.0000159747
56.3234399333 -0.3075202366 -3.0000155622
56.3476250415 -0.3823830635 -3.0000156361
56.3250610675 -0.0208203850 -3.0000152793
56.3189427653 0.0197738822 -3.0000152393
56.2204831026 -1.1732947283 -3.0000164165
56.2301282128 -1.1473764732 -3.0000163910
56.3678292544 -0.4863928861 -3.0000157387
56.3758964576 -0.8040764458 -3.0000160522
56.2647715828 -1.2586716182 -3.0000165008
56.3586474539 0.2926777259 -3.0000149700
56.4428147267 -0.6998488111 -3.0000159494
56.4662533990 -0.4562854530 -3.0000157090
56.2374929139 0.6903318626 -3.0000145776
56.3067430549 -1.2837229254 -3.0000165255
56.3176887642 -1.2567762718 -3.0000164989
56.4634556716 -0.7249375645 -3.0000159741
56.4892542801 -0.2102723810 -3.0000154663
56.5094720326 -0.1503352666 -3.0000154071
56.2183684238 0.8354223835 -3.0000144344
56.2870995319 0.7546179576 -3.0000145142
56.5395547061 -0.7065298827 -3.0000159560
56.1780433925 1.0453383769 -3.0000142273
56.1905569751 -1.7608400984 -3.0000169963
56.6377621171 -0.3100429366 -3.0000155647
56.2172134044 1.2028062022 -3.0000140719
56.7788930933 -0.1943463487 -3.0000154506
56.7911276911 -0.6434125856 -3.0000158937
56.8058913783 -0.4307543266 -3.0000156838
56.8058562350 -0.2585637064 -3.0000155139
56.7979968969 -0.1193853005 -3.0000153766
56.3597800567 -3.2428905398 -3.0000184587
54.9223775009 3.4610903097 -3.0000118435
54.9111138502 3.4636988370 -3.0000118410
54.8998425324 3.4662740330 -3.0000118384
54.8772772896 3.4713243412 -3.0000118334
54.8546825625 3.4762410574 -3.0000118286
54.8433743894 3.4786492645 -3.0000118262
55.0182430774 3.4624301527 -3.0000118422
55.0069750438 3.4653222619 -3.0000118394
54.9844135570 3.4710064186 -3.0000118338
54.9618188358 3.4765569945 -3.0000118283
55.1034004014 3.4645288972 -3.0000118402
55.0582468304 3.4769046350 -3.0000118279
55.1777878877 3.4681212087 -3.0000118366
55.1439015797 3.4781131212 -3.0000118267
55.1212620215 3.4846071574 -3.0000118203
55.1099279336 3.4878039182 -3.0000118172
55.0872316360 3.4940967854 -3.0000118110
55.0075097556 3.5150621034 -3.0000117903
55.2187290007 3.4809219741 -3.0000118240
55.1847274810 3.4912767119 -3.0000118138
55.2826752854 3.4859796600 -3.0000118190
55.2599867573 3.4932945904 -3.0000118118
55.2258738129 3.5040149804 -3.0000118012
55.0308748088 3.5590141278 -3.0000117469
55.3243152073 3.4976733692 -3.0000118074
55.2787539902 3.5126607533 -3.0000117927
55.0600695804 3.5764407572 -3.0000117297
55.4004113576 3.4969615115 -3.0000118081
55.4768858699 3.4947519421 -3.0000118103
55.5423544427 3.4955070431 -3.0000118096
55.1383493571 3.6806026476 -3.0000116269
55.3068768680 3.6813043345 -3.0000116262
55.2852465313 3.7386615263 -3.0000115697
55.2489550982 3.7495964205 -3.0000115589
55.2314413430 3.7799234135 -3.0000115289
55.9854322433 3.5357156533 -3.0000117699
55.7502268173 3.6715503926 -3.0000116359
56.6625526163 3.2040023341 -3.0000120972
56.1914014429 3.5361552957 -3.0000117695
55.4633681863 -0.0866392468 -3.0000153443
55.4861284323 -0.0031266402 -3.0000152619
55.5113621862 -0.0333983071 -3.0000152917
56.3504427475 -0.2571752400 -3.0000155126
56.3542099322 -0.2014218218 -3.0000154575
56.3577578635 -0.0478148237 -3.0000153060
56.3518816678 -0.4482190322 -3.0000157011
56.3611121233 -0.3853846170 -3.0000156391
56.3810325493 -0.1393140437 -3.0000153963
56.3815526993 -0.1181502858 -3.0000153754
56.3743220256 0.1215687128 -3.0000151388
56.3430579952 0.3593502119 -3.0000149042
56.3376915795 -0.6406606612 -3.0000158910
56.3587631204 0.4057022940 -3.0000148585
56.4262058469 -0.2126422377 -3.0000154686
56.4105416044 0.2400153112 -3.0000150220
56.4025268052 0.2970516445 -3.0000149657
56.3498683317 0.5507122537 -3.0000147154
56.3605216750 -0.7434932946 -3.0000159924
56.4038135781 -0.5669846376 -3.0000158183
56.4443555265 -0.2938141313 -3.0000155487
56.4296183015 0.2791199692 -3.0000149834
56.3734514384 -0.7853491566 -3.0000160337
56.4046293244 -0.6720886686 -3.0000159220
56.4712806666 0.1220186530 -3.0000151384
56.3286206045 -0.9884062319 -3.0000162341
56.4837588168 -0.3792974689 -3.0000156331
56.4953811644 0.1238898250 -3.0000151365
56.2858323529 -1.1484276833 -3.0000163920
56.4748356226 -0.5816436530 -3.0000158327
56.5112650221 -0.3525437497 -3.0000156067
56.5268797229 -0.0387310230 -3.0000152970
56.4027985683 -0.9282877182 -3.0000161748
56.4575411866 0.7780301688 -3.0000144911
56.3959773599 -1.1401770430 -3.0000163839
56.5815516330 -0.6597265248 -3.0000159098
56.4001914921 -1.2993834894 -3.0000165410
56.6175799251 0.7558071200 -3.0000145130
56.6611929132 0.7782235767 -3.0000144909
56.7501692603 -0.7844884847 -3.0000160329
56.7648487592 -0.8233673362 -3.0000160713
56.5829838354 -1.4710453926 -3.0000167104
55.7323533038 -3.3819880864 -3.0000185960
55.7632651740 -3.3930042074 -3.0000186069
55.8238812213 -3.3876837511 -3.0000186016
55.4878516039 3.4114570808 -3.0000118925
55.4775459407 3.4158534167 -3.0000118882
55.8651007880 -3.3924057102 -3.0000186063
55.8749205308 -3.3868636332 -3.0000186008
55.5387230535 3.4156736337 -3.0000118884
55.5180729301 3.4247366989 -3.0000118794
55.9163792808 -3.3909909895 -3.0000186049
55.9261946142 -3.3852972277 -3.0000185992
55.9359930615 -3.3795744552 -3.0000185936
55.6002167046 3.4144419662 -3.0000118896
55.5899017199 3.4191706853 -3.0000118849
55.5795727918 3.4238688701 -3.0000118803
55.5692300110 3.4285364795 -3.0000118757
55.9580582699 -3.3946420687 -3.0000186085
55.9678842215 -3.3888249969 -3.0000186027
55.6413776621 3.4219415722 -3.0000118822
55.9999522954 -3.3978132954 -3.0000186116
55.7137834061 3.4138809534 -3.0000118901
56.0518990246 -3.3944355709 -3.0000186083
55.7555134148 3.4200907843 -3.0000118840
55.7348333638 3.4304363768 -3.0000118738
55.8181397467 3.4151164466 -3.0000118889
56.1465613800 -3.3917508199 -3.0000186056
55.8707010322 3.4146077861 -3.0000118894
55.8603843735 3.4201366460 -3.0000118840
55.8500514045 3.4256349632 -3.0000118785
55.9662298246 3.4171500639 -3.0000118869
55.9559052273 3.4229615041 -3.0000118812
55.9455634840 3.4287423769 -3.0000118755
56.5423518359 -3.1932278591 -3.0000184097
56.0523320950 3.4233091497 -3.0000118808
56.8684287599 -2.9987495353 -3.0000182178
57.2569040506 2.8724014020 -3.0000124244
56.3330653092 -0.0424530092 -3.0000153007
56.3432641249 0.0884938674 -3.0000151715
56.2869778545 0.7269681005 -3.0000145415
56.3702347988 0.1850401248 -3.0000150762
56.3699141271 0.2479045306 -3.0000150142
56.3652131299 0.3595588774 -3.0000149040
56.3637436494 0.3804629160 -3.0000148834
56.3402481198 0.7102281991 -3.0000145580
56.3888545964 0.5822592371 -3.0000146842
56.2678676503 1.0434654232 -3.0000142291
56.3787001524 -0.3506100581 -3.0000156048
56.3604151822 0.8324359900 -3.0000144374
56.3143223207 -0.6483831962 -3.0000158986
56.3182115886 1.0466519400 -3.0000142260
56.4477785574 0.9652478696 -3.0000143063
56.2957101823 1.3434834229 -3.0000139331
56.3629743858 1.2577030899 -3.0000140177
56.2042781320 -1.1943577066 -3.0000164373
56.3052666727 -1.0215431569 -3.0000162668
56.2617527615 -1.1937792789 -3.0000164368
56.6237289563 0.7717334511 -3.0000144973
56.2786001398 -1.3875284273 -3.0000166279
56.7935081386 0.4623610373 -3.0000148026
56.0422358607 3.3136463129 -3.0000119890
56.0330293356 3.3196474141 -3.0000119831
55.1405197466 -3.4607594538 -3.0000186737
55.1513570843 -3.4573961511 -3.0000186704
56.2579281908 3.3118777973 -3.0000119908
55.2020770542 -3.4666121754 -3.0000186795
55.2129314360 -3.4630667494 -3.0000186760
55.2237752823 -3.4594892297 -3.0000186725
55.2454309888 -3.4522380347 -3.0000186653
55.3182836401 -3.4524758441 -3.0000186655
56.3509380022 3.3032154210 -3.0000119993
55.2937250527 -3.4867808205 -3.0000186994
55.3264318731 -3.4752341740 -3.0000186880
55.3481789354 -3.4673753525 -3.0000186802
55.3590349356 -3.4633977274 -3.0000186763
55.3807113989 -3.4553462224 -3.0000186684
56.4022423478 3.2943986288 -3.0000120080
56.3930911856 3.3014647785 -3.0000120011
55.4000825409 -3.4738825420 -3.0000186867
55.4326707081 -3.4613925403 -3.0000186743
55.4849639351 -3.4667185026 -3.0000186796
55.4958173937 -3.4623362456 -3.0000186753
56.4686909776 3.3037335766 -3.0000119988
55.5267010624 -3.4758228313 -3.0000186886
55.5375812706 -3.4713170685 -3.0000186841
55.5593014625 -3.4622090849 -3.0000186751
56.5204412983 3.2931678250 -3.0000120092
55.4589242602 -3.5289926034 -3.0000187410
55.5905127853 -3.4751813290 -3.0000186879
55.6013908166 -3.4704868023 -3.0000186833
55.6122549131 -3.4657601171 -3.0000186786
55.6546354694 -3.4734524873 -3.0000186862
55.4316150766 -3.5911581724 -3.0000188024
55.7292489342 -3.4925435254 -3.0000187051
55.7401777190 -3.4874385162 -3.0000187000
55.8704281098 -3.4777653234 -3.0000186905
56.1092208869 -3.4030385561 -3.0000186168
55.5866524320 -3.6863508077 -3.0000188963
55.7648886567 -3.6889248890 -3.0000188989
56.1623028462 -3.6233204508 -3.0000188341
56.1902235004 1.0447356478 -3.0000142279
54.6895271799 -3.4785853784 -3.0000186913
54.8224468744 -3.4801650955 -3.0000186929
54.8033707560 -3.5083097897 -3.0000187206
54.8975113530 -3.4898975480 -3.0000187025
54.9429580327 -3.5296641406 -3.0000187417
55.0729059079 -3.4992210434 -3.0000187117
54.8087273931 -3.6056128224 -3.0000188166
54.9361598369 -3.8027532030 -3.0000190112
56.1494763948 1.0966538658 -3.0000141767
56.2038127397 0.8517763383 -3.0000144183
56.1373480220 1.2585698991 -3.0000140169
56.2214186875 0.5266324577 -3.0000147391
56.1440186258 1.3230937609 -3.0000139532
56.0970583966 1.4606005491 -3.0000138175
56.2421923131 0.4937635532 -3.0000147716
56.1962491663 1.2237205622 -3.0000140513
56.1807861017 1.2830062609 -3.0000139928
56.2504999510 0.3805474181 -3.0000148833
56.2721213014 0.9117541992 -3.0000143591
56.2672519452 0.9611025058 -3.0000143104
56.0227722136 1.7365061919 -3.0000135453
56.1828374011 1.5069140157 -3.0000137718
56.0612330590 1.8160288160 -3.0000134668
56.4575372570 0.4621534605 -3.0000148028
56.3240568059 -0.1481428813 -3.0000154050
56.2901272615 -0.2836038445 -3.0000155386
56.3765710962 -0.0800413796 -3.0000153378
56.0502371765 -0.9789330187 -3.0000162248
53.9753746167 -3.4867825123 -3.0000186994
54.1002082904 -3.4911239165 -3.0000187037
54.1626596299 -3.4919094153 -3.0000187044
54.0118273847 -3.5126256874 -3.0000187249
54.0620482422 -3.5143722438 -3.0000187266
54.0997255249 -3.5152921233 -3.0000187275
54.3258256143 -3.5137882883 -3.0000187260
54.0360950604 -3.5377316700 -3.0000187497
54.0487224442 -3.5381521203 -3.0000187501
54.3771282617 -3.5359678302 -3.0000187479
54.4780371891 -3.5302158338 -3.0000187422
53.9578242925 -3.5827041354 -3.0000187940
53.9833476908 -3.5839699690 -3.0000187953
54.4072992792 -3.6313200122 -3.0000188420
54.8569260714 -3.5849384503 -3.0000187962
54.1357998843 -3.6609068381 -3.0000188712
53.9502114598 -3.7275423725 -3.0000189370
54.1614070745 -3.7336364501 -3.0000189430
54.0152642957 -3.7546763539 -3.0000189637
54.0418041341 -3.7555993434 -3.0000189646
55.3814242793 -3.6454927658 -3.0000188560
53.9709620797 -3.8495846633 -3.0000190574
54.3923884739 -3.8740459887 -3.0000190815
56.1040219310 -3.5926444676 -3.0000188038
56.0635762177 1.1516290257 -3.0000141224
56.0526243827 1.2329030477 -3.0000140422
56.0457091922 1.2733229427 -3.0000140023
56.0438310861 1.2834014620 -3.0000139924
56.0266667758 1.3635937047 -3.0000139133
56.0981691196 0.9415838346 -3.0000143297
56.0976135996 1.0091451969 -3.0000142630
56.0825376741 1.1955590211 -3.0000140791
56.0731131993 1.2572098391 -3.0000140182
56.0560299155 1.3438910687 -3.0000139327
56.0525637451 1.3590934485 -3.0000139177
56.0005458165 1.5387362399 -3.0000137404
56.1203835399 1.0466648881 -3.0000142260
56.0913325651 1.2923987184 -3.0000139835
56.0446514637 1.4815813864 -3.0000137968
56.1376471235 0.7811336426 -3.0000144880
56.1150833046 1.2968973466 -3.0000139791
56.0081137989 1.6544075969 -3.0000136263
56.1544071868 1.2052435799 -3.0000140695
56.1015841091 1.4593718896 -3.0000138187
56.1846284009 0.7654097438 -3.0000145035
56.1948191057 0.9843870859 -3.0000142874
56.1937447995 1.0282413614 -3.0000142442
56.0590024156 1.6577623720 -3.0000136230
56.0642105472 1.7078288953 -3.0000135736
56.2193471592 0.6599291029 -3.0000146076
56.2393887894 0.8387929129 -3.0000144311
56.2239482987 1.2316464417 -3.0000140435
56.2188468705 1.2650177677 -3.0000140105
56.1954836325 0.4391914917 -3.0000148254
56.1677130381 1.5728155298 -3.0000137068
56.1062937816 1.7322828459 -3.0000135495
56.2218456590 0.4437610476 -3.0000148209
56.2537938236 0.5784653482 -3.0000146880
56.2030662507 1.5420692725 -3.0000137371
56.2570743465 0.3911514140 -3.0000148728
56.3756209849 0.7329734069 -3.0000145355
56.4950109072 0.7131425171 -3.0000145551
56.5398370089 -0.1382505070 -3.0000153952
55.8554375337 -1.0363693688 -3.0000162814
53.3335117501 -3.4626330819 -3.0000186756
53.3466018320 -3.4655948820 -3.0000186785
53.3728079942 -3.4714022493 -3.0000186842
53.8627656492 -3.5506695806 -3.0000187624
53.4468860505 -3.5115964063 -3.0000187239
53.8736354024 -3.5761110028 -3.0000187875
54.0080342309 -3.5879577199 -3.0000187992
54.0618820045 -3.5915823668 -3.0000188028
54.0753503549 -3.5923889518 -3.0000188036
54.1427246552 -3.5958240675 -3.0000188070
53.3492407351 -3.5157189206 -3.0000187279
53.4288491968 -3.5326206555 -3.0000187446
53.4554504664 -3.5379402467 -3.0000187499
53.6827189003 -3.5767813806 -3.0000187882
54.1958896015 -3.6220153173 -3.0000188328
54.2094473916 -3.6224253504 -3.0000188332
53.3041129567 -3.5302920069 -3.0000187423
53.8934777845 -3.6509779638 -3.0000188614
54.3314021329 -3.6726564112 -3.0000188828
54.5369490831 -3.6685336132 -3.0000188787
54.6053991010 -3.6651331763 -3.0000188754
54.6464423347 -3.6626070828 -3.0000188729
53.4911889049 -3.6431917573 -3.0000188537
54.7462930513 -3.7034619998 -3.0000189132
54.7600893673 -3.7022434836 -3.0000189120
54.8014558426 -3.6983431394 -3.0000189081
54.8427860757 -3.6940758446 -3.0000189039
54.7622517082 -3.7263196038 -3.0000189358
54.4711101693 -3.7675769601 -3.0000189765
54.2745509204 -3.8172392031 -3.0000190255
54.6717617625 -3.8304942430 -3.0000190385
55.1651923928 -3.7706796465 -3.0000189795
55.2676264731 -3.7763291362 -3.0000189851
53.3805239086 -3.8434484538 -3.0000190513
53.4759599399 -3.8861084368 -3.0000190934
55.9950954184 1.3228810875 -3.0000139534
55.9856168017 1.3916552861 -3.0000138856
55.9780440176 1.4343820454 -3.0000138434
56.0236690419 1.0349902042 -3.0000142375
56.0274481015 1.0966230984 -3.0000141767
56.0285833413 1.1407162044 -3.0000141332
56.0257141804 1.2509270505 -3.0000140244
56.0238135126 1.2773239599 -3.0000139984
56.0175591634 1.3387550437 -3.0000139378
55.9974513835 1.4605775300 -3.0000138176
55.9937576229 1.4778301739 -3.0000138005
55.9918342532 1.4864398038 -3.0000137920
55.9836324362 1.5207600161 -3.0000137582
55.9814552563 1.5293089907 -3.0000137497
55.9769493529 1.5463675494 -3.0000137329
56.0494302372 1.0553612793 -3.0000142174
56.0505275447 1.0732573288 -3.0000141997
56.0512115184 1.0866872015 -3.0000141865
56.0522217928 1.1135625118 -3.0000141600
56.0508622660 1.2345486106 -3.0000140406
56.0471581730 1.2882073813 -3.0000139876
56.0467635602 1.2926724169 -3.0000139832
56.0081622423 1.5223077969 -3.0000137566
56.0590489712 0.9225137692 -3.0000143485
56.0750036514 1.2357850548 -3.0000140394
56.0305181413 1.5325528861 -3.0000137465
56.0934277422 1.0014161829 -3.0000142706
56.1011556712 1.1676744707 -3.0000141066
56.0957163328 1.2877836233 -3.0000139881
56.0867544935 0.8090212360 -3.0000144605
56.0887863945 0.8181927719 -3.0000144514
56.1217858579 1.0504948960 -3.0000142222
56.1212648447 1.2710739072 -3.0000140046
56.1091862557 1.3831283034 -3.0000138940
56.0993319947 1.4433846346 -3.0000138345
56.0958345362 1.4618439809 -3.0000138163
56.0955927938 0.7435162208 -3.0000145251
56.1495343992 1.1536978521 -3.0000141204
56.1167495701 1.4805113736 -3.0000137979
56.1008466990 1.5502421910 -3.0000137291
56.0958587542 0.6583529339 -3.0000146092
56.1456468740 0.8553059013 -3.0000144148
56.1581221763 0.9317268229 -3.0000143394
56.1612774297 0.9557199350 -3.0000143157
56.1728911233 1.1052565117 -3.0000141682
56.1080641982 0.6183513630 -3.0000146486
56.1276140917 0.6791299973 -3.0000145887
56.1460376153 0.7453716395 -3.0000145233
56.1866774057 1.3496226887 -3.0000139270
56.1590066096 1.5142334875 -3.0000137646
56.1536044614 0.6817245088 -3.0000145861
56.2220356157 1.1485643908 -3.0000141254
56.1815343921 1.5242986864 -3.0000137547
56.2356144461 0.9668752282 -3.0000143047
56.2459334092 1.1888768974 -3.0000140857
56.2265941451 1.4153375533 -3.0000138622
56.1999858688 0.6680824350 -3.0000145996
56.2434493907 0.8526005020 -3.0000144175
56.2681347344 1.2456766088 -3.0000140296
56.2638988195 1.3070395355 -3.0000139691
56.1961805446 1.6587601596 -3.0000136220
56.2109727637 0.6215134597 -3.0000146455
56.2716228543 0.8739697272 -3.0000143964
56.2918880004 1.0598910042 -3.0000142129
56.3099047205 0.9797626440 -3.0000142920
56.2452560451 0.5712932360 -3.0000146951
56.3305270614 0.7930835746 -3.0000144762
56.3538500657 0.9372962515 -3.0000143339
56.3993253627 0.7676352725 -3.0000145013
56.2297651300 0.0933620890 -3.0000151667
56.4078409003 -0.4379358914 -3.0000156909
55.5424070358 -1.2180240636 -3.0000164607
55.3206877955 -1.3254208472 -3.0000165667
55.4392381638 -1.3363340002 -3.0000165774
53.8628562624 -3.6957667017 -3.0000189056
53.9203241969 -3.7034106036 -3.0000189131
53.5152941721 -3.6593251552 -3.0000188696
53.5438073158 -3.6652890386 -3.0000188755
53.5866419415 -3.6739183044 -3.0000188840
53.7874724418 -3.7091473366 -3.0000189188
54.2507860405 -3.7582614305 -3.0000189673
54.2944179041 -3.7606129956 -3.0000189696
53.3533525813 -3.6469866084 -3.0000188575
53.7115460101 -3.7213544703 -3.0000189309
53.8272161615 -3.7395350823 -3.0000189488
54.0305570940 -3.7647474153 -3.0000189737
54.1471647368 -3.7753670305 -3.0000189841
54.3224657147 -3.7861157202 -3.0000189948
53.0361338289 -3.5828460398 -3.0000187942
54.4684301060 -3.8144862325 -3.0000190228
52.8329291908 -3.5393403248 -3.0000187512
53.6597915039 -3.7614258361 -3.0000189704
53.4806953755 -3.7508051867 -3.0000189599
53.7580672565 -3.8024265302 -3.0000190109
53.8756428115 -3.8194835960 -3.0000190277
52.5381671829 -3.5532157064 -3.0000187649
52.7895669508 -3.7035900751 -3.0000189133
52.8327711777 -3.7189112928 -3.0000189284
53.6586368489 -4.2271581056 -3.0000194300
55.9648967686 1.2337277470 -3.0000140414
55.9675469665 1.3260406061 -3.0000139503
55.9660321039 1.3757536394 -3.0000139013
55.9636904062 1.4112034165 -3.0000138663
55.9627835186 1.4218232289 -3.0000138558
55.9590806173 1.4571567649 -3.0000138209
55.9870508237 1.2068118057 -3.0000140680
55.9911631883 1.2755423100 -3.0000140001
55.9913712038 1.2827879968 -3.0000139930
55.9909665008 1.3588858517 -3.0000139179
55.9899827617 1.3806093519 -3.0000138965
55.9871785842 1.4203766028 -3.0000138572
55.9858382760 1.4348117934 -3.0000138430
55.9826457408 1.4636295468 -3.0000138145
56.0002182878 1.1166827599 -3.0000141569
56.0144255215 1.2526205467 -3.0000140228
56.0157333656 1.3375986306 -3.0000139389
56.0129842030 1.4003612732 -3.0000138770
56.0118789188 1.4151032091 -3.0000138624
56.0109355252 1.4261505140 -3.0000138515
56.0048893256 1.0168317529 -3.0000142554
56.0074806429 1.0278327124 -3.0000142446
56.0107836751 1.0425356069 -3.0000142301
56.0161445416 1.0683559976 -3.0000142046
56.0401070533 1.3079114833 -3.0000139682
56.0389842505 1.3681731252 -3.0000139087
56.0343998090 1.0373767794 -3.0000142352
56.0375880268 1.0523975258 -3.0000142203
56.0441102268 1.0863250784 -3.0000141869
56.0467185858 1.1014572963 -3.0000141719
56.0502949532 1.1242108423 -3.0000141495
56.0578522232 1.1851602338 -3.0000140893
56.0592901567 1.2004481343 -3.0000140742
56.0621822773 1.3883656938 -3.0000138888
56.0231634329 0.9039727338 -3.0000143668
56.0509787632 1.0017374944 -3.0000142703
56.0643298847 1.0628563972 -3.0000142100
56.0774382289 1.1439079044 -3.0000141300
56.0191959680 0.8215407055 -3.0000144481
56.0332232644 0.8588054131 -3.0000144114
56.0372158611 0.8700640432 -3.0000144003
56.0944097884 1.0935269547 -3.0000141797
56.1074497120 1.1962056867 -3.0000140784
56.1090500641 1.2160504951 -3.0000140588
56.0691210180 0.8889646859 -3.0000143816
56.1296017925 1.1739095779 -3.0000141004
56.1343459757 1.3965497381 -3.0000138807
56.0419376901 0.7505550105 -3.0000145182
56.0452508181 0.7581102845 -3.0000145107
56.1609853307 1.3114277405 -3.0000139647
56.1084178911 0.8540600847 -3.0000144160
56.1163753902 0.8779476489 -3.0000143925
56.1559656382 1.0280023796 -3.0000142444
56.0608737039 0.6768746107 -3.0000145909
56.0607761887 0.6237230900 -3.0000146433
56.0821028216 0.6123428436 -3.0000146546
56.1773779395 0.6401186794 -3.0000146272
55.6212806768 -0.9645098986 -3.0000162105
55.5567369934 -1.1151183097 -3.0000163591
55.3882365387 -1.1885090633 -3.0000164316
55.3791061678 -1.2156374198 -3.0000164583
55.0060673667 -1.3505090552 -3.0000165914
53.3587580892 -3.8060968930 -3.0000190145
53.4133116717 -3.8457788043 -3.0000190536
53.0880008799 -3.7747678328 -3.0000189836
52.4625153393 -3.6573708038 -3.0000188677
52.1527233912 -3.5840664978 -3.0000187954
52.2400726226 -3.6296862529 -3.0000188404
51.9562625132 -3.5300311396 -3.0000187421
55.9443590064 1.2814229802 -3.0000139943
55.9460125361 1.2923636344 -3.0000139835
55.9535935734 1.3638674380 -3.0000139130
55.9537751647 1.3666277121 -3.0000139103
55.9544198532 1.3776738178 -3.0000138994
55.9583741437 1.2246692988 -3.0000140503
55.9659319054 1.2636694083 -3.0000140119
55.9668795110 1.2692652329 -3.0000140063
55.9759204317 1.3396142518 -3.0000139369
55.9657042233 1.1546963631 -3.0000141194
55.9696228995 1.1687047441 -3.0000141056
55.9726083951 1.1799522234 -3.0000140945
55.9832135335 1.2252717055 -3.0000140497
55.9697695279 1.0884328599 -3.0000141848
55.9707658337 1.0912421906 -3.0000141820
56.0159983967 1.2701617503 -3.0000140055
56.0232164801 1.3263269465 -3.0000139500
56.0243331647 1.3381975355 -3.0000139383
56.0069454732 1.1237744147 -3.0000141499
56.0178602080 1.1619207544 -3.0000141123
56.0522368312 1.2012593666 -3.0000140734
56.0000786662 0.8189740856 -3.0000144507
50.9546421645 -3.5759941257 -3.0000187874
55.9270397581 1.2826760793 -3.0000139931
55.9288584058 1.2883297010 -3.0000139875
55.9323448288 1.2996842485 -3.0000139763
55.9334621175 1.3034826281 -3.0000139726
55.9350958658 1.3091924253 -3.0000139669
55.9356291803 1.3110988853 -3.0000139651
55.9396922026 1.3264056553 -3.0000139500
55.9429493628 1.3398747258 -3.0000139367
55.9361371344 1.2365747720 -3.0000140386
55.9383645471 1.2423109432 -3.0000140329
55.9405409667 1.2480666557 -3.0000140273
55.9419634989 1.2519144297 -3.0000140235
55.9480821721 1.2693307783 -3.0000140063
55.9572428558 1.2987001242 -3.0000139773
55.9454546216 1.1964260836 -3.0000140782
55.9421537548 1.1354313233 -3.0000141384
55.9473330831 1.1451025445 -3.0000141289
55.9736530464 1.2005966570 -3.0000140741
55.9441015599 1.0905208950 -3.0000141827
55.1912466151 -0.9655647551 -3.0000162116
54.9764931216 -1.0448575339 -3.0000162898
52.7373332931 -1.5950309431 -3.0000168327
49.1505681594 -3.3980191788 -3.0000186118
55.5695503416 0.0848741704 -3.0000151750
55.0082527163 -0.8899083607 -3.0000161369
54.7972868204 -0.8813672508 -3.0000161285
54.7756185834 -0.8997201556 -3.0000161466
54.7752266428 -0.9250332740 -3.0000161716
54.8837304301 -0.9578233260 -3.0000162039
54.8846054967 -0.9831457005 -3.0000162289
54.6873835431 -0.9460061856 -3.0000161923
54.8418625031 -1.0213425870 -3.0000162666
54.3790399521 -0.8932759932 -3.0000161402
54.4504494920 -0.9274035240 -3.0000161739
54.4840604641 -0.9689987350 -3.0000162150
54.3647736088 -0.9401544441 -3.0000161865
54.5590042615 -1.1303918766 -3.0000163742
53.9767886907 -0.8544754724 -3.0000161019
53.9562374888 -0.8697530380 -3.0000161170
55.2643684790 -1.4465824032 -3.0000166862
55.3867685242 -1.4566375037 -3.0000166961
54.5399248028 -1.3296694131 -3.0000165708
55.7170211296 -1.5794814135 -3.0000168174
49.0920123885 -1.7962040596 -3.0000170312
49.0572289305 -1.8870413415 -3.0000171208
49.0774021633 -1.9255038335 -3.0000171588
49.0757717461 -2.0751720404 -3.0000173065
49.0863863612 -2.0943625293 -3.0000173254
49.0578310843 -2.2886372111 -3.0000175171
49.0257178857 -2.2814659922 -3.0000175100
49.0409285153 -2.4026451567 -3.0000176296
49.0345865160 -2.4856109882 -3.0000177115
48.9843294872 -2.9005424543 -3.0000181209
48.9704749368 -2.9665352669 -3.0000181860
48.9637543859 -2.9996508649 -3.0000182187
59.8609265700 -6.7999311754 -3.0000219686
59.7979797464 -6.8592695844 -3.0000220272
59.8226996730 -6.8467209103 -3.0000220148
59.9212049271 -6.7957966108 -3.0000219646
59.5841928373 -6.9907552845 -3.0000221569
59.8088897979 -6.8808405384 -3.0000220485
59.9324328280 -6.8172038414 -3.0000219857
59.6196992150 -7.0006615369 -3.0000221667
59.8942297260 -6.8643510274 -3.0000220322
60.2369703874 -6.6780715899 -3.0000218484
59.6657603213 -7.0322240923 -3.0000221979
60.2121963801 -6.7476812156 -3.0000219171
60.2852376603 -6.7061445445 -3.0000218761
60.6375254464 -6.6361612765 -3.0000218070
60.5659294155 -6.7369103635 -3.0000219065
60.6145946807 -6.7071986377 -3.0000218771
60.6872608548 -6.6620925016 -3.0000218326
60.7595238758 -6.6163432702 -3.0000217875
60.5540051245 -6.7723640046 -3.0000219414
60.7484418730 -6.6520691514 -3.0000218227
60.6154766868 -6.7633539218 -3.0000219326
60.7855655334 -6.6570762200 -3.0000218277
61.0177067159 -6.5914921418 -3.0000217630
61.0791212534 -6.5790825351 -3.0000217507
60.8016943468 -6.7900161144 -3.0000219589
60.8262050174 -6.7744985741 -3.0000219436
61.0447049562 -6.6315974550 -3.0000218025
61.0927387755 -6.5990549755 -3.0000217704
60.7653147626 -6.8413524529 -3.0000220095
60.8391655415 -6.7949034778 -3.0000219637
61.1063562977 -6.6190274158 -3.0000217901
60.8521260656 -6.8153083816 -3.0000219838
60.9501875659 -6.7522056298 -3.0000219216
60.6536293775 -6.9945032219 -3.0000221606
60.9765896801 -6.7927058705 -3.0000219615
60.6660421194 -7.0152459103 -3.0000221811
55.5627789538 -0.1033237179 -3.0000153607
55.3034541500 -1.3025757974 -3.0000165441
55.2797486705 -1.3245820987 -3.0000165658
55.2845656555 -1.3493506923 -3.0000165903
55.4005800225 -1.3579057464 -3.0000165987
55.6041098270 -1.3596414970 -3.0000166004
54.7236227629 -1.2528049000 -3.0000164950
55.7758135881 -1.3965627961 -3.0000166369
55.2477388789 -1.4184426190 -3.0000166584
54.5377403842 -1.2599076376 -3.0000165020
54.6149438956 -1.2907240337 -3.0000165324
55.0267322823 -1.4582085072 -3.0000166977
55.3241772612 -1.4983824095 -3.0000167373
55.5164904426 -1.5059998713 -3.0000167448
54.3403766628 -1.2488107945 -3.0000164911
55.1062917337 -1.4968775168 -3.0000167358
54.6468678452 -1.4053153396 -3.0000166455
54.4329904926 -1.3463009841 -3.0000165873
55.0274259565 -1.5813601592 -3.0000168192
55.2132660969 -1.6578304748 -3.0000168947
55.7209806125 -1.7893228907 -3.0000170244
49.0422382516 -1.8003930827 -3.0000170353
49.0550259831 -1.8870033015 -3.0000171208
49.0204880422 -2.3093285452 -3.0000175375
49.0079377497 -2.5401436993 -3.0000177653
48.9803537718 -2.7353565214 -3.0000179579
48.9615386866 -2.9847846023 -3.0000182040
59.6956311677 -7.3483731389 -3.0000225098
59.7813141052 -7.3325899656 -3.0000224943
59.7421380809 -7.3792750391 -3.0000225403
59.8421384887 -7.3287622598 -3.0000224905
59.5251900607 -7.5104988550 -3.0000226698
59.8531648453 -7.3502739948 -3.0000225117
59.5098361369 -7.5442493524 -3.0000227031
60.5049850436 -7.2938152062 -3.0000224560
55.9291768745 0.8370124338 -3.0000144329
55.9332597225 0.7757805860 -3.0000144933
55.9347675688 0.7795957350 -3.0000144895
55.9384382046 0.7891720516 -3.0000144801
55.9426554076 0.8007337266 -3.0000144687
55.9433382953 0.8026678709 -3.0000144668
55.9397347231 0.7298048982 -3.0000145387
55.9508932449 0.7550409752 -3.0000145138
55.9517112639 0.7569996884 -3.0000145118
55.9533299015 0.7609243317 -3.0000145079
55.9580461045 0.7727547565 -3.0000144963
55.9595714188 0.7767166031 -3.0000144924
55.9481176735 0.6920318678 -3.0000145759
55.9521006817 0.6998526891 -3.0000145682
55.9597876982 0.7156329741 -3.0000145526
55.9662058984 0.7295866180 -3.0000145389
55.9544516504 0.6530645338 -3.0000146144
55.9509628095 0.5581727153 -3.0000147080
55.9633563801 0.5759581165 -3.0000146905
55.2375927081 -0.1915572996 -3.0000154478
55.1541523317 -0.2581196066 -3.0000155135
55.6285195090 -1.3531069952 -3.0000165940
55.4601318982 -1.3952828200 -3.0000166356
55.4816707977 -1.3936700184 -3.0000166340
55.7455453851 -1.3581237750 -3.0000165989
55.2656484352 -1.4253552744 -3.0000166653
55.4400634831 -1.4208318487 -3.0000166608
55.6065092567 -1.4048967840 -3.0000166451
55.7071540555 -1.3896680211 -3.0000166301
55.9201879632 -1.3430902530 -3.0000165841
55.5731897626 -1.4333380089 -3.0000166731
55.8979629340 -1.3738251394 -3.0000166144
55.3244985204 -1.4735648598 -3.0000167128
54.7379187616 -1.4372150718 -3.0000166770
55.8150420210 -1.4427428312 -3.0000166824
54.6089311418 -1.4550015781 -3.0000166945
54.7422880159 -1.4876797189 -3.0000167268
54.9678056535 -1.5262314645 -3.0000167648
55.3560296707 -1.5454660927 -3.0000167838
54.6696388476 -1.4957067244 -3.0000167347
54.9266287751 -1.5451359140 -3.0000167835
54.9418855606 -1.5472357118 -3.0000167855
55.3339730901 -1.5942969476 -3.0000168320
55.3572830963 -1.5937958977 -3.0000168315
54.5294796067 -1.5076869474 -3.0000167465
54.8423993877 -1.5809398516 -3.0000168188
54.5301397900 -1.5331030465 -3.0000167716
54.4698425268 -1.5398696271 -3.0000167783
54.1741324307 -1.4791651517 -3.0000167184
55.8344517610 -1.7348541609 -3.0000169707
54.1387959472 -1.6220412137 -3.0000168593
52.6853806963 -1.7180310367 -3.0000169541
52.6971482661 -2.1464517078 -3.0000173768
