40.5942110608 -29.2804964896 -2.8500442945
40.4619426258 -29.2110324651 -2.8500442259
39.5825631230 -29.3708609399 -2.8500443837
39.2720193168 -29.4031385768 -2.8500444155
33.9810637662 -27.3838018093 -2.8500424229
33.9576053950 -27.2495711714 -2.8500422905
48.4416524612 -28.6148931307 -2.8500436377
48.4568055713 -28.4694418940 -2.8500434942
48.5009015702 -28.4496205921 -2.8500434746
48.4903512446 -28.4262420550 -2.8500434515
48.5129534749 -28.2451753349 -2.8500432729
48.5347915394 -28.2348102868 -2.8500432627
48.5341266524 -28.1773937119 -2.8500432060
48.4982736294 -28.0495395534 -2.8500430798
48.4843869563 -27.9685307295 -2.8500429999
48.5532396026 -28.0514411719 -2.8500430817
48.5216408232 -27.8303930926 -2.8500428636
48.5181303428 -27.7721687967 -2.8500428061
41.3357661022 -31.1298814323 -2.8500461194
41.3287992017 -31.1179331621 -2.8500461076
41.3230989175 -31.1084495533 -2.8500460982
41.3362725633 -31.0838114864 -2.8500460739
41.3457006039 -31.0538120771 -2.8500460443
40.4901520261 -29.6448445782 -2.8500446540
40.4846199808 -29.3306439112 -2.8500443440
40.4943438883 -29.0162197785 -2.8500440337
40.8015474044 -29.0066573307 -2.8500440243
40.7171933026 -28.9990135283 -2.8500440167
40.6172460369 -28.9935238484 -2.8500440113
40.2175649898 -29.0100282121 -2.8500440276
40.1607617923 -28.9929971983 -2.8500440108
39.9720692445 -29.0017108815 -2.8500440194
40.2061641893 -28.9140105770 -2.8500439329
40.0677296286 -28.8605457914 -2.8500438801
40.5945155370 -28.6542819184 -2.8500436766
34.0564102438 -28.7277801232 -2.8500437491
34.0600978821 -28.6605007147 -2.8500436827
34.0411881528 -28.4173916883 -2.8500434428
34.0555768280 -28.2807814364 -2.8500433080
34.0016371656 -27.7760598333 -2.8500428100
48.5148614326 -27.5933096503 -2.8500426297
48.5125963292 -27.5351538450 -2.8500425723
48.4884375602 -27.4879645576 -2.8500425257
48.5099220227 -27.4768851554 -2.8500425148
48.4694594029 -27.3478319704 -2.8500423874
48.4654435782 -27.2893792938 -2.8500423297
48.4994298523 -27.3014299523 -2.8500423416
48.4772803431 -27.1604020587 -2.8500422025
48.5375373396 -27.2195685752 -2.8500422609
48.4983929716 -27.1486295399 -2.8500421909
48.4871678331 -27.0305468239 -2.8500420743
48.4945669388 -26.9949282485 -2.8500420392
48.5089410144 -26.9234407856 -2.8500419687
48.5019549653 -26.8639534543 -2.8500419100
40.9696486583 -31.2940397483 -2.8500462814
40.9459833118 -31.2257888944 -2.8500462140
40.9441915254 -31.2213171180 -2.8500462096
40.9338660782 -31.1969174141 -2.8500461855
40.9702662832 -31.2214797378 -2.8500462098
40.9466683902 -31.1668457005 -2.8500461559
40.9412675293 -31.1556826464 -2.8500461448
40.9726854165 -31.1109520678 -2.8500461007
41.3624623532 -31.1732961042 -2.8500461622
41.3592825158 -31.1628984837 -2.8500461520
41.3801531638 -31.1486741644 -2.8500461379
41.3659969684 -31.1066463703 -2.8500460964
41.3862123462 -31.0914355854 -2.8500460814
41.3823051073 -31.0808304206 -2.8500460710
41.3851097840 -31.0224292984 -2.8500460133
41.4043268972 -31.0058436634 -2.8500459970
41.3996593647 -30.9950811126 -2.8500459864
41.3800397453 -30.9524577914 -2.8500459443
41.3748993995 -30.9419128777 -2.8500459339
41.3695244615 -30.7838887899 -2.8500457780
40.6393837707 -29.1837607629 -2.8500441990
40.3963198979 -28.9558500607 -2.8500439741
40.8545551004 -28.9099169840 -2.8500439288
37.7107811080 -28.4420950042 -2.8500434672
34.1916138088 -27.3354940120 -2.8500423752
34.1560921829 -27.0945678494 -2.8500421375
34.1896431140 -27.0089505377 -2.8500420530
34.1324207987 -26.7661955174 -2.8500418135
34.1274207919 -26.4651903722 -2.8500415165
34.4291284688 -25.6745124505 -2.8500407363
40.9533317349 -31.0920562703 -2.8500458436
40.9919948408 -31.1581315298 -2.8500459088
40.9842900137 -31.1188219054 -2.8500458700
40.9589710379 -31.0219599421 -2.8500457745
41.0288950865 -31.2518862948 -2.8500460013
41.0100264319 -31.1237634191 -2.8500458749
40.9736939839 -30.9888533065 -2.8500457418
41.0101787385 -31.0243370413 -2.8500457768
41.4156277933 -31.2352702495 -2.8500459850
37.1581601837 -26.1319270202 -2.8500409492
36.3956387178 -26.2805267577 -2.8500410958
40.9490335148 -31.3176961709 -2.8500463047
40.9492315807 -31.3138624191 -2.8500463009
40.9719904686 -31.3384950132 -2.8500463252
40.9729591690 -31.3228836317 -2.8500463098
40.9735456161 -31.1860829025 -2.8500461748
40.9719634300 -31.1587565353 -2.8500461479
40.9708053832 -31.1431580566 -2.8500461325
40.9898200070 -31.4075269867 -2.8500463933
40.9952445997 -31.3520491869 -2.8500463386
40.9990581987 -31.2287130119 -2.8500462169
40.9974965234 -31.1809584548 -2.8500461698
41.0207255661 -31.1635519645 -2.8500461526
41.0179709229 -31.1271766750 -2.8500461167
41.0155969270 -31.1029727934 -2.8500460928
41.0101305041 -31.0587238346 -2.8500460492
41.0409360982 -31.3845209867 -2.8500463706
41.0424445728 -31.3680905864 -2.8500463544
41.0377793344 -31.0840046555 -2.8500460741
41.0105517659 -30.9297251599 -2.8500459219
41.0227906503 -30.8794375757 -2.8500458723
41.0951438398 -31.2955460380 -2.8500462828
41.0368498790 -30.8402858902 -2.8500458336
41.0254840100 -30.8035959250 -2.8500457974
41.0330106779 -30.7509799299 -2.8500457455
41.1511735617 -31.0208605534 -2.8500460118
41.0508350101 -30.6635736930 -2.8500456592
41.1333948401 -30.8260255712 -2.8500458195
40.8513174678 -29.4420702178 -2.8500444539
40.8459675204 -29.4385337343 -2.8500444504
40.9406804610 -29.2694003367 -2.8500442835
41.1037653510 -29.1166078539 -2.8500441328
38.8345144242 -26.0752790159 -2.8500411317
37.1257983844 -26.3868310432 -2.8500414392
37.0426988403 -26.4034623480 -2.8500414556
36.9544236087 -26.2039273876 -2.8500412587
40.9891433122 -31.2393997295 -2.8500462274
41.0212684103 -31.1438474979 -2.8500461332
41.0219276351 -31.1297720758 -2.8500461193
40.9915814101 -31.4835130112 -2.8500464683
41.0107763144 -31.4047630745 -2.8500463906
41.0166022555 -31.3767520528 -2.8500463630
41.0296986400 -31.3015961190 -2.8500462888
41.0422635319 -31.1926646340 -2.8500461813
41.0436908939 -31.1736443313 -2.8500461626
41.0472106028 -31.0306803694 -2.8500460215
41.0447945906 -30.9687411281 -2.8500459604
41.0556940370 -31.2908124633 -2.8500462782
41.0716468792 -31.0495607469 -2.8500460401
41.0676859567 -30.9480146808 -2.8500459399
41.0658137374 -30.9238875208 -2.8500459161
41.0925700811 -31.1671753917 -2.8500461562
41.0741989782 -30.7951410419 -2.8500457891
41.0589524842 -31.5120647335 -2.8500464965
41.0991330945 -31.3271250119 -2.8500463140
41.1200314616 -31.0691094256 -2.8500460594
41.0920829853 -30.7568829917 -2.8500457513
41.1441161510 -31.0439317242 -2.8500460346
41.0921350591 -30.6438770315 -2.8500456398
41.0926429558 -31.5692586874 -2.8500465529
41.1661162313 -31.1512757482 -2.8500461405
41.1396265256 -30.7481107114 -2.8500457427
41.1240022239 -30.6728311050 -2.8500456684
41.1922562695 -31.0953784999 -2.8500460853
41.1906738484 -30.9810641059 -2.8500459725
41.1895870651 -30.9603025568 -2.8500459520
41.1728556505 -30.8001071461 -2.8500457940
41.2222169133 -31.4562396535 -2.8500464414
41.1730491542 -30.4895679527 -2.8500454875
41.1459234583 -30.4130602644 -2.8500454121
41.2726212747 -31.3103032908 -2.8500462974
41.3292557549 -30.8845433522 -2.8500458773
41.3581716812 -30.9447696263 -2.8500459367
41.1551964916 -30.0920963127 -2.8500450953
40.8397398468 -29.6401324636 -2.8500446494
41.2543326064 -30.0219162598 -2.8500450261
40.9568839422 -28.7739475732 -2.8500437946
41.1597248926 -28.8302372710 -2.8500438502
40.7347192531 -28.5317185311 -2.8500435556
38.6659841034 -26.3462781578 -2.8500413991
38.5082845406 -26.3500944428 -2.8500414029
39.2831027418 -26.2379641232 -2.8500412923
38.4616234402 -26.3348332590 -2.8500413878
39.4978797897 -26.1876078874 -2.8500412426
39.1663104006 -26.1946505811 -2.8500412495
38.9793545497 -26.2086017267 -2.8500412633
39.6720217985 -26.1687457718 -2.8500412240
39.6575440719 -26.1680677050 -2.8500412233
39.2373597306 -26.1670474146 -2.8500412223
37.9149365859 -26.4049855076 -2.8500414571
37.6962758825 -26.4821474757 -2.8500415332
37.6422004566 -26.5030482181 -2.8500415538
37.6152564316 -26.5137381691 -2.8500415644
39.4984977245 -26.1392657806 -2.8500411949
39.3091668932 -26.1404862928 -2.8500411961
38.5995330126 -26.2103614553 -2.8500412650
39.0892664521 -26.1268241969 -2.8500411826
38.5954284582 -26.1865394504 -2.8500412415
37.7752662417 -26.4015731520 -2.8500414537
37.6381330832 -26.4527199480 -2.8500415042
37.5883133928 -26.4464099418 -2.8500414979
38.2831871182 -26.2010598549 -2.8500412558
38.5538589131 -26.1202034119 -2.8500411761
38.1645893612 -26.1557608044 -2.8500412111
41.0122428780 -31.4528450585 -2.8500464381
41.0916643407 -31.1283806079 -2.8500461179
41.1009475997 -31.0577058387 -2.8500460482
41.1053070952 -31.0140555648 -2.8500460051
41.1070991746 -30.9921947964 -2.8500459835
41.1230451227 -31.0769460729 -2.8500460671
41.1362425320 -30.8886152952 -2.8500458813
41.0942831639 -31.3502067472 -2.8500463368
41.1359775824 -31.1578310776 -2.8500461470
41.0493160978 -31.7397985311 -2.8500467212
41.1252454154 -31.5665762819 -2.8500465503
41.1369111143 -31.6030834538 -2.8500465863
41.2200255919 -31.3471548101 -2.8500463338
41.0926272161 -31.7612808066 -2.8500467424
41.2902990514 -31.1032556059 -2.8500460931
41.3055607239 -30.8192803025 -2.8500458129
41.2991208632 -30.6862358643 -2.8500456816
41.1652368447 -31.7211969661 -2.8500467029
41.3506239895 -30.9734112384 -2.8500459650
41.2545008652 -30.0689347417 -2.8500450725
41.4561839543 -30.4147474057 -2.8500454137
41.3694003950 -29.3281886698 -2.8500443415
41.2139638807 -28.9551410824 -2.8500439734
41.3356853769 -29.0521430382 -2.8500440692
38.7744825363 -26.4865982724 -2.8500415376
38.5556712274 -26.5164595435 -2.8500415671
38.9409246973 -26.4470969386 -2.8500414986
38.6292785240 -26.4807379452 -2.8500415318
38.6034296031 -26.4845385688 -2.8500415356
38.5776036203 -26.4884920568 -2.8500415395
38.5002723367 -26.5012682966 -2.8500415521
38.4360110889 -26.5129622390 -2.8500415636
38.9129889603 -26.4249547187 -2.8500414768
38.7691517401 -26.4385470108 -2.8500414902
38.5090635975 -26.4752176460 -2.8500415264
38.7927466543 -26.4116866802 -2.8500414637
38.4529688055 -26.4606185521 -2.8500415120
39.4664702465 -26.3679357239 -2.8500414205
39.4399392974 -26.3667852144 -2.8500414194
38.5363224888 -26.3971531800 -2.8500414493
38.9991902685 -26.3222108810 -2.8500413754
38.7692371446 -26.3169509678 -2.8500413702
39.8626172982 -26.3063731965 -2.8500413598
38.4979481253 -26.3299913446 -2.8500413831
39.9504097589 -26.2700024047 -2.8500413239
38.4876855148 -26.1846622339 -2.8500412397
40.6541129442 -26.2560453306 -2.8500413101
38.9398395426 -26.0352500592 -2.8500410922
38.4538287611 -26.0677737806 -2.8500411243
40.8625316685 -29.8380114755 -2.8500448446
41.1990187321 -31.2344634347 -2.8500462226
41.2769617050 -30.8581658733 -2.8500458513
41.2896512334 -30.9444832810 -2.8500459364
41.3154282978 -30.5826737573 -2.8500455794
41.3096072886 -30.4466420063 -2.8500454452
41.0989542201 -31.6130035478 -2.8500465961
41.1205008716 -31.6239615172 -2.8500466069
41.3119487328 -30.1285416564 -2.8500451313
41.0606781379 -31.7812607818 -2.8500467621
41.1140038336 -31.6882913546 -2.8500466704
41.1054822019 -31.7529869688 -2.8500467342
41.2947065670 -29.8110983142 -2.8500448181
41.5054375639 -29.6199796407 -2.8500446295
41.3662834056 -29.1494063101 -2.8500441651
40.9338977633 -28.4770395725 -2.8500435017
40.9199093919 -28.4025231474 -2.8500434281
39.1842986952 -26.5311764238 -2.8500415816
39.1601758162 -26.5308878770 -2.8500415813
39.3544129921 -26.5130563664 -2.8500415637
39.3301799314 -26.5117616835 -2.8500415624
39.2453128070 -26.5083597699 -2.8500415591
39.5382750120 -26.5032812094 -2.8500415541
39.5018286654 -26.4997616676 -2.8500415506
39.4775143688 -26.4975950567 -2.8500415484
39.4166762713 -26.4928081994 -2.8500415437
39.3435870556 -26.4882525012 -2.8500415392
39.5773322979 -26.4830960153 -2.8500415341
39.5162688355 -26.4768343982 -2.8500415280
39.4551194408 -26.4714766183 -2.8500415227
39.7635804621 -26.4834020828 -2.8500415344
39.6657919095 -26.4694099310 -2.8500415206
39.6290399528 -26.4647600821 -2.8500415160
39.6167803092 -26.4632826343 -2.8500415146
39.5922481785 -26.4604365693 -2.8500415118
39.8408198264 -26.4715950941 -2.8500415228
39.7181515218 -26.4521874166 -2.8500415036
39.7058542961 -26.4504464157 -2.8500415019
39.1742613505 -26.3618152184 -2.8500414145
39.3028523810 -26.2927189868 -2.8500413463
40.2667928164 -26.4179970614 -2.8500414699
40.3105043371 -26.4050452918 -2.8500414571
39.5650079694 -26.2387251319 -2.8500412930
39.4485303113 -26.2285196071 -2.8500412829
39.9557097048 -26.1976110030 -2.8500412524
39.2302556566 -26.1210516721 -2.8500411769
39.2441759696 -26.0972228289 -2.8500411534
40.7636607968 -26.3782970875 -2.8500414307
39.5551637335 -26.0677377306 -2.8500411243
41.2606653515 -29.8114518315 -2.8500448184
41.3314093771 -30.8949815721 -2.8500458876
41.4440601775 -30.3981949878 -2.8500453974
41.4109817955 -29.9438707568 -2.8500449491
41.3871333933 -29.6316598472 -2.8500446410
41.6114236294 -29.8312041130 -2.8500448379
41.5337729557 -29.3888360732 -2.8500444014
39.8384010496 -26.5450056448 -2.8500415952
39.8271557857 -26.5426455874 -2.8500415929
39.8434010922 -26.5213553836 -2.8500415719
39.9957252070 -26.5318236226 -2.8500415822
39.9844402599 -26.5289982296 -2.8500415794
40.0921524896 -26.5323317402 -2.8500415827
40.0808686237 -26.5292210956 -2.8500415797
40.0695756053 -26.5261438442 -2.8500415766
40.2300689575 -26.5226012580 -2.8500415731
40.2187557036 -26.5190826741 -2.8500415697
40.1960982177 -26.5121459829 -2.8500415628
39.9498475470 -26.4212060339 -2.8500414731
40.3697226001 -26.5178567153 -2.8500415684
40.4344815363 -26.5153121717 -2.8500415659
40.4231458256 -26.5111889303 -2.8500415619
40.4117979673 -26.5070992400 -2.8500415578
39.9608248844 -26.3741227121 -2.8500414266
40.5310129714 -26.5000552244 -2.8500415509
40.3899640779 -26.4225317117 -2.8500414744
40.1806559229 -26.3060970043 -2.8500413595
40.2661788288 -26.2807972501 -2.8500413345
41.5876905818 -29.5081632478 -2.8500445191
40.4775306819 -26.5841310180 -2.8500416338
40.9163640220 -33.3909754242 -2.8500483505
40.9131753242 -26.5809591082 -2.8500416307
41.3364854534 -30.0080537631 -2.8500450124
41.3421662385 -29.9322186422 -2.8500449376
41.3634763262 -29.9754477075 -2.8500449802
41.3642769764 -29.6265053503 -2.8500446359
41.3544554986 -29.2429337153 -2.8500442574
41.3673126757 -30.6442634800 -2.8500456402
41.3959476239 -30.5600309841 -2.8500455571
41.5128047345 -30.4133570328 -2.8500454123
41.5599883241 -30.1739313328 -2.8500451761
41.4530350096 -30.6914801558 -2.8500456868
41.5344182073 -30.4266211661 -2.8500454254
41.5838997743 -30.1774778562 -2.8500451796
41.6340594604 -29.9026055204 -2.8500449084
41.7906677459 -30.0827435111 -2.8500450861
41.8487081728 -29.6254788200 -2.8500446349
41.8099180269 -30.4167416595 -2.8500454157
41.2070851525 -26.6814799121 -2.8500417299
40.1513799725 -33.4573978637 -2.8500484161
40.1622073136 -33.4540025169 -2.8500484127
40.1730245632 -33.4505751557 -2.8500484093
40.1694745343 -33.4770572948 -2.8500484355
40.2562655478 -33.4485661354 -2.8500484073
40.3074830153 -33.4563346799 -2.8500484150
40.3482018236 -33.4673770651 -2.8500484259
40.3590578238 -33.4633994400 -2.8500484220
40.3699020099 -33.4593897183 -2.8500484180
40.4218432056 -33.4655897147 -2.8500484241
40.4326935963 -33.4613942529 -2.8500484200
40.4435315285 -33.4571667120 -2.8500484158
40.4632412532 -33.4753883141 -2.8500484338
40.4741204487 -33.4710703465 -2.8500484296
40.5066807295 -33.4579236139 -2.8500484166
40.5376041588 -33.4713187812 -2.8500484298
40.5593243507 -33.4622107975 -2.8500484208
40.5796438025 -33.4798453685 -2.8500484382
40.6231278678 -33.4610030271 -2.8500484196
40.6546583576 -33.4734541999 -2.8500484319
40.7190737268 -33.4706287117 -2.8500484291
40.7511142426 -33.4823029127 -2.8500484406
40.7620126332 -33.4771333344 -2.8500484355
40.7728956836 -33.4719315394 -2.8500484304
40.8161015503 -33.4778339781 -2.8500484362
41.1578928007 -33.4866024421 -2.8500484449
41.2014824574 -28.9992425693 -2.8500440170
41.2861604629 -29.4145566690 -2.8500444268
41.2475231411 -29.0959189390 -2.8500441124
41.2419712523 -28.9620183163 -2.8500439802
41.3237407098 -29.7667598479 -2.8500447743
41.3505471642 -29.7424396167 -2.8500447503
41.2294241144 -28.7557657113 -2.8500437767
41.2225452651 -28.7366539114 -2.8500437578
41.1530849093 -28.5676076088 -2.8500435910
41.3845521876 -29.4577589336 -2.8500444694
41.3366047330 -30.1008666284 -2.8500451040
41.3853793196 -29.8569183767 -2.8500448633
41.4067445854 -29.6367962763 -2.8500446461
41.4077925264 -29.4294552959 -2.8500444415
41.3592549164 -29.0388438804 -2.8500440560
41.4112669652 -29.8465578587 -2.8500448531
41.3898644057 -29.0680794963 -2.8500440849
41.3264869857 -28.8176501021 -2.8500438378
41.4278999132 -29.8987397412 -2.8500449045
41.4460948910 -29.7588034637 -2.8500447665
41.4434445806 -29.2587023915 -2.8500442730
41.1546653052 -28.3085268078 -2.8500433354
41.5049333637 -29.4400444476 -2.8500444519
41.4909330531 -29.9603839659 -2.8500449654
41.4952475576 -29.1067351254 -2.8500441230
41.3960941866 -28.7197574164 -2.8500437412
41.5504196636 -29.6659584460 -2.8500446748
41.5487475393 -29.3504364767 -2.8500443635
41.1178924306 -28.0728752467 -2.8500431029
41.5042767319 -30.3797171018 -2.8500453791
41.4649955784 -28.5588576361 -2.8500435824
41.0117737780 -27.8214303062 -2.8500428547
41.4998128065 -30.5264234294 -2.8500455239
41.6195374078 -30.1652647213 -2.8500451675
41.5874525675 -30.4342567043 -2.8500454330
41.6929451564 -30.0614055120 -2.8500450651
41.4313394237 -30.8344362431 -2.8500458278
41.2202981766 -31.2356034968 -2.8500462237
41.7805939951 -29.9881834734 -2.8500449928
41.5294473688 -28.1859520767 -2.8500432144
39.5575006496 -33.4725802870 -2.8500484310
39.5957048750 -33.4920859656 -2.8500484503
39.6074488141 -33.4905207055 -2.8500484487
39.6309225446 -33.4872859978 -2.8500484456
39.6778105391 -33.4804002349 -2.8500484388
39.6895195505 -33.4785921425 -2.8500484370
39.7050181792 -33.5006226929 -2.8500484587
39.7167868932 -33.4987340269 -2.8500484569
39.7520587926 -33.4928592624 -2.8500484511
39.7990042523 -33.4845397689 -2.8500484428
39.7561360238 -33.5166859589 -2.8500484746
39.7915656869 -33.5104612860 -2.8500484684
39.8151541702 -33.5061369320 -2.8500484642
39.8269387144 -33.5039224397 -2.8500484620
39.8504878926 -33.4993889215 -2.8500484575
39.8975037236 -33.4899043121 -2.8500484481
39.7839800809 -33.5363732671 -2.8500484940
39.8669623857 -33.5207796498 -2.8500484786
39.9613800917 -33.5008589518 -2.8500484589
39.9849087923 -33.4955300868 -2.8500484537
39.9966612168 -33.4928134761 -2.8500484510
39.9903180719 -33.5190901160 -2.8500484769
40.0257598488 -33.5107871141 -2.8500484687
40.0375572277 -33.5079495918 -2.8500484659
40.0611265456 -33.5021699132 -2.8500484602
39.8044312445 -33.5818300114 -2.8500485388
40.1260695581 -33.5104831163 -2.8500484684
39.9652039752 -33.5742924766 -2.8500485314
40.1084844627 -33.5400545560 -2.8500484976
40.1796464045 -33.5210338128 -2.8500484789
40.2150979752 -33.5110505516 -2.8500484690
40.1860954406 -33.5443307056 -2.8500485018
40.0723747605 -33.5989869703 -2.8500485558
39.7723611402 -33.6855615225 -2.8500486412
40.3546241917 -33.5446034192 -2.8500485021
40.4532851270 -33.5629419950 -2.8500485202
40.5129111613 -33.5420768037 -2.8500484996
39.7342121004 -33.7652048718 -2.8500487198
39.7253087496 -33.7910392258 -2.8500487453
40.7025182963 -33.5734284304 -2.8500485306
40.7503505499 -33.5538570183 -2.8500485112
39.8771628478 -33.8388299425 -2.8500487924
39.9409323899 -33.8264556447 -2.8500487802
40.7596369276 -33.5761751381 -2.8500485333
40.0733665277 -33.8224284190 -2.8500487763
40.8506994220 -33.5898915112 -2.8500485468
40.0971827376 -33.8665039315 -2.8500488197
40.3396590247 -33.8020770112 -2.8500487562
40.6234393786 -33.8105880008 -2.8500487646
40.8359038145 -30.1634232446 -2.8500451657
41.1544382381 -29.1336410786 -2.8500441496
41.1781390916 -29.1260819173 -2.8500441421
41.1140240219 -28.7477484975 -2.8500437688
41.2167684732 -29.5155093179 -2.8500445264
41.2291121055 -29.3707301252 -2.8500443835
41.2304918650 -29.2012267531 -2.8500442163
41.2141133190 -29.0021431149 -2.8500440198
41.0455513700 -28.4165759355 -2.8500434420
41.2245948711 -29.6274995384 -2.8500446369
41.2518966570 -29.3963982025 -2.8500444089
41.2513137839 -29.1331097758 -2.8500441491
41.0384589539 -28.3457015922 -2.8500433721
41.2608090398 -29.5520629528 -2.8500445625
41.2784804500 -29.3483540948 -2.8500443614
41.0374591401 -28.2908022779 -2.8500433179
41.2945067271 -29.0674345675 -2.8500440842
41.3095593622 -29.5523013170 -2.8500445627
41.2924375965 -29.7760591072 -2.8500447835
41.3230731766 -29.6252558136 -2.8500446347
41.3700582427 -29.0992889645 -2.8500441157
41.0950227729 -28.1944099088 -2.8500432228
41.1382047924 -28.1239953820 -2.8500431533
41.4209167423 -28.6789637489 -2.8500437009
41.7005513030 -28.9985021200 -2.8500440162
41.3346150231 -30.6933560137 -2.8500456886
41.4034797122 -30.5834764066 -2.8500455802
41.7643281501 -29.8814332923 -2.8500448875
41.7747855236 -29.8355505363 -2.8500448422
41.2641725461 -30.9908994849 -2.8500459822
41.2743215320 -30.9785656165 -2.8500459701
41.8038095810 -29.9236325701 -2.8500449291
40.7868152944 -31.6199777038 -2.8500466030
41.5136464011 -30.9027651383 -2.8500458953
38.9878629935 -33.4873930883 -2.8500484457
39.0003416473 -33.4879564719 -2.8500484462
39.0128219132 -33.4884829389 -2.8500484467
39.0253036818 -33.4889724847 -2.8500484472
39.0502712905 -33.4898407959 -2.8500484481
39.0877312433 -33.4908662573 -2.8500484491
39.1127089636 -33.4913651930 -2.8500484496
39.1501799859 -33.4918364950 -2.8500484500
39.0746178552 -33.5147263028 -2.8500484726
39.1499832237 -33.5160087222 -2.8500484739
39.2253594819 -33.5159533415 -2.8500484738
39.2504832171 -33.5156375832 -2.8500484735
39.3132805348 -33.5141979467 -2.8500484721
39.2634910590 -33.5395928638 -2.8500484972
39.2887539862 -33.5390510926 -2.8500484966
39.3013841373 -33.5387241602 -2.8500484963
39.3266412617 -33.5379582160 -2.8500484956
39.3645173466 -33.5365291541 -2.8500484941
39.4654428479 -33.5310756898 -2.8500484888
39.4780486332 -33.5302261146 -2.8500484879
39.4797097743 -33.5543419993 -2.8500485117
39.3418950192 -33.6099906977 -2.8500485666
39.7642089758 -33.5739890179 -2.8500485311
39.7769403992 -33.5722554507 -2.8500485294
39.5748515378 -33.6195408016 -2.8500485761
39.8824583969 -33.5808951375 -2.8500485379
39.2397442970 -33.6608407569 -2.8500486168
39.1615437741 -33.7094740274 -2.8500486648
40.0362733140 -33.6270791693 -2.8500485835
40.1006329431 -33.6140052036 -2.8500485706
39.3858598270 -33.7291656301 -2.8500486842
39.4649820790 -33.7248902946 -2.8500486800
39.3073354109 -33.7561999984 -2.8500487109
40.2530072415 -33.6288575074 -2.8500485853
40.0632817244 -33.6956714991 -2.8500486512
40.3363825664 -33.6325800406 -2.8500485889
39.0671089242 -33.8047054341 -2.8500487588
39.1342017253 -33.8059463550 -2.8500487600
39.2952414376 -33.8048752490 -2.8500487589
40.4594726614 -33.6737616023 -2.8500486296
39.5166389440 -33.8910022307 -2.8500488439
40.6300683971 -33.6716721682 -2.8500486275
40.6430849964 -33.6673768049 -2.8500486233
40.5659718247 -33.7428277731 -2.8500486977
40.7369427114 -33.6864088841 -2.8500486420
39.2715331855 -33.9746330409 -2.8500489264
41.0578929180 -28.8025973255 -2.8500438229
41.0549744964 -28.7823021420 -2.8500438029
41.0324419235 -28.6613851325 -2.8500436836
41.0582694996 -28.6662679226 -2.8500436884
41.0413615370 -28.5954995835 -2.8500436186
40.9845798582 -28.4173051999 -2.8500434427
41.1224293049 -29.0481517403 -2.8500440652
41.1223096475 -29.0165381890 -2.8500440340
41.1216289259 -28.9849317409 -2.8500440028
41.1035598720 -28.7803498287 -2.8500438010
41.0913363798 -28.7076085226 -2.8500437292
41.0071885920 -28.4087506434 -2.8500434343
40.9957388811 -28.3792831179 -2.8500434052
40.9626685877 -28.3017442242 -2.8500433287
41.1353978557 -29.2401164852 -2.8500442546
41.1415797770 -28.9042060152 -2.8500439232
41.1325236210 -28.8138792445 -2.8500438341
41.1088447538 -28.6716810015 -2.8500436937
41.0630212239 -28.4960588929 -2.8500435204
41.0444427524 -28.4403307861 -2.8500434655
41.0408705051 -28.4302647937 -2.8500434555
41.0316798909 -28.4051938163 -2.8500434308
41.0259878844 -28.3902174441 -2.8500434160
40.9665282263 -28.2530586917 -2.8500432807
41.1650860094 -29.1835485149 -2.8500441988
41.1142331175 -28.5876722614 -2.8500436108
41.0198570218 -28.3114076856 -2.8500433382
41.1921297350 -29.1416888768 -2.8500441575
41.1949114303 -29.0540042662 -2.8500440710
41.1949672478 -29.0430373103 -2.8500440602
40.9954643855 -28.2025188280 -2.8500432308
41.1645397217 -29.4886404023 -2.8500444999
41.1734572192 -29.4507919813 -2.8500444625
41.1809686868 -28.6623631234 -2.8500436845
41.1450464959 -28.5167826697 -2.8500435409
41.1110071205 -28.4110413772 -2.8500434366
41.1810731721 -29.5216913576 -2.8500445325
41.2184523685 -29.3456324891 -2.8500443588
41.2266979644 -29.2899762917 -2.8500443038
41.2407047993 -29.1387464506 -2.8500441546
41.2432742713 -29.0262607337 -2.8500440436
41.2402249908 -28.9306676833 -2.8500439493
41.2247447312 -28.7739312628 -2.8500437946
41.2231430207 -28.7627927048 -2.8500437836
41.2214754387 -28.7516638180 -2.8500437727
41.2141475988 -28.7072527683 -2.8500437288
41.1552355927 -28.4669749677 -2.8500434917
41.1775317706 -29.6208648260 -2.8500446303
41.2254923888 -29.4391245988 -2.8500444510
41.2526578977 -29.4271977869 -2.8500444392
41.2768285520 -29.2791859902 -2.8500442932
41.3050932310 -28.8333892521 -2.8500438533
41.2756951072 -28.6429654484 -2.8500436654
41.1968515019 -29.7819012926 -2.8500447893
41.3312166517 -29.2263621437 -2.8500442411
41.3243972947 -28.7897555755 -2.8500438102
41.2810964436 -28.5573893270 -2.8500435810
41.2627785704 -28.4888472874 -2.8500435133
41.3578664169 -29.1988185030 -2.8500442139
41.3620231552 -28.7118008120 -2.8500437333
41.1814994001 -28.1423642342 -2.8500431714
41.4360732778 -28.9877699047 -2.8500440056
41.4390908254 -28.2524163248 -2.8500432800
41.3999068670 -30.1455826286 -2.8500451481
41.2934790977 -30.7241828922 -2.8500457191
41.4914767885 -30.4629143495 -2.8500454612
41.2761371345 -30.7804141519 -2.8500457745
41.3465738363 -30.6988126933 -2.8500456940
41.6267903524 -30.2850150636 -2.8500452857
41.0671223708 -31.0199431563 -2.8500460109
41.3994470257 -30.6719596761 -2.8500456675
41.2542311428 -30.9097315906 -2.8500459021
40.8422059154 -31.2831570427 -2.8500462706
40.8752324112 -31.2607123313 -2.8500462485
41.5332789182 -30.6150860896 -2.8500456114
41.2774956042 -30.9550218957 -2.8500459468
41.5243357297 -30.6681991370 -2.8500456638
41.3579179912 -30.9764150719 -2.8500459679
41.6236234751 -30.8170393609 -2.8500458107
41.2641735481 -31.2329741032 -2.8500462211
40.3825811092 -31.8159135492 -2.8500467963
38.3859276597 -33.4742550066 -2.8500484327
38.4253249137 -33.4825585887 -2.8500484409
38.4779662636 -33.4930855472 -2.8500484513
38.5836041999 -33.5122672361 -2.8500484702
38.6100823007 -33.5166716236 -2.8500484746
38.7960936389 -33.5431059431 -2.8500485006
38.3149951249 -33.4831929578 -2.8500484415
38.4601242935 -33.5142298515 -2.8500484721
38.5928735331 -33.5383343986 -2.8500484959
38.8602199025 -33.5747150207 -2.8500485318
38.9407948246 -33.5825385821 -2.8500485395
38.9676824228 -33.5848284801 -2.8500485418
38.3360061803 -33.5127719485 -2.8500484707
38.3890112816 -33.5243536526 -2.8500484821
38.4687666018 -33.5405482415 -2.8500484981
39.1958934162 -33.6220225582 -2.8500485785
38.4641667709 -33.5642795887 -2.8500485215
38.4595669400 -33.5880109359 -2.8500485449
39.5095600659 -33.6696174864 -2.8500486255
38.3874327093 -33.5981331705 -2.8500485549
38.7132398997 -33.6543110937 -2.8500486104
39.3036032483 -33.7208686178 -2.8500486760
39.7876746983 -33.6996912832 -2.8500486551
38.3502961082 -33.6396721199 -2.8500485959
38.3639098088 -33.6425835055 -2.8500485988
39.6651121308 -33.7340385575 -2.8500486890
39.9064553868 -33.7598280216 -2.8500487145
39.3593688859 -33.8176781152 -2.8500487716
40.0494181888 -33.7649523423 -2.8500487195
38.3716415126 -33.7429864321 -2.8500486979
38.5111955207 -33.7696079984 -2.8500487241
38.9054187405 -33.8220667771 -2.8500487759
38.9478821720 -33.8257464709 -2.8500487795
38.3478301211 -33.7874189150 -2.8500487417
39.7180283037 -33.8755799884 -2.8500488287
38.9994632349 -33.9024068872 -2.8500488552
40.0066461328 -33.8687879002 -2.8500488220
40.3616807162 -33.8064244826 -2.8500487605
40.4601735818 -33.7842742299 -2.8500487386
40.5642204063 -33.7834972465 -2.8500487378
38.7207079622 -33.9234856768 -2.8500488760
38.3086865687 -33.9026891819 -2.8500488555
40.9901489376 -28.6383822650 -2.8500436609
40.9819731459 -28.5869577711 -2.8500436101
40.9569428481 -28.4725300743 -2.8500434972
41.0286568904 -28.8416448312 -2.8500438615
41.0009254854 -28.5567220520 -2.8500435803
40.9673183586 -28.4196856839 -2.8500434451
40.9635057226 -28.4070140780 -2.8500434326
41.0491075702 -28.9491150459 -2.8500439675
41.0507535195 -28.9222711675 -2.8500439410
41.0201840471 -28.5301189002 -2.8500435541
41.0133885319 -28.4994870975 -2.8500435238
40.9966999560 -28.4343602067 -2.8500434596
40.9930163912 -28.4214272778 -2.8500434468
41.0732212064 -28.9508085136 -2.8500439692
41.0755479338 -28.9098902802 -2.8500439288
41.0914621148 -29.0169868919 -2.8500440345
41.0994901736 -28.9155620100 -2.8500439344
41.1251237516 -28.8697399838 -2.8500438892
41.1412326661 -28.6796904632 -2.8500437016
41.1204511869 -28.5382011954 -2.8500435620
41.1138644755 -29.2813717086 -2.8500442954
41.1635306511 -29.0250580516 -2.8500440424
41.1711925137 -28.9334302730 -2.8500439520
41.1657644834 -28.6820578536 -2.8500437040
41.1592986403 -29.4534161578 -2.8500444651
41.2922608610 -28.7530913865 -2.8500437741
41.3441252422 -30.7170534661 -2.8500457120
41.0047463330 -31.0223403786 -2.8500460133
40.7132252948 -31.2194584023 -2.8500462078
40.7923975822 -31.2878332265 -2.8500462752
38.4919603318 -33.6295809778 -2.8500485860
38.3026396472 -33.6092420799 -2.8500485659
38.6581824860 -33.6874590357 -2.8500486431
39.0888142415 -33.7704066135 -2.8500487249
38.9403654076 -33.7789759326 -2.8500487334
39.4831218326 -33.8146734732 -2.8500487686
37.8190286391 -33.5342815544 -2.8500484919
38.3274212572 -33.6903733301 -2.8500486460
37.5759329450 -33.4642147586 -2.8500484228
37.7273206134 -33.5255886190 -2.8500484834
38.1637397892 -33.6716864105 -2.8500486275
37.6630578222 -33.5262833221 -2.8500484840
38.0142192991 -33.6519839695 -2.8500486081
37.8471873330 -33.7239375266 -2.8500486791
38.4901232728 -33.9257243341 -2.8500488782
40.9661460936 -28.7449841288 -2.8500437661
40.9662162041 -28.6277872064 -2.8500436504
40.9645106426 -28.5994164252 -2.8500436224
40.9603088454 -28.5534239771 -2.8500435770
40.9801110658 -28.8543949269 -2.8500438740
40.9837638938 -28.8256318944 -2.8500438456
40.9914667645 -28.7135811293 -2.8500437351
40.9906890607 -28.6338634831 -2.8500436564
40.9888761907 -28.6012957915 -2.8500436243
41.0008051791 -28.8796594682 -2.8500438990
41.0024781427 -28.8686988967 -2.8500438881
41.0134790416 -28.6070067405 -2.8500436299
41.0269367648 -28.8685127049 -2.8500438880
41.0400702291 -28.6732443505 -2.8500436953
41.0310417113 -28.9775975903 -2.8500439956
41.0544418336 -28.8453515750 -2.8500438651
41.0243794585 -29.0923006878 -2.8500441088
41.0385321333 -29.1261676603 -2.8500441422
41.1014171640 -28.8592008691 -2.8500438788
41.1237672996 -28.8743688262 -2.8500438937
41.1600116915 -28.7380511252 -2.8500437592
41.4400795351 -29.0305383707 -2.8500440478
40.8051527458 -30.5056075804 -2.8500455034
41.0159314816 -30.8305257099 -2.8500458240
40.9688765291 -30.9944347556 -2.8500459857
41.0096635612 -30.9727327718 -2.8500459643
41.3846747678 -30.7554828391 -2.8500457499
40.6682483679 -31.1790469810 -2.8500461679
40.8844110771 -31.2225827053 -2.8500462109
38.1556423280 -33.7712212858 -2.8500487257
37.3113360168 -33.7461774437 -2.8500487010
40.9396331716 -28.7458332918 -2.8500437669
40.9451752506 -28.7131060678 -2.8500437346
40.9489039672 -28.6856971226 -2.8500437076
40.9520672208 -28.6554346788 -2.8500436777
40.9484655929 -28.8167273605 -2.8500438369
40.9491814477 -28.8139813868 -2.8500438342
40.9539645551 -28.7947019611 -2.8500438151
40.9571361395 -28.7808723541 -2.8500438015
40.9577458907 -28.7781008881 -2.8500437987
40.9738871105 -28.6801449612 -2.8500437021
40.9753621734 -28.6660332225 -2.8500436882
40.9780495777 -28.6320882225 -2.8500436547
40.9536081697 -28.8841978088 -2.8500439034
40.9598442165 -28.8648116707 -2.8500438843
40.9747333616 -28.8115863443 -2.8500438318
41.0119903291 -28.7533460340 -2.8500437743
41.0222601300 -28.6825637989 -2.8500437045
41.0086933239 -28.8703815916 -2.8500438898
41.0009222620 -28.9657728735 -2.8500439839
41.3630235587 -28.6716566122 -2.8500436937
41.3788246388 -28.7540509664 -2.8500437750
41.3763807998 -28.8991091114 -2.8500439182
41.3902745207 -28.8345960196 -2.8500438545
41.4523424955 -28.7509145567 -2.8500437719
41.4683147706 -28.8097258349 -2.8500438300
41.4134357858 -29.2289368265 -2.8500442436
40.7638047843 -30.6099163749 -2.8500456063
41.0533832078 -30.9363916837 -2.8500459284
40.7076068631 -31.0841113426 -2.8500460742
40.9245407994 -28.7248384903 -2.8500437462
40.9334659322 -28.6965193081 -2.8500437182
40.9377097869 -28.6812616852 -2.8500437032
40.9415914081 -28.6659079112 -2.8500436880
40.9709971496 -28.7383791991 -2.8500437596
40.9442464619 -28.8607113257 -2.8500438803
41.3646662393 -28.7675559244 -2.8500437883
41.3636382104 -28.8599097242 -2.8500438795
41.3735309993 -28.8280274152 -2.8500438480
41.3785606298 -29.0735589798 -2.8500440903
40.5727770743 -30.3172431210 -2.8500453175
40.9779366621 -31.0203218058 -2.8500460113
34.2236434551 -33.1378818265 -2.8500481008
34.5325681256 -34.3292789689 -2.8500492764
34.7115889075 -34.5998389755 -2.8500495434
34.6592204771 -34.5844506604 -2.8500495282
48.5578733492 -30.7826770554 -2.8500457768
48.5536287028 -30.8870207805 -2.8500458797
48.5606254730 -30.8625677245 -2.8500458556
48.5785453907 -30.9740343664 -2.8500459656
48.5642543589 -31.1035743067 -2.8500460934
41.3487752032 -28.8638867363 -2.8500438834
41.3507847057 -28.9629601294 -2.8500439812
41.3459482357 -29.0985992653 -2.8500441150
41.3533773648 -29.1660897697 -2.8500441816
40.5780698802 -31.0512355146 -2.8500460418
40.7306310287 -31.0703134364 -2.8500460606
40.8066856890 -31.0643862095 -2.8500460547
40.7724366769 -31.1158309601 -2.8500461055
39.9489066210 -31.0745816481 -2.8500460648
40.0100848029 -31.0885167767 -2.8500460786
39.8665858532 -31.0784602674 -2.8500460686
40.3098310576 -31.1596050031 -2.8500461487
40.6497528097 -31.1708793682 -2.8500461598
40.0311745212 -31.1423199942 -2.8500461317
40.3313527479 -31.1858736968 -2.8500461746
39.7150206352 -31.0833665679 -2.8500460735
39.7380108108 -31.0908371312 -2.8500460808
39.5111571426 -31.1376130074 -2.8500461270
34.0704547292 -31.8071733730 -2.8500467877
34.0901552311 -31.8455589016 -2.8500468256
34.0616521302 -32.3902279137 -2.8500473630
34.0416283614 -32.7238298140 -2.8500476922
34.0188851461 -32.8215458496 -2.8500477886
34.0104811353 -32.9394140048 -2.8500479049
33.9915226340 -33.1246608164 -2.8500480877
33.9935643091 -33.2110164752 -2.8500481729
33.9879364736 -33.2445894954 -2.8500482061
48.4604431126 -31.8467810245 -2.8500468268
48.4727211087 -31.8796241984 -2.8500468592
48.4763556612 -31.9924635787 -2.8500469705
48.4996358690 -32.0589978429 -2.8500470362
48.4891081506 -32.3108230059 -2.8500472847
48.5003568125 -32.2873751514 -2.8500472615
48.4995383947 -32.3447897431 -2.8500473182
48.5108874909 -32.3213108855 -2.8500472950
48.5042572755 -32.5521886200 -2.8500475228
48.5162198743 -32.5286948956 -2.8500474997
48.5281129221 -32.5051658865 -2.8500474764
48.5257823397 -32.5631889333 -2.8500475337
48.5377773853 -32.5396314857 -2.8500475105
41.3280069861 -29.3298233110 -2.8500443432
41.3330020055 -29.3202716698 -2.8500443337
41.3342330734 -29.3178745767 -2.8500443314
41.3248665366 -29.3844958868 -2.8500443971
41.3305086872 -29.3749775774 -2.8500443877
41.3427891187 -29.3533217697 -2.8500443663
41.3619616346 -29.3165270240 -2.8500443300
41.3321448043 -29.4186597084 -2.8500444308
41.3336669256 -29.4162647205 -2.8500444285
41.3397831324 -29.4511302255 -2.8500444629
41.3462126871 -29.4414307512 -2.8500444533
41.3255738177 -29.5517386939 -2.8500445621
41.3313001539 -29.5445933480 -2.8500445551
41.3331948133 -29.5422003077 -2.8500445527
41.3388362016 -29.5349877053 -2.8500445456
41.3364550565 -29.5766080823 -2.8500445867
40.4775863088 -30.4658620226 -2.8500454642
40.0797511564 -31.4679039406 -2.8500464529
40.6550435852 -31.5026340279 -2.8500464872
40.6781094276 -31.5013624380 -2.8500464859
40.7165245063 -31.4987884087 -2.8500464834
40.7778972120 -31.4934890266 -2.8500464782
40.0373917659 -31.4848192256 -2.8500464696
39.8265889833 -31.4611435720 -2.8500464463
39.9560665960 -31.4929312404 -2.8500464776
40.0560640737 -31.5128243922 -2.8500464972
40.1257067511 -31.5243373355 -2.8500465086
40.5791105075 -31.5537288357 -2.8500465376
40.7201133698 -31.5470010750 -2.8500465310
40.7982327556 -31.5400227835 -2.8500465241
39.6988827926 -31.4483121858 -2.8500464336
39.7215042114 -31.4555281257 -2.8500464407
39.7821318573 -31.4737862934 -2.8500464587
39.8278768480 -31.4865356050 -2.8500464713
40.3028543556 -31.5693931544 -2.8500465531
39.6533824201 -31.4841935373 -2.8500464690
39.7224056351 -31.5064362227 -2.8500464909
40.2427100700 -31.6123460261 -2.8500465955
39.4631409379 -31.4382839987 -2.8500464237
39.7464342760 -31.5389174680 -2.8500465230
39.4462541626 -31.4574109411 -2.8500464426
39.7474705872 -31.5644111764 -2.8500465482
39.4444901227 -31.4828876782 -2.8500464677
39.8204549790 -31.6095907352 -2.8500465927
40.0467998903 -31.6584601583 -2.8500466410
39.2049959039 -31.4238073474 -2.8500464094
39.3871408810 -31.5109725142 -2.8500464954
39.1191802857 -31.4047925667 -2.8500463906
39.2467195779 -31.4722114636 -2.8500464572
40.0260825218 -31.7284602657 -2.8500467100
39.5588945096 -31.6305782827 -2.8500466134
38.9914131409 -31.3856576046 -2.8500463718
39.2929383710 -31.5747157249 -2.8500465583
38.9734994878 -31.4313976513 -2.8500464169
40.3105311434 -31.9093929524 -2.8500468886
40.0514347425 -31.9531495479 -2.8500469317
40.3643809586 -32.0821540082 -2.8500470590
37.5199581418 -31.6609725488 -2.8500466434
34.0509081166 -31.9354370757 -2.8500469143
34.0380480972 -31.9648909411 -2.8500469433
34.0934140595 -32.0795099256 -2.8500470564
33.9946356393 -32.1523720091 -2.8500471283
34.0335417466 -32.2293946290 -2.8500472043
33.9990788217 -32.3205070155 -2.8500472942
34.0183522232 -32.5090954534 -2.8500474803
34.0194746852 -32.6097519257 -2.8500475796
33.9847377277 -32.8373955931 -2.8500478043
33.9581087769 -32.9332066337 -2.8500478988
48.4193914429 -32.7680731447 -2.8500477359
48.4296029444 -32.8021062825 -2.8500477695
48.4396820014 -32.8362335652 -2.8500478031
48.4946425883 -32.8341821653 -2.8500478011
48.5046264745 -32.8685017066 -2.8500478350
48.5163224696 -32.8448741262 -2.8500478117
48.5217032067 -32.9956972782 -2.8500479605
48.5076260768 -33.2298901338 -2.8500481916
48.5030707764 -33.2886955208 -2.8500482496
48.5160097877 -33.2650707039 -2.8500482263
48.5544067131 -33.1939680465 -2.8500481561
48.4927076050 -33.4065948621 -2.8500483659
48.4943034523 -33.5013001195 -2.8500484594
48.5086919911 -33.5727846728 -2.8500485299
48.5295588030 -33.5849876004 -2.8500485420
48.5365039826 -33.6209157000 -2.8500485774
48.5150398017 -33.7042916472 -2.8500486597
40.9406716396 -29.2050617414 -2.8500442201
40.9511839565 -29.1739756208 -2.8500441894
40.9334258998 -29.2836059592 -2.8500442976
40.9589464557 -29.2863547238 -2.8500443003
40.9522940406 -29.3508701323 -2.8500443639
40.9830454423 -29.3936919952 -2.8500444062
41.3561383891 -29.3352865909 -2.8500443486
41.3635258596 -29.3131173205 -2.8500443267
41.3649706149 -29.3816040778 -2.8500443943
41.3697956801 -29.3688468778 -2.8500443817
41.3744694585 -29.3560334785 -2.8500443690
41.3758842844 -29.4193756979 -2.8500444315
41.3862738721 -29.3935362688 -2.8500444060
41.4000743293 -29.4843746306 -2.8500444957
41.4075570242 -29.5245402523 -2.8500445353
41.4114584019 -29.6660738430 -2.8500446750
40.5388364923 -31.5342340020 -2.8500465184
40.8326479479 -31.4884423347 -2.8500464732
40.8753171360 -31.5036822137 -2.8500464882
40.5280400742 -31.5838115845 -2.8500465673
40.9787376607 -31.5026010421 -2.8500464872
40.6548944272 -31.5935265431 -2.8500465769
39.3340419463 -31.8770066581 -2.8500468566
38.8123832930 -31.7051911632 -2.8500466871
34.1941986158 -32.9273135176 -2.8500478930
34.1433155809 -33.6120391290 -2.8500485687
34.2548602750 -34.0237885661 -2.8500489750
34.3916009632 -34.1826357521 -2.8500491317
34.3528709150 -34.2482587649 -2.8500491964
34.5116612424 -34.4215323778 -2.8500493674
34.6584276060 -34.6071398701 -2.8500495506
34.6751354428 -34.6237722398 -2.8500495670
34.7607001910 -34.8077019045 -2.8500497485
35.1649110676 -35.2903544469 -2.8500502247
48.5738511383 -31.5253815570 -2.8500465096
48.5816271613 -31.5816190967 -2.8500465651
48.5893240406 -31.5570773619 -2.8500465409
48.5890269251 -31.6380379290 -2.8500466208
48.5968906691 -31.6134740575 -2.8500465966
40.9343577132 -29.2824565599 -2.8500442964
40.9475604802 -29.2044910324 -2.8500442195
40.9526701878 -29.3105839227 -2.8500443242
40.9659047162 -29.2463678290 -2.8500442608
40.9543251902 -29.3913483354 -2.8500444039
40.9641358042 -29.3605374466 -2.8500443735
40.9786516121 -29.3058508638 -2.8500443195
40.9948766326 -29.2157172324 -2.8500442306
40.9610503973 -29.4432418918 -2.8500444551
40.9620631388 -29.4406677040 -2.8500444525
40.9753838192 -29.5831703380 -2.8500445932
40.9862130340 -29.6602643761 -2.8500446692
41.3642662998 -29.3521406653 -2.8500443652
41.3789738586 -29.2612089666 -2.8500442755
41.3664628496 -29.4481742447 -2.8500444599
41.3704980449 -29.4330623020 -2.8500444450
41.3762148670 -29.4103075104 -2.8500444226
41.4488141901 -29.2863149331 -2.8500443002
41.4149394037 -29.5383623522 -2.8500445489
41.4552107533 -29.4898362591 -2.8500445011
40.6070984045 -31.6757119817 -2.8500466580
38.0137324442 -33.9341651957 -2.8500488865
40.9418348270 -29.1529504349 -2.8500439302
40.9411032313 -29.1261343043 -2.8500439038
40.9638659039 -29.2349746455 -2.8500440112
40.9644284213 -29.2258351450 -2.8500440021
40.9659280546 -29.1861863648 -2.8500439630
40.9660054984 -29.1526129100 -2.8500439299
40.9648442132 -29.1160059479 -2.8500438938
40.9729761350 -29.3573979155 -2.8500441320
40.9790784352 -29.3204145464 -2.8500440955
40.9812329196 -29.3049450827 -2.8500440802
40.9820306083 -29.2987486589 -2.8500440741
40.9877761070 -29.2396833728 -2.8500440158
40.9885621453 -29.2272130609 -2.8500440035
40.9895824723 -29.2053707868 -2.8500439819
40.9727146871 -29.4643810016 -2.8500442375
40.9794604528 -29.4397254340 -2.8500442132
40.9937566338 -29.3774487651 -2.8500441517
40.9943744849 -29.3743137785 -2.8500441486
41.0020480491 -29.3302460062 -2.8500441052
41.0144444003 -29.1711091101 -2.8500439481
41.0141704660 -29.1423536396 -2.8500439198
41.0193330879 -29.3725370379 -2.8500441469
41.0233558696 -29.3500264705 -2.8500441247
41.0287333345 -29.3144979086 -2.8500440896
41.0182688691 -29.4808984014 -2.8500442538
41.0522391265 -29.3210338555 -2.8500440961
41.0614898158 -29.2213457659 -2.8500439977
41.0592559420 -29.4182670029 -2.8500441920
41.0770967055 -29.3175743772 -2.8500440927
41.0806995497 -29.2870991641 -2.8500440626
41.0834898511 -29.2565388414 -2.8500440324
41.0284841919 -29.7700703601 -2.8500445392
41.1203159581 -29.6937227819 -2.8500444638
41.1326959843 -29.7248911413 -2.8500444946
41.3767986257 -29.1938198672 -2.8500439705
41.3763221510 -29.1212745049 -2.8500438990
41.4010105763 -29.1421985569 -2.8500439196
41.4172805889 -29.3223542260 -2.8500440974
41.4190147592 -29.3047960301 -2.8500440800
41.4244975200 -29.1153330891 -2.8500438931
40.7407638634 -30.4498487176 -2.8500452099
41.4271035505 -29.4269633242 -2.8500442006
41.4960004439 -29.0897126939 -2.8500438678
40.7473150363 -30.5308640530 -2.8500452899
40.9798170034 -31.5508781670 -2.8500462964
41.3906759380 -31.3245311365 -2.8500460730
40.7647625202 -31.6595387009 -2.8500464036
40.8169162735 -31.6672012538 -2.8500464112
40.8324226852 -31.6873498302 -2.8500464310
40.8918104517 -31.6653915671 -2.8500464094
40.6655455427 -31.7658475513 -2.8500465085
40.8028244045 -31.7232457152 -2.8500464665
41.1344168377 -31.5853549234 -2.8500463304
41.1921831088 -31.6103242553 -2.8500463550
41.1534645528 -31.7373177128 -2.8500464803
40.6435096818 -31.9718765283 -2.8500467118
40.2993800705 -32.1101116830 -2.8500468482
38.8821675311 -33.8779303326 -2.8500485926
39.2189950389 -33.9406975484 -2.8500486545
38.8069890961 -33.8853648891 -2.8500485999
38.4816142416 -33.8208819316 -2.8500485363
38.1970101992 -33.7998288093 -2.8500485155
38.5300234745 -33.9113956574 -2.8500486256
38.3130715428 -33.8672863983 -2.8500485821
38.6647926969 -33.9742267499 -2.8500486876
38.1662039647 -33.8398867769 -2.8500485551
38.6015522357 -33.9821659385 -2.8500486955
37.7544710202 -33.7430542938 -2.8500484595
37.5980034822 -33.7195911265 -2.8500484364
37.2065858017 -33.6951672065 -2.8500484123
40.9649182049 -29.1901473959 -2.8500442053
40.9489401748 -29.0729160893 -2.8500440897
40.9469658294 -29.0626604642 -2.8500440795
40.9462874986 -29.0592458661 -2.8500440762
40.9928095579 -29.3265223910 -2.8500443399
40.9692876483 -29.0510180502 -2.8500440680
40.9656204371 -29.0336366987 -2.8500440509
41.0084382234 -29.4392428414 -2.8500444511
41.0149853563 -29.2113336496 -2.8500442262
41.0244722036 -29.4970410419 -2.8500445082
41.0319770260 -29.4458500393 -2.8500444577
41.0370424737 -29.3980747396 -2.8500444105
41.0412806915 -29.2577703827 -2.8500442721
41.0401621731 -29.2282254403 -2.8500442429
41.0241135413 -29.0813518856 -2.8500440980
41.0284028730 -29.5969239334 -2.8500446067
41.0353134435 -29.5675887544 -2.8500445778
41.0483118418 -29.5010419085 -2.8500445121
41.0658759788 -29.2910442642 -2.8500443049
41.0657961103 -29.2759751319 -2.8500442900
41.0649645564 -29.2420801105 -2.8500442566
41.0646572384 -29.2345516754 -2.8500442492
41.0774155739 -29.4708973913 -2.8500444824
41.0841634392 -29.4137158954 -2.8500444259
41.0900049975 -29.2795426847 -2.8500442935
41.0748483773 -29.0922150295 -2.8500441087
41.1029346433 -29.4626382063 -2.8500444742
41.0981357717 -29.0846622859 -2.8500441012
41.0958602191 -29.6259675852 -2.8500446354
41.1601207047 -29.3721228974 -2.8500443849
41.1616748642 -29.3397337910 -2.8500443529
41.0583392307 -29.8747260690 -2.8500448808
41.1701445394 -29.5047584263 -2.8500445158
41.1619872404 -29.0286841349 -2.8500440460
41.4283072769 -29.2670685891 -2.8500442812
41.4187908818 -29.1125397227 -2.8500441288
41.4483891475 -29.4090567967 -2.8500444213
41.4526340618 -29.2961940996 -2.8500443100
41.1504523332 -31.5674173576 -2.8500465511
40.5264264364 -31.9886255256 -2.8500469667
41.0839470363 -31.7977669709 -2.8500467784
40.5747955342 -32.1006718177 -2.8500470773
38.7056869129 -33.6701968774 -2.8500486260
38.7316191121 -33.6765492218 -2.8500486323
38.7705867433 -33.6857897926 -2.8500486414
39.1509628602 -33.7571713090 -2.8500487119
39.2435914215 -33.7694938782 -2.8500487240
39.4162099519 -33.7872797988 -2.8500487416
38.4286018606 -33.6173418552 -2.8500485739
38.9753449945 -33.7529875693 -2.8500487077
39.0944346788 -33.7731548431 -2.8500487276
39.1608147746 -33.7829867667 -2.8500487373
39.3073168070 -33.8011546113 -2.8500487553
39.4409501816 -33.8135268164 -2.8500487675
38.2170517886 -33.5706585602 -2.8500485278
39.4525314277 -33.8386523460 -2.8500487923
39.4659878834 -33.8396376580 -2.8500487932
39.6950884030 -33.8502912043 -2.8500488038
39.8030209093 -33.8513156047 -2.8500488048
39.6810125237 -33.8741494685 -2.8500488273
38.1365485041 -33.5920103525 -2.8500485489
39.2453703911 -33.8671065125 -2.8500488203
39.7076903830 -33.8988968410 -2.8500488517
38.1663064601 -33.6291708974 -2.8500485856
38.2177603087 -33.6481071235 -2.8500486042
38.6765828872 -33.7875056057 -2.8500487418
39.1609318443 -33.8806254484 -2.8500488337
39.7072464608 -33.9230657925 -2.8500488756
38.7243317158 -33.8239218974 -2.8500487777
39.8996874901 -33.9467830247 -2.8500488990
37.7547616293 -33.5055626775 -2.8500484636
