47.4915621737 -26.0075808312 -2.0000266168
47.7274054494 -26.0335362931 -2.0000266424
47.9020746395 -26.0290331878 -2.0000266379
47.7140715764 -25.9061798710 -2.0000265167
48.0175757537 -25.8861586909 -2.0000264969
48.3213269752 -25.8581176925 -2.0000264693
48.7362359603 -25.8418571710 -2.0000264532
48.3610285414 -29.9072892957 -2.0000304648
48.3777720104 -29.8743442374 -2.0000304323
48.8057441608 -30.6317641445 -2.0000311797
48.8138615406 -31.0503101819 -2.0000315927
47.3772772896 -26.5286811457 -2.0000271310
47.4731203013 -26.5262070705 -2.0000271285
47.5808419208 -26.5292219343 -2.0000271315
47.5356159211 -26.5171135568 -2.0000271195
47.7300422546 -26.5226020968 -2.0000271250
47.6960715148 -26.5121468216 -2.0000271146
47.9655202158 -26.5010048287 -2.0000271036
48.2733205420 -26.4970100127 -2.0000270997
48.5537928392 -26.4721270264 -2.0000270752
48.3703571257 -29.9469091699 -2.0000305039
48.6854780312 -29.9521851002 -2.0000305091
48.8376915795 -30.6406459347 -2.0000311885
48.8934473174 -30.3177783053 -2.0000308699
48.8955508794 -30.2964973451 -2.0000308489
48.8541931099 -30.6743085477 -2.0000312217
48.9018568225 -30.4416429299 -2.0000309921
48.8880643714 -30.6379537502 -2.0000311858
48.9194590645 -29.6562192602 -2.0000302171
48.8061284572 -30.9795349489 -2.0000315229
48.8141081766 -30.9590028356 -2.0000315026
48.8418009190 -30.8831318276 -2.0000314277
48.8734514384 -30.7853344301 -2.0000313312
48.8889551204 -29.4085862534 -2.0000299727
48.8829902898 -29.3873809617 -2.0000299518
48.7858323529 -31.1484129568 -2.0000316895
48.9261224467 -30.7777317470 -2.0000313237
48.9695864796 -29.5337804607 -2.0000300963
48.9231990174 -29.3525198925 -2.0000299174
48.8748792851 -29.0730473997 -2.0000296416
49.0979003106 -29.9762337479 -2.0000305328
49.0453377688 -30.7072478504 -2.0000312542
49.0209007854 -29.1833757701 -2.0000297505
48.8742232972 -31.3488747883 -2.0000318873
48.9409949707 -28.9241281440 -2.0000294947
49.2549578836 -30.5296657338 -2.0000310789
49.2341853243 -29.3910312549 -2.0000299554
48.7763921878 -28.2889623723 -2.0000288679
48.1930442384 -33.4022804577 -2.0000339135
48.2127288073 -33.3921850507 -2.0000339035
48.2323533038 -33.3819733598 -2.0000338935
48.2632651740 -33.3929894809 -2.0000339043
48.3140592758 -33.3930601144 -2.0000339044
48.3238812213 -33.3876690245 -2.0000338991
47.9775459407 -26.5841318568 -2.0000271857
48.3552646937 -33.3979039878 -2.0000339092
48.3749205308 -33.3868489067 -2.0000338983
48.0387230535 -26.5843116398 -2.0000271859
48.0284046943 -26.5797648355 -2.0000271814
48.4261946142 -33.3852825011 -2.0000338967
48.1002167046 -26.5855433073 -2.0000271871
48.0795727918 -26.5761164034 -2.0000271778
48.0692300110 -26.5714487940 -2.0000271732
48.1517006184 -26.5829247077 -2.0000271845
48.1413776621 -26.5780437013 -2.0000271797
48.1206886588 -26.5683734067 -2.0000271701
48.2034695841 -26.5810396477 -2.0000271826
48.1931408249 -26.5760055077 -2.0000271777
48.5715308128 -33.3822024695 -2.0000338937
48.2658303967 -26.5851131216 -2.0000271866
48.2974880295 -26.5741526289 -2.0000271758
48.2871384859 -26.5688403954 -2.0000271706
48.3707010322 -26.5853774874 -2.0000271869
48.3500514045 -26.5743503103 -2.0000271760
48.3397022157 -26.5688825840 -2.0000271706
48.4235037232 -26.5866450123 -2.0000271882
48.4131905830 -26.5809599469 -2.0000271825
48.3925140760 -26.5696814647 -2.0000271714
48.8184825181 -33.3925933842 -2.0000339040
48.5523320950 -26.5766761238 -2.0000271783
48.5059557499 -33.6182237984 -2.0000341266
48.8520629269 -33.3985295251 -2.0000339098
48.8618986979 -33.3915468992 -2.0000339029
48.6060296219 -26.5805589061 -2.0000271821
48.7373310700 -26.5769113857 -2.0000271785
49.1504932217 -33.3855260455 -2.0000338970
49.1096425942 -26.5703403196 -2.0000271721
49.4778329726 -33.3931398385 -2.0000339045
48.5706372205 -30.1702742601 -2.0000307243
48.7803401911 -30.0777053425 -2.0000306330
48.7954641910 -29.4464258549 -2.0000300101
48.8410923239 -29.6420317551 -2.0000302031
48.8695187691 -29.8568671463 -2.0000304151
48.8838425523 -30.5176128910 -2.0000310671
49.0873536379 -29.8472607413 -2.0000304056
49.1429671397 -30.0990378414 -2.0000306540
48.5831573950 -26.6844095739 -2.0000272846
47.6296725071 -33.4640932344 -2.0000339745
47.6405197466 -33.4607620052 -2.0000339712
47.6513570843 -33.4573987025 -2.0000339679
47.6621844254 -33.4540033557 -2.0000339645
47.7129314360 -33.4630693008 -2.0000339735
47.7454309888 -33.4522405861 -2.0000339628
47.7966252515 -33.4601606070 -2.0000339706
47.8590349356 -33.4634002788 -2.0000339738
47.9326707081 -33.4613950916 -2.0000339718
47.9435086403 -33.4571675508 -2.0000339677
47.7764031117 -33.5438380321 -2.0000340532
47.9523264438 -33.4796749190 -2.0000339899
47.9849639351 -33.4667210540 -2.0000339771
47.9958173937 -33.4623387970 -2.0000339728
48.0066578413 -33.4579244526 -2.0000339684
48.0905127853 -33.4751838803 -2.0000339854
48.1437484320 -33.4783070596 -2.0000339885
48.1655081059 -33.4685708331 -2.0000339789
48.2837404103 -33.4666984119 -2.0000339771
48.4580609501 -33.4869031354 -2.0000339970
48.2124010075 -33.6329655632 -2.0000341411
48.5131410677 -33.4848235549 -2.0000339950
48.6130530938 -33.4845303721 -2.0000339947
48.7606338159 -33.5098974032 -2.0000340197
49.0972049859 -33.5217748644 -2.0000340314
51.4813628870 -30.4880312944 -2.0000310379
51.4989333633 -30.5356775588 -2.0000310849
48.1655063959 -30.2031501940 -2.0000307568
48.2393890742 -30.0766530214 -2.0000306319
48.2623229259 -30.0842932918 -2.0000306395
48.3379338638 -30.0863637542 -2.0000306415
48.3609565132 -30.0937321257 -2.0000306488
48.5269014719 -30.2769340665 -2.0000308296
48.5605365633 -30.2563268355 -2.0000308092
48.7557771808 -29.3251584877 -2.0000298904
48.7783787246 -29.7354346056 -2.0000302952
48.7837464161 -29.6700952921 -2.0000302308
48.7876332516 -29.5915213229 -2.0000301532
48.7886942436 -29.5063028213 -2.0000300691
48.7825451592 -29.3556651847 -2.0000299205
48.7820454345 -29.3491280784 -2.0000299140
48.7737912820 -29.2643036262 -2.0000298303
48.7688828683 -29.2252744913 -2.0000297918
48.7423487128 -29.0702130679 -2.0000296388
48.7310663045 -29.0189927224 -2.0000295883
48.7950611683 -29.8036324653 -2.0000303625
48.8042716905 -29.7179715573 -2.0000302780
48.7386356790 -28.9491933201 -2.0000295194
48.7030749547 -28.8284098591 -2.0000294002
48.6989381408 -28.8158165537 -2.0000293878
48.7487926294 -30.1475294868 -2.0000307019
48.8158909501 -29.2121785951 -2.0000297789
48.7936860690 -29.0800672449 -2.0000296485
48.7585474780 -28.9300764206 -2.0000295005
48.6928748840 -28.7260931890 -2.0000292993
48.8355616572 -29.8633724222 -2.0000304215
48.8652378168 -29.8263403340 -2.0000303849
48.8789667774 -29.3484377324 -2.0000299134
48.7208604025 -28.6644482235 -2.0000292384
48.6972885002 -28.6075603571 -2.0000291823
48.8682278056 -29.9591863664 -2.0000305160
48.8999522155 -29.1230448889 -2.0000296910
48.8500523630 -28.8980918000 -2.0000294690
48.7734433441 -28.6660364977 -2.0000292400
48.6537945781 -28.4060259746 -2.0000289834
48.6370711954 -28.3753642299 -2.0000289532
48.9566257194 -29.4416598535 -2.0000300054
48.8343656659 -28.7634502912 -2.0000293361
48.8457135234 -28.7220607616 -2.0000292953
49.0245366358 -29.9067864519 -2.0000304643
49.0139605540 -29.0737384324 -2.0000296423
48.9662313236 -30.2640956592 -2.0000308169
49.0776600874 -29.4450339361 -2.0000300087
49.0346753064 -30.3659465236 -2.0000309174
49.1143250959 -28.5422166457 -2.0000291178
49.7866890602 -31.2857457662 -2.0000318250
47.0575120937 -33.4725811258 -2.0000339829
47.0808805568 -33.4696422422 -2.0000339800
47.1275632763 -33.4633499700 -2.0000339738
47.1543881706 -33.4839133070 -2.0000339941
47.1778219832 -33.4804010736 -2.0000339906
47.1895309946 -33.4785929813 -2.0000339888
47.2012346061 -33.4767502594 -2.0000339870
47.2129327153 -33.4748729243 -2.0000339851
47.2050296233 -33.5006235317 -2.0000340105
47.2167983373 -33.4987348657 -2.0000340087
47.2285614129 -33.4968113940 -2.0000340068
47.2403187469 -33.4948531335 -2.0000340049
47.2872886118 -33.4866725496 -2.0000339968
47.3224506891 -33.4801726984 -2.0000339904
47.3740212809 -33.4947169966 -2.0000340047
47.3975151677 -33.4899051509 -2.0000340000
47.4209801749 -33.4849543917 -2.0000339951
47.3788014632 -33.5184126742 -2.0000340281
47.4024354580 -33.5135721327 -2.0000340233
47.4260404009 -33.5085918492 -2.0000340184
47.4731598270 -33.4982127586 -2.0000340082
47.0722388218 -33.5925457270 -2.0000341013
47.1684372582 -33.5795793284 -2.0000340885
47.2523389359 -33.5663690939 -2.0000340754
47.4784993881 -33.5217886864 -2.0000340314
47.5611379897 -33.5021707520 -2.0000340121
47.5906379730 -33.5196771614 -2.0000340294
47.6260810022 -33.5104839551 -2.0000340203
47.6378770428 -33.5073496999 -2.0000340172
47.6496637602 -33.5041805635 -2.0000340141
47.0903126556 -33.6390176828 -2.0000341471
47.2240047094 -33.6199898928 -2.0000341283
47.6678211426 -33.5242924421 -2.0000340339
47.6796578486 -33.5210346516 -2.0000340307
47.7033020904 -33.5144140967 -2.0000340242
47.7269067490 -33.5076537705 -2.0000340175
47.3494475058 -33.6226761792 -2.0000341310
47.6742012341 -33.5476083104 -2.0000340569
47.6980027901 -33.5410195737 -2.0000340504
47.7217649483 -33.5342901342 -2.0000340438
47.7691677460 -33.5204100944 -2.0000340301
47.4756153885 -33.6215075269 -2.0000341298
47.5361598677 -33.6077010190 -2.0000341162
47.7522797778 -33.5506191884 -2.0000340599
47.5781433544 -33.6224652558 -2.0000341308
47.6265995355 -33.6102784406 -2.0000341188
47.8308101302 -33.5521196245 -2.0000340614
47.8784162609 -33.5369480632 -2.0000340464
47.9021511732 -33.5291513084 -2.0000340387
47.1272978526 -33.7317451757 -2.0000342386
47.1895108896 -33.7230783605 -2.0000342301
47.8858923578 -33.5599359569 -2.0000340691
47.5528055897 -33.6782838602 -2.0000341859
48.0129226054 -33.5420776425 -2.0000340515
47.4964153267 -33.7159359500 -2.0000342230
48.0449727569 -33.5561930921 -2.0000340654
48.0807219534 -33.5429664816 -2.0000340523
48.1011674513 -33.5610956048 -2.0000340702
48.1935080912 -33.5510028310 -2.0000340603
47.9355538824 -33.6708613038 -2.0000341785
48.2503619940 -33.5538578570 -2.0000340631
48.2955664515 -33.5610434537 -2.0000340702
48.3529921389 -33.5624931081 -2.0000340716
47.9706589046 -33.7356406509 -2.0000342425
48.0204267511 -33.7188014864 -2.0000342258
48.3747507486 -33.5793004150 -2.0000340882
48.3867470851 -33.5739511581 -2.0000340829
47.6357148531 -33.8572397237 -2.0000343624
48.4447101925 -33.5741445503 -2.0000340831
48.4566909709 -33.5685883633 -2.0000340776
48.0612710284 -33.7557704628 -2.0000342623
48.4548477674 -33.5960891363 -2.0000341048
47.9681294238 -33.8128027877 -2.0000343186
48.5253702217 -33.5895944303 -2.0000340983
47.9116394389 -33.8560718112 -2.0000343613
48.6068922807 -33.6035354145 -2.0000341121
48.6430394861 -33.5853202191 -2.0000340941
47.9259099975 -33.9022637183 -2.0000344069
48.6660899050 -33.6006833352 -2.0000341093
48.7724135091 -33.6268029661 -2.0000341351
48.4437190602 -33.9445904321 -2.0000344486
48.5866362412 -33.8813687551 -2.0000343863
48.0253065229 -34.1751377414 -2.0000346761
48.9064102437 -34.1022466805 -2.0000346042
48.4577064146 -30.2429877498 -2.0000307961
48.7043291142 -29.3814852885 -2.0000299460
48.7315457703 -29.2859935655 -2.0000298517
48.6829802612 -28.6392356503 -2.0000292136
48.5302600450 -30.3114396953 -2.0000308636
48.6268346973 -28.4207058660 -2.0000289979
48.5890080488 -28.2850886055 -2.0000288641
48.8410332038 -29.4918065003 -2.0000300548
48.6289717322 -28.2571356330 -2.0000288365
46.5627454680 -33.4902203925 -2.0000340003
46.6126975195 -33.4913660317 -2.0000340014
46.6626596299 -33.4919205349 -2.0000340020
46.8509348426 -33.5128892282 -2.0000340227
46.5739806669 -33.5388920692 -2.0000340483
46.8140018219 -33.5383607057 -2.0000340478
46.9023678138 -33.5347648583 -2.0000340442
46.9528231605 -33.5318888097 -2.0000340414
46.9036006801 -33.5589064266 -2.0000340681
46.9162890618 -33.5582396362 -2.0000340674
47.1189519198 -33.5424716624 -2.0000340518
47.0577918910 -33.5725119774 -2.0000340815
47.1213967747 -33.5665207365 -2.0000340756
47.1595147210 -33.5624746586 -2.0000340716
47.1722125384 -33.5610508125 -2.0000340702
47.1975952596 -33.5580904645 -2.0000340673
46.8675616273 -33.6089846690 -2.0000341175
46.6748284229 -33.6370045942 -2.0000341451
46.7265094468 -33.6368137400 -2.0000341449
46.8685802022 -33.6331362277 -2.0000341413
47.3696895099 -33.5829416469 -2.0000340918
47.4247563847 -33.5983598745 -2.0000341070
47.4631449396 -33.5916203964 -2.0000341003
47.4887034289 -33.5869382596 -2.0000340957
47.5316249876 -33.6033558725 -2.0000341119
47.5828478832 -33.5930293590 -2.0000341017
47.6647807193 -33.5999816030 -2.0000341086
47.6829935540 -33.6206236433 -2.0000341290
46.4876758535 -33.7777574971 -2.0000342840
46.6745059363 -33.7820424036 -2.0000342882
47.6938061054 -33.6677450807 -2.0000341755
46.9829191448 -33.7964041525 -2.0000343024
46.5260130230 -33.8276438643 -2.0000343332
46.9710443721 -33.8213922952 -2.0000343271
47.9915707897 -33.6391155391 -2.0000341472
47.0131625541 -33.8427813391 -2.0000343482
47.9203241536 -33.6849032131 -2.0000341924
47.2049634620 -33.8492723551 -2.0000343546
48.1170277041 -33.6759298460 -2.0000341835
46.6879619598 -33.9270904693 -2.0000344314
46.8670359812 -33.9235151527 -2.0000344278
46.9220936755 -33.9210299520 -2.0000344254
47.5554294687 -33.8695543502 -2.0000343746
46.4931487807 -33.9715443648 -2.0000344752
46.7158403215 -33.9753336907 -2.0000344790
46.8411054768 -33.9728326993 -2.0000344765
48.0597848997 -33.7700133911 -2.0000342764
47.0112600100 -34.0125446464 -2.0000345157
47.5595220108 -33.9671678753 -2.0000344709
47.1301024925 -34.0756946801 -2.0000345780
46.8746129875 -34.1167508819 -2.0000346185
47.3065717023 -34.1048042657 -2.0000346067
47.6147007690 -34.1043354572 -2.0000346063
47.4317726333 -34.1604182708 -2.0000346616
48.3471954687 -34.1853441568 -2.0000346862
48.1294005324 -30.2692494143 -2.0000308220
48.6174666790 -28.9060128632 -2.0000294768
48.5198754278 -28.4433805771 -2.0000290203
48.6452249756 -28.9681857811 -2.0000295381
48.5707996191 -28.4425364725 -2.0000290195
48.6277956111 -28.5446112646 -2.0000291202
48.6202867040 -28.5182420108 -2.0000290942
48.7855661347 -29.1930930962 -2.0000297601
48.8805022836 -30.6569364991 -2.0000312045
48.9328081240 -30.6289944564 -2.0000311770
46.3494178277 -33.5492423939 -2.0000340585
46.3627618345 -33.5506776603 -2.0000340599
45.8940239467 -33.5007085208 -2.0000340106
45.9468822358 -33.5116044861 -2.0000340214
46.0396811042 -33.5291647473 -2.0000340387
46.2262700172 -33.5585028427 -2.0000340677
46.4811235553 -33.5859146041 -2.0000340947
46.8179374613 -33.6242695724 -2.0000341326
46.0043522322 -33.5718861363 -2.0000340809
46.5180986376 -33.6371587740 -2.0000341453
46.5725277805 -33.6406608453 -2.0000341487
46.9132599206 -33.6479398500 -2.0000341559
46.9541580675 -33.6471195274 -2.0000341551
46.7765723708 -33.6722232557 -2.0000341799
46.9821537144 -33.6705328733 -2.0000341782
47.0506391759 -33.6679426068 -2.0000341757
46.2405484814 -33.6579468657 -2.0000341658
46.9966601797 -33.6942554346 -2.0000342016
47.1617777782 -33.6858079331 -2.0000341933
46.4025888563 -33.7004239066 -2.0000342077
47.1910697383 -33.7079358698 -2.0000342151
46.3310732103 -33.7174562573 -2.0000342245
47.3730454627 -33.7150535748 -2.0000342221
47.2385489584 -33.7769132543 -2.0000342832
46.0292927296 -33.7482221820 -2.0000342549
46.5203376086 -33.8069238116 -2.0000343128
46.8310891865 -33.8177023294 -2.0000343234
46.8593612565 -33.8176789540 -2.0000343234
46.9300364969 -33.8168887401 -2.0000343226
46.2218424615 -33.8017736885 -2.0000343077
46.5584339822 -33.8819799143 -2.0000343869
47.2180206743 -33.8755808272 -2.0000343805
46.7299381151 -33.9131338550 -2.0000344176
45.9659402306 -33.8597514280 -2.0000343649
46.6123859151 -33.9574282619 -2.0000344613
45.9717077932 -33.9099133011 -2.0000344144
47.0384392472 -34.0555703287 -2.0000345581
47.5705417425 -34.0061935961 -2.0000345094
47.9607208203 -33.9826266807 -2.0000344862
46.1363070743 -34.1073418639 -2.0000346092
46.0276905480 -34.1155268043 -2.0000346173
47.0665484329 -34.3689341721 -2.0000348674
49.3638285713 -33.8490471635 -2.0000343544
48.5286420782 -28.8328238827 -2.0000294046
48.5259892096 -28.7534808128 -2.0000293263
48.5333443392 -28.6006177598 -2.0000291754
48.5770030998 -28.8507108494 -2.0000294222
48.5770220010 -28.8416029839 -2.0000294132
48.5914811883 -29.0169877306 -2.0000295863
48.5999114406 -28.9063206943 -2.0000294771
48.6002589473 -28.8970763221 -2.0000294680
48.5810680619 -28.5928855275 -2.0000291678
48.5836088052 -29.2047184048 -2.0000297715
48.6194088699 -28.7055205122 -2.0000292790
48.5891931274 -28.5059616815 -2.0000290820
48.6218922925 -29.1402413627 -2.0000297079
48.6324308255 -28.6087160973 -2.0000291834
48.6737111898 -28.8463575914 -2.0000294179
48.6501041071 -28.4475035161 -2.0000290244
48.6550072836 -29.3134981930 -2.0000298789
48.7220394304 -28.8514408875 -2.0000294230
48.0722030730 -30.3224300938 -2.0000308745
48.1536797738 -30.2619730659 -2.0000308148
48.3929124769 -30.5350140850 -2.0000310842
46.1055392733 -33.6529838824 -2.0000341609
46.2339148644 -33.6760907382 -2.0000341837
46.3485075403 -33.6937547962 -2.0000342011
46.3628600771 -33.6957719800 -2.0000342031
46.4203280116 -33.7034158819 -2.0000342107
45.7463483251 -33.5942970595 -2.0000341030
45.7885646036 -33.6055689366 -2.0000341141
45.9299772420 -33.6404281140 -2.0000341485
45.9868206266 -33.6531979611 -2.0000341611
46.0866457562 -33.6739235826 -2.0000341816
46.1009407744 -33.6767154877 -2.0000341843
46.2443210845 -33.7023042198 -2.0000342096
46.5620235330 -33.7436062539 -2.0000342503
45.6554717622 -33.5938423969 -2.0000341025
45.7400089330 -33.6176240265 -2.0000341260
45.8675727662 -33.6504740217 -2.0000341584
46.0819770750 -33.6976414809 -2.0000342050
46.2693311182 -33.7307922323 -2.0000342377
46.3997199621 -33.7495112894 -2.0000342561
46.9980415477 -33.7906413503 -2.0000342967
45.3827235295 -33.5314936681 -2.0000340410
46.4111918132 -33.7753571594 -2.0000342816
46.4988315061 -33.7856975436 -2.0000342918
45.2913223640 -33.5240328589 -2.0000340336
45.9424848180 -33.7176527450 -2.0000342247
46.3641861489 -33.7935565189 -2.0000342996
45.0665067633 -33.4864669442 -2.0000339966
47.3131264619 -33.9283780593 -2.0000344326
46.0492963067 -33.8636667688 -2.0000343688
47.8753087244 -34.0134507916 -2.0000345166
47.1204350655 -34.1285724172 -2.0000346302
48.1442809557 -34.0120780078 -2.0000345152
45.0492247602 -33.8972107800 -2.0000344019
46.7669640401 -34.3159194895 -2.0000348150
45.4533279965 -34.1138385296 -2.0000346156
45.0442968988 -33.9990735622 -2.0000345024
45.1207758121 -34.0279910305 -2.0000345309
44.9135971645 -33.9727964107 -2.0000344765
44.8457669542 -34.0492571811 -2.0000345519
44.8846194580 -34.2219907524 -2.0000347224
44.8857738154 -34.6111569847 -2.0000351064
48.4915363477 -28.7099584506 -2.0000292833
48.4917744999 -28.6882139919 -2.0000292619
48.4871785842 -28.5796166354 -2.0000291547
48.4830820918 -28.5399616684 -2.0000291156
48.4990273831 -28.8906056003 -2.0000294616
48.5159102550 -28.6956558018 -2.0000292692
48.5159474757 -28.6882642070 -2.0000292619
48.5158907220 -28.6734810035 -2.0000292473
48.5158492018 -28.6697853884 -2.0000292437
48.5143148797 -28.6217668099 -2.0000291963
48.5121715922 -28.5885742708 -2.0000291636
48.5182781669 -28.9205384263 -2.0000294911
48.5326244222 -28.8236678182 -2.0000293955
48.5369940041 -28.7748905100 -2.0000293474
48.5395986995 -28.7222156276 -2.0000292954
48.5365587365 -28.5904520497 -2.0000291654
48.5346687761 -28.5679273492 -2.0000291432
48.5327886257 -28.5491847983 -2.0000291247
48.5360161350 -28.9551108012 -2.0000295252
48.5549009421 -28.8415420281 -2.0000294132
48.5635187422 -28.7305831961 -2.0000293037
48.5267555911 -29.0848529282 -2.0000296533
48.5873834883 -28.7392350525 -2.0000293122
48.5781409599 -28.9884742359 -2.0000295582
48.5944097884 -28.9064662834 -2.0000294772
48.5652948975 -29.1225710671 -2.0000296905
48.5752697758 -29.0917170329 -2.0000296600
48.5715940319 -29.1769039209 -2.0000297441
48.6606634223 -28.6555686424 -2.0000292297
48.5674174474 -29.2515253509 -2.0000298177
48.6478512173 -29.0088753916 -2.0000295783
48.6026884663 -29.5874691651 -2.0000301492
48.8061120773 -29.7181539418 -2.0000302782
48.2800521819 -30.3237063275 -2.0000308757
48.2009114883 -30.4798717517 -2.0000310298
48.2600746735 -30.4754990293 -2.0000310255
48.2393517100 -30.6231122136 -2.0000311712
48.3409541828 -30.7339844608 -2.0000312806
48.4247813101 -30.7434422803 -2.0000312899
48.4672566796 -30.7469749429 -2.0000312934
48.4185115166 -32.1921437408 -2.0000327194
47.9583411678 -32.4586563142 -2.0000329824
48.0746948612 -32.4601825481 -2.0000329839
48.7451204030 -32.3297110746 -2.0000328551
48.8178273532 -32.5089069380 -2.0000330320
47.8120266725 -32.8241803771 -2.0000333431
46.2149401851 -33.8662654072 -2.0000343713
46.8338709103 -33.9541883423 -2.0000344581
46.8494580371 -33.9554453407 -2.0000344593
45.7240700397 -33.8176423726 -2.0000343234
45.3702218314 -33.7235226183 -2.0000342305
45.3851330113 -33.7291103646 -2.0000342360
47.5101013345 -34.0631096216 -2.0000345656
45.2424918424 -33.6996532167 -2.0000342069
45.3019613333 -33.7232522334 -2.0000342302
47.2393588094 -34.0927250088 -2.0000345948
45.2334429495 -33.7220686761 -2.0000342291
46.2491430789 -34.0208168713 -2.0000345239
46.9822983940 -34.1095213106 -2.0000346114
45.0608901666 -33.6753648141 -2.0000341830
45.1646787702 -33.7199658204 -2.0000342270
45.1795803277 -33.7261616158 -2.0000342331
45.2543594483 -33.7564778930 -2.0000342630
46.0550673643 -34.0049153325 -2.0000345082
47.8351975000 -34.1114261792 -2.0000346133
47.9343510427 -34.1244726129 -2.0000346261
44.9523511070 -33.6792962937 -2.0000341869
46.7349812898 -34.1637520667 -2.0000346649
47.1086430130 -34.1872189532 -2.0000346881
44.7219935168 -33.5931854629 -2.0000341019
44.9719012910 -33.7148926923 -2.0000342220
46.4405671833 -34.1515964201 -2.0000346529
47.9240087654 -34.1744271338 -2.0000346754
44.7987493243 -33.6592282640 -2.0000341671
45.0820406459 -33.7900074828 -2.0000342961
44.5688657803 -33.5660198706 -2.0000340751
44.6122823901 -33.5897684455 -2.0000340985
44.9518326994 -33.7588766981 -2.0000342654
46.5640493153 -34.2175730362 -2.0000347180
44.4133822424 -33.5048935667 -2.0000340148
44.4585372204 -33.5592617225 -2.0000340684
46.3767965789 -34.2395252963 -2.0000347397
44.3457283481 -33.5207646572 -2.0000340304
44.3045520561 -33.5240156721 -2.0000340336
44.3476063105 -33.5501115371 -2.0000340594
44.5515105496 -33.6667942764 -2.0000341745
46.6185086039 -34.3215576172 -2.0000348206
44.6630730077 -33.7803562581 -2.0000342866
44.1816154127 -33.5613867396 -2.0000340705
44.2105157891 -33.5795531302 -2.0000340884
44.6867710484 -33.8465044027 -2.0000343518
44.5797294144 -33.9820549126 -2.0000344856
45.2237635108 -34.2622072315 -2.0000347620
44.4904338443 -33.9631295111 -2.0000344669
44.2621829057 -33.8645732355 -2.0000343697
44.0048697425 -34.0490982316 -2.0000345518
44.1649338123 -34.1432252157 -2.0000346446
43.8971012189 -34.1531808759 -2.0000346545
48.4513289053 -28.6636988789 -2.0000292377
48.4729286459 -28.6886018275 -2.0000292623
48.4748238996 -28.6716813625 -2.0000292456
48.4756588329 -28.6632091819 -2.0000292372
48.4907250551 -28.7346980505 -2.0000293078
48.4967520361 -28.8232222871 -2.0000293951
48.5240671630 -28.6647691056 -2.0000292388
48.5243331647 -28.6618002326 -2.0000292358
48.4935605058 -28.9168015830 -2.0000294874
48.4975561026 -28.9052648767 -2.0000294761
48.5014149120 -28.8936817002 -2.0000294646
48.5194088841 -28.8321721830 -2.0000294039
48.5292677971 -28.7905963258 -2.0000293629
48.4950378408 -28.9802307079 -2.0000295500
48.5508853861 -28.8048380385 -2.0000293770
48.8783108921 -28.7580690035 -2.0000293308
48.8827466686 -28.7218602527 -2.0000292951
48.8865428569 -28.6815059826 -2.0000292553
48.8910680039 -28.8305438557 -2.0000294023
48.9096091167 -28.6957453796 -2.0000292693
48.9997984563 -28.7612416774 -2.0000293339
48.0604871042 -30.3971647248 -2.0000309482
48.4569380439 -32.1184583924 -2.0000326467
48.2210997811 -32.2709515714 -2.0000327972
46.4668382682 -34.0984577226 -2.0000346005
47.1098558801 -34.1830296048 -2.0000346839
46.2934226210 -34.1120745018 -2.0000346139
46.4577809312 -34.1459477823 -2.0000346473
46.5693576400 -34.1905930805 -2.0000346914
46.2829646077 -34.1592758904 -2.0000346605
43.3178250623 -33.8072932702 -2.0000343132
48.4487333477 -28.7287269464 -2.0000293019
48.4710540532 -28.8054538122 -2.0000293776
48.4993043672 -28.7293863121 -2.0000293025
48.8503366108 -28.8212067755 -2.0000293931
48.8512538446 -28.8180713878 -2.0000293900
48.8548299102 -28.8055031154 -2.0000293776
48.8565621120 -28.7992033314 -2.0000293714
48.8623306792 -28.7770757005 -2.0000293496
48.8654208893 -28.7643792319 -2.0000293370
48.8881665819 -28.7732038750 -2.0000293457
48.8571780637 -28.9473965366 -2.0000295176
48.8622839498 -28.9347491127 -2.0000295052
48.8789687393 -28.8900260268 -2.0000294610
48.9023166498 -28.8151721316 -2.0000293872
48.8834634910 -28.9468995442 -2.0000295171
48.8729829525 -29.0306547905 -2.0000295998
48.8790728825 -29.0178145271 -2.0000295871
48.9153034330 -29.1574567577 -2.0000297249
48.9228907801 -29.1441068619 -2.0000297117
48.8930678804 -29.2393580175 -2.0000298057
48.8996228667 -29.3944878977 -2.0000299588
48.3284654174 -30.7592127887 -2.0000313055
47.9250706959 -32.1979728605 -2.0000327252
48.0341057795 -32.1923905153 -2.0000327196
47.7480237784 -32.4177347447 -2.0000329420
47.5276738015 -32.6028996971 -2.0000331247
43.6735410138 -33.9934403065 -2.0000344968
41.8687595100 -33.1673379958 -2.0000336817
41.8636077930 -33.1998363606 -2.0000337137
41.8631881362 -33.3153121586 -2.0000338277
55.4693306234 -30.3543951928 -2.0000309060
41.3408039639 -33.5517637350 -2.0000340610
42.2496824789 -34.6670816844 -2.0000351616
42.3069726232 -34.7503753421 -2.0000352437
42.3467776898 -34.8170957348 -2.0000353096
42.3654603034 -34.8331728161 -2.0000353254
42.3841903942 -34.8491945604 -2.0000353413
42.2195713581 -34.7374953037 -2.0000352310
42.3122941498 -34.8192160792 -2.0000353117
42.0406811712 -34.6391752763 -2.0000351340
42.0770465956 -34.6730881856 -2.0000351675
42.4832557308 -35.1194286032 -2.0000356079
41.8124890917 -34.5875575755 -2.0000350831
42.7655558021 -35.4562180466 -2.0000359402
56.1920004204 -30.4493298225 -2.0000309997
56.2155537671 -30.4547681258 -2.0000310050
42.8343630639 -35.6236497319 -2.0000361055
56.2093323928 -30.5849454057 -2.0000311335
56.2266093482 -30.6156950654 -2.0000311638
43.0244395811 -35.8966377419 -2.0000363748
48.8391166345 -28.8264452370 -2.0000293983
48.8400891587 -28.8241636527 -2.0000293960
48.8455036070 -28.8707993364 -2.0000294421
48.1030188563 -30.7125610543 -2.0000312594
47.9645671751 -30.8797862581 -2.0000314244
47.8468120703 -32.1080813852 -2.0000326365
48.3707995233 -32.1022033610 -2.0000326307
47.2496364568 -32.2440411920 -2.0000327706
47.5253659887 -32.3182211332 -2.0000328438
47.2550003799 -32.4428694588 -2.0000329668
41.6075219086 -32.0826275448 -2.0000326113
41.6107813019 -32.2834198287 -2.0000328095
55.4264342091 -31.6200854975 -2.0000321549
55.9626978422 -31.9029929243 -2.0000324341
55.9659985795 -32.0158425625 -2.0000325454
55.9763747347 -31.9924644174 -2.0000325224
55.9564476430 -32.0958260720 -2.0000326244
55.9677278631 -32.1292445009 -2.0000326573
55.9890818650 -32.0824454027 -2.0000326112
41.3404906252 -34.1179008125 -2.0000346197
41.8286360545 -34.6552527605 -2.0000351499
55.9766511608 -32.3916470658 -2.0000329163
42.5389943683 -35.4243649385 -2.0000359088
55.9731239259 -32.5068225541 -2.0000330299
55.9967117120 -32.4599849227 -2.0000329837
55.9586833116 -32.5879427610 -2.0000331100
56.0183335501 -32.4707937800 -2.0000329944
55.9679722961 -32.6224568692 -2.0000331440
55.9647837853 -32.6804390991 -2.0000332012
55.9611849561 -32.7385276248 -2.0000332585
56.0593539697 -32.5505689146 -2.0000330731
56.0322520811 -32.6560295782 -2.0000331771
56.1976373292 -32.3227344651 -2.0000328483
55.9558638158 -32.9485746133 -2.0000334658
55.9846912486 -32.9957764981 -2.0000335124
55.9788786384 -33.0546020624 -2.0000335704
55.9659930797 -33.1725151403 -2.0000336868
56.0075943252 -33.1971459644 -2.0000337111
56.0229062179 -33.4968810101 -2.0000340069
56.0277855436 -33.8006991286 -2.0000343067
48.8305148089 -29.3250557173 -2.0000298903
47.5838420173 -32.5188058606 -2.0000330417
47.3163247450 -32.5992769808 -2.0000331211
46.8882797593 -32.5163859124 -2.0000330393
46.5644572947 -32.4505606512 -2.0000329744
47.4681153163 -32.7961027501 -2.0000333154
46.0919723159 -32.4666732796 -2.0000329903
46.8766465931 -33.0171112296 -2.0000335334
41.5557926454 -31.7713702650 -2.0000323042
41.5330761720 -31.8970920404 -2.0000324283
41.5689589869 -31.9736776402 -2.0000325038
41.5452702636 -32.1992203838 -2.0000327264
41.5506073752 -32.5666819821 -2.0000330890
41.5294253100 -33.3537942361 -2.0000338657
41.4433932898 -34.3619423850 -2.0000348605
55.8829086205 -32.8953852921 -2.0000334133
55.8946846722 -32.8721176463 -2.0000333904
55.9139535105 -33.1489796344 -2.0000336636
56.0596784176 -32.8662588868 -2.0000333846
55.9183299007 -33.2421238891 -2.0000337555
55.9005910900 -33.3238477363 -2.0000338361
55.9136345337 -33.3005259078 -2.0000338131
55.9085237285 -33.3590238425 -2.0000338708
55.9216711949 -33.3356783939 -2.0000338478
55.9029961883 -33.4176148174 -2.0000339286
55.9105450642 -33.4529839224 -2.0000339635
55.9046581779 -33.6063046743 -2.0000341148
55.9321521453 -33.6544965694 -2.0000341624
55.9809199129 -33.6199480860 -2.0000341283
55.9256642004 -34.0741828598 -2.0000345765
48.4741607263 -29.1811761627 -2.0000297483
48.4747899442 -29.1791488991 -2.0000297463
48.4844754370 -29.2257476441 -2.0000297923
48.4757261507 -29.3069400038 -2.0000298724
48.4873420762 -29.2823597031 -2.0000298482
48.4777529310 -29.3548515027 -2.0000299197
48.8780589365 -29.4741766953 -2.0000300374
47.9364664311 -32.5827798894 -2.0000331049
47.5998459251 -32.6776441238 -2.0000331985
47.9993105561 -32.7491564050 -2.0000332690
48.0006517330 -32.7732921985 -2.0000332929
46.7820121711 -32.6938010172 -2.0000332144
47.1612596654 -32.7760965195 -2.0000332956
46.8424145805 -32.7345332438 -2.0000332546
46.8020520114 -32.7990920734 -2.0000333183
47.1213924355 -34.2844674425 -2.0000347840
47.1658048816 -34.3141946067 -2.0000348133
42.2085991730 -34.6568891802 -2.0000351515
41.2881771750 -33.7014442613 -2.0000342087
42.3136833383 -34.8904608012 -2.0000353820
42.3857409027 -34.9887885537 -2.0000354790
42.6800319560 -35.2715753832 -2.0000357580
42.0729472777 -34.7608053983 -2.0000352540
42.3534511906 -35.0247707106 -2.0000355145
42.6121622780 -35.2786167317 -2.0000357650
42.0393290060 -34.8294613065 -2.0000353218
42.9072121294 -35.5697486140 -2.0000360523
42.8732732421 -35.5746719661 -2.0000360571
42.9124497713 -35.6036404209 -2.0000360857
42.8392626314 -35.5794521295 -2.0000360618
43.0834011380 -35.7847660678 -2.0000362644
43.0899153822 -35.8185911349 -2.0000362978
41.7642592010 -34.7227779212 -2.0000352165
42.9550356225 -35.7537973719 -2.0000362339
42.8215003222 -35.9850975946 -2.0000364621
56.0737519562 -31.5253823958 -2.0000320615
56.0737585348 -31.6061387941 -2.0000321412
56.0892248585 -31.5570782007 -2.0000320927
56.0809913690 -31.6625792693 -2.0000321969
56.0889277430 -31.6380387677 -2.0000321726
56.1193819479 -32.4608912819 -2.0000329846
56.1332557697 -32.6127481491 -2.0000331344
48.4672032534 -29.2386018462 -2.0000298050
48.4774463676 -29.3110975736 -2.0000298765
48.4838581178 -29.2821585999 -2.0000298480
48.4919065054 -29.2370655801 -2.0000298035
48.4927040163 -29.2317354537 -2.0000297982
48.4930909426 -29.2290686444 -2.0000297956
48.4781375298 -29.3964691844 -2.0000299608
48.4911901564 -29.3541820784 -2.0000299190
48.5185263352 -29.2215424732 -2.0000297881
48.5038899952 -29.4664141469 -2.0000300298
48.5202231081 -29.4228302755 -2.0000299868
48.5366280921 -29.5703794647 -2.0000301324
48.8635441951 -29.3559058689 -2.0000299207
48.8742460204 -29.2954293315 -2.0000298611
48.8715093994 -29.4292777773 -2.0000299931
48.9188886679 -29.3223832937 -2.0000298877
48.9296201337 -29.3940260542 -2.0000299583
48.9540809222 -29.4938698904 -2.0000300569
48.3749940358 -32.6320558058 -2.0000331535
48.2110971174 -32.6889950177 -2.0000332097
48.3005354413 -32.6970424213 -2.0000332176
48.4226444029 -32.6956186446 -2.0000332162
47.8197614767 -32.8075907618 -2.0000333267
48.0939015679 -33.2435474935 -2.0000337569
47.2523137429 -34.2538564256 -2.0000347538
48.0022846120 -34.2728792349 -2.0000347726
47.4642443351 -34.3359735180 -2.0000348348
46.7665802615 -34.2966443727 -2.0000347960
42.0633094291 -34.9403033428 -2.0000354312
48.4660650490 -29.1587179203 -2.0000297262
48.4658293880 -29.1434585038 -2.0000297111
48.4827839935 -29.2925484629 -2.0000298582
48.4899547523 -29.1928823420 -2.0000297599
48.4978789706 -29.3554675648 -2.0000299203
48.4984317768 -29.3523204572 -2.0000299172
48.5034469134 -29.3207647476 -2.0000298861
48.5043378026 -29.3144365764 -2.0000298798
48.5060071857 -29.3017649754 -2.0000298673
48.5139451224 -29.1998625210 -2.0000297668
48.5131235139 -29.1136164908 -2.0000296817
48.5134699611 -29.4013492044 -2.0000299656
48.5244119082 -29.3435808829 -2.0000299086
48.5380028187 -29.2038626341 -2.0000297707
48.5503308698 -29.3342518938 -2.0000298994
48.5601156684 -29.2446743541 -2.0000298110
48.5626529281 -29.1846455027 -2.0000297517
48.5627901809 -29.1679546781 -2.0000297353
48.5624151158 -29.1379131329 -2.0000297056
48.5182864786 -29.5589490401 -2.0000301211
48.5217219363 -29.5493137622 -2.0000301116
48.5283356589 -29.5299536426 -2.0000300925
48.5592483126 -29.4182678417 -2.0000299823
48.5854580025 -29.2259159084 -2.0000297925
48.5319384727 -29.6544790917 -2.0000302154
48.5818083320 -29.5214917229 -2.0000300841
48.5927333231 -29.4839704333 -2.0000300471
48.6116010977 -29.4044795590 -2.0000299687
48.5276186061 -29.7199485527 -2.0000302800
48.5434945068 -29.6873687273 -2.0000302478
48.5491899545 -29.7308578244 -2.0000302907
48.6103538764 -29.7705541802 -2.0000303299
48.6800533520 -29.6091211638 -2.0000301706
48.8758517721 -29.1084800026 -2.0000296766
48.8892068032 -29.3543173410 -2.0000299192
48.8936771309 -29.3155203702 -2.0000298809
48.9215415915 -29.2740250891 -2.0000298399
48.3005479296 -30.4102564292 -2.0000309611
48.9230879688 -29.4490148788 -2.0000300126
48.9709626846 -29.2593183717 -2.0000298254
48.2053279225 -30.6646758130 -2.0000312122
48.4176430109 -30.6810503443 -2.0000312283
48.3390494594 -32.7452481281 -2.0000332652
48.6216579272 -32.6616536773 -2.0000331827
48.6319904882 -32.6581259432 -2.0000331792
48.6834942751 -32.6400296470 -2.0000331614
48.7449370959 -32.6173115401 -2.0000331389
48.5563451735 -32.7085339456 -2.0000332290
47.7083145366 -33.0657998037 -2.0000335815
47.4179397870 -33.4863282012 -2.0000339964
46.4939300710 -33.9015089332 -2.0000344061
46.9314433240 -33.9677292373 -2.0000344715
46.1956456467 -33.8573686707 -2.0000343626
46.7864419846 -33.9747123551 -2.0000344784
46.0921389904 -33.8539549081 -2.0000343592
46.1755349420 -33.8770374321 -2.0000343820
46.4421122325 -33.9403116166 -2.0000344444
45.8916266736 -33.8173107405 -2.0000343230
46.4322732906 -33.9876459208 -2.0000344911
47.7940239502 -34.0775259190 -2.0000345798
45.6696237219 -33.7894701795 -2.0000342956
45.7107148578 -33.8049485934 -2.0000343108
46.3987109825 -34.0052709062 -2.0000345085
45.5515821747 -33.7687909919 -2.0000342752
45.7022941937 -33.8276075365 -2.0000343332
46.3075258318 -34.0096732666 -2.0000345129
47.0041795879 -34.1203921755 -2.0000346221
45.3929870515 -33.7271656186 -2.0000342341
46.1443288081 -33.9938045475 -2.0000344972
47.2823840575 -34.1608940434 -2.0000346621
45.5195384589 -33.8078930858 -2.0000343137
45.7552463096 -33.8982766774 -2.0000344029
47.9194663073 -34.1638779892 -2.0000346650
45.2648591590 -33.7212316753 -2.0000342282
45.3053606556 -33.7403048349 -2.0000342471
45.4552762425 -33.8071471029 -2.0000343130
45.6770322015 -33.8955843655 -2.0000344003
47.9092124421 -34.2134247311 -2.0000347139
46.9637134456 -34.2381088772 -2.0000347383
45.0442912699 -33.6916291182 -2.0000341990
46.0401501593 -34.0904903162 -2.0000345926
44.9660266849 -33.6769901708 -2.0000341846
45.1276439568 -33.7617495333 -2.0000342682
48.4275257037 -34.2113882547 -2.0000347119
48.6708659408 -34.1822160239 -2.0000346831
44.8092579492 -33.6437167437 -2.0000341517
45.0104200534 -33.7557521112 -2.0000342623
47.2151383184 -34.3519587104 -2.0000348506
47.7368592975 -34.3477603548 -2.0000348465
47.7521835384 -34.3468426376 -2.0000348456
48.0148524130 -34.3483370686 -2.0000348470
45.2518801704 -33.9286188869 -2.0000344329
47.1511900296 -34.3972779960 -2.0000348953
46.4550073787 -34.3371809250 -2.0000348360
47.0877309798 -34.4176825995 -2.0000349155
44.5738401304 -33.6125078775 -2.0000341210
44.7199851859 -33.7032173030 -2.0000342105
44.8553422492 -33.7815151736 -2.0000342877
44.9376473370 -33.8265599977 -2.0000343322
45.9940485075 -34.2533002254 -2.0000347533
44.8025129277 -33.7794424208 -2.0000342857
45.5844048965 -34.1448327386 -2.0000346462
46.5035997643 -34.4198132410 -2.0000349176
44.3235852612 -33.5601600523 -2.0000340693
46.4168729622 -34.4529480236 -2.0000349503
44.8151577185 -33.9526552170 -2.0000344566
45.0485082654 -34.1000251445 -2.0000346020
44.7374119430 -33.9925269531 -2.0000344959
44.6902398206 -34.0769316649 -2.0000345792
45.0303928712 -34.2521280664 -2.0000347521
44.6343928840 -34.2118434134 -2.0000347123
48.4927490089 -29.2519257592 -2.0000298181
48.4915057585 -29.2235309623 -2.0000297901
48.4854619809 -29.1527421968 -2.0000297203
48.4818737633 -29.1245476077 -2.0000296924
48.5174390417 -29.3055122799 -2.0000298710
48.5175078366 -29.2982639342 -2.0000298639
48.4936967518 -29.0497564187 -2.0000296186
48.5416803488 -29.2984218470 -2.0000298640
48.5241173560 -29.0813527243 -2.0000296498
48.5159270552 -29.0377677232 -2.0000296068
48.5361322100 -29.5639114375 -2.0000301260
48.5657999250 -29.2759759707 -2.0000298419
48.5656230130 -29.2646753186 -2.0000298307
48.5615785653 -29.1856769854 -2.0000297528
48.5681416961 -29.5277241184 -2.0000300903
48.5900348364 -29.2833823001 -2.0000298492
48.5815181588 -29.1416708283 -2.0000297093
48.5674387593 -29.6388369240 -2.0000301999
48.6096265295 -29.4004374178 -2.0000299647
48.6068237025 -29.1505627626 -2.0000297181
48.6194481508 -29.0651847285 -2.0000296339
48.5810312197 -29.7558894636 -2.0000303154
48.6259269432 -29.6975823275 -2.0000302579
48.6608828364 -29.5575730533 -2.0000301197
48.9810101832 -32.5449258323 -2.0000330675
47.9422910101 -33.3402203148 -2.0000338523
46.4971192773 -33.7078044404 -2.0000342150
46.1023513524 -33.6432575183 -2.0000341513
46.2446030065 -33.6796686709 -2.0000341872
46.2966138743 -33.6917587337 -2.0000341992
46.4403406425 -33.7218240165 -2.0000342288
46.4534537375 -33.7243250040 -2.0000342313
46.5586131210 -33.7429342703 -2.0000342497
46.7171041848 -33.7661697460 -2.0000342726
46.3699748271 -33.7324060203 -2.0000342393
46.4357767723 -33.7455623056 -2.0000342522
45.9599985663 -33.6523934018 -2.0000341603
46.1417453291 -33.7038157753 -2.0000342111
46.2071493782 -33.7203507904 -2.0000342274
46.4444664814 -33.7718283760 -2.0000342782
46.4709957827 -33.7767662642 -2.0000342830
46.5907199887 -33.7970409913 -2.0000343030
46.6440954300 -33.8050274204 -2.0000343109
46.8315750748 -33.8279954215 -2.0000343336
47.2355637714 -33.8509755227 -2.0000343563
45.8753180621 -33.6510493579 -2.0000341590
46.0049194295 -33.6910535768 -2.0000341985
46.1750682837 -33.7372973097 -2.0000342441
46.6272363788 -33.8270074008 -2.0000343326
45.6365523188 -33.5920111913 -2.0000341007
45.6747931480 -33.6065360090 -2.0000341151
45.7003579948 -33.6160304359 -2.0000341244
45.7131613710 -33.6207208888 -2.0000341291
45.7516539659 -33.6345647136 -2.0000341427
45.4880616480 -33.5581290462 -2.0000340673
45.6023139582 -33.6046474751 -2.0000341132
45.4027924795 -33.5475286342 -2.0000340568
45.5806753350 -33.6221107920 -2.0000341304
46.7943993824 -33.9213279245 -2.0000344257
46.8355171185 -33.9255645310 -2.0000344299
47.8256626185 -33.9173874500 -2.0000344218
45.2922541328 -33.5234798825 -2.0000340331
45.5460604761 -33.6343368321 -2.0000341425
46.1112552895 -33.8207719189 -2.0000343265
46.8745135606 -33.9535126488 -2.0000344574
45.1693677151 -33.4903099176 -2.0000340004
45.6018186444 -33.6822494114 -2.0000341898
45.7719270407 -33.7439976411 -2.0000342507
46.5821679420 -33.9424740296 -2.0000344465
46.8030748206 -33.9708647381 -2.0000344746
45.4504105241 -33.6471894604 -2.0000341552
45.2612744933 -33.5890487736 -2.0000340978
45.4280513948 -33.6639587886 -2.0000341717
45.5320694435 -33.7068493334 -2.0000342140
45.8632105248 -33.8248387955 -2.0000343305
45.9844298390 -33.8612760467 -2.0000343664
45.3796351139 -33.6693941835 -2.0000341771
45.7886923519 -33.8261504942 -2.0000343318
45.8155545183 -33.8349672116 -2.0000343405
45.8964474025 -33.8604616777 -2.0000343656
48.2165178859 -33.9786679794 -2.0000344823
45.1384381249 -33.5829949541 -2.0000340918
46.2326087227 -33.9746856168 -2.0000344783
46.1855360189 -33.9886255799 -2.0000344921
48.3933584117 -33.9899862150 -2.0000344934
45.4696404594 -33.7859652125 -2.0000342921
46.2219411975 -34.0218400974 -2.0000345249
46.4894323838 -34.0744992164 -2.0000345768
46.1183786505 -34.0221239011 -2.0000345251
46.2447593683 -34.0516985281 -2.0000345543
48.5163993520 -34.0094140538 -2.0000345126
45.9584712427 -34.0046847888 -2.0000345079
48.4521897833 -34.0504880527 -2.0000345531
45.5236678770 -33.8852854068 -2.0000343901
46.3627548498 -34.1253749319 -2.0000346270
45.0733930463 -33.7126298565 -2.0000342197
46.3438217011 -34.1463285704 -2.0000346477
46.0546468374 -34.1556569007 -2.0000346569
45.5640914938 -34.0295029862 -2.0000345324
47.3190794795 -34.3347186582 -2.0000348336
45.5699041498 -34.0573292468 -2.0000345599
46.3648372019 -34.2733793163 -2.0000347731
48.3020227768 -34.2573811388 -2.0000347573
45.4910359667 -34.0539428026 -2.0000345565
45.7327738125 -34.1384684249 -2.0000346399
48.2477134190 -34.2927243051 -2.0000347922
47.5615344691 -34.4002230475 -2.0000348982
49.1276343689 -34.1186145680 -2.0000346204
45.7764063154 -34.2534795322 -2.0000347534
49.2220282690 -34.1077207221 -2.0000346096
45.6291401775 -34.4606326454 -2.0000349578
48.5292524147 -29.2388865563 -2.0000298053
48.4871368901 -29.0449648145 -2.0000296139
48.4788418987 -29.0178311941 -2.0000295871
48.5670775751 -29.4245696079 -2.0000299885
48.5647076207 -29.3503680271 -2.0000299153
48.5126323566 -29.0460582473 -2.0000296150
48.2479556827 -30.3572612736 -2.0000309088
48.5912663175 -29.4286377488 -2.0000299925
48.6117458453 -29.5351906496 -2.0000300976
48.5914060324 -29.1697044112 -2.0000297370
48.6284196488 -29.2510695525 -2.0000298173
48.5670223252 -28.9762153279 -2.0000295461
48.5927151015 -28.9770984681 -2.0000295469
48.6767186684 -29.6162162728 -2.0000301776
48.6666278472 -29.1785900411 -2.0000297458
48.6295837957 -29.9293113076 -2.0000304865
48.6067740473 -28.8722400991 -2.0000294435
48.6634476975 -28.8854119811 -2.0000294565
48.6498981185 -30.0771675864 -2.0000306324
49.5691724298 -32.2070957465 -2.0000327342
49.0689080548 -32.7663835511 -2.0000332860
46.3800427390 -33.5549365241 -2.0000340641
46.5023368272 -33.5765773858 -2.0000340855
46.5146002683 -33.5785422926 -2.0000340874
46.5514247153 -33.5842192292 -2.0000340930
46.5637105475 -33.5860388917 -2.0000340948
46.6745099323 -33.6007782226 -2.0000341094
46.7980310724 -33.6136894137 -2.0000341221
46.8227781055 -33.6158328651 -2.0000341242
46.1195810822 -33.5211833400 -2.0000340308
46.1437926923 -33.5273423484 -2.0000340369
46.1923231088 -33.5392300993 -2.0000340486
46.2897889196 -33.5612788172 -2.0000340704
46.3632157582 -33.5762983819 -2.0000340852
46.4246005695 -33.5878175726 -2.0000340966
46.8830392094 -33.6446667158 -2.0000341527
46.9828065851 -33.6503413067 -2.0000341583
46.9952861309 -33.6508845743 -2.0000341588
47.0327336463 -33.6522928447 -2.0000341602
46.0770968692 -33.5350312870 -2.0000340445
46.1622890544 -33.5568368946 -2.0000340660
46.1867108554 -33.5627426044 -2.0000340718
46.3462554971 -33.5975965570 -2.0000341062
46.7937167587 -33.6618425841 -2.0000341696
47.0444889932 -33.6768504208 -2.0000341844
47.2454719970 -33.6781624275 -2.0000341857
46.0952932561 -33.5648326619 -2.0000340739
47.0185043882 -33.7001748875 -2.0000342075
47.3847808186 -33.6976900383 -2.0000342050
46.2002210746 -33.6155943182 -2.0000341240
46.2870549868 -33.6348332669 -2.0000341430
46.7514524306 -33.7064257839 -2.0000342136
46.8273826464 -33.7132287996 -2.0000342203
47.4494066385 -33.7182094201 -2.0000342253
46.0583883304 -33.6050956012 -2.0000341136
46.1202324068 -33.6211201574 -2.0000341295
46.5461791723 -33.7056258179 -2.0000342128
46.5681098295 -33.7331954117 -2.0000342400
47.1957368800 -33.7754170488 -2.0000342817
47.6700533754 -33.7469089543 -2.0000342536
47.6955733182 -33.7438908974 -2.0000342506
47.7210749585 -33.7407219088 -2.0000342475
46.1084522641 -33.6680090619 -2.0000341757
47.1183441092 -33.7993130111 -2.0000343053
47.5571388151 -33.7826989272 -2.0000342889
47.5828724796 -33.7803482844 -2.0000342866
47.6214457745 -33.7765369575 -2.0000342828
47.7369414675 -33.7630513148 -2.0000342695
47.8009381636 -33.7542321435 -2.0000342608
46.9492433494 -33.8181360743 -2.0000343239
47.2089849731 -33.8236742883 -2.0000343293
45.8952375803 -33.6591913147 -2.0000341670
45.9830395888 -33.6847358489 -2.0000341922
46.3389689317 -33.7685813233 -2.0000342750
46.5580156983 -33.8050085446 -2.0000343109
46.9088832691 -33.8401101984 -2.0000343455
47.2091847142 -33.8478464911 -2.0000343532
47.4311158233 -33.8404295361 -2.0000343459
47.7043032698 -33.8158826017 -2.0000343216
47.7172693599 -33.8142908273 -2.0000343201
47.9497343526 -33.7790963171 -2.0000342853
45.8882448710 -33.6823308328 -2.0000341899
46.4248695619 -33.8087423037 -2.0000343146
46.6980307964 -33.8467262125 -2.0000343521
47.1043080222 -33.8716436040 -2.0000343767
47.8633167280 -33.8181324128 -2.0000343239
45.8938996089 -33.7092719745 -2.0000342164
45.9827388652 -33.7348334757 -2.0000342417
46.1362005750 -33.7743551499 -2.0000342807
46.9443237846 -33.9147029547 -2.0000344191
47.0637374930 -33.9191936880 -2.0000344236
47.5413177558 -33.9053541409 -2.0000344099
47.6338638660 -33.8967624667 -2.0000344014
47.7393864104 -33.8845994987 -2.0000343894
48.0277599060 -33.8383191703 -2.0000343438
46.5842396200 -33.9061577887 -2.0000344107
47.6628968596 -33.9179858835 -2.0000344224
46.2898060534 -33.8821272951 -2.0000343870
47.4649798556 -33.9594375344 -2.0000344633
46.3381009957 -33.9160274073 -2.0000344205
47.5875988388 -33.9741250839 -2.0000344778
47.0478308420 -34.0155079913 -2.0000345186
48.3763787668 -33.8563974697 -2.0000343616
46.0363319559 -33.8991115622 -2.0000344038
46.2623228141 -33.9505867045 -2.0000344546
46.9245575324 -34.0346976582 -2.0000345375
47.0602167521 -34.0641891173 -2.0000345667
47.0876245040 -34.0647735058 -2.0000345672
47.5805436284 -34.0475701862 -2.0000345503
45.9977269235 -33.9390927893 -2.0000344432
46.6473833513 -34.0600098555 -2.0000345625
46.2073053977 -34.0132904445 -2.0000345164
47.5019608566 -34.1023080953 -2.0000346043
46.1750934394 -34.0311223642 -2.0000345340
47.2117813492 -34.1620851268 -2.0000346632
47.6308537232 -34.1400065035 -2.0000346415
48.2789066403 -34.0310801165 -2.0000345340
45.8174343318 -34.0143824646 -2.0000345175
45.9199435368 -34.0685054497 -2.0000345709
46.0324510107 -34.1472028136 -2.0000346486
47.7709266277 -34.2460842142 -2.0000347461
46.5083708482 -34.2618113770 -2.0000347617
46.6921839779 -34.3078381233 -2.0000348071
46.1668040903 -34.2764765586 -2.0000347761
46.3682426556 -34.3139692382 -2.0000348131
46.4806273593 -34.3555758968 -2.0000348542
48.1054158111 -34.3157068189 -2.0000348148
47.5388025089 -34.4147181680 -2.0000349125
47.0950003172 -34.4758976217 -2.0000349729
47.7799628510 -34.4398107054 -2.0000349373
46.5085881607 -34.4813568666 -2.0000349783
47.1695809408 -34.5248410814 -2.0000350212
48.5676931902 -34.3300642544 -2.0000348290
46.8655606595 -34.5640058439 -2.0000350598
47.0022870622 -34.5703631868 -2.0000350661
45.7077433596 -34.3852702142 -2.0000348835
48.2054604236 -30.2916955818 -2.0000308441
48.3396433681 -30.2517508440 -2.0000308047
