48.3279786760 -22.8121332407 -3.0489998850
48.6021162947 -22.4828510086 -3.0489995601
48.9898953378 -21.5804012043 -3.0489986696
47.8294150979 -23.2274565868 -3.0490002948
47.8484164987 -23.2163125135 -3.0490002838
48.0974957984 -23.0475470829 -3.0490001173
47.3266782569 -23.4996375050 -3.0490005634
48.2982733239 -22.9742039326 -3.0490000449
47.4422932786 -23.5123655843 -3.0490005760
48.7356062304 -22.5012575693 -3.0489995782
47.1470254807 -23.6220436216 -3.0490006842
48.4843541428 -22.8588395267 -3.0489999311
48.3282663113 -23.2659144228 -3.0490003328
49.1287142560 -22.8263197811 -3.0489998990
45.7239314377 -26.2967460078 -3.0490033235
45.7665365701 -26.3280515377 -3.0490033543
45.0704611652 -26.1964180039 -3.0490032245
45.0332301071 -26.2105184622 -3.0490032384
45.1703354834 -26.2499613080 -3.0490032773
44.7841827509 -26.1542230138 -3.0490031828
44.5370089305 -26.0857996136 -3.0490031153
44.4833269945 -26.0897370887 -3.0490031192
44.7075819458 -26.1779529508 -3.0490032062
44.7831761401 -26.2051363856 -3.0490032331
45.0430422620 -26.2891410768 -3.0490033159
45.1047777295 -26.3070002150 -3.0490033336
44.3850179908 -26.0738032609 -3.0490031035
44.4145968148 -26.0867210041 -3.0490031162
44.2359603266 -26.1656885184 -3.0490031941
44.5142861374 -26.3631060984 -3.0490033889
48.5079325515 -20.7837360186 -3.0506970927
48.6085742738 -21.3266863447 -3.0506976284
48.6081423494 -21.3065934586 -3.0506976086
48.6018087581 -21.1861886063 -3.0506974898
48.6102660355 -21.0429776124 -3.0506973485
48.5664493398 -20.8170808969 -3.0506971256
48.5024362405 -20.6031062889 -3.0506969144
48.6632058446 -21.6565472477 -3.0506979539
48.6680095248 -21.6153445321 -3.0506979133
48.6800072931 -21.2839816861 -3.0506975863
48.5658229168 -20.6393722636 -3.0506969502
48.5087307304 -20.4836113312 -3.0506967965
48.6785270653 -21.7218249204 -3.0506980183
48.7054876870 -21.3879020463 -3.0506976888
48.6900864101 -21.0951157928 -3.0506973999
48.7246106637 -21.5220986191 -3.0506978213
48.7283240692 -21.2822993456 -3.0506975846
48.7205271583 -21.1555325930 -3.0506974596
48.3192435162 -22.7458875758 -3.0506990288
48.7294537626 -21.7079706138 -3.0506980047
48.7759574784 -21.4677632776 -3.0506977676
48.8021353785 -21.3379292443 -3.0506976395
47.8641470585 -23.3277673118 -3.0506996030
48.7148323439 -20.6293032499 -3.0506969403
48.7518292492 -22.0621008751 -3.0506983541
48.7618717144 -22.0264159641 -3.0506983189
48.6807915375 -22.3370520321 -3.0506986254
48.8457985319 -21.7473726263 -3.0506980436
48.8740562545 -21.4269442316 -3.0506977274
48.7253415571 -20.5085045776 -3.0506968211
48.7519803214 -22.2194017077 -3.0506985093
48.9034951051 -21.0474976833 -3.0506973529
48.8391266211 -20.5418884287 -3.0506968540
49.0923458959 -21.3753441900 -3.0506976765
48.5113694467 -23.2082652630 -3.0506994851
49.0391388953 -22.2766218662 -3.0506985658
48.5187495088 -23.2368231313 -3.0506995133
49.1371880957 -22.1201757671 -3.0506984114
49.1562932494 -22.0455593844 -3.0506983378
45.3119100535 -26.0558431826 -3.0507022950
45.2371035719 -26.0635896237 -3.0507023026
45.3206638797 -26.0824998258 -3.0507023213
45.3905449133 -26.0971234107 -3.0507023357
45.7427724696 -26.1546577851 -3.0507023925
46.1553462887 -26.1885828976 -3.0507024259
46.1981575734 -26.1900695789 -3.0507024274
45.2455318045 -26.0903891226 -3.0507023290
45.2595142519 -26.0936187224 -3.0507023322
45.6402258273 -26.1650935512 -3.0507024028
46.3122083236 -26.2163486364 -3.0507024533
45.4473590598 -26.1820054313 -3.0507024194
46.4133414636 -26.2643137991 -3.0507025007
45.2717100690 -26.1707312932 -3.0507024083
46.3408422233 -26.3131455270 -3.0507025488
46.5310738581 -26.3096192003 -3.0507025454
46.7064335162 -26.2998745868 -3.0507025358
45.8562443423 -26.3133105379 -3.0507025490
44.9071522996 -26.2764060810 -3.0507025126
44.8652003459 -26.3648530242 -3.0507025999
48.1977345309 -22.9373931304 -3.0496716337
48.4271734809 -22.4461363569 -3.0496711490
48.6703566143 -21.3322465335 -3.0496700498
48.7195237360 -21.6526029177 -3.0496703660
48.7189161152 -21.6223800115 -3.0496703361
48.6341041236 -21.0327798962 -3.0496697543
48.6220713214 -20.9890624337 -3.0496697112
48.5813452346 -20.8592874606 -3.0496695832
48.7437543199 -21.7209172192 -3.0496704334
48.6256360822 -20.9166659043 -3.0496696398
48.5517832211 -20.6498501457 -3.0496693765
48.5147221829 -20.5134823814 -3.0496692419
48.6145109436 -20.6738663241 -3.0496694002
48.6114977456 -20.6666248858 -3.0496693930
48.5502105830 -20.5308089195 -3.0496692590
48.5328219357 -20.4956584884 -3.0496692243
48.6705012353 -22.6277344453 -3.0496713282
48.7736724925 -21.0939475194 -3.0496698147
48.9358153362 -21.7807126596 -3.0496704924
48.9778017418 -21.2629853213 -3.0496699815
48.9463381855 -20.9849390098 -3.0496697071
48.9014290541 -20.7493963151 -3.0496694747
49.1037323453 -21.5601419697 -3.0496702747
49.1548762941 -21.6994960149 -3.0496704122
48.9155726773 -23.0893138552 -3.0496717836
45.6906538468 -25.9820468261 -3.0496746381
45.7287723162 -25.9860879730 -3.0496746420
45.7263305723 -26.0101373632 -3.0496746658
45.9954513037 -26.0290398313 -3.0496746844
45.7624687017 -26.0379309053 -3.0496746932
46.0849113567 -26.0557904633 -3.0496747108
46.0584897819 -26.0794056774 -3.0496747341
46.3713400069 -26.1000523630 -3.0496747545
46.4235210612 -26.0973029092 -3.0496747518
46.3987065290 -26.1228943588 -3.0496747770
46.6604797114 -26.1013217289 -3.0496747558
46.3358438879 -26.1983320109 -3.0496748515
46.5416648312 -26.2585922791 -3.0496749109
46.9939111734 -26.2476971978 -3.0496749002
46.6162364062 -26.3247005714 -3.0496749762
47.3345562857 -26.1973941632 -3.0496748506
47.5007275438 -26.1762164606 -3.0496748297
48.0221807820 -23.3772341437 -3.0501880056
48.0055280944 -23.4434252288 -3.0501880709
48.0926614788 -23.3130716265 -3.0501879422
48.1245156573 -23.3074557240 -3.0501879367
48.3766569737 -22.7437677650 -3.0501873805
47.9005530675 -23.6540274358 -3.0501882787
48.2240961661 -23.2813702509 -3.0501879110
48.3349106069 -23.1207303372 -3.0501877524
47.7540875071 -24.0048392910 -3.0501886248
48.6567565947 -21.7388617350 -3.0501863889
48.6589516828 -22.8122223889 -3.0501874480
48.8097151060 -21.8120129878 -3.0501864611
48.7902406701 -21.6409271694 -3.0501862922
48.7174680230 -21.2961232156 -3.0501859520
48.8405820616 -21.9173469210 -3.0501865650
48.8338063551 -21.8100262821 -3.0501864591
48.7904353255 -21.4988492404 -3.0501861521
48.8630724872 -21.8829538360 -3.0501865311
48.7811870326 -21.3476631328 -3.0501860029
48.7090780002 -21.1080434225 -3.0501857664
48.7035184857 -21.0923089730 -3.0501857509
48.6436596091 -23.2014360035 -3.0501878321
48.8486653074 -21.5474047896 -3.0501862000
48.7147911934 -21.0525506731 -3.0501857117
48.6780701382 -20.9584846546 -3.0501856188
48.9153616202 -21.9905142560 -3.0501866372
48.9014448842 -21.7533568080 -3.0501864032
48.8097262397 -21.1816027491 -3.0501858390
48.6713702064 -20.8224889041 -3.0501854846
48.9067036393 -22.6158549804 -3.0501872543
48.9620362884 -21.9292973187 -3.0501865768
48.9620663468 -22.4318676752 -3.0501870727
48.7115549234 -20.7942577150 -3.0501854568
48.9798566044 -22.4785178093 -3.0501871187
48.9993541733 -21.7611641853 -3.0501864109
48.9452238340 -21.3061377595 -3.0501859619
48.8703780964 -20.9854673243 -3.0501856455
49.0736808588 -22.3018369213 -3.0501869444
48.9373681098 -21.1043091294 -3.0501857627
48.7876239709 -20.7289377796 -3.0501853923
49.0818533394 -22.4479753900 -3.0501870886
49.0935245091 -22.3490169711 -3.0501869910
49.0944257304 -22.3400029428 -3.0501869821
49.0992727475 -22.2858663776 -3.0501869286
49.0573160051 -22.7206929972 -3.0501873577
48.6248333631 -20.3426639922 -3.0501850112
48.9156474498 -23.2424604953 -3.0501878726
48.9669713796 -20.5463701986 -3.0501852122
48.6515190768 -20.0465371451 -3.0501847190
48.8641956618 -20.3137822684 -3.0501849827
46.2539712328 -25.9669675056 -3.0501905610
46.2772017135 -25.9656732529 -3.0501905597
46.2786177851 -25.9898047681 -3.0501905835
46.2903014315 -25.9891018129 -3.0501905828
46.4070038532 -25.9801726661 -3.0501905740
46.4768805541 -25.9731595778 -3.0501905671
46.3974753130 -26.0052999607 -3.0501905988
46.4092042770 -26.0042453356 -3.0501905978
46.4209300698 -26.0031560188 -3.0501905967
46.4443717318 -26.0008733482 -3.0501905944
46.4677994785 -25.9984520288 -3.0501905921
46.4795078774 -25.9971894021 -3.0501905908
46.5613549191 -25.9873820311 -3.0501905811
46.4821352006 -26.0212192264 -3.0501906145
46.5762253734 -26.0098036235 -3.0501906033
46.5879668778 -26.0082202037 -3.0501906017
46.6114355778 -26.0049491986 -3.0501905985
46.3185527388 -26.0599462253 -3.0501906527
46.6266410729 -26.0271830818 -3.0501906204
46.6973175278 -26.0162644282 -3.0501906096
46.7090776147 -26.0143227676 -3.0501906077
46.7443226925 -26.0082891757 -3.0501906018
46.5707278704 -26.0592928462 -3.0501906521
46.8074772409 -26.0212824892 -3.0501906146
46.8427802075 -26.0143753817 -3.0501906078
46.8120134344 -26.0450260826 -3.0501906380
46.4322881971 -26.1234862934 -3.0501907154
46.4952718168 -26.1413683478 -3.0501907331
47.0475249306 -26.0426190769 -3.0501906356
47.1246871950 -26.0475715958 -3.0501906405
47.1547954585 -26.0644304582 -3.0501906572
46.3547420005 -26.2270237786 -3.0501908176
46.4166381386 -26.2220116216 -3.0501908126
46.4413746990 -26.2197505131 -3.0501908104
46.5057811098 -26.2374876449 -3.0501908279
46.5306076713 -26.2346988658 -3.0501908252
46.6206276638 -26.2477338803 -3.0501908380
47.3903640239 -26.0685524235 -3.0501906612
46.9102627317 -26.2226618460 -3.0501908133
46.8403554930 -26.2610842878 -3.0501908512
47.2845489956 -26.1528235174 -3.0501907444
46.4400102099 -26.3412627088 -3.0501909303
46.3012749306 -26.3759090105 -3.0501909645
46.4933640271 -26.3603542320 -3.0501909492
46.6497573987 -26.3657260756 -3.0501909545
46.8410517834 -26.3347232591 -3.0501909239
47.0615268037 -26.3128886103 -3.0501909023
47.9050015344 -26.0459173386 -3.0501906389
46.8154595382 -26.4130266780 -3.0501910011
47.4888686886 -26.2393721931 -3.0501908298
48.3790569471 -25.8466102588 -3.0501904422
48.3018214022 -22.7864471686 -3.0499475735
48.3885224172 -22.8518022766 -3.0499476380
48.4248101581 -22.5590334778 -3.0499473491
48.3324017345 -23.3780071388 -3.0499481572
48.6228821135 -22.3847302008 -3.0499471771
48.9120580618 -22.3305451835 -3.0499471236
48.9853391645 -22.4436228179 -3.0499472352
49.1205443551 -21.9427721462 -3.0499467410
49.1353967181 -21.6413951246 -3.0499464436
46.8163159220 -25.9554548435 -3.0499507005
46.8217615444 -25.9790064990 -3.0499507238
46.8745085799 -25.9663986548 -3.0499507113
46.9060652606 -25.9584599551 -3.0499507035
46.9437592233 -25.9736035384 -3.0499507184
46.9648462683 -25.9679323488 -3.0499507128
46.9753771163 -25.9650499943 -3.0499507100
47.0029668326 -25.9824595220 -3.0499507272
47.0452076442 -25.9702912921 -3.0499507152
47.1471468079 -25.9640896089 -3.0499507091
47.0764368704 -26.0366756566 -3.0499507807
47.2681061387 -25.9740140378 -3.0499507188
47.2786536506 -25.9702345592 -3.0499507151
46.9260746316 -26.1279426144 -3.0499508707
46.9700422497 -26.1166740240 -3.0499508596
47.0466536446 -26.0957050389 -3.0499508389
47.2843472076 -26.0195504937 -3.0499507638
47.2066952358 -26.1480772247 -3.0499508906
47.2363894138 -26.1638013747 -3.0499509061
47.6601284867 -26.0228783568 -3.0499507671
47.2857352833 -26.2747723344 -3.0499510156
47.3995821413 -26.2349252745 -3.0499509763
47.6985626678 -26.1647720366 -3.0499509071
48.8674714413 -25.5023858782 -3.0499502535
48.3218185596 -23.2700613624 -3.0500381729
48.3641034885 -23.1781029009 -3.0500380822
48.3883874118 -22.3733981135 -3.0500372881
48.3571462138 -22.2197482652 -3.0500371365
48.4392059597 -22.9648235305 -3.0500378717
48.4465000576 -22.7706187154 -3.0500376801
48.4304852845 -22.4976413781 -3.0500374107
48.4168688088 -22.3977760141 -3.0500373122
48.3738463362 -22.1861837315 -3.0500371034
48.3940762306 -23.5579362169 -3.0500384570
48.5099297096 -22.5631036800 -3.0500374753
48.3554402537 -21.8858002306 -3.0500368070
48.5210000538 -22.4419939079 -3.0500373558
48.3986520773 -21.9334344558 -3.0500368540
48.2858622455 -23.9422519855 -3.0500388362
48.4254921825 -23.6159661703 -3.0500385143
48.5669438079 -22.8232277832 -3.0500377320
48.5115309173 -22.2452231755 -3.0500371617
48.2678692554 -24.0273166891 -3.0500389202
48.7732479652 -23.2228139133 -3.0500381263
48.7698749745 -22.1817726083 -3.0500370991
48.9266222168 -22.9161163925 -3.0500378237
48.9540788614 -22.7955074116 -3.0500377047
48.9737240134 -22.6115176170 -3.0500375231
49.0024239023 -22.7958207015 -3.0500377050
48.9153598738 -22.0599295014 -3.0500369788
48.9655459337 -23.3803156364 -3.0500382817
48.9511872522 -22.1061842368 -3.0500370245
48.9193653234 -21.8923893728 -3.0500368135
49.0936750449 -22.9606864720 -3.0500378677
49.0693707934 -21.6556005501 -3.0500365799
47.4268077967 -25.9223252960 -3.0500407901
47.4361076886 -25.9181282407 -3.0500407859
47.4834178910 -25.9229643104 -3.0500407907
47.5020080083 -25.9142077718 -3.0500407821
47.5030201720 -25.9404682576 -3.0500408080
47.5217135054 -25.9315954390 -3.0500407992
47.5310404048 -25.9271175949 -3.0500407948
47.5589410545 -25.9135187940 -3.0500407814
47.5882893088 -25.9259341958 -3.0500407936
47.5975991699 -25.9212594332 -3.0500407890
47.6365155966 -25.9285593011 -3.0500407962
47.6458330122 -25.9237418649 -3.0500407915
47.6551361362 -25.9188968872 -3.0500407867
47.7244604610 -25.9367709309 -3.0500408043
47.7617350554 -25.9162949275 -3.0500407841
47.8014811773 -25.9216616065 -3.0500407894
47.8414593625 -25.9265684673 -3.0500407943
47.8507699921 -25.9211447791 -3.0500407889
47.8693429151 -25.9102148940 -3.0500407781
47.9314268764 -25.9293257866 -3.0500407970
48.0092902027 -25.9093053529 -3.0500407772
48.0409024234 -25.9177456384 -3.0500407855
48.3528320113 -25.8157843416 -3.0500406849
48.5947780999 -25.9323262683 -3.0500407999
47.9063397393 -19.1107275395 -3.0500340687
47.9500811329 -19.1062998849 -3.0500340643
47.9831720879 -19.0965163545 -3.0500340547
48.0599612290 -19.1109646137 -3.0500340689
48.0273515165 -19.0929403479 -3.0500340511
48.0055233985 -19.0810852522 -3.0500340394
48.1152259416 -19.1144824465 -3.0500340724
48.1043839910 -19.1082787130 -3.0500340663
48.1706923661 -19.1187978380 -3.0500340767
48.1490147210 -19.1060942371 -3.0500340641
48.2605713158 -19.1164787024 -3.0500340744
48.2497346345 -19.1098450023 -3.0500340678
48.5345536636 -19.1219306023 -3.0500340797
48.4372409297 -22.8171554089 -3.0500377260
48.4955077886 -23.3794093897 -3.0500382808
48.7655686175 -22.7236732963 -3.0500376338
48.7521286850 -22.6449517787 -3.0500375561
48.5938025319 -21.8774451639 -3.0500367988
48.9035461723 -23.4287758887 -3.0500383295
48.9075309498 -23.3872475636 -3.0500382886
48.9179341165 -23.1956573704 -3.0500380995
48.7273739245 -22.1179660277 -3.0500370361
48.8921096770 -23.6726404943 -3.0500385702
48.9502324742 -23.6227600830 -3.0500385210
48.9860500527 -23.3082900285 -3.0500382107
48.9782838269 -23.6012617459 -3.0500384997
48.9848115618 -23.5586091549 -3.0500384577
48.9978989217 -23.4558858648 -3.0500383563
47.9705305312 -25.8018789457 -3.0500406712
48.5129500499 -25.7677262174 -3.0500406375
47.2561567063 -19.0276709030 -3.0500339867
47.4160816949 -19.0253285101 -3.0500339844
47.5532753027 -19.0205335401 -3.0500339797
47.4568905761 -18.8100339862 -3.0500337720
47.5305528179 -18.7574898537 -3.0500337201
48.4360756891 -18.9710922171 -3.0500339309
48.4320213077 -22.5802189980 -3.0500374922
48.6004675701 -23.0859156245 -3.0500379912
48.2169702740 -22.0877941088 -3.0500370063
48.6034873784 -22.8667710578 -3.0500377750
48.7049434484 -23.4939994263 -3.0500383939
48.7462788905 -24.0047625983 -3.0500388979
48.7418237058 -24.1285403795 -3.0500390200
48.7923803643 -23.8898041627 -3.0500387845
48.8250544067 -23.5406753903 -3.0500384400
48.8258748905 -23.4796518838 -3.0500383797
48.8373140444 -23.2183004929 -3.0500381219
48.6951147759 -24.4289323002 -3.0500393165
48.7143316218 -24.3780376344 -3.0500392662
48.7374833767 -24.3120360714 -3.0500392011
48.7235407927 -22.5285769086 -3.0500374413
48.7883090778 -24.3124094407 -3.0500392015
48.8710361711 -22.9528948585 -3.0500378600
48.9154196977 -23.8855571027 -3.0500387803
48.9343103591 -23.2166952528 -3.0500381203
48.9700644214 -23.4073720648 -3.0500383084
48.8975398674 -24.2879471022 -3.0500391773
48.6622526673 -22.1146148604 -3.0500370328
48.9663725903 -24.1274649066 -3.0500390190
48.5903017501 -25.0454542342 -3.0500399248
48.8901673542 -24.4601268626 -3.0500393472
48.9486065457 -24.2861461706 -3.0500391756
49.1242293778 -23.1726115312 -3.0500380768
49.1642236926 -23.4543077828 -3.0500383547
48.8825441261 -24.7817018271 -3.0500396646
49.0852201309 -22.6155141900 -3.0500375271
46.6366841859 -19.0281585839 -3.0500339872
46.6235264549 -19.0270252802 -3.0500339861
46.6103654289 -19.0259309043 -3.0500339850
46.7312945508 -19.0131489050 -3.0500339724
46.6123329365 -19.0018380798 -3.0500339612
46.5990974512 -19.0007769266 -3.0500339602
46.6143004441 -18.9777452552 -3.0500339375
46.9758709449 -18.9975306582 -3.0500339570
46.9626211268 -18.9953941127 -3.0500339549
46.8829947716 -18.9833987690 -3.0500339431
47.0063759284 -18.9780856448 -3.0500339378
47.1038529345 -18.9710261800 -3.0500339308
47.0681509078 -18.9398130976 -3.0500339000
47.3923534329 -18.9358184333 -3.0500338961
47.4790726035 -18.9335315578 -3.0500338938
47.5930841983 -18.9407846794 -3.0500339010
47.0524374809 -18.7897626322 -3.0500337520
47.0147060238 -18.7589402878 -3.0500337216
49.6898891453 -26.8587123275 -3.0500417140
49.7071308255 -26.8756551651 -3.0500417308
48.0297127292 -18.9378026214 -3.0500338981
47.5650790656 -18.7817346387 -3.0500337441
47.3696142453 -18.7311871647 -3.0500336942
48.7030867470 -19.2081663256 -3.0500341648
48.9643891572 -19.3406582092 -3.0500342956
48.5961556531 -24.3597622727 -3.0500392482
48.6464404575 -24.1225763812 -3.0500390142
48.6512350834 -24.0901483096 -3.0500389822
48.5853538162 -24.4803561627 -3.0500393672
48.6579603173 -24.1981336232 -3.0500390887
48.6638712040 -24.1655269037 -3.0500390565
48.6925336073 -23.9221064434 -3.0500388163
48.6943581635 -23.8890185644 -3.0500387837
48.6965669093 -23.7432518550 -3.0500386399
48.6959491367 -23.7167484499 -3.0500386137
48.5865095174 -24.5512271468 -3.0500394371
48.5954597885 -24.5259694287 -3.0500394122
48.5998226928 -24.5133012972 -3.0500393997
48.6104013906 -24.4815199813 -3.0500393683
48.6224736275 -24.4431810741 -3.0500393305
48.7000331936 -24.0902301310 -3.0500389822
48.7210710039 -23.7763255534 -3.0500386725
48.7179122795 -23.6624950061 -3.0500385602
48.6069375345 -24.5658007417 -3.0500394515
48.6248777278 -24.5146936953 -3.0500394011
48.7427273315 -23.6747416855 -3.0500385723
48.5566843807 -24.7511605798 -3.0500396344
48.7184216872 -24.2652572527 -3.0500391549
48.7329398999 -24.1914098046 -3.0500390821
48.7689459410 -23.7351499198 -3.0500386319
48.7771555317 -24.0589490013 -3.0500389514
48.7871469598 -23.9557341348 -3.0500388495
48.4877740837 -22.6263607959 -3.0500375378
48.8122493104 -23.9435940145 -3.0500388375
48.7585348335 -23.2566215565 -3.0500381597
48.4841636943 -22.5721609852 -3.0500374843
48.4549622254 -22.5245174176 -3.0500374373
48.4474863264 -22.5127155456 -3.0500374256
48.6195677064 -24.7879435729 -3.0500396707
48.8417868065 -23.7548419619 -3.0500386513
48.3548667545 -22.3377025798 -3.0500372529
48.2288477919 -22.1855901167 -3.0500371028
48.4987462207 -25.0610836033 -3.0500399402
48.6231123054 -24.8367554802 -3.0500397189
48.6924602873 -24.6804025803 -3.0500395646
48.7105787580 -24.6339115497 -3.0500395187
48.7204987038 -24.6071799983 -3.0500394923
48.8056680850 -23.2458606212 -3.0500381491
48.5578177256 -22.6029079473 -3.0500375146
48.0968217169 -22.0170798375 -3.0500369365
48.8876055356 -23.6679316836 -3.0500385655
48.5788979962 -22.5910775847 -3.0500375029
48.4730738262 -22.4195613426 -3.0500373337
48.1957737637 -22.0797593093 -3.0500369984
48.1856710627 -22.0694986673 -3.0500369883
48.8925986163 -24.1093279753 -3.0500390011
48.8692416307 -24.3650321994 -3.0500392534
48.9032828622 -24.1996480366 -3.0500390902
48.8138756770 -24.6333134289 -3.0500395181
48.9869680170 -23.7906063827 -3.0500386866
48.7793368222 -24.8455593464 -3.0500397276
48.9444547729 -23.0168929993 -3.0500379231
48.5138511371 -22.1483755061 -3.0500370661
49.2122320370 -23.4803750149 -3.0500383805
49.2380140310 -23.4941947911 -3.0500383941
49.2252705434 -23.2441895556 -3.0500381474
49.2236668719 -23.2360012306 -3.0500381393
46.0749769972 -18.9945827614 -3.0500339541
46.0042078915 -19.0007485475 -3.0500339602
45.9900654476 -19.0021072753 -3.0500339615
46.4867457890 -18.9553313735 -3.0500339154
46.6600553409 -18.9111437149 -3.0500338718
46.5447329996 -18.9076896579 -3.0500338683
46.7202682734 -18.8656172962 -3.0500338268
46.5310453903 -18.8591093150 -3.0500338204
47.0568494376 -18.8709345185 -3.0500338321
46.5753129199 -18.8357991420 -3.0500337974
46.4582314084 -18.8343714655 -3.0500337960
47.0305734824 -18.8434569657 -3.0500338050
46.5758936453 -18.8116330906 -3.0500337736
47.1652716568 -18.8365622203 -3.0500337982
47.3782617750 -18.8226181794 -3.0500337844
46.3836555362 -18.7382042505 -3.0500337011
47.4415795863 -18.8101606397 -3.0500337721
47.1458627688 -18.7606099796 -3.0500337232
46.8477334650 -18.7286315134 -3.0500336917
46.5486726663 -18.6901680799 -3.0500336537
46.4281525071 -18.6894115778 -3.0500336530
47.7899275680 -18.8419638715 -3.0500338035
47.7313789492 -18.8265313641 -3.0500337883
45.9444864047 -18.6908352466 -3.0500336544
46.0935946059 -18.6538074790 -3.0500336178
48.5031704964 -24.4443220047 -3.0500393316
48.5142484086 -24.3913494327 -3.0500392794
48.5271152125 -24.3166867379 -3.0500392057
48.5374580241 -24.2361742793 -3.0500391262
48.4750849387 -24.6343686754 -3.0500395192
48.5010789588 -24.5505794179 -3.0500394365
48.5336810351 -24.4174557387 -3.0500393051
48.5347796760 -24.4120833683 -3.0500392998
48.5717591045 -24.0581274623 -3.0500389506
48.4814281621 -24.6892443162 -3.0500395733
48.5837051971 -24.2578333859 -3.0500391476
48.5940650960 -23.9583578383 -3.0500388521
48.6201400730 -24.0528856467 -3.0500389454
48.6194424568 -23.9909999998 -3.0500388843
48.6186895731 -23.9685064331 -3.0500388621
48.5897239816 -24.4988014342 -3.0500393854
48.6255033886 -23.7746796629 -3.0500386709
48.6634685992 -23.9032388362 -3.0500387977
48.6532528617 -23.7999022117 -3.0500386958
48.6776863193 -24.2862752639 -3.0500391757
48.6733767420 -23.7679355420 -3.0500386642
48.6525050732 -23.6470812353 -3.0500385450
48.6785253021 -23.6538211938 -3.0500385516
48.7284690747 -24.2684509199 -3.0500391581
48.6869918336 -23.5789407179 -3.0500384777
48.6692681645 -23.5093568318 -3.0500384091
48.7413177018 -24.3551734205 -3.0500392437
48.7368666417 -23.7039592041 -3.0500386011
48.7758242370 -24.2799180540 -3.0500391694
48.7617628184 -23.5804089005 -3.0500384792
48.7291858494 -23.0558072243 -3.0500379615
48.7059854222 -22.9088983624 -3.0500378166
48.4292469786 -22.4514175571 -3.0500373651
48.4611508102 -22.4503575890 -3.0500373641
46.1131995425 -18.8648517672 -3.0500338261
45.6717165794 -18.9357273099 -3.0500338960
46.2336740861 -18.8279178248 -3.0500337896
45.8496422415 -18.8779687299 -3.0500338390
45.6820490004 -18.9089587748 -3.0500338696
45.5403246083 -18.9147996006 -3.0500338754
45.4343856792 -18.9402864936 -3.0500339005
46.6347075761 -18.7336023253 -3.0500336966
45.3313924617 -18.9172058124 -3.0500338777
46.6658867369 -18.7090298420 -3.0500336723
45.5960608933 -18.8033917236 -3.0500337654
46.1225472626 -18.6691559080 -3.0500336330
45.2682684101 -18.6838629695 -3.0500336475
46.0793153569 -18.4307616607 -3.0500333977
48.4534245884 -24.4457950251 -3.0500393331
48.4723350172 -24.4833712775 -3.0500393702
48.4743224259 -24.4705056441 -3.0500393575
48.4749595132 -24.4662132428 -3.0500393532
48.4761955810 -24.4576228801 -3.0500393448
48.4899816534 -24.2933891614 -3.0500391827
48.4902823825 -24.2803744052 -3.0500391699
48.4898044653 -24.2066135136 -3.0500390971
48.4947968698 -24.4958758315 -3.0500393825
48.5065841303 -24.4084611806 -3.0500392963
48.5083198576 -24.3909031386 -3.0500392789
48.5122789545 -24.3381230064 -3.0500392268
48.5121821892 -24.1661920497 -3.0500390572
48.5039219130 -24.0739464603 -3.0500389662
48.5207785576 -24.4865360395 -3.0500393733
48.5258856679 -24.4510428979 -3.0500393383
48.5264649553 -24.4465980484 -3.0500393339
48.5281238906 -24.4332534901 -3.0500393207
48.5375265635 -24.3171187656 -3.0500392061
48.5376415311 -24.1916463483 -3.0500390823
48.5360466607 -24.1603103825 -3.0500390514
48.5450949998 -24.0185167723 -3.0500389115
48.5678272854 -24.4985565083 -3.0500393852
48.5744147708 -24.4527751288 -3.0500393400
48.5816019688 -24.1204490371 -3.0500390121
48.5723394270 -24.0377175360 -3.0500389304
48.5595599063 -23.9601385794 -3.0500388539
48.5559871637 -23.9419850887 -3.0500388360
48.5481985575 -23.9058112784 -3.0500388003
48.6109922075 -24.2168775846 -3.0500391072
48.5707184852 -23.8958657396 -3.0500387904
48.5594785968 -23.8502625294 -3.0500387454
48.6316193469 -24.1401214115 -3.0500390315
48.6260908037 -24.0783821053 -3.0500389705
48.6255672546 -24.0736424614 -3.0500389659
48.6233329218 -24.0546999950 -3.0500389472
48.6052364937 -23.9417207692 -3.0500388357
48.5529701189 -23.7435926114 -3.0500386402
48.6775224670 -24.1073593309 -3.0500389991
48.6382455303 -23.7729522012 -3.0500386692
48.7329799616 -23.9688157397 -3.0500388624
48.6398916381 -23.6282264937 -3.0500385264
48.7691189296 -24.0523405598 -3.0500389449
48.7422021451 -23.4380082918 -3.0500383387
48.2422405706 -22.2304219503 -3.0500371471
48.5961374640 -22.4591807554 -3.0500373728
48.1566627581 -22.1537576532 -3.0500370714
48.2482752489 -22.1217865975 -3.0500370399
48.1083830760 -21.9935420482 -3.0500369133
45.6171771245 -18.7570719406 -3.0500337197
45.6275176128 -18.7294994818 -3.0500336925
45.3931379341 -18.7688673653 -3.0500337314
45.5827388857 -18.6910548501 -3.0500336546
45.1596357438 -18.8182105414 -3.0500337801
44.6617359041 -18.9094686623 -3.0500338701
44.1311593180 -18.9831542196 -3.0500339428
48.4423183771 -24.3830795253 -3.0500392712
48.4663511653 -24.3761143427 -3.0500392643
48.4657102428 -24.3565242822 -3.0500392450
48.4650898404 -24.3434718948 -3.0500392321
48.4620078148 -24.3011181021 -3.0500391903
48.4540933658 -24.2362728315 -3.0500391263
48.4888522307 -24.3355153690 -3.0500392243
48.4774840555 -24.2293362259 -3.0500391195
48.4930743580 -24.1786210361 -3.0500390695
48.4658774361 -24.0694793228 -3.0500389618
48.5236103267 -24.2116076286 -3.0500391020
48.4880095653 -24.0591655064 -3.0500389516
48.4784728008 -24.0293212181 -3.0500389221
48.5121627118 -24.0555145679 -3.0500389480
48.4932704147 -23.9981538637 -3.0500388914
48.5326307472 -23.9001203088 -3.0500387946
48.5140661661 -23.8589022095 -3.0500387540
47.5108470282 -21.7551913087 -3.0500366781
48.4461022534 -24.3231753524 -3.0500392121
48.4392571452 -24.2954863858 -3.0500391848
48.4357398488 -24.2828000664 -3.0500391723
48.4681425943 -24.3112045490 -3.0500392003
48.4602123925 -24.2804946250 -3.0500391700
48.4503127484 -24.2479860838 -3.0500391379
48.4381749713 -24.2138311460 -3.0500391042
48.4853507915 -24.2807268091 -3.0500391702
48.4687756451 -24.2271514035 -3.0500391173
48.4833341034 -24.1965686457 -3.0500390872
48.4771511012 -24.1808826530 -3.0500390717
48.4666731163 -24.0506557324 -3.0500389432
48.4653781724 -24.0484570111 -3.0500389410
48.4479567358 -24.0202300594 -3.0500389132
48.4821552915 -24.0294016518 -3.0500389222
48.8639468259 -24.1998084416 -3.0500390904
48.8613505125 -24.1896923632 -3.0500390804
48.8865144025 -24.1904591997 -3.0500390811
48.8847377925 -24.1835792287 -3.0500390744
48.8854655599 -24.1010327609 -3.0500389929
48.8805449473 -23.9011456869 -3.0500387957
48.8945069835 -23.6877040590 -3.0500385850
48.8887167811 -23.5971366325 -3.0500384957
48.4342722444 -22.2610934696 -3.0500371773
48.2326362744 -22.1816879050 -3.0500370990
48.2639350630 -22.1391925389 -3.0500370570
48.1241461623 -22.1113016518 -3.0500370295
48.1494540085 -22.0911586637 -3.0500370096
48.2349594534 -22.0338389592 -3.0500369531
47.3575982702 -22.0076876705 -3.0500369273
47.2728209088 -21.9970927317 -3.0500369168
48.4788784746 -22.0470568359 -3.0500369661
48.0539397313 -21.8079500653 -3.0500367302
41.6525951730 -19.7049418459 -3.0500346550
41.9871942922 -18.8502128825 -3.0500338116
41.5503638491 -19.0354400405 -3.0500339944
48.8603777914 -24.1674693727 -3.0500390585
48.8457691119 -24.1359718259 -3.0500390274
48.8520318722 -24.0012840497 -3.0500388945
48.0156389388 -22.0959738888 -3.0500370144
47.7741996340 -22.1158770747 -3.0500370340
48.3193150248 -21.6929248098 -3.0500366167
47.2959118366 -21.7986651004 -3.0500367210
41.4912955861 -20.2590876748 -3.0500352018
55.9657393376 -21.0490837149 -3.0500359814
55.9683402885 -20.9362157799 -3.0500358700
56.0131644020 -20.8023339684 -3.0500357379
48.8413149045 -23.6395094128 -3.0500385375
48.8232019144 -23.6084455413 -3.0500385068
48.8305650965 -23.4506931146 -3.0500383512
48.1309157034 -21.8569863948 -3.0500367786
48.1009639153 -21.7590181129 -3.0500366819
47.6804958045 -21.7832387559 -3.0500367058
48.2828658281 -21.7477641987 -3.0500366708
48.0808065866 -21.7342661413 -3.0500366575
48.2574346059 -21.7208148700 -3.0500366442
47.3360982067 -21.7857025247 -3.0500367082
47.2383637122 -21.7405394792 -3.0500366637
41.5469280128 -21.1313298774 -3.0500360625
41.5337713316 -21.1020589343 -3.0500360336
41.5387257246 -21.0342581911 -3.0500359667
41.5325038640 -20.7202649951 -3.0500356569
55.9834750050 -20.1384809747 -3.0500350828
55.9717363193 -20.1149544632 -3.0500350596
55.9815100292 -20.0805744764 -3.0500350257
55.9791376969 -20.0225531215 -3.0500349684
55.9763565825 -19.9644197078 -3.0500349111
56.0069400972 -19.9185023802 -3.0500348658
56.0034431653 -19.8600163671 -3.0500348081
55.8481165424 -19.5795087018 -3.0500345313
48.4245818277 -23.8121810343 -3.0500387079
48.4484404527 -23.8076647713 -3.0500387034
48.4451221963 -23.7964599349 -3.0500386924
48.4423484953 -23.7875321674 -3.0500386835
48.4394693510 -23.7786378445 -3.0500386748
48.4608987710 -23.7664873896 -3.0500386628
48.4520341247 -23.7415198416 -3.0500386381
48.4559601694 -23.6871336636 -3.0500385845
48.4572118442 -23.6335905911 -3.0500385316
48.4513180040 -23.6222750634 -3.0500385205
48.8790191146 -23.6451508309 -3.0500385431
48.8744246786 -23.6310995860 -3.0500385292
48.8696643033 -23.6171036882 -3.0500385154
48.9008842043 -23.6341883168 -3.0500385322
48.8628226802 -23.5318149657 -3.0500384312
48.8775135463 -23.5047952187 -3.0500384046
48.8712584628 -23.4907716141 -3.0500383907
48.9052404304 -23.4491441529 -3.0500383496
48.8802762838 -23.3489238444 -3.0500382508
48.0800758342 -21.9923629173 -3.0500369122
48.1015063252 -21.9472880148 -3.0500368677
47.9483742140 -21.6793402894 -3.0500366033
48.1601442497 -21.6878455169 -3.0500366117
47.8878145165 -21.6491848267 -3.0500365735
48.3037619334 -21.6964072035 -3.0500366201
48.2890172785 -21.6676179312 -3.0500365917
47.4747662328 -21.6020290059 -3.0500365270
47.4581539241 -21.5792744199 -3.0500365045
48.4776424371 -21.6472680445 -3.0500365716
48.4211235724 -21.6292782235 -3.0500365539
47.5184860358 -21.5016360484 -3.0500364279
48.4276939742 -21.5555076661 -3.0500364811
48.0191531941 -21.3956075303 -3.0500363233
46.4487565424 -21.5471616582 -3.0500364729
45.1852292351 -21.0570438377 -3.0500359892
45.1770566041 -20.5127741200 -3.0500354522
41.6669125001 -19.8710493358 -3.0500348189
41.6630124709 -19.7085011489 -3.0500346585
41.6497780573 -19.5623695457 -3.0500345144
41.5907806275 -19.0858318872 -3.0500340441
48.4314052484 -23.7481384187 -3.0500386447
48.4540783569 -23.7329737905 -3.0500386297
48.4571185234 -23.6079448117 -3.0500385063
48.5126970555 -23.6371380056 -3.0500385351
48.4692867506 -23.4759463038 -3.0500383761
48.4874486587 -23.4548652929 -3.0500383553
48.4460877255 -23.8598239047 -3.0500387549
48.4498913366 -23.7985256731 -3.0500386944
48.4671279221 -23.8930252674 -3.0500387876
48.4679580457 -23.8852487108 -3.0500387800
48.4683558505 -23.8813586248 -3.0500387761
48.4705008692 -23.8579949459 -3.0500387531
48.4719713951 -23.8384986305 -3.0500387338
48.4744438722 -23.7877270606 -3.0500386837
48.4748746776 -23.7681801129 -3.0500386645
48.4750163290 -23.7486289315 -3.0500386452
48.4749625104 -23.7368979698 -3.0500386336
48.4902645567 -23.9035758053 -3.0500387981
48.4955250123 -23.8480822014 -3.0500387433
48.5176237747 -23.8741016049 -3.0500387690
48.5228713033 -23.7121455215 -3.0500386092
48.5201780588 -23.6554660525 -3.0500385532
48.5137566929 -23.5868655454 -3.0500384855
48.5437394561 -23.8516471048 -3.0500387468
48.5466643895 -23.7981065519 -3.0500386940
48.5475299316 -23.7527429166 -3.0500386492
48.5475354122 -23.7486180223 -3.0500386452
48.5457620191 -23.6785245512 -3.0500385760
48.5362430555 -23.5717269765 -3.0500384706
48.5627790837 -23.9077435999 -3.0500388022
48.5522529615 -23.5146918374 -3.0500384143
48.5958227281 -23.7358071782 -3.0500386325
48.5952438300 -23.7059379092 -3.0500386030
48.5800966261 -23.5359945523 -3.0500384353
48.5716440306 -23.4854846164 -3.0500383855
48.5427218905 -23.3607996146 -3.0500382625
48.6654635339 -23.6545295547 -3.0500385523
48.6468725938 -23.4943129308 -3.0500383942
48.5958215254 -23.2854860500 -3.0500381882
48.6806783598 -23.5578238255 -3.0500384569
48.7131482766 -23.3429136253 -3.0500382448
48.4963312018 -22.0164379661 -3.0500369359
48.3571459379 -21.7456741452 -3.0500366687
48.4523497898 -21.7770560453 -3.0500366997
48.2229674256 -21.6437619471 -3.0500365682
48.1728551101 -21.6190356217 -3.0500365438
47.6487155233 -21.3166154010 -3.0500362454
48.1861471199 -21.3595245766 -3.0500362877
45.8341526518 -18.6797028619 -3.0500336434
45.7979596796 -18.6642374689 -3.0500336281
45.5515850632 -18.7110124958 -3.0500336743
44.7812008027 -18.8359776188 -3.0500337976
44.7836275405 -18.7276770879 -3.0500336907
44.4334123292 -18.9084115174 -3.0500338691
44.1408116241 -18.9987788994 -3.0500339582
48.4775317211 -23.8218317094 -3.0500387174
48.4838881308 -23.7806919829 -3.0500386768
48.4910383308 -23.8812460755 -3.0500387760
48.5064864872 -23.7933628857 -3.0500386893
48.5120747807 -23.7514624572 -3.0500386480
48.5126267922 -23.7467980436 -3.0500386434
48.5136894087 -23.7374644195 -3.0500386341
48.5156488882 -23.7187791279 -3.0500386157
48.5177871033 -23.6953920553 -3.0500385926
48.5207633573 -23.6532255183 -3.0500385510
48.5228750449 -23.6016043480 -3.0500385001
48.4976415574 -23.9604507873 -3.0500388542
48.5418753480 -23.6974148619 -3.0500385946
48.5469977915 -23.5211437910 -3.0500384207
48.5447984053 -23.4687390234 -3.0500383690
48.5600773373 -23.7572153423 -3.0500386536
48.5659635928 -23.6994376685 -3.0500385966
48.5681367272 -23.6704795815 -3.0500385680
48.5701597626 -23.4915010439 -3.0500383914
48.5615491364 -23.3805365024 -3.0500382819
48.5852186319 -23.7503351951 -3.0500386468
48.5936050693 -23.4757341410 -3.0500383759
48.5709242354 -23.2757685886 -3.0500381786
48.5617271834 -23.2275242898 -3.0500381310
48.5873850004 -23.2324137922 -3.0500381358
48.6260674878 -23.8109346342 -3.0500387066
48.6364173191 -23.7256427259 -3.0500386225
48.6110892976 -23.2276765382 -3.0500381311
48.6631442391 -23.6973103431 -3.0500385945
48.6064237565 -23.1032572375 -3.0500380083
48.6920349828 -23.6057689902 -3.0500385042
48.6843637898 -23.3929393074 -3.0500382942
48.6634021104 -23.2437224665 -3.0500381469
48.6058023716 -23.0172155124 -3.0500379234
48.7152821514 -23.4904693282 -3.0500383904
48.7008817729 -23.9405979515 -3.0500388346
48.7354436114 -23.7029511142 -3.0500386001
48.7396435466 -23.4948279020 -3.0500383947
48.7646572982 -23.6021432384 -3.0500385006
48.7648281270 -23.5317911480 -3.0500384312
48.6608168732 -22.9537126757 -3.0500378608
48.6571847368 -22.9435161897 -3.0500378507
48.7170279879 -23.0501081869 -3.0500379559
48.6151555817 -22.2303380288 -3.0500371470
48.5454132929 -21.7695087247 -3.0500366923
47.8621507525 -21.2597649958 -3.0500361893
46.0780884944 -18.8368929512 -3.0500337985
46.0135513962 -18.7259616841 -3.0500336890
45.4212904600 -18.8775040874 -3.0500338386
45.0927647055 -18.9967246953 -3.0500339562
45.8085889738 -18.7447453270 -3.0500337076
45.3909579984 -18.7349053378 -3.0500336978
45.4052141947 -18.6290368591 -3.0500335934
48.5821432581 -23.5011526276 -3.0500384010
48.5674183246 -23.7577049235 -3.0500386541
48.5891365650 -23.6446356604 -3.0500385425
48.6106923702 -23.4319852560 -3.0500383327
48.6118260131 -23.3991038823 -3.0500383003
48.6124180737 -23.3442735082 -3.0500382462
48.6341331098 -23.2553382218 -3.0500381584
48.4869460547 -24.1460653548 -3.0500390373
48.5542949103 -23.9791580118 -3.0500388726
48.6145903571 -23.7682945634 -3.0500386646
48.6292359351 -23.6966349128 -3.0500385939
48.6529661382 -23.5238945933 -3.0500384234
48.6550035639 -23.2035661776 -3.0500381073
48.4893830058 -24.1973506754 -3.0500390879
48.5017015596 -24.1716613419 -3.0500390626
48.6748419106 -23.5487692935 -3.0500384479
48.6849483758 -23.3553800591 -3.0500382571
48.5034336560 -24.2234809824 -3.0500391137
48.5308736167 -24.1662571953 -3.0500390573
48.5941517519 -24.0114215919 -3.0500389045
48.6424430207 -23.8573081213 -3.0500387524
48.6801420371 -23.0166899655 -3.0500379229
48.5224386969 -24.2395073489 -3.0500391295
48.6998068393 -22.9895452340 -3.0500378961
48.6869976148 -22.9265858052 -3.0500378340
48.6660274315 -23.9493210083 -3.0500388432
48.7198977074 -23.7374035873 -3.0500386341
48.7481555407 -23.5444229311 -3.0500384437
48.7574227292 -23.3377818119 -3.0500382398
48.7882250121 -23.0838792162 -3.0500379892
48.4800028673 -22.2436250449 -3.0500371601
48.7205952637 -22.6155228963 -3.0500375271
48.7184090063 -22.6097226043 -3.0500375213
48.8506980270 -23.6928492830 -3.0500385901
48.7467643724 -24.1538631041 -3.0500390450
48.8927004551 -23.1468367576 -3.0500380513
48.6497498026 -22.1501158224 -3.0500370678
48.6415820013 -21.9670498640 -3.0500368872
48.4730288005 -21.7277693701 -3.0500366511
48.8477062843 -22.1997966643 -3.0500371168
48.9246961013 -22.2956672640 -3.0500372114
48.7084164466 -21.9355966478 -3.0500368561
48.3046344975 -21.4718331836 -3.0500363985
48.3472292743 -21.1687103592 -3.0500360994
46.0044241511 -19.0250819128 -3.0500339842
45.9788397703 -19.0296204408 -3.0500339887
46.4278965463 -18.9480561781 -3.0500339082
46.2848030303 -18.9611512328 -3.0500339211
46.2588355070 -18.9640320641 -3.0500339239
46.1034296031 -18.9845383715 -3.0500339442
46.0518014797 -18.9925980735 -3.0500339521
46.0260240844 -18.9968568698 -3.0500339563
45.9874063624 -19.0035308284 -3.0500339629
45.9745471380 -19.0058316075 -3.0500339652
46.7147430250 -18.9116902923 -3.0500338723
45.9444160889 -18.9867842145 -3.0500339464
46.9257670118 -18.8904247344 -3.0500338513
46.9001312720 -18.8653536129 -3.0500338266
46.2902234466 -18.8876455032 -3.0500338486
46.0533020788 -18.9189080375 -3.0500338794
47.0608836730 -18.8490791579 -3.0500338105
46.7540720727 -18.8389556100 -3.0500338005
47.2229673681 -18.8385928169 -3.0500338002
46.7406261205 -18.8148163381 -3.0500337767
47.0371909788 -18.7991145168 -3.0500337612
47.3894982674 -18.8100252710 -3.0500337720
46.8494146521 -18.7431529606 -3.0500337060
46.1118376450 -18.7634682513 -3.0500337260
45.9451839436 -18.7655165524 -3.0500337281
47.5942492782 -18.7448945067 -3.0500337077
47.4850038027 -18.7264136660 -3.0500336895
47.2378079585 -18.6943159059 -3.0500336578
46.5600562202 -18.6739597343 -3.0500336377
47.8302703992 -18.7691796281 -3.0500337317
46.0142189726 -18.5824681127 -3.0500335474
45.9538287611 -18.5677735833 -3.0500335329
48.6880775393 -23.2738558523 -3.0500381767
48.7186496469 -23.0776109840 -3.0500379830
48.7412191830 -23.1963629322 -3.0500381002
48.7859127933 -23.2623983657 -3.0500381654
48.7828871025 -22.9164687889 -3.0500378240
48.8024187176 -23.3480679255 -3.0500382499
46.6842872511 -19.0311800411 -3.0500339902
46.8544015480 -19.0130599838 -3.0500339723
46.6603819937 -19.0067194460 -3.0500339661
46.9410085093 -18.9946185728 -3.0500339541
47.1504647702 -18.9918046955 -3.0500339513
46.9551079967 -18.9714802356 -3.0500339313
46.7590083864 -18.9604215093 -3.0500339204
47.3163215099 -18.9674270080 -3.0500339273
46.6742499064 -18.8618188358 -3.0500338231
46.7134442133 -18.7899334899 -3.0500337521
47.7856040694 -18.8980995591 -3.0500338589
47.2819388478 -18.6927871531 -3.0500336563
48.1341902920 -18.8816623334 -3.0500338427
46.9424325692 -18.6311331445 -3.0500335955
48.7546722528 -23.2939728976 -3.0500381965
48.8181897361 -22.6857795252 -3.0500375964
48.7886940452 -23.5498344097 -3.0500384490
48.8719393156 -22.5071293838 -3.0500374201
48.9130784165 -22.6579315090 -3.0500375689
48.9113226088 -22.6368342973 -3.0500375481
48.9290605151 -23.1185850147 -3.0500380235
49.1870977884 -22.3405318109 -3.0500372557
49.1963407585 -22.2649594991 -3.0500371811
49.2624241909 -23.1811941565 -3.0500380852
47.4223775009 -19.0389141411 -3.0500339978
47.4111138502 -19.0363056138 -3.0500339953
47.3885636459 -19.0311885757 -3.0500339902
47.5069750438 -19.0346821889 -3.0500339937
47.4956985041 -19.0318234253 -3.0500339908
47.5695489024 -19.0261436469 -3.0500339852
47.5469358037 -19.0200894317 -3.0500339793
47.5242872819 -19.0141691091 -3.0500339734
47.6439015797 -19.0218913296 -3.0500339810
47.6325866033 -19.0186275685 -3.0500339778
47.6620093280 -19.0019923933 -3.0500339614
47.3567094369 -18.9006556974 -3.0500338614
47.3733746452 -18.8794536190 -3.0500338405
47.8890395019 -18.9990204583 -3.0500339585
47.5077213430 -18.8853556241 -3.0500338463
47.9541420430 -18.9967887168 -3.0500339563
47.6542437985 -18.8991192454 -3.0500338599
47.6674365093 -18.8526080262 -3.0500338140
48.1629174025 -19.0014687105 -3.0500339609
47.5967500694 -18.7832404528 -3.0500337455
47.8935186157 -18.7960738486 -3.0500337582
48.4181771084 -18.9849326359 -3.0500339446
48.8246109325 -22.7759130193 -3.0500376853
48.8572336025 -22.6246314251 -3.0500375361
48.8775191045 -22.7168394327 -3.0500376270
48.8817547418 -22.5334583371 -3.0500374461
48.8152266208 -22.0094943827 -3.0500369291
48.8660452204 -23.0082275877 -3.0500379146
48.8685958280 -22.9942011316 -3.0500379007
48.8786304393 -22.2065793693 -3.0500371235
48.8514671186 -22.0593957987 -3.0500369783
48.8830085483 -23.0479717510 -3.0500379538
48.9056905135 -22.2242988342 -3.0500371410
48.8810280521 -22.0824527548 -3.0500370011
48.8460721452 -23.2922813379 -3.0500381949
48.8664043846 -23.2224720049 -3.0500381260
48.9306407742 -22.2280632817 -3.0500371447
48.8907469612 -22.0136771394 -3.0500369332
48.7689957625 -21.6332040340 -3.0500365578
48.7662142959 -21.6264857984 -3.0500365511
48.8441957337 -23.3761895284 -3.0500382777
48.8947315309 -21.9298426086 -3.0500368505
48.9344384940 -21.9882992898 -3.0500369081
48.9733116030 -23.0889568987 -3.0500379942
48.9485120809 -21.8529143216 -3.0500367746
48.7451011480 -21.3574624766 -3.0500362857
48.9507599445 -21.5667490034 -3.0500364922
48.9676048108 -23.7162168508 -3.0500386132
49.2002595107 -22.2389957740 -3.0500371555
49.2246337356 -22.9010319940 -3.0500378088
49.2300773744 -22.8525611743 -3.0500377610
49.2446312229 -22.5685331414 -3.0500374807
49.2363127851 -22.9933035280 -3.0500378998
49.2523883134 -22.8713555350 -3.0500377795
49.2557599189 -22.8387259689 -3.0500377473
49.2565424743 -22.8305625223 -3.0500377393
49.2072606148 -21.7070941000 -3.0500366307
48.1930442384 -25.9022794216 -3.0500407703
48.2225486076 -25.8870926824 -3.0500407553
48.2435749614 -25.9033828278 -3.0500407714
48.2632651740 -25.8929884448 -3.0500407611
48.2730871328 -25.8877476133 -3.0500407559
48.3238812213 -25.8876679884 -3.0500407559
47.9878516039 -19.0885271565 -3.0500340468
47.9775459407 -19.0841308207 -3.0500340424
48.3552646937 -25.8979029517 -3.0500407660
48.0490279173 -19.0888879117 -3.0500340471
48.0180729301 -19.0752475385 -3.0500340337
48.0077278511 -19.0707618606 -3.0500340293
48.1002167046 -19.0855422712 -3.0500340438
48.0899017199 -19.0808135521 -3.0500340392
48.0795727918 -19.0761153673 -3.0500340345
48.0692300110 -19.0714477579 -3.0500340299
48.0485032527 -19.0622044284 -3.0500340208
48.4776929222 -25.8829631210 -3.0500407512
48.1620090906 -19.0878351937 -3.0500340461
48.1517006184 -19.0829236716 -3.0500340413
48.1413776621 -19.0780426652 -3.0500340364
48.2137834061 -19.0861032840 -3.0500340444
48.2034695841 -19.0810386116 -3.0500340394
48.1931408249 -19.0760044716 -3.0500340344
48.5617239548 -25.8883251394 -3.0500407565
48.2555134148 -19.0798934531 -3.0500340383
48.2451810403 -19.0747053630 -3.0500340331
48.3181397467 -19.0848677908 -3.0500340432
48.3078218132 -19.0794944189 -3.0500340379
48.3707010322 -19.0853764513 -3.0500340437
48.3603843735 -19.0798475914 -3.0500340382
48.3500514045 -19.0743492742 -3.0500340328
48.4662298246 -19.0828341735 -3.0500340412
48.5194913780 -19.0854790302 -3.0500340438
48.6179639300 -26.0240737061 -3.0500408905
48.5935240676 -19.1012447353 -3.0500340593
48.6100211824 -26.0572368541 -3.0500409232
48.4066411379 -18.1108316863 -3.0500330820
48.7099519632 -22.5557443009 -3.0500374681
48.7339578494 -22.5585820309 -3.0500374709
48.8426718521 -22.6558217533 -3.0500375668
48.8716868409 -22.6246004923 -3.0500375360
48.8858499394 -22.4983863566 -3.0500374115
48.9127029571 -22.4649082672 -3.0500373784
48.9181764309 -22.3438645139 -3.0500372590
48.9238719032 -21.9923541090 -3.0500369122
48.8052093698 -21.4887419338 -3.0500364152
48.7955018647 -21.4616284970 -3.0500363885
48.9026148748 -23.0388141731 -3.0500379447
49.0809484395 -22.4844086891 -3.0500373977
49.1379042778 -21.7980709775 -3.0500367204
49.2201166784 -22.5592570959 -3.0500374715
49.2340731929 -22.6504436387 -3.0500375615
49.2464293159 -22.5373134482 -3.0500374499
48.6747771547 -19.1883569251 -3.0500341453
47.6621844254 -25.9539985049 -3.0500408213
47.6730016750 -25.9505711437 -3.0500408179
47.6838087385 -25.9471117981 -3.0500408145
47.7857791079 -25.9639487764 -3.0500408311
47.8182836401 -25.9524735446 -3.0500408198
47.8807113989 -25.9553439230 -3.0500408226
47.9000825409 -25.9738802425 -3.0500408409
47.9435086403 -25.9571627000 -3.0500408244
48.0066578413 -25.9579196018 -3.0500408252
48.9778485205 -19.2035539214 -3.0500341603
48.0267010624 -25.9758205319 -3.0500408429
48.0593014625 -25.9622067855 -3.0500408294
48.3704281098 -25.9777630240 -3.0500408448
48.4900629788 -25.9423364379 -3.0500408098
48.7644644086 -21.9999811934 -3.0500369197
48.7574282667 -21.8445408901 -3.0500367663
48.7403540737 -21.6964029036 -3.0500366201
48.7262589690 -21.6132941271 -3.0500365381
48.7132481092 -21.5497684678 -3.0500364754
48.7801881377 -22.2158488485 -3.0500371327
48.7823352800 -22.1897123226 -3.0500371069
48.7863489170 -22.1242758747 -3.0500370423
48.7688790536 -21.7252734552 -3.0500366486
48.7661652705 -21.7057930941 -3.0500366294
48.7547383575 -21.6345893583 -3.0500365591
48.7218069839 -21.4807594812 -3.0500364073
48.7180771294 -22.6662773885 -3.0500375771
48.8094841233 -22.1452560074 -3.0500370630
48.8128980248 -22.0127655215 -3.0500369323
48.7590270329 -21.5328980901 -3.0500364588
48.6702374292 -21.2345805930 -3.0500361644
48.7412269276 -22.6732359893 -3.0500375840
48.8064057698 -22.3928405022 -3.0500373073
48.8185423020 -21.7320989224 -3.0500366553
48.8158871354 -21.7121775590 -3.0500366357
48.8755312098 -21.8075276358 -3.0500367298
48.8204970599 -21.4771043524 -3.0500364037
48.7941292503 -22.7468870106 -3.0500376567
48.8900975054 -22.3226723334 -3.0500372381
48.9094181596 -21.9916557258 -3.0500369115
48.9014262697 -21.8259538383 -3.0500367480
48.8921929109 -21.7365565462 -3.0500366597
48.8211696755 -21.3844897085 -3.0500363123
48.7029738116 -23.0395304585 -3.0500379455
48.7089605696 -23.0269077814 -3.0500379330
48.7823809461 -22.8532386401 -3.0500377616
48.8529419420 -22.6338872477 -3.0500375452
48.8667986014 -22.5797519698 -3.0500374918
48.7101995720 -21.0183788016 -3.0500359511
48.6603528260 -20.9183583314 -3.0500358524
48.6471558470 -20.8937305848 -3.0500358281
48.7278175187 -23.0435824230 -3.0500379495
48.7338278147 -23.0308126914 -3.0500379369
48.8668826474 -22.6741649519 -3.0500375849
48.9375060772 -21.7096650927 -3.0500366332
48.8321100210 -21.2567614456 -3.0500361863
48.6650157430 -20.8759921430 -3.0500358106
48.6567612407 -23.2305308473 -3.0500381339
48.7905448052 -22.9629137033 -3.0500378699
48.9154487865 -22.5842567491 -3.0500374962
