41.0455597100 -0.9830311584 -3.0000164672
41.0057255299 -1.5224415791 -3.0000169995
41.0343944388 -1.4099005901 -3.0000168884
41.0482292973 -1.3386373211 -3.0000168181
41.0716558902 -1.0737657703 -3.0000165568
41.0630925293 -0.8949807641 -3.0000163803
41.0369560644 -1.5008837141 -3.0000169782
41.0537318558 -1.4342057253 -3.0000169124
41.0885823327 -0.9071687728 -3.0000163924
41.0832638256 -0.8583444795 -3.0000163442
41.0535158917 -1.5312472624 -3.0000170082
41.0548953539 -1.5264590118 -3.0000170034
41.0991292798 -1.3271303476 -3.0000168068
41.1066332168 -0.8504273607 -3.0000163364
41.1222008798 -1.3359180174 -3.0000168154
41.1441598709 -1.0489913417 -3.0000165323
41.1336105772 -0.8724775520 -3.0000163581
41.1293112812 -0.8373588184 -3.0000163235
41.1100837931 -0.7227289538 -3.0000162104
41.1581962382 -0.8748837972 -3.0000163605
41.1513931368 -1.4406388827 -3.0000169188
41.1567977843 -1.4152197203 -3.0000168937
41.1870905535 -0.9240113692 -3.0000164090
41.1364268653 -0.6219661064 -3.0000161109
41.1800988298 -0.7031446615 -3.0000161910
41.2083239778 -1.4039721112 -3.0000168826
41.2103130197 -1.3934778810 -3.0000168722
41.2403587642 -1.1069663282 -3.0000165895
41.2377092354 -1.5903907410 -3.0000170665
41.2926575187 -1.3410373650 -3.0000168205
41.3063898733 -1.4056701587 -3.0000168843
41.2403280902 -0.3894062986 -3.0000158815
41.2194787797 -0.2740978212 -3.0000157677
38.6241565247 3.6467011800 -3.0000118988
38.7744703313 3.6945496462 -3.0000118516
38.7041835521 3.6842514953 -3.0000118618
38.4386834458 3.6356699075 -3.0000119097
38.3139681162 3.6074674862 -3.0000119375
38.0942710881 3.5491712421 -3.0000119951
39.2260231228 3.7598887770 -3.0000117871
38.1012370359 3.5763499410 -3.0000119682
38.3865746753 3.6738404128 -3.0000118720
38.3306051397 3.6610967310 -3.0000118846
39.5988018103 3.8100513918 -3.0000117376
38.8359831550 3.7757756816 -3.0000117714
38.7787760126 3.7683424736 -3.0000117788
37.9636239578 3.5852755021 -3.0000119594
37.7724540119 3.5203478893 -3.0000120235
39.3822388851 3.8366678748 -3.0000117114
37.8051458794 3.5577219108 -3.0000119866
39.1038648563 3.8741732882 -3.0000116744
37.9277822258 3.6499707748 -3.0000118956
38.7332156134 3.8840370833 -3.0000116646
38.6268802265 4.1859646158 -3.0000113667
37.3727652676 4.0922105415 -3.0000114592
41.0214276341 -1.3416371981 -3.0000168211
41.0598472701 -1.1728332326 -3.0000166545
41.0340557048 -1.3849846519 -3.0000168638
41.0476234860 -1.3375358096 -3.0000168170
41.0504666828 -1.3269436677 -3.0000168066
41.0697850595 -1.2469980318 -3.0000167277
41.1053032805 -1.0140563109 -3.0000164978
41.1124256112 -0.8552415437 -3.0000163411
41.0587970308 -1.3866166948 -3.0000168655
41.0847164670 -1.2900555440 -3.0000167702
41.1363397755 -0.8830618973 -3.0000163686
41.1364244030 -0.8775074787 -3.0000163631
41.1351379179 -0.7775363930 -3.0000162644
41.0052561738 -1.6049489247 -3.0000170809
41.0369508694 -1.5267351031 -3.0000170037
41.0041157842 -1.6665027117 -3.0000171416
41.0206132318 -1.6301885810 -3.0000171058
41.1785082875 -1.0090535961 -3.0000164929
41.1848358370 -0.8724748463 -3.0000163581
41.1760400043 -0.4939794774 -3.0000159846
40.8764855662 0.2377663179 -3.0000152626
41.0063996875 -1.7706708309 -3.0000172444
41.1078020738 -1.6105443940 -3.0000170864
41.2063063160 -1.3010051099 -3.0000167810
41.2804390487 -0.9213784160 -3.0000164064
41.2379932235 -0.4337269248 -3.0000159252
41.2534148711 -1.3118736500 -3.0000167917
41.2931298218 -1.0792004283 -3.0000165621
41.2974047350 -1.0370279368 -3.0000165205
41.0862455759 -1.8265023177 -3.0000172995
41.3359075560 -1.1276425140 -3.0000166099
38.5172224842 3.4771296255 -3.0000120661
38.9409208826 3.5529023153 -3.0000119914
38.7458544358 3.5344689771 -3.0000120096
38.5260202697 3.5031421868 -3.0000120405
39.0440679326 3.5833343572 -3.0000119613
38.4315036983 3.5107868167 -3.0000120329
38.8716179658 3.5958838168 -3.0000119490
38.7140145130 3.5793426334 -3.0000119653
38.4659580586 3.5417451157 -3.0000120024
39.5741980316 3.6500064120 -3.0000118956
39.1205951500 3.6589309186 -3.0000118867
38.8541282583 3.6428705198 -3.0000119026
39.5237186460 3.7016883191 -3.0000118446
39.9163533434 3.6861625408 -3.0000118599
39.7439456993 3.7321294235 -3.0000118145
38.3999786675 3.6770354295 -3.0000118689
38.9115934540 3.7688887045 -3.0000117782
38.4000792749 3.7508450452 -3.0000117960
39.9336877823 3.8057781723 -3.0000117418
39.5877164136 3.8429175610 -3.0000117052
40.4985636749 3.7132310878 -3.0000118332
39.1978725634 3.8782114973 -3.0000116704
39.0580007455 3.8743418255 -3.0000116742
39.0007828238 3.8957731645 -3.0000116530
38.8744946476 3.8872237806 -3.0000116615
38.8584529253 3.9101544509 -3.0000116388
40.8955283815 0.4639755860 -3.0000150394
41.1295900480 -1.2135277682 -3.0000166947
41.2259001139 -0.8774991593 -3.0000163631
41.2887351351 -0.2663359679 -3.0000157600
41.2839126090 -1.1026995955 -3.0000165853
39.1842986952 3.4688146643 -3.0000120743
39.1601758162 3.4691032111 -3.0000120741
39.4028540138 3.4839153614 -3.0000120594
39.3544129921 3.4869347217 -3.0000120565
39.2938170387 3.4899025532 -3.0000120535
39.4045005283 3.5080322490 -3.0000120356
39.4551194408 3.5285144698 -3.0000120154
39.7147275777 3.5238743612 -3.0000120200
39.4466013741 3.5776801110 -3.0000119669
39.6844561132 3.5768762579 -3.0000119677
39.3237946432 3.6095520248 -3.0000119355
39.3500352374 3.6324315983 -3.0000119129
40.0884570229 3.5522094434 -3.0000119921
40.0268153386 3.5660269299 -3.0000119784
40.1310119903 3.5669804003 -3.0000119775
39.1621344104 3.6866516465 -3.0000118594
39.2415895810 3.8061107447 -3.0000117415
40.7892826541 0.0809952752 -3.0000154173
40.8269817586 0.0233346657 -3.0000154742
40.8224953433 0.0445127428 -3.0000154533
40.8189662533 0.0603606522 -3.0000154376
40.8152966610 0.0761766189 -3.0000154220
40.8323073628 0.1083773910 -3.0000153903
40.8210703769 0.1507811852 -3.0000153484
40.8398315423 0.1732868691 -3.0000153262
40.8856271546 0.2704607845 -3.0000152303
40.8744083620 0.3032095459 -3.0000151980
40.9792782710 0.2952351935 -3.0000152059
40.9615398586 0.3467666379 -3.0000151550
41.3518397302 -0.0379788148 -3.0000155347
41.3854379488 -0.5714152815 -3.0000160611
41.1971726257 -1.3529375263 -3.0000168322
41.4190724828 -0.2636011131 -3.0000157573
41.1411890684 -1.5648320795 -3.0000170413
41.2192318624 -1.4188175351 -3.0000168972
41.2659653614 -1.3769768367 -3.0000168559
41.4929864138 -0.3483585117 -3.0000158410
41.5396021986 -0.2520559723 -3.0000157459
41.1515340939 1.1281368800 -3.0000143840
41.1741400846 1.4558940984 -3.0000140606
39.8384010496 3.4549990033 -3.0000120880
39.9224042037 3.4610903097 -3.0000120820
39.8885903488 3.4688158751 -3.0000120743
39.8773039925 3.4713243412 -3.0000120719
39.8660102651 3.4737994091 -3.0000120694
39.8547092653 3.4762410574 -3.0000120670
39.9957252070 3.4681810255 -3.0000120750
39.9505359622 3.4792821288 -3.0000120640
39.8938698823 3.4924053179 -3.0000120511
40.0469625065 3.4799150191 -3.0000120634
40.0129766879 3.4887452284 -3.0000120547
40.1552335548 3.4748159026 -3.0000120684
40.0986111415 3.4909671368 -3.0000120525
40.0758963278 3.4971928366 -3.0000120463
39.8929331781 3.5421392132 -3.0000120020
40.2187557036 3.4809219741 -3.0000120624
40.2074320907 3.4844070759 -3.0000120590
40.2713631340 3.4896539044 -3.0000120538
40.2600134602 3.4932945904 -3.0000120502
40.2259005158 3.5040149804 -3.0000120396
40.3357042557 3.4938423689 -3.0000120496
39.9490735822 3.6286033977 -3.0000119167
40.1425922976 3.6041790235 -3.0000119408
39.8715263168 3.6703435997 -3.0000118755
39.8764563759 3.6940085485 -3.0000118521
40.6515664442 3.5033347547 -3.0000120403
40.3620118340 3.6889349429 -3.0000118571
40.9182038113 3.5150718149 -3.0000120287
40.2801949511 3.7654771446 -3.0000117816
40.2872030122 3.7886120179 -3.0000117588
40.6968872958 3.7461526067 -3.0000118007
40.8006978249 -0.0050162700 -3.0000155022
40.8000490066 0.0109921558 -3.0000154864
40.8241976234 0.0120782445 -3.0000154853
40.8239464648 0.0174844603 -3.0000154800
40.8501917214 -0.0800280417 -3.0000155762
40.8642237061 0.1250271708 -3.0000153738
40.8984179074 -0.0465276255 -3.0000155431
40.8899454859 0.1107433572 -3.0000153879
40.9452838085 -0.1497577722 -3.0000156450
40.9467866506 -0.0920835510 -3.0000155881
40.9262951053 0.2127035606 -3.0000152873
40.9688182546 0.0244295801 -3.0000154731
40.9918265535 -0.1871631357 -3.0000156819
40.9934948563 0.0137738455 -3.0000154836
41.0376402423 -0.2262447926 -3.0000157205
41.0432588580 -0.0326186923 -3.0000155294
41.3301762436 -0.4305876638 -3.0000159221
41.3705339075 0.1637394619 -3.0000153356
41.4156542855 0.1971219719 -3.0000153027
41.3991621640 0.3183886107 -3.0000151830
41.3417469450 -0.8061854397 -3.0000162927
41.3295079818 -0.9177452946 -3.0000164028
41.4149224060 -0.6292550101 -3.0000161181
41.4663337852 -0.4966300885 -3.0000159873
41.4700215519 -0.4746951579 -3.0000159656
41.4197355514 -0.7992801465 -3.0000162859
41.4452491201 0.5681355098 -3.0000149366
41.4547704078 -0.8496543933 -3.0000163356
41.5013795699 0.5433488501 -3.0000149611
41.4736921177 -0.9453243131 -3.0000164300
41.4134024397 0.9599463640 -3.0000145500
41.5941621621 0.4611216127 -3.0000150422
41.2805402547 1.3234276074 -3.0000141913
40.8140478317 -3.3930751986 -3.0000188453
40.4775344966 3.4158530590 -3.0000121266
40.8650893439 -3.3924060678 -3.0000188447
40.5387116094 3.4156732760 -3.0000121268
40.5180614860 3.4247363413 -3.0000121178
40.5077164070 3.4292220192 -3.0000121134
40.8966868552 -3.4022916399 -3.0000188544
40.9261831701 -3.3852975853 -3.0000188377
40.6002052605 3.4144416086 -3.0000121280
40.5795613478 3.4238685124 -3.0000121187
40.5692185669 3.4285361218 -3.0000121141
40.5484918086 3.4377794513 -3.0000121050
40.9776814781 -3.3829792412 -3.0000188354
40.6931293808 3.4239794082 -3.0000121186
41.0617125107 -3.3883412597 -3.0000188407
40.7555019707 3.4200904267 -3.0000121224
40.8181283026 3.4151160890 -3.0000121273
40.7974765854 3.4258322869 -3.0000121168
40.8500399604 3.4256346055 -3.0000121170
40.9131791389 3.4190249689 -3.0000121235
41.2321507048 -3.3931822047 -3.0000188454
40.9765257413 3.4113077495 -3.0000121311
40.9662183805 3.4171497063 -3.0000121253
41.9433063051 3.0879135791 -3.0000124502
42.1246161264 2.9433748348 -3.0000125928
40.7999233941 -0.0234076421 -3.0000155203
40.8232122066 -0.0318260588 -3.0000155286
40.8271195339 0.0004098663 -3.0000154968
40.8337986058 -0.1216493758 -3.0000156172
40.8449861235 -0.0512509287 -3.0000155478
40.8555174975 0.0413628646 -3.0000154564
40.8559917952 0.0468258690 -3.0000154510
40.8775112350 0.0171143722 -3.0000154803
40.9059435875 0.0651510430 -3.0000154329
40.9563882206 0.0961561763 -3.0000154023
40.9917614549 -0.0478128979 -3.0000155444
40.9625586516 -0.3207300910 -3.0000158137
41.0312332939 0.1519196940 -3.0000153473
40.9993887164 -0.3686968438 -3.0000158610
41.3398899919 0.0332896316 -3.0000154644
41.3702779564 0.5435818889 -3.0000149608
41.4116819099 0.0208710674 -3.0000154766
41.2448329210 -0.9807799166 -3.0000164650
41.5348422219 0.9272777219 -3.0000145822
40.1912351201 -3.4701256405 -3.0000189214
40.2237981704 -3.4594893936 -3.0000189109
40.2454538770 -3.4522381986 -3.0000189037
40.2562655478 -3.4485645867 -3.0000189001
41.3181259486 3.2976459244 -3.0000122432
40.2640762851 -3.4714409428 -3.0000189227
40.2749446796 -3.4677121584 -3.0000189190
40.2858019961 -3.4639512397 -3.0000189153
40.2966481397 -3.4601582196 -3.0000189115
40.3074830153 -3.4563331312 -3.0000189078
40.3482018236 -3.4673755164 -3.0000189187
40.3590578238 -3.4633978913 -3.0000189147
40.4109804515 -3.4697515120 -3.0000189210
40.4326935963 -3.4613927042 -3.0000189128
40.4435315285 -3.4571651633 -3.0000189086
40.4632412532 -3.4753867654 -3.0000189266
40.4741204487 -3.4710687978 -3.0000189223
40.4849868233 -3.4667186665 -3.0000189180
40.4958402819 -3.4623364095 -3.0000189137
40.5267239506 -3.4758229953 -3.0000189270
40.5484709905 -3.4667793037 -3.0000189181
40.6014137048 -3.4704869662 -3.0000189217
40.8595502584 -3.4832558431 -3.0000189343
40.8704509980 -3.4777654874 -3.0000189289
41.0340979612 -3.4457522903 -3.0000188973
40.6993674098 -3.6651256690 -3.0000191138
40.7835536935 -0.0969895691 -3.0000155929
40.7852491481 -0.0919253037 -3.0000155879
40.7940137341 -0.1404767190 -3.0000156358
40.8098859668 -0.0944284394 -3.0000155904
40.8165456480 -0.0738301988 -3.0000155701
40.8204413948 -0.1383266496 -3.0000156337
40.8874614929 -0.0030961614 -3.0000155003
40.8760400915 -0.3250205804 -3.0000158179
40.9005187100 -0.3294555116 -3.0000158223
40.9141820142 -0.4149304474 -3.0000159066
41.0108993266 -0.2510351254 -3.0000157449
40.9394827587 -0.5247479268 -3.0000160150
40.9842618993 -0.4912235304 -3.0000159819
41.2466132634 0.7586465673 -3.0000147486
41.2878235804 0.4150401253 -3.0000150877
41.2820378051 0.6508801801 -3.0000148550
41.2992918476 0.7253375639 -3.0000147815
41.2900882465 0.7976556355 -3.0000147101
41.2560952522 0.9800370705 -3.0000145302
41.1989305114 1.1841917048 -3.0000143287
41.3110655163 0.8209770561 -3.0000146871
41.2550035574 1.0828551167 -3.0000144287
41.3214283803 -0.0616609228 -3.0000155581
41.3979928102 0.2460168497 -3.0000152545
41.4166746777 0.1950105539 -3.0000153048
41.4337214500 0.4946885844 -3.0000150091
41.4102580155 0.0040691298 -3.0000154932
41.1154195132 -1.0552068370 -3.0000165384
41.0591807628 -1.1655607710 -3.0000166473
41.6719351476 0.3423833750 -3.0000151594
41.3814308561 -0.8245976109 -3.0000163109
41.4505066346 -0.7993962851 -3.0000162860
40.9762853013 -1.6675548265 -3.0000171427
39.5575044643 -3.4725728673 -3.0000189238
39.5925505364 -3.4681127087 -3.0000189194
39.6074526288 -3.4905132857 -3.0000189415
39.6191918863 -3.4889132918 -3.0000189399
39.6543805413 -3.4839050484 -3.0000189350
39.6778143538 -3.4803928151 -3.0000189315
39.7012269767 -3.4767420009 -3.0000189279
39.6814680623 -3.5042881221 -3.0000189551
39.7167907079 -3.4987266072 -3.0000189496
39.7755476425 -3.4887615328 -3.0000189398
39.7872809824 -3.4866642911 -3.0000189377
39.7990080670 -3.4845323492 -3.0000189356
39.8341507627 -3.4779285106 -3.0000189291
39.8151579849 -3.5061295122 -3.0000189569
39.8387204709 -3.5016656766 -3.0000189525
39.9092437032 -3.4874388663 -3.0000189385
39.8077258156 -3.5320859188 -3.0000189825
39.8551316144 -3.5231050458 -3.0000189736
39.9142339832 -3.5110911894 -3.0000189618
39.9260327715 -3.5085835907 -3.0000189593
39.9378240902 -3.5060411000 -3.0000189568
40.1142681120 -3.5135750433 -3.0000189642
40.1860992553 -3.5443232859 -3.0000189946
39.6701880026 -3.6770234838 -3.0000191255
39.7315871144 -3.6677281787 -3.0000191164
40.3117378992 -3.5327202027 -3.0000189831
40.3784086315 -3.5369398047 -3.0000189873
40.3902818537 -3.5330589804 -3.0000189835
40.4573558209 -3.5359805419 -3.0000189864
40.4413270664 -3.5670016552 -3.0000190170
40.6011598220 -3.5610873463 -3.0000190111
40.6250337007 -3.5519722980 -3.0000190021
39.7035523478 -3.8187361234 -3.0000192654
39.7670437948 -3.8089318456 -3.0000192557
40.5494628862 -3.6059881276 -3.0000190554
40.1252226877 -3.7602259406 -3.0000192076
40.3740239214 -3.6905598364 -3.0000191389
40.7503543646 -3.5538495985 -3.0000190040
39.9909930539 -3.9395695458 -3.0000193846
40.7695823731 -0.1335773273 -3.0000156290
40.7771897597 -0.1194770319 -3.0000156151
40.7846717145 -0.1053097804 -3.0000156011
40.9185357168 -0.1622285788 -3.0000156573
41.1724232477 0.9387127438 -3.0000145709
41.0889883930 1.3373365975 -3.0000141776
41.0787201001 1.4407873560 -3.0000140755
41.0603930746 1.5502709016 -3.0000139675
40.8450648458 -0.5473958032 -3.0000160374
41.2647636596 0.4786871483 -3.0000150249
41.2710249148 0.9241021017 -3.0000145853
41.2612276542 1.0103220077 -3.0000145003
41.2891384008 0.9824478696 -3.0000145278
41.3056073313 1.0418930763 -3.0000144691
41.2516240316 -0.0687751283 -3.0000155651
41.3704516922 0.0521059948 -3.0000154458
41.7775296757 0.5018791934 -3.0000150020
38.9878629935 -3.4873825691 -3.0000189384
39.0377868440 -3.4894145858 -3.0000189404
39.0627569121 -3.4902090346 -3.0000189412
39.1002197345 -3.4911236781 -3.0000189421
39.0243920507 -3.5131177973 -3.0000189638
39.0369466742 -3.5135730087 -3.0000189642
39.1374209315 -3.5158773635 -3.0000189665
39.1751086058 -3.5161283950 -3.0000189668
39.2253594819 -3.5159428223 -3.0000189666
39.1497864615 -3.5401704302 -3.0000189905
39.2131185755 -3.5643899463 -3.0000190144
39.4670326426 -3.5551858636 -3.0000190053
39.6189633639 -3.5424603045 -3.0000189927
39.5877185402 -3.6183566695 -3.0000190676
39.8863209766 -3.6047470524 -3.0000190542
40.0142452138 -3.5820936342 -3.0000190319
39.5551603271 -3.6940293277 -3.0000191423
39.6649338533 -3.7320888985 -3.0000191799
38.9610173773 -3.7765025209 -3.0000192237
40.5909431581 -3.6843164447 -3.0000191327
41.0336494646 -3.5706379865 -3.0000190206
41.2581815005 -3.4939496461 -3.0000189449
41.3064344714 -3.4969855136 -3.0000189479
41.0179715925 1.3984044272 -3.0000141173
41.0085536689 1.4330278649 -3.0000140832
41.0976947570 0.9156005540 -3.0000145937
41.0982753555 0.9571757205 -3.0000145527
41.0982667609 0.9675707494 -3.0000145425
41.0973013641 1.0195351257 -3.0000144912
41.0962423519 1.0455009210 -3.0000144656
41.0796432422 1.2161456895 -3.0000142972
40.9988330888 1.5436418278 -3.0000139740
41.1197218235 0.8623320275 -3.0000146463
41.1224396157 0.9676622438 -3.0000145424
41.0942091452 1.2768546154 -3.0000142373
41.0564988414 1.4411279074 -3.0000140752
41.0216379206 1.5516589923 -3.0000139661
40.9898183469 1.6353802206 -3.0000138835
40.7455718790 -0.1736431627 -3.0000156686
41.1462686475 0.9250317954 -3.0000145844
41.1456205096 1.0211479814 -3.0000144896
41.1297334676 1.2073067369 -3.0000143059
41.0826259845 1.4373509691 -3.0000140789
40.9711501856 1.7373189913 -3.0000137829
41.1045061193 1.4489483062 -3.0000140675
41.1015879238 1.4593715916 -3.0000140572
41.0386333400 1.6436568309 -3.0000138753
41.0111292789 1.7084099962 -3.0000138114
41.1938574030 0.8966633786 -3.0000146124
41.1949708247 0.9624531865 -3.0000145475
41.1870415651 1.1321987979 -3.0000143800
41.1527597662 1.3542561844 -3.0000141609
41.1746671023 0.5546366690 -3.0000149499
41.2048610637 0.7297483351 -3.0000147771
41.2094977322 1.1510192042 -3.0000143614
41.2023240100 1.2116996545 -3.0000143016
41.1863393377 1.3103929332 -3.0000142042
41.1925490672 1.3974401447 -3.0000141183
41.1788279427 1.4520050868 -3.0000140644
41.1875680483 0.4118238454 -3.0000150908
41.2640255033 1.0764054849 -3.0000144351
41.2670878469 0.6522781785 -3.0000148536
41.2915072843 0.9856108331 -3.0000145247
41.2822198518 1.1526196056 -3.0000143599
40.7494838901 -0.4574868960 -3.0000159486
41.3571083238 1.1299509960 -3.0000143822
41.2775681528 1.5465168384 -3.0000139712
41.2208088658 0.1498167009 -3.0000153494
41.2255747337 0.1609508093 -3.0000153384
41.3756247996 0.7329731089 -3.0000147739
41.4503381508 0.7498384607 -3.0000147573
41.2915771910 0.0709315128 -3.0000154272
41.2945100734 0.0202511754 -3.0000154772
41.5063891996 1.0716885591 -3.0000144397
41.5340785536 -0.0951243527 -3.0000155911
41.6232099810 -0.0158408945 -3.0000155128
38.3466056467 -3.4655951800 -3.0000189169
38.3597044330 -3.4685182444 -3.0000189198
38.3859276597 -3.4742480637 -3.0000189254
38.4516300182 -3.4878929867 -3.0000189389
38.5307284881 -3.5029819489 -3.0000189538
38.5968399930 -3.5144820687 -3.0000189651
38.8627694639 -3.5506698786 -3.0000190008
38.9696624478 -3.5607297381 -3.0000190108
38.4336632636 -3.5089313618 -3.0000189597
38.9542369302 -3.5836964728 -3.0000190334
39.1292496630 -3.5952170709 -3.0000190448
39.1427284699 -3.5958243655 -3.0000190454
38.3492445498 -3.5157192186 -3.0000189664
38.4288530115 -3.5326209536 -3.0000189830
39.1958934162 -3.6220156153 -3.0000190712
38.7062505336 -3.6045410442 -3.0000190540
39.3450929640 -3.6484926304 -3.0000190974
39.3996334154 -3.6481248492 -3.0000190970
38.3012986940 -3.6040481719 -3.0000190535
39.6496301806 -3.7108484740 -3.0000191589
38.5690747736 -3.6813997772 -3.0000191298
39.5261053278 -3.7415556221 -3.0000191892
39.8176876588 -3.7210106110 -3.0000191689
39.3032141754 -3.7692061653 -3.0000192165
39.9035818796 -3.7358194488 -3.0000191835
38.5571753939 -3.7529359380 -3.0000192004
39.5582924762 -3.8369732011 -3.0000192834
39.7991984257 -3.8199988687 -3.0000192666
40.2071540630 -3.7631818433 -3.0000192105
40.2350882851 -3.7579763731 -3.0000192054
40.2490437248 -3.7553116850 -3.0000192028
39.1739574453 -3.8631504792 -3.0000193092
39.5165832078 -3.8628671954 -3.0000193089
38.5294101745 -3.9198536465 -3.0000193651
40.9710626602 1.4683907509 -3.0000140483
41.0278247025 1.2068708273 -3.0000143063
41.0276707832 1.2112790719 -3.0000143020
41.0251174276 1.2597299558 -3.0000142542
41.0230606202 1.2861151582 -3.0000142281
41.0101624261 1.3911664506 -3.0000141245
41.0025933620 1.4346198743 -3.0000140816
40.9769340942 1.5463677878 -3.0000139713
41.0423923100 0.9794923782 -3.0000145307
41.0494149784 1.0553615178 -3.0000144558
41.0511962596 1.0866874399 -3.0000144249
41.0527954739 1.1673459924 -3.0000143453
41.0503619735 1.2435005870 -3.0000142702
41.0492330658 1.2613946709 -3.0000142525
41.0392465196 1.3594839099 -3.0000141557
41.0386410932 1.3639252746 -3.0000141514
41.0279866522 1.4303067732 -3.0000140858
41.0538514060 0.8910610015 -3.0000146180
41.0597208355 0.9270158184 -3.0000145825
41.0658585217 0.9721381288 -3.0000145379
41.0769302442 1.1720641422 -3.0000143407
41.0699233241 0.8459819608 -3.0000146624
41.0843068656 0.9279783612 -3.0000145815
41.0992685736 1.0798225235 -3.0000144317
41.1011731885 1.1537984209 -3.0000143587
41.0867392347 0.8090214744 -3.0000146989
41.1149552985 0.9756603951 -3.0000145345
41.1205472241 1.2804417696 -3.0000142337
41.1026714789 0.7712335097 -3.0000147362
41.1395078057 0.9776370129 -3.0000145325
41.1450106999 1.2775658392 -3.0000142366
41.0867472066 0.6307750860 -3.0000148748
41.1460223565 0.7453718779 -3.0000147617
41.1484297922 0.7548952666 -3.0000147523
41.1905732385 1.0015696670 -3.0000145089
41.1388234206 0.6341346384 -3.0000148715
41.1823700510 0.6943334351 -3.0000148121
41.2028774711 1.5394284594 -3.0000139782
41.2034044513 1.6341741541 -3.0000138847
41.2522936659 1.5401097780 -3.0000139775
41.3183186881 1.1954962007 -3.0000143175
41.1353283693 0.3165600912 -3.0000151848
40.5985350008 -1.0869704596 -3.0000165698
38.3508413736 -3.5965557391 -3.0000190461
38.5061245933 -3.6326484391 -3.0000190817
38.8915636648 -3.6996734149 -3.0000191479
38.9751018569 -3.7343885263 -3.0000191821
38.0155380403 -3.5508788884 -3.0000190011
38.0853365145 -3.5728752605 -3.0000190228
38.5676011633 -3.6947878695 -3.0000191431
39.3663266881 -3.7878298331 -3.0000192349
38.7074951074 -3.7451880075 -3.0000191928
39.4831218326 -3.8146687952 -3.0000192613
39.5713692450 -3.8148519315 -3.0000192615
38.1703547530 -3.6484314092 -3.0000190973
37.7273206134 -3.5255839410 -3.0000189761
37.6311142173 -3.5655439825 -3.0000190155
38.6586215902 -4.2271578672 -3.0000196684
37.3425317460 -4.1003263485 -3.0000195432
40.9675545959 1.3260404868 -3.0000141887
40.9666826246 1.3615568199 -3.0000141537
40.9660397333 1.3757535202 -3.0000141397
40.9595055531 1.4536284069 -3.0000140628
40.9820225672 1.1599680637 -3.0000143526
40.9833445298 1.1707603893 -3.0000143420
40.9876731733 1.2140342461 -3.0000142993
40.9882451517 1.2212603162 -3.0000142921
40.9871862136 1.4203764835 -3.0000140956
40.9861969942 1.4312043791 -3.0000140850
40.9858459054 1.4348116742 -3.0000140814
41.0097538673 1.1899721114 -3.0000143230
41.0101162841 1.1936501474 -3.0000143194
41.0104678189 1.1973292394 -3.0000143157
41.0108084688 1.2010093553 -3.0000143121
41.0149315994 1.2636967304 -3.0000142503
41.0159551051 1.3117289119 -3.0000142029
41.0158983514 1.3265121154 -3.0000141883
41.0156666799 1.3412936125 -3.0000141737
41.0151311642 1.3597649312 -3.0000141555
41.0137062803 1.3892966838 -3.0000141263
40.9965387059 0.9839727897 -3.0000145263
41.0048969550 1.0168316337 -3.0000144938
41.0074882723 1.0278325932 -3.0000144830
41.0400702291 1.3267479297 -3.0000141880
41.0389918799 1.3681730060 -3.0000141472
41.0339576135 1.4395661108 -3.0000140767
41.0368152681 1.0486386997 -3.0000144625
41.0413306283 1.0712246640 -3.0000144402
41.0621003921 1.2387328339 -3.0000142749
41.0876022662 1.3624025274 -3.0000141529
41.0249467523 0.8363965436 -3.0000146719
41.0590671220 0.9383192446 -3.0000145713
41.0849467008 1.0426393481 -3.0000144684
41.1078008909 1.2001726008 -3.0000143129
41.0678646574 0.8851132945 -3.0000146238
41.0856228359 0.9432578214 -3.0000145664
41.1202044341 1.1015658205 -3.0000144102
41.0626775803 0.8000050622 -3.0000147078
41.1569674903 1.2084072509 -3.0000143048
41.0589899786 0.6730485444 -3.0000148331
41.1091831196 0.7861421386 -3.0000147215
41.1100464145 0.6674106541 -3.0000148386
41.0861822749 0.5695281458 -3.0000149352
40.6752612736 -0.2456721893 -3.0000157396
40.7060693606 -0.2555536820 -3.0000157494
40.6901019083 -0.2929399053 -3.0000157863
40.6798370717 -0.3541260838 -3.0000158466
40.7014238846 -0.3698291768 -3.0000158621
40.8137594386 -0.3023773940 -3.0000157956
40.8482164630 -0.3664509572 -3.0000158588
40.2670497932 -1.1662297375 -3.0000166480
40.0819146259 -1.3182585456 -3.0000167980
38.2379940076 -3.7713493978 -3.0000192186
38.1706933629 -3.7759722403 -3.0000192232
38.3306700675 -3.8484880766 -3.0000192947
37.9599408903 -3.7563929966 -3.0000192038
38.1107106501 -3.8076108498 -3.0000192544
37.8318073818 -3.7347943295 -3.0000191825
37.7844029041 -3.7683010363 -3.0000192156
37.2074949583 -3.5856435058 -3.0000190354
37.2476300937 -3.6877274573 -3.0000191361
40.9294483570 1.3654904408 -3.0000141498
40.9495523239 1.3197946371 -3.0000141949
40.9507514625 1.3307943708 -3.0000141840
40.9601028318 1.2330000554 -3.0000142805
40.9725816922 1.1799527003 -3.0000143329
40.9801033151 1.2110566032 -3.0000143022
40.9946493378 1.2911829257 -3.0000142231
41.0026728964 1.3751430418 -3.0000141403
40.9656746285 1.0772258551 -3.0000144343
40.9697428250 1.0884333368 -3.0000144232
40.9746411193 1.1025090933 -3.0000144093
41.0245636798 1.3411676593 -3.0000141738
41.0489039894 1.3421589834 -3.0000141728
41.0403915877 1.1527015333 -3.0000143598
40.9895578529 0.9493759298 -3.0000145604
40.9909654289 0.9522444853 -3.0000145576
41.0173178229 1.0104537252 -3.0000145001
41.0358924159 1.0580796430 -3.0000144531
41.0319122475 0.9831204158 -3.0000145271
41.0619178194 1.0590586455 -3.0000144522
41.4034629144 1.0154103250 -3.0000144952
41.4955644711 1.2081685845 -3.0000143050
40.6193842922 -0.2765030875 -3.0000157700
40.6376029899 -0.2956871189 -3.0000157890
40.6680738635 -0.2844644659 -3.0000157779
40.6731327692 -0.2825415196 -3.0000157760
40.6146854071 -0.3292649929 -3.0000158221
40.6970974126 -0.2991885883 -3.0000157924
40.6851847679 -0.3296812557 -3.0000158225
40.7007449090 -0.3237139333 -3.0000158166
40.7356468765 -0.3358619081 -3.0000158286
40.7408575295 -0.3337388438 -3.0000158265
40.7668153365 -0.3228928267 -3.0000158158
40.6594746319 -0.3905256586 -3.0000158826
40.7972109034 -0.3360613359 -3.0000158288
39.7070080028 -1.2305021280 -3.0000167114
39.7734678839 -1.2860541499 -3.0000167662
35.6869397713 -3.4758079187 -3.0000189270
35.4425656351 -3.4824580917 -3.0000189335
41.3615384843 1.2197582632 -3.0000142936
41.3789102444 0.8763137102 -3.0000146325
41.3867618452 0.8416017654 -3.0000146668
40.5834669299 -0.3155423294 -3.0000158086
40.7772738198 -0.3733618400 -3.0000158656
40.8880108024 -0.4423362656 -3.0000159337
47.7540846641 -0.5142474843 -3.0000160046
47.7592893210 -0.5868778783 -3.0000160763
47.7891965777 -0.4761902507 -3.0000159671
47.8067100995 -0.5045646869 -3.0000159951
48.5742375017 -0.4221360081 -3.0000159138
41.3400700852 1.1758328041 -3.0000143370
41.3454845335 1.1291971204 -3.0000143830
41.3520044053 1.1430495737 -3.0000143693
40.5374153961 -0.3258069101 -3.0000158187
40.5915337911 -0.3259202575 -3.0000158188
40.4657718745 -0.3474028102 -3.0000158400
40.4822011821 -0.3482398588 -3.0000158408
40.5589400258 -0.3502170821 -3.0000158428
40.6143638827 -0.3738488604 -3.0000158661
40.3901599971 -0.3902257851 -3.0000158823
40.4294082683 -0.3935084611 -3.0000158855
40.4518636718 -0.3950191647 -3.0000158870
40.5812019074 -0.3985430812 -3.0000158905
40.4106001713 -0.4162929946 -3.0000159080
40.5471778347 -0.4226439491 -3.0000159143
40.3684066075 -0.4366617245 -3.0000159281
40.4316325586 -0.4421382530 -3.0000159335
40.6161425420 -0.4463461287 -3.0000159376
40.3717402701 -0.4612975256 -3.0000159524
40.3134156399 -0.5033292949 -3.0000159939
40.3907585508 -0.5116453208 -3.0000160021
39.9901917039 -1.0345959121 -3.0000165181
39.8418434296 -1.0213424678 -3.0000165050
34.0886752592 -1.8950594865 -3.0000173672
34.0472086631 -1.8677653876 -3.0000173402
34.0293830699 -2.3833187272 -3.0000178490
48.4763556612 -1.9924679606 -3.0000174633
48.4866626143 -1.9690592233 -3.0000174402
48.5292634461 -1.9317279534 -3.0000174033
48.4890627915 -2.0824489459 -3.0000175521
48.5309382989 -1.9884758368 -3.0000174593
48.5221670826 -2.2978029398 -3.0000177646
48.5300362309 -2.4472623712 -3.0000179121
48.5399363149 -2.4816061804 -3.0000179459
48.5352100885 -2.5977791165 -3.0000180606
48.5473074039 -2.5741936286 -3.0000180373
48.5567025176 -2.6088430567 -3.0000180715
41.3254671809 0.6653848431 -3.0000148406
41.3277016904 0.6202165660 -3.0000148852
41.3346661734 0.6321662455 -3.0000148734
41.3532176996 0.6661579643 -3.0000148399
41.3351819554 0.5860964030 -3.0000149189
41.3411708957 0.5957388252 -3.0000149094
41.3299247385 0.5344265465 -3.0000149699
41.3365254286 0.5440103800 -3.0000149604
41.3446160653 0.5560989018 -3.0000149485
41.3376384133 0.5036087182 -3.0000150003
41.3369628537 0.4625641781 -3.0000150408
41.3344585984 0.4209510270 -3.0000150818
41.3404266077 0.4281762944 -3.0000150747
40.4775863088 -0.4659003792 -3.0000159569
40.4914583693 -0.4662444498 -3.0000159573
40.5047776360 -0.5148082669 -3.0000160052
39.8844227746 -1.2764937006 -3.0000167568
39.7794556266 -1.2710696218 -3.0000167514
39.9136612542 -1.3091158291 -3.0000167890
39.9077243017 -1.3325484533 -3.0000168121
39.5539801963 -1.2404834268 -3.0000167213
39.6095651824 -1.2627659873 -3.0000167432
39.9527124937 -1.3683239496 -3.0000168474
39.8738979254 -1.3737479851 -3.0000168528
39.3894761027 -1.2192205051 -3.0000167003
39.4238585813 -1.2357367267 -3.0000167166
39.5284187913 -1.2822094773 -3.0000167624
39.6349375300 -1.3239983797 -3.0000168037
39.6636466265 -1.3343403212 -3.0000168139
39.8309351972 -1.3871584981 -3.0000168660
39.9138783849 -1.4336669866 -3.0000169119
39.9588898987 -1.4440843624 -3.0000169222
39.3196089075 -1.2382207370 -3.0000167190
39.5385191410 -1.3386359655 -3.0000168181
39.7063892630 -1.3999510929 -3.0000168786
39.2807327067 -1.2451688646 -3.0000167259
39.4692515952 -1.3621596541 -3.0000168413
40.0673944316 -1.5394008788 -3.0000170162
39.2439878104 -1.2803499851 -3.0000167606
39.9457237044 -1.5401963450 -3.0000170170
39.5172341940 -1.4342749309 -3.0000169125
40.8137658816 -1.6113418522 -3.0000170872
39.8404773738 -1.5648664514 -3.0000170413
39.9036581004 -1.5802787192 -3.0000170566
39.1665029161 -1.3205105037 -3.0000168002
39.5299329855 -1.4911376830 -3.0000169686
38.9371043168 -1.2060120860 -3.0000166872
40.0092067082 -1.7746049052 -3.0000172483
40.3948961187 -1.8174312493 -3.0000172906
39.9059884599 -1.8036464040 -3.0000172770
38.6158538133 -1.2052829163 -3.0000166865
38.6295085400 -1.2165276698 -3.0000166976
39.9879079057 -1.8935786127 -3.0000173657
40.1328976086 -2.0377729781 -3.0000175080
39.7414896298 -1.9886619306 -3.0000174595
34.0422420663 -1.8003930827 -3.0000172738
34.0508415686 -1.8195525247 -3.0000172927
34.0462307456 -1.8678559539 -3.0000173403
34.0419656931 -1.9163156800 -3.0000173881
34.0509081166 -1.9354754323 -3.0000174070
34.0162763373 -2.1416393179 -3.0000176105
34.0004524187 -2.2707961753 -3.0000177379
34.0078503593 -2.4397318004 -3.0000179046
33.9885367289 -2.6530771311 -3.0000181151
33.9731274373 -2.8180745070 -3.0000182780
33.9550544996 -2.8818080685 -3.0000183408
48.4512828257 -2.8128366001 -3.0000182728
48.4613301591 -2.8470279689 -3.0000183065
48.4729627070 -2.8235285610 -3.0000182833
48.4594409142 -2.9048069741 -3.0000183635
48.4691198406 -2.9392137653 -3.0000183975
48.4906716919 -2.9501615042 -3.0000184083
48.5380023509 -2.8556044437 -3.0000183150
48.5001838350 -2.9847241896 -3.0000184424
40.9250901342 0.8238024752 -3.0000146843
40.9286948284 0.8351200313 -3.0000146732
40.9292760566 0.8370124338 -3.0000146713
40.9392544943 0.7910937713 -3.0000147166
40.9399659140 0.7930176039 -3.0000147147
40.9474143824 0.8143143879 -3.0000146937
40.9633811071 0.7866600931 -3.0000147210
40.9663050806 0.7295866180 -3.0000147773
40.9774524229 0.7558405918 -3.0000147514
40.9406635675 0.6296922259 -3.0000148759
40.9447483471 0.5914502104 -3.0000149136
40.9473465545 0.5953359693 -3.0000149098
41.3655520960 0.6932496705 -3.0000148131
41.3612529395 0.6088712518 -3.0000148964
41.3674326627 0.5033917032 -3.0000150005
41.3898438208 0.5517379976 -3.0000149528
41.3968347935 0.5680685249 -3.0000149367
41.3760514434 0.4668660827 -3.0000150365
41.3744964949 0.4135238202 -3.0000150892
41.3781398533 0.4199552274 -3.0000150828
41.3799472476 0.4231789862 -3.0000150796
41.3783041772 0.3723221102 -3.0000151298
41.4216684536 0.3506054707 -3.0000151512
40.5824656679 -0.5033307166 -3.0000159939
39.9726698168 -1.4293672502 -3.0000169076
39.9516598033 -1.4753649198 -3.0000169530
34.1351375482 -3.2297224225 -3.0000186842
34.1659615846 -3.3987503438 -3.0000188509
40.9407607945 0.7500797549 -3.0000147571
40.9440797337 0.7702213984 -3.0000147372
40.9469211264 0.7904359390 -3.0000147172
40.9472426408 0.7929673187 -3.0000147147
40.9481131820 0.6716179698 -3.0000148345
40.9698862293 0.5800220180 -3.0000149249
40.9635017486 0.5008821949 -3.0000150030
41.0102221543 0.5498302406 -3.0000149547
41.0239483206 0.5881741718 -3.0000149168
40.9681311557 0.4037982593 -3.0000150988
40.9739456562 0.4142073636 -3.0000150885
40.9824354589 0.4299481953 -3.0000150730
41.3747853631 0.7083579364 -3.0000147982
41.3815231178 0.6125358311 -3.0000148928
41.3840268389 0.6239966225 -3.0000148815
41.3864287533 0.6354791817 -3.0000148701
41.3887286718 0.6469826044 -3.0000148588
41.3821486908 0.5186335281 -3.0000149854
41.4231825724 0.7051427899 -3.0000148014
41.4287089912 0.6020080356 -3.0000149032
41.4225142952 0.4851884495 -3.0000150184
41.4672103202 0.6736756926 -3.0000148325
40.6436475061 -0.4324671987 -3.0000159239
40.6672162663 -0.4224551968 -3.0000159141
41.4117849750 0.3190057580 -3.0000151824
41.4524531552 0.2914604863 -3.0000152096
40.7247989804 -0.4761265902 -3.0000159670
40.3613555240 -1.6400122995 -3.0000171155
40.3128094853 -1.6932288949 -3.0000171680
36.8828696279 -3.7781613475 -3.0000192253
40.9417630122 0.8142685944 -3.0000146937
40.9656328625 0.8016141980 -3.0000147062
40.9659060200 0.8534966868 -3.0000146550
40.9842073392 0.7198733395 -3.0000147869
40.9902589140 0.8258645944 -3.0000146823
40.9911963879 0.6100359065 -3.0000148953
41.0064125384 0.7014127103 -3.0000148051
40.9922858973 0.5164295009 -3.0000149876
41.0168291694 0.6146446574 -3.0000148907
41.0304055606 0.6984681954 -3.0000148080
41.0283471030 0.4700531258 -3.0000150334
41.0259896059 0.2768263767 -3.0000152240
41.0302671514 0.2331750044 -3.0000152671
40.6893056345 -0.3679830141 -3.0000158603
41.3770508812 0.8317920172 -3.0000146764
41.3750696171 0.9085798744 -3.0000146007
41.4712404382 0.7452345508 -3.0000147618
40.9256870240 -1.5215177479 -3.0000169986
41.0154774781 -1.4816612698 -3.0000169592
38.5782915080 -3.8499573015 -3.0000192962
38.2795115792 -3.8299268809 -3.0000192764
37.2176340763 -3.6170474441 -3.0000190663
36.9148915282 -3.7397208695 -3.0000191874
40.9684644037 0.7507924042 -3.0000147564
40.9680538619 0.7612282722 -3.0000147461
40.9482883586 0.9305139002 -3.0000145790
40.9900155469 0.6202720889 -3.0000148852
40.9916114934 0.6450902149 -3.0000148607
40.9926932182 0.6699360655 -3.0000148361
40.9886923257 0.8154579673 -3.0000146926
40.9858559344 0.8437380848 -3.0000146646
40.9846198670 0.8543246328 -3.0000146542
41.0168529602 0.6691347238 -3.0000148369
41.0171651790 0.6800032287 -3.0000148262
41.0174492807 0.7234921137 -3.0000147833
41.0152096687 0.7850587029 -3.0000147225
41.0192302438 0.4738700699 -3.0000150296
41.0406597376 0.7607078950 -3.0000147466
41.0215516041 0.9332179204 -3.0000145764
41.0159194258 0.9622426215 -3.0000145477
41.0293008191 0.4067434139 -3.0000150959
41.0369286482 0.4397794576 -3.0000150633
41.0443691916 0.4767095729 -3.0000150268
41.0463879922 0.4878298463 -3.0000150158
41.0512881987 0.5175669727 -3.0000149865
41.0642226643 0.6449481523 -3.0000148608
41.0794591886 0.5443303795 -3.0000149601
41.0887323631 0.6513870431 -3.0000148545
41.0754248022 0.9039997162 -3.0000146052
41.1089440004 0.5917813642 -3.0000149133
41.1132095476 0.6581137189 -3.0000148478
41.1051457587 0.3172494144 -3.0000151842
41.1278925366 0.4034578128 -3.0000150991
41.1684613080 0.9347719299 -3.0000145748
41.3888771418 0.9321631428 -3.0000145774
41.3868404812 0.9463227958 -3.0000145634
41.4282736355 0.6845428672 -3.0000148217
41.4253741061 0.8103179761 -3.0000146976
41.4513736418 0.6448940112 -3.0000148609
41.4801596944 0.3174109315 -3.0000151840
40.7492898446 -1.5805549350 -3.0000170568
40.9400428586 -1.5183914895 -3.0000169955
40.6844461277 -1.6583172064 -3.0000171336
40.5562086175 -1.8292294506 -3.0000173022
38.6668564011 -3.6603714650 -3.0000191091
39.1641757851 -3.7590395660 -3.0000192065
39.3231722965 -3.7785181181 -3.0000192257
38.3187773284 -3.6067269388 -3.0000190562
38.7938390495 -3.7654534238 -3.0000192128
39.3561225952 -3.8546951078 -3.0000193008
38.8953123692 -3.8115388683 -3.0000192583
39.0698052654 -3.8426838090 -3.0000192890
39.4625248344 -3.8878502925 -3.0000193336
37.9280053499 -3.5586229965 -3.0000190087
37.7567806843 -3.5333570704 -3.0000189838
37.6459763842 -3.5055423515 -3.0000189563
38.0765263045 -3.8278271156 -3.0000192743
38.1356120642 -3.8754427757 -3.0000193213
41.0166982529 0.6428283504 -3.0000148629
40.9672977299 0.9367346654 -3.0000145729
41.0429040922 0.5793563811 -3.0000149255
40.9763955770 0.9898900877 -3.0000145204
40.9431862636 1.0813058158 -3.0000144302
41.0611864994 0.4394924289 -3.0000150635
41.0655217039 0.5012087706 -3.0000150026
41.0791845204 0.3830531215 -3.0000151192
41.0891052985 0.6468579023 -3.0000148589
41.0489627305 0.9120055552 -3.0000145973
41.0911109352 0.3040370619 -3.0000151972
41.0287630815 1.0606540134 -3.0000144506
41.0877239572 0.1812181781 -3.0000153184
41.1420778618 0.8217165036 -3.0000146864
41.1149382814 0.9466812227 -3.0000145631
41.0726913933 1.0813051641 -3.0000144302
41.0984481589 1.0812000153 -3.0000144303
41.2683184998 0.3389400898 -3.0000151628
41.1842308277 1.1943485122 -3.0000143187
41.0781103052 -1.6230318558 -3.0000170987
38.7342414479 -3.5242063011 -3.0000189747
38.7948699215 -3.5376391646 -3.0000189880
38.8800694419 -3.5549355969 -3.0000190051
39.0268961711 -3.5804699861 -3.0000190303
38.4392540144 -3.4704430917 -3.0000189217
38.5351629920 -3.4985001455 -3.0000189494
38.5954330375 -3.5148802682 -3.0000189655
38.6196077851 -3.5211824128 -3.0000189717
38.6438193952 -3.5273414213 -3.0000189778
39.1716682960 -3.6247795435 -3.0000190740
39.2337364394 -3.6317316938 -3.0000190808
39.5951959136 -3.6539003674 -3.0000191027
38.4321928848 -3.4935618229 -3.0000189445
38.6014178548 -3.5414404768 -3.0000189917
38.9822455297 -3.6222780591 -3.0000190715
39.7203755063 -3.6785177571 -3.0000191270
39.7580593963 -3.6779276344 -3.0000191264
38.4493201345 -3.5239902268 -3.0000189745
38.5464933938 -3.5517940893 -3.0000190020
39.1157877643 -3.6664905791 -3.0000191151
39.3147461126 -3.7121876432 -3.0000191602
38.5584150332 -3.6050946740 -3.0000190546
38.4162424111 -3.5897718332 -3.0000190394
39.2467376573 -3.7545378439 -3.0000192020
38.8354387094 -3.7186456951 -3.0000191666
40.3558237691 -3.7703738076 -3.0000192176
38.6728825411 -3.7333198787 -3.0000191811
38.9289675217 -3.7849136585 -3.0000192320
39.3828345319 -3.8384713217 -3.0000192848
40.2561652863 -3.8092845397 -3.0000192560
38.7957692028 -3.7847076491 -3.0000192318
40.0242818826 -3.8582298143 -3.0000193043
40.4927732566 -3.7957856043 -3.0000192427
38.4570179415 -3.7778523098 -3.0000192250
38.8076349578 -3.8609939356 -3.0000193071
38.3988934161 -3.7863639612 -3.0000192334
40.8530129113 -0.2780542942 -3.0000157716
40.8628779808 -0.3585220630 -3.0000158510
41.0416764222 0.8175693332 -3.0000146905
40.9043706541 -0.3833353497 -3.0000158755
41.1206062373 0.3285114179 -3.0000151730
41.1214246214 0.3467087151 -3.0000151551
41.1218970739 0.3603623462 -3.0000151416
41.1162083794 0.5468731093 -3.0000149576
41.0505815167 0.8721107524 -3.0000146367
41.0449726830 0.8894414294 -3.0000146195
41.0376739157 0.9110094584 -3.0000145983
41.0269214346 0.9410183245 -3.0000145687
41.1417136944 0.2811292823 -3.0000152198
41.1364777663 0.5858798601 -3.0000149191
41.1418536796 0.7093088371 -3.0000147973
41.1322234359 0.7552788956 -3.0000147519
41.1127463233 0.8327067225 -3.0000146755
41.0937998853 0.8956707283 -3.0000146134
41.1604903301 0.0744603319 -3.0000154237
41.1949918971 0.3867801022 -3.0000151156
41.1931238889 0.4868845288 -3.0000150168
41.0909071124 1.0420807630 -3.0000144689
41.0633107387 1.1039610351 -3.0000144079
41.2139728748 0.7183037418 -3.0000147884
40.9937527552 1.2824615406 -3.0000142317
41.1674199900 -0.1655713593 -3.0000156606
41.2660192086 0.4805335575 -3.0000150230
41.0660760785 1.3032262169 -3.0000142112
41.3306413696 0.2241877420 -3.0000152760
41.3195607819 0.6749892488 -3.0000148312
39.1770026032 -3.4804643084 -3.0000189316
39.2460579423 -3.4870605182 -3.0000189381
39.2921551758 -3.4907766341 -3.0000189417
39.3267551922 -3.4932056283 -3.0000189441
39.2207992553 -3.5090681724 -3.0000189598
39.2323846040 -3.5101229575 -3.0000189608
39.2555644087 -3.5121296901 -3.0000189628
39.2903553624 -3.5148825660 -3.0000189655
39.3251693763 -3.5173265833 -3.0000189679
39.3367786983 -3.5180725866 -3.0000189687
39.4064763493 -3.5218271379 -3.0000189724
39.4180986289 -3.5223326007 -3.0000189729
39.4413474196 -3.5232403732 -3.0000189738
39.4646011742 -3.5240105820 -3.0000189745
39.4762296585 -3.5243440915 -3.0000189749
39.5809159108 -3.5257973983 -3.0000189763
39.6158153458 -3.5256624239 -3.0000189762
39.1021985542 -3.5206310921 -3.0000189712
39.1952684373 -3.5309124035 -3.0000189814
39.4872732964 -3.5488091298 -3.0000189990
39.5926069070 -3.5499597790 -3.0000190001
39.6043115937 -3.5499145108 -3.0000190001
39.6160160952 -3.5498346183 -3.0000190000
39.2632738605 -3.5612713436 -3.0000190113
39.4749151250 -3.5726722731 -3.0000190226
39.4984607477 -3.5732430190 -3.0000190231
39.6750904849 -3.5730824062 -3.0000190230
39.1433946463 -3.5741008060 -3.0000190240
39.1551727120 -3.5753842833 -3.0000190252
39.3085908226 -3.5888947159 -3.0000190386
39.3204119286 -3.5896894483 -3.0000190393
39.4387323687 -3.5957122922 -3.0000190453
39.7230196892 -3.5958742716 -3.0000190455
39.1052166131 -3.5940437720 -3.0000190436
39.2950436235 -3.6121761686 -3.0000190615
39.4974321629 -3.6215781319 -3.0000190708
39.6404554034 -3.6220827141 -3.0000190713
39.1977242748 -3.6282966069 -3.0000190774
39.4369890014 -3.6440269049 -3.0000190930
39.5208954351 -3.6461849798 -3.0000190951
40.0712827832 -3.6171650699 -3.0000190665
40.1900873702 -3.6009669820 -3.0000190505
39.4843443857 -3.6696387765 -3.0000191182
39.7617109593 -3.6669249702 -3.0000191156
39.0966145990 -3.6660508750 -3.0000191147
39.9829535416 -3.6997668044 -3.0000191480
40.3333405033 -3.6504096131 -3.0000190993
39.2374413863 -3.7289307831 -3.0000191767
39.4089673087 -3.7396981381 -3.0000191874
40.2288311849 -3.6928207623 -3.0000191411
40.4940778165 -3.6421511914 -3.0000190911
39.4449715458 -3.7652404673 -3.0000192126
40.5354887440 -3.6574433707 -3.0000191062
39.0728152661 -3.7605688978 -3.0000192080
39.1592128716 -3.7702425019 -3.0000192175
39.2581734126 -3.7791047732 -3.0000192263
39.3325162909 -3.7842133097 -3.0000192313
39.7670035227 -3.7876741765 -3.0000192347
40.6072206364 -3.6898162380 -3.0000191382
39.9571381438 -3.8235486513 -3.0000192701
39.2760301695 -3.8773988254 -3.0000193232
39.0708085569 -3.8820721843 -3.0000193279
39.7595301303 -3.9089640109 -3.0000193544
39.0807016531 -3.9075797817 -3.0000193530
39.0876560778 -4.0786650452 -3.0000195218
39.1673424638 -4.0867527698 -3.0000195298
40.9010419397 -0.1985259436 -3.0000156931
40.9084481367 -0.1740131942 -3.0000156689
40.9409992341 -0.1473672728 -3.0000156426
41.1098147369 0.6324975287 -3.0000148731
41.1817131683 0.3184350895 -3.0000151830
41.1379569272 0.6193562800 -3.0000148861
41.0924193270 0.7748398356 -3.0000147326
41.2071622611 0.2898393184 -3.0000152112
41.2186790385 0.4468076852 -3.0000150563
41.1116824646 0.8617364314 -3.0000146469
41.2092100716 -0.1712245538 -3.0000156662
41.2359279216 -0.0354629793 -3.0000155322
41.2941158032 0.0354423880 -3.0000154622
41.2897923754 0.9999125168 -3.0000145105
39.7180995609 -3.4547262765 -3.0000189062
39.7742215066 -3.4755660618 -3.0000189267
39.7961463581 -3.4740190934 -3.0000189252
39.8640609090 -3.4926729839 -3.0000189436
39.8860853985 -3.4905941961 -3.0000189416
39.9769601403 -3.5049742334 -3.0000189558
39.9990554321 -3.5022272805 -3.0000189530
40.0321669310 -3.4978618667 -3.0000189487
40.0872624883 -3.4899337481 -3.0000189409
39.9019205869 -3.5376103637 -3.0000189880
40.0354328677 -3.5218132537 -3.0000189724
40.1130280347 -3.5104131009 -3.0000189611
40.1240932059 -3.5086534278 -3.0000189594
40.1351531233 -3.5068610295 -3.0000189576
40.1683003847 -3.5012876425 -3.0000189521
40.1793383193 -3.4993645037 -3.0000189502
40.1056482222 -3.5360296836 -3.0000189864
40.1390555009 -3.5307169875 -3.0000189812
40.1946253063 -3.5212043518 -3.0000189718
40.2721737365 -3.5065081203 -3.0000189573
39.9856941277 -3.5769654482 -3.0000190268
40.2880433405 -3.5279659679 -3.0000189784
39.9772678115 -3.6023209918 -3.0000190518
40.3487226732 -3.5398644992 -3.0000189902
40.5275968773 -3.5462808769 -3.0000189965
39.8700766299 -3.6862961929 -3.0000191347
40.1277913167 -3.6793675834 -3.0000191278
40.7086400061 -3.5441595735 -3.0000189944
40.1896044033 -3.6938377422 -3.0000191421
40.0530847839 -3.7389590870 -3.0000191866
40.2286636236 -3.7115693986 -3.0000191596
40.7682493917 -3.5758273717 -3.0000190257
40.8435355628 -3.5759788997 -3.0000190258
39.8568273966 -3.8087331466 -3.0000192555
40.1899099292 -3.7673233280 -3.0000192146
40.5764343642 -3.6833560564 -3.0000191318
39.8107055496 -3.8365049960 -3.0000192829
40.9614579495 -3.5847364378 -3.0000190345
40.4240792151 -3.7707522004 -3.0000192180
40.7404923496 -3.6861578905 -3.0000191345
39.9842615066 -3.8691788833 -3.0000193151
40.9441833289 -3.6427359376 -3.0000190917
40.7665528784 -3.7286685361 -3.0000191765
41.1787184611 -3.6012064676 -3.0000190507
40.2137475142 -3.9103891859 -3.0000193558
41.2677538745 -3.5881053685 -3.0000190378
40.6509025538 -3.8635073857 -3.0000193095
40.9595177339 -0.0786314986 -3.0000155748
40.9924444884 -0.2028312069 -3.0000156974
40.9959891394 -0.1807012905 -3.0000156755
41.0068840879 -0.0917301346 -3.0000155877
41.0266352781 -0.1347134518 -3.0000156301
41.2034770507 0.1529966816 -3.0000153462
41.2245973933 0.1953805926 -3.0000153044
41.2089796580 0.3225463299 -3.0000151789
41.2010615607 0.3679945078 -3.0000151341
41.1874950082 0.4332329271 -3.0000150697
41.1659882570 0.5176700846 -3.0000149864
41.2393836590 -0.1862983816 -3.0000156810
41.2267086331 0.3622383805 -3.0000151398
41.1892559489 0.5242236941 -3.0000149799
41.1805353293 0.5541642753 -3.0000149504
41.1703507209 0.6610837873 -3.0000148449
41.2463813298 -0.4022815204 -3.0000158942
41.2639436643 0.4232830343 -3.0000150795
41.2986545100 -0.2761539716 -3.0000157697
41.3485324014 0.3674540384 -3.0000151346
41.1385625229 0.9617322701 -3.0000145482
41.3096792002 -0.6065844226 -3.0000160958
41.3161330183 0.6841957462 -3.0000148221
41.2130058425 0.9249475192 -3.0000145845
41.6775312130 -1.2380123900 -3.0000167188
40.3077069754 -3.4538872281 -3.0000189053
40.3548085217 -3.4675476153 -3.0000189188
40.3652040431 -3.4649978230 -3.0000189163
40.4067093375 -3.4544914744 -3.0000189059
40.4023458988 -3.4805803492 -3.0000189317
40.4544342739 -3.4668196866 -3.0000189181
40.4648272061 -3.4639751865 -3.0000189153
40.4752116781 -3.4610999547 -3.0000189125
40.3978360079 -3.5066738522 -3.0000189574
