11.0940689107 -8.9583707457 -3.5000240985
11.0929315663 -8.9361797409 -3.5000240766
10.9962647060 -9.7186581645 -3.5000248487
11.0491154070 -9.5584064703 -3.5000246906
11.0593866492 -9.5203840515 -3.5000246531
11.1133218396 -9.2046223687 -3.5000243415
11.1197952409 -9.0810290051 -3.5000242195
11.1109408568 -8.8562716815 -3.5000239978
11.1066605703 -8.8171196458 -3.5000239591
10.8644689451 -8.0908621027 -3.5000232425
11.1235690173 -9.3255088560 -3.5000244608
11.1428476794 -8.9675677748 -3.5000241076
11.1292727440 -8.8029327780 -3.5000239451
11.1176783174 -8.7240124726 -3.5000238672
11.0475345134 -9.7196138145 -3.5000248497
11.1483179532 -9.3233406711 -3.5000244586
11.1684519710 -9.0589096455 -3.5000241977
10.7722604202 -7.8649725799 -3.5000230196
11.1659533399 -9.3672110013 -3.5000245019
11.1834616967 -9.2340376330 -3.5000243705
11.1908227728 -9.1291683111 -3.5000242670
11.1663151503 -8.7217579989 -3.5000238650
11.2086287005 -9.2245982858 -3.5000243612
11.1964837850 -8.7587228211 -3.5000239015
11.2334335472 -8.8682147787 -3.5000240095
11.2071661047 -9.5273910067 -3.5000246600
11.2496584411 -9.2952089515 -3.5000244309
10.4807709727 -7.4321030030 -3.5000225924
11.1388121711 -9.8186674228 -3.5000249474
11.1630184223 -9.7557690335 -3.5000248853
10.4956809417 -7.4130759668 -3.5000225737
11.2465911333 -9.5688808470 -3.5000247009
11.2462246519 -9.6594398050 -3.5000247903
11.3618818130 -9.0350817719 -3.5000241742
11.2547873135 -8.3742382554 -3.5000235221
11.2978044122 -8.2773103785 -3.5000234265
8.5213892001 -3.8764167337 -3.5000190839
8.2733426304 -3.8913918924 -3.5000190986
8.1668688028 -3.9120590572 -3.5000191190
7.9402867637 -3.9637420436 -3.5000191700
8.1010946179 -3.9012352203 -3.5000191084
7.8590531942 -3.9598446447 -3.5000191662
7.6653539372 -3.9650488844 -3.5000191713
7.6746322832 -3.8864770812 -3.5000190938
10.9892314462 -9.3150580970 -3.5000244505
10.9894086700 -9.3107222948 -3.5000244462
10.9901023591 -9.2890364631 -3.5000244248
10.9905449240 -9.2543246999 -3.5000243905
10.9905424817 -9.2499852779 -3.5000243863
10.9904581347 -9.2369673209 -3.5000243734
10.9910512797 -9.5175938372 -3.5000246503
11.0140251614 -9.2984491259 -3.5000244341
11.0144265581 -9.2234722475 -3.5000243601
11.0121898186 -9.1661773006 -3.5000243036
11.0085777175 -9.1177938272 -3.5000242558
11.0164054450 -9.5130564003 -3.5000246458
11.0207861870 -9.4865212903 -3.5000246197
11.0306330391 -9.4109667821 -3.5000245451
11.0309200268 -9.0977563444 -3.5000242360
11.0198199681 -9.0133277285 -3.5000241527
11.0551424269 -9.4089573079 -3.5000245431
11.0549658846 -9.0952800549 -3.5000242336
11.0529926953 -9.0771715513 -3.5000242157
11.0519257835 -9.0681263719 -3.5000242068
11.0870871518 -9.2312867056 -3.5000243678
11.0855536901 -9.1804320326 -3.5000243176
11.0682823259 -9.0102496888 -3.5000241497
11.0541279330 -8.9329097650 -3.5000240734
11.0522075001 -8.9238603940 -3.5000240644
11.1087179502 -9.1605484181 -3.5000242980
11.1039922677 -9.0996747799 -3.5000242379
11.0928845895 -9.0111382334 -3.5000241506
11.0850449193 -8.9648291906 -3.5000241049
11.1108372790 -9.5343488314 -3.5000246668
11.1337079153 -9.3307230107 -3.5000244659
11.1227469583 -9.0499538639 -3.5000241889
11.1544204613 -9.3850155358 -3.5000245195
11.1589958820 -9.3028718330 -3.5000244384
11.1582120875 -9.1819023856 -3.5000243191
11.1534502436 -9.1094649528 -3.5000242476
11.1260951490 -8.9228040992 -3.5000240634
11.1819065279 -9.1710398530 -3.5000243084
11.1581138862 -8.9613335137 -3.5000241014
11.1936529620 -9.4731442906 -3.5000246065
11.1967265942 -9.4484198405 -3.5000245821
11.1324600325 -8.7538660206 -3.5000238967
11.0761539993 -8.5994369528 -3.5000237443
11.2249522519 -9.4110097487 -3.5000245451
11.2232868885 -9.0779460288 -3.5000242165
11.2558762935 -9.2084391080 -3.5000243453
11.1064500683 -8.5477547685 -3.5000236933
10.7494252385 -7.9275834648 -3.5000230814
10.3241891025 -7.6348454371 -3.5000227925
10.2053488999 -7.5292008086 -3.5000226883
10.1540654768 -7.5097912500 -3.5000226691
10.7822626587 -7.8593530563 -3.5000230140
10.4447469353 -7.6165511755 -3.5000227745
9.9313559359 -7.3209812911 -3.5000224828
10.7789707622 -7.6667167249 -3.5000228240
7.3708408688 -3.8738802428 -3.5000190814
7.1459467494 -3.9164641642 -3.5000191234
7.0786147554 -3.8937901480 -3.5000191010
10.9415275902 -9.3575362829 -3.5000244924
10.9399498820 -9.3288228199 -3.5000244640
10.9664570089 -9.3826536952 -3.5000245172
10.9658106905 -9.3597956400 -3.5000244946
10.9619772972 -9.3011252875 -3.5000244367
10.9603585917 -9.2848718426 -3.5000244207
10.9480791382 -9.2008485188 -3.5000243378
10.9886188430 -9.3321904173 -3.5000244674
10.9857372170 -9.2955838912 -3.5000244312
10.9847447284 -9.2856182992 -3.5000244214
10.9840339531 -9.2789796341 -3.5000244149
10.9774535379 -9.2293434113 -3.5000243659
10.9747714578 -9.2128689186 -3.5000243496
10.9699741826 -9.1865974860 -3.5000243237
11.0042989901 -9.2458792778 -3.5000243822
10.9991688042 -9.2121705065 -3.5000243489
10.9968379114 -9.1987319670 -3.5000243357
10.9923768301 -9.1752842810 -3.5000243125
10.9803639857 -9.1220714144 -3.5000242600
11.0331863103 -9.2840768726 -3.5000244199
11.0557238784 -9.2675152287 -3.5000244035
11.0544795402 -9.2569296497 -3.5000243931
11.0330570480 -9.1344960688 -3.5000242723
10.9944308662 -9.0015083175 -3.5000241411
11.0775750341 -9.2468083842 -3.5000243831
11.0147772517 -8.9866131355 -3.5000241264
11.0122969359 -8.9798020209 -3.5000241196
10.9999374806 -8.8859955595 -3.5000240271
10.9953095662 -8.8759200772 -3.5000240171
10.9890002722 -8.8625507416 -3.5000240039
11.0975993841 -9.0926733971 -3.5000242310
11.0847766558 -9.0454092809 -3.5000241844
11.1142409823 -9.0607982665 -3.5000241996
11.0722279687 -8.9332385512 -3.5000240737
11.0423677722 -8.8625179245 -3.5000240039
11.0223076227 -8.7685771793 -3.5000239112
11.3737406758 -9.2946980283 -3.5000244304
11.3952599095 -9.0943020552 -3.5000242326
11.4180264964 -9.0849349105 -3.5000242234
10.7506376468 -7.7754641388 -3.5000229313
10.6631377062 -7.6505931039 -3.5000228080
10.7460800698 -7.1606833305 -3.5000223246
10.9420101287 -9.3060984825 -3.5000244416
10.9403737495 -9.2997226190 -3.5000244353
10.9725606156 -9.3311032845 -3.5000244663
10.9530878316 -9.2566054225 -3.5000243928
10.9517101869 -9.2522885570 -3.5000243885
10.9466878172 -9.2372452978 -3.5000243737
10.9615801056 -9.2073780876 -3.5000243442
10.9850351668 -9.2010673843 -3.5000243380
10.9607884031 -9.1433421418 -3.5000242810
10.9524425901 -9.1259741344 -3.5000242639
10.9425653314 -9.1066774806 -3.5000242448
10.9470725779 -9.0650268831 -3.5000242037
10.9394639225 -9.0522380515 -3.5000241911
11.0017138865 -9.0635316603 -3.5000242023
10.9612588337 -8.9539848967 -3.5000240942
11.0059094908 -8.9763141329 -3.5000241162
10.9782857330 -8.8961955699 -3.5000240371
10.9821928309 -8.8250475711 -3.5000239669
11.3711900011 -9.2302831697 -3.5000243668
11.3672630125 -9.2133254637 -3.5000243501
11.3604594151 -9.1863193405 -3.5000243234
11.3847320705 -9.1835730626 -3.5000243207
11.3772195424 -9.1561618954 -3.5000242937
11.3669202209 -9.1221605098 -3.5000242601
11.4117025314 -9.1915074178 -3.5000243285
11.3921323361 -9.1217233571 -3.5000242597
11.3865974151 -9.1044677805 -3.5000242427
11.3784210608 -9.0804515173 -3.5000242190
11.3772124749 -9.0770346238 -3.5000242156
11.4129777786 -9.1074621253 -3.5000242456
11.3746292521 -9.0034683821 -3.5000241430
11.4189356563 -9.0502129129 -3.5000241891
11.4236156207 -8.9953834063 -3.5000241350
11.3752917938 -8.8908879044 -3.5000240319
11.4494600105 -8.9331712743 -3.5000240736
10.7058437863 -7.7477910645 -3.5000229040
10.6541820582 -7.7342634983 -3.5000228906
10.3485443158 -7.6863435049 -3.5000228433
10.9568500469 -7.8115209807 -3.5000229668
10.3070057923 -7.6597237949 -3.5000228171
10.8699927363 -7.7502770424 -3.5000229064
10.6657354650 -7.6873182119 -3.5000228443
10.3646779968 -7.6148075718 -3.5000227727
10.0373670643 -7.6186100031 -3.5000227765
9.8858753033 -7.5907780815 -3.5000227490
10.6213336856 -7.5780789226 -3.5000227365
10.8737349572 -7.6231401415 -3.5000227810
9.6806578254 -7.0650295262 -3.5000222302
3.9773264625 -4.5368424246 -3.5000197355
11.3420605247 -9.1860287522 -3.5000243231
11.3411154102 -9.1838132180 -3.5000243210
11.3643090054 -9.1765767478 -3.5000243138
11.3593757862 -9.1651992955 -3.5000243026
11.3583689787 -9.1629326307 -3.5000243004
11.3479338423 -9.1404335954 -3.5000242782
11.3424678431 -9.1293022915 -3.5000242672
11.3535396976 -9.0980876943 -3.5000242364
11.3474467729 -9.0868781096 -3.5000242253
11.3621658052 -9.0637474907 -3.5000242025
11.3429807381 -8.9878850297 -3.5000241276
11.3435884079 -8.9471754447 -3.5000240875
11.3419367155 -8.9449564357 -3.5000240853
11.3544616690 -8.9214392546 -3.5000240621
11.3501030531 -8.8771629932 -3.5000240184
10.6832048470 -7.7255455822 -3.5000228820
10.5462543267 -7.7238456192 -3.5000228803
10.8966398659 -7.7248480474 -3.5000228813
10.7217470457 -7.7036910771 -3.5000228604
10.5616426627 -7.6993346411 -3.5000228561
10.4656164467 -7.7035426253 -3.5000228603
10.4046092874 -7.6845835046 -3.5000228416
10.3401406332 -7.6924032726 -3.5000228493
10.2179465594 -7.6889861236 -3.5000228459
10.3665187625 -7.6402130319 -3.5000227978
10.3859660611 -7.6136380857 -3.5000227716
10.3245604715 -7.6213629505 -3.5000227792
9.9856243870 -7.7018377972 -3.5000228586
10.6962698490 -7.5809931722 -3.5000227394
10.6463457175 -7.5305879084 -3.5000226896
10.0968123565 -7.5931236950 -3.5000227513
10.6942669385 -7.5082697483 -3.5000226676
10.3637083320 -7.5188381464 -3.5000226780
9.9435705496 -7.6140089309 -3.5000227719
9.9268198416 -7.6198434820 -3.5000227777
9.4085996876 -7.7172955301 -3.5000228739
10.6575232869 -7.1197984751 -3.5000222843
9.6905379090 -7.0884568536 -3.5000222534
3.9746077104 -6.1102336940 -3.5000212881
3.9621689075 -6.0291924109 -3.5000212081
3.9612684591 -5.8772609066 -3.5000210582
3.9505677051 -5.8968935675 -3.5000210776
11.3425163026 -8.5489585132 -3.5000236945
11.3315321028 -8.4138753183 -3.5000235612
10.7961109000 -7.3101219587 -3.5000224721
10.6315263997 -7.2927502065 -3.5000224549
10.5941880705 -7.2909208747 -3.5000224531
10.2851608794 -7.3055136987 -3.5000224675
10.7353820649 -7.2775954010 -3.5000224400
10.6890751263 -7.2485485389 -3.5000224113
9.9686654039 -7.3265324788 -3.5000224883
10.6912210323 -7.2244709483 -3.5000223876
10.0189258305 -7.2613121766 -3.5000224239
10.5709515985 -7.1450906970 -3.5000223092
9.5305290224 -7.3608784916 -3.5000225222
9.9628806775 -7.1263986462 -3.5000222908
9.8599365133 -6.9806228564 -3.5000221469
8.9373271470 -6.9710682489 -3.5000221375
7.5116922220 -7.3667495278 -3.5000225280
3.9853546219 -6.1498521088 -3.5000213272
3.9987379881 -6.0624971533 -3.5000212410
10.9430527750 -8.7897596249 -3.5000239321
10.9387340900 -8.7764182379 -3.5000239190
10.9468587855 -8.7280252359 -3.5000238712
10.9328776477 -8.6947126697 -3.5000238383
10.9589417500 -8.6939497740 -3.5000238376
10.9548022954 -8.5788687706 -3.5000237240
10.9660997576 -8.3473380646 -3.5000234956
11.3665478732 -8.6871992137 -3.5000238309
11.3655393020 -8.6837180321 -3.5000238275
11.3645204372 -8.6802398494 -3.5000238241
11.3603422224 -8.6663577143 -3.5000238104
11.3812548572 -8.6521951963 -3.5000237964
11.3755898236 -8.6346058874 -3.5000237790
11.3744256323 -8.6310981883 -3.5000237756
11.3949516278 -8.6163092402 -3.5000237610
11.3741985712 -8.5597226976 -3.5000237051
11.3759662926 -8.5012809963 -3.5000236475
11.3696697522 -8.4872759567 -3.5000236336
11.3842645827 -8.3559808322 -3.5000235041
10.5613151485 -7.2598134556 -3.5000224224
10.5456230242 -7.2565811349 -3.5000224193
10.5450876533 -7.2318232694 -3.5000223948
10.9710171267 -7.3456266479 -3.5000225071
11.0411427074 -7.3528886088 -3.5000225143
10.9202829878 -7.2966738104 -3.5000224588
9.8710010811 -7.1511787117 -3.5000223152
10.9740348376 -7.2145024627 -3.5000223777
10.6520201866 -7.0075137662 -3.5000221735
9.8004808331 -6.9919665068 -3.5000221581
9.7185759016 -6.9349421195 -3.5000221019
4.0132695930 -4.7108781497 -3.5000199073
10.9334078108 -8.7699211949 -3.5000239125
10.9285753314 -8.7233181700 -3.5000238666
10.9572376225 -8.7647775825 -3.5000239075
10.9521535257 -8.7171225725 -3.5000238604
10.9504410884 -8.7044567181 -3.5000238479
10.9773397964 -8.7237506824 -3.5000238670
10.9698780124 -8.6720221690 -3.5000238159
10.9578508961 -8.6111376903 -3.5000237559
10.9541187609 -8.5952359343 -3.5000237402
10.9937150386 -8.6680057694 -3.5000238120
10.9665742581 -8.5475703010 -3.5000236931
10.9559809821 -8.5124117455 -3.5000236584
11.0079378143 -8.6137581256 -3.5000237585
10.9934739967 -8.5541174773 -3.5000236996
10.9925775604 -8.5508276077 -3.5000236964
10.9830794882 -8.5180802919 -3.5000236640
10.9611992103 -8.4534998272 -3.5000236003
11.0277967907 -8.5916964417 -3.5000237367
11.0194921092 -8.5578895472 -3.5000237033
11.0634085712 -8.6454542193 -3.5000237897
10.9854310054 -8.3838514491 -3.5000235316
11.0732666412 -8.5737994107 -3.5000237190
11.0353592460 -8.4452378967 -3.5000235922
11.0062337275 -8.3710273037 -3.5000235189
10.9867749033 -8.3281199699 -3.5000234766
10.9905000678 -8.2813106444 -3.5000234304
10.9870835023 -8.2747559408 -3.5000234239
11.0368187320 -8.3209491368 -3.5000234695
11.0171185979 -8.2802615455 -3.5000234294
11.0134235232 -8.2219099927 -3.5000233718
11.3811642854 -8.5104138964 -3.5000236565
10.9305863862 -7.3570776771 -3.5000225184
10.7415825218 -7.2410856191 -3.5000224040
10.1642758016 -7.0480707380 -3.5000222135
9.8438141456 -6.9054791953 -3.5000220728
7.8145847820 -6.2463815556 -3.5000214224
10.9470227927 -8.8483448454 -3.5000239899
10.9507914205 -8.7371156841 -3.5000238802
10.9675496887 -8.8891371590 -3.5000240302
10.9746518419 -8.7799086192 -3.5000239224
10.9745435285 -8.7134393449 -3.5000238568
10.9744330627 -8.7095305324 -3.5000238530
10.9735274963 -8.6860860758 -3.5000238298
10.9713893585 -8.6509587564 -3.5000237952
10.9701390461 -8.6353674021 -3.5000237798
10.9991903104 -8.7486248511 -3.5000238915
10.9948829375 -8.6412289334 -3.5000237856
10.9915431110 -8.6055490179 -3.5000237504
10.9872546502 -8.5699706549 -3.5000237152
11.0168596855 -8.8821717517 -3.5000240233
11.0232165061 -8.7688874537 -3.5000239115
11.0230653089 -8.7202495489 -3.5000238635
11.0228722570 -8.7121450775 -3.5000238555
11.0217984210 -8.4821520958 -3.5000236286
11.0717038180 -8.7528103443 -3.5000238957
11.0529404099 -8.5188312665 -3.5000236648
11.0160008575 -8.3551903478 -3.5000235033
11.0938260571 -8.6718244227 -3.5000238157
11.0928140656 -8.6547828798 -3.5000237989
11.0781526124 -8.5233389911 -3.5000236692
11.0753847696 -8.5064932985 -3.5000236526
11.0830894067 -8.4215872227 -3.5000235688
11.1518232450 -8.5252961415 -3.5000236712
11.1861464126 -8.3353793887 -3.5000234838
10.9599298582 -7.4684304277 -3.5000226283
7.4911699673 -3.7927293451 -3.5000190013
6.7648530218 -3.9787798770 -3.5000191849
10.9759686849 -8.8309580750 -3.5000239728
10.9804900975 -8.8035764852 -3.5000239458
10.9566672710 -9.0178597493 -3.5000241572
10.9632353352 -8.9953122957 -3.5000241350
10.9657690617 -8.9862665275 -3.5000241260
10.9706757416 -8.9681308121 -3.5000241081
10.9851347115 -8.9088107472 -3.5000240496
10.9989696879 -8.8397338792 -3.5000239814
11.0109274680 -8.7607944227 -3.5000239035
11.0156469808 -8.7187872670 -3.5000238621
11.0212703176 -8.6438535323 -3.5000237881
11.0221215224 -8.6250850712 -3.5000237696
10.9699225333 -9.0566677988 -3.5000241955
10.9851865793 -9.0064870667 -3.5000241460
10.9964556807 -8.9650780762 -3.5000241051
11.0227714787 -8.8439540736 -3.5000239856
11.0282582384 -8.8110293936 -3.5000239531
11.0297005474 -8.8016021533 -3.5000239438
11.0371809720 -8.7448745490 -3.5000238878
11.0406131201 -8.7116727501 -3.5000238551
11.0448950063 -8.6546145054 -3.5000237988
11.0458718860 -8.6355657527 -3.5000237800
11.0467228528 -8.5116189049 -3.5000236577
11.0453232067 -8.4782695410 -3.5000236248
11.0421265934 -8.4306938083 -3.5000235778
11.0015879908 -9.0363584865 -3.5000241755
11.0290875743 -8.9335106403 -3.5000240740
11.0383984472 -8.8909588444 -3.5000240320
11.0632749400 -8.7283607641 -3.5000238715
11.0646824650 -8.7139092468 -3.5000238573
11.0684470240 -8.6656578199 -3.5000238097
11.0714975010 -8.5882854410 -3.5000237333
11.0707237905 -8.5060180491 -3.5000236521
11.0653983889 -8.4190715940 -3.5000235663
11.0645210940 -8.4094314800 -3.5000235568
11.0561263553 -8.3373247176 -3.5000234857
11.0677383323 -8.8668910450 -3.5000240082
11.0846539318 -8.7552224721 -3.5000238980
11.0952421096 -8.6083071506 -3.5000237531
11.0734027377 -8.2903008733 -3.5000234393
11.0374158143 -9.0836388174 -3.5000242221
11.0893072359 -8.2422004024 -3.5000233918
11.0863993353 -8.2275370074 -3.5000233773
11.0665437517 -9.0718541025 -3.5000242105
11.1152651355 -8.8757535566 -3.5000240170
11.1288865265 -8.7909226287 -3.5000239333
11.1440796814 -8.5843728547 -3.5000237295
11.1433667200 -8.5085648186 -3.5000236547
11.1347110126 -8.3825278018 -3.5000235303
11.1336162992 -8.3724782507 -3.5000235204
11.1167664381 -8.2574748406 -3.5000234069
11.1026945961 -8.1881301645 -3.5000233385
11.1004503213 -8.1782734356 -3.5000233287
11.0945848517 -8.1536912122 -3.5000233045
11.1635334905 -8.6922074146 -3.5000238359
11.1670470977 -8.6307988947 -3.5000237753
11.1674206735 -8.6205536873 -3.5000237652
11.1673582003 -8.5026780860 -3.5000236488
11.1117391559 -8.1230678488 -3.5000232743
11.1104318024 -8.1181113537 -3.5000232694
11.1008706026 -8.0835272074 -3.5000232352
11.1598656230 -8.8999315298 -3.5000240408
11.1696308550 -8.2795751326 -3.5000234287
11.1449214752 -9.0632117749 -3.5000242020
11.2104911540 -8.7115826471 -3.5000238550
11.1487818262 -8.0752287194 -3.5000232271
11.1336189937 -8.0247692703 -3.5000231773
11.1221200989 -7.9897250257 -3.5000231427
11.1204182477 -7.9847384055 -3.5000231378
11.1344354828 -7.9517031735 -3.5000231052
10.4527090500 -7.0709946066 -3.5000222361
11.2124020194 -8.9984134514 -3.5000241380
11.2149497326 -8.9878934751 -3.5000241276
11.2647645840 -8.5967404324 -3.5000237417
11.2648577700 -8.5913291879 -3.5000237363
11.2650412786 -8.5750941322 -3.5000237203
11.2622921002 -8.4614926441 -3.5000236082
11.2412033322 -8.2678961749 -3.5000234172
11.2883325209 -8.5039836890 -3.5000236501
11.2564654337 -8.2154069281 -3.5000233654
11.2429984792 -8.1510005645 -3.5000233018
11.1942830560 -7.9767984265 -3.5000231299
11.1742955416 -7.9198899447 -3.5000230738
11.0362864372 -7.6277262538 -3.5000227855
10.8353593074 -7.3473181602 -3.5000225088
11.2805825492 -8.9122317643 -3.5000240530
10.3079403990 -6.8996043746 -3.5000220670
11.2477505744 -9.1402302927 -3.5000242779
11.3363402801 -8.6318424969 -3.5000237763
11.3116089552 -8.9992825947 -3.5000241389
11.3608154213 -8.5016931242 -3.5000236479
11.2363197820 -7.8787411767 -3.5000230332
10.8598329744 -7.2657112226 -3.5000224283
10.2692980254 -6.8261081659 -3.5000219945
11.3083473700 -8.0178452170 -3.5000231704
11.1536296487 -7.6393585823 -3.5000227970
11.0557736788 -7.4339065276 -3.5000225942
11.3562716992 -7.7873175552 -3.5000229430
8.6799408971 -3.8440282655 -3.5000190519
8.6200576923 -3.8294775139 -3.5000190375
8.3277934519 -3.8892357678 -3.5000190965
8.1763374324 -3.9277503786 -3.5000191345
8.1424627860 -3.9119920437 -3.5000191190
8.0738209213 -3.9316262613 -3.5000191383
7.9782261441 -3.9608151561 -3.5000191671
8.2887348091 -3.8488958511 -3.5000190567
7.9163080946 -3.9554242381 -3.5000191618
8.0601819166 -3.8852439513 -3.5000190926
7.7256568897 -3.8937983970 -3.5000191010
10.5665048068 -7.2520240224 -3.5000224148
10.5693920279 -7.1101247649 -3.5000222747
11.0338459588 -8.7945413571 -3.5000239368
11.0569262616 -8.6888058808 -3.5000238325
11.0750443772 -8.5711486575 -3.5000237164
10.9518775639 -7.6585590970 -3.5000228159
10.7732041569 -7.3252633860 -3.5000224870
11.0432413160 -8.8533934929 -3.5000239949
11.0882581134 -8.6500514299 -3.5000237943
11.0916605260 -8.6283828275 -3.5000237729
11.1089715066 -8.4648437475 -3.5000236115
11.1123720783 -8.3662099846 -3.5000235142
11.1121969027 -8.3223429022 -3.5000234709
10.9923356792 -7.6953176834 -3.5000228522
10.8320638548 -7.3714663412 -3.5000225326
10.4148331873 -6.9026743452 -3.5000220700
10.9808521004 -9.1004746369 -3.5000242387
11.0221147127 -8.9973373651 -3.5000241369
11.0439187310 -8.9343470625 -3.5000240748
11.0619304110 -8.8759590610 -3.5000240172
11.0752480086 -8.8277713786 -3.5000239696
11.1084096636 -8.6758512147 -3.5000238197
11.1102952074 -8.6649022711 -3.5000238089
11.1230413080 -8.5769482926 -3.5000237221
11.1293833851 -8.5161752937 -3.5000236622
11.1307695407 -8.4995679007 -3.5000236458
11.1356701985 -8.4108303722 -3.5000235582
11.1365443635 -8.3663994856 -3.5000235144
11.1357219823 -8.2941927698 -3.5000234431
11.1321240827 -8.2220710585 -3.5000233720
11.0427086408 -7.7653149468 -3.5000229212
10.8407196331 -7.3398943382 -3.5000225015
11.0686365968 -8.9364960975 -3.5000240769
11.0737552559 -8.9204112465 -3.5000240610
11.1553023082 -8.4958618842 -3.5000236421
11.1581830998 -8.4509426276 -3.5000235978
11.1594434899 -8.4228382641 -3.5000235701
11.0081404301 -7.6051289950 -3.5000227632
10.9609495902 -9.2532105515 -3.5000243894
10.9688831529 -9.2380688905 -3.5000243745
10.9918732779 -9.1922298469 -3.5000243293
11.0845025390 -8.9655748183 -3.5000241056
11.1519625593 -8.7066234744 -3.5000238501
11.1828842652 -8.4408218548 -3.5000235878
11.1847886524 -8.3268927530 -3.5000234754
11.1790993781 -8.2016862644 -3.5000233518
11.0235710654 -9.1819541978 -3.5000243191
11.0284523692 -9.1714983302 -3.5000243088
11.0759347129 -9.0600497327 -3.5000241988
11.2075472493 -8.6695060981 -3.5000238135
11.0277950123 -9.2819228759 -3.5000244178
11.1455699742 -9.0110591881 -3.5000241505
11.1860329216 -8.8812559338 -3.5000240224
11.2400576626 -8.6149096854 -3.5000237596
11.2561335190 -8.2786742915 -3.5000234278
11.2554069952 -8.2609514146 -3.5000234103
11.1066293563 -9.1747399009 -3.5000243120
11.2285066990 -8.8122697965 -3.5000239543
11.2325166239 -8.7947710799 -3.5000239371
11.2816391511 -8.3495843088 -3.5000234978
11.2686367926 -8.1226798780 -3.5000232739
11.2536003647 -8.0160333317 -3.5000231686
11.2525987379 -8.0101336410 -3.5000231628
11.1966287219 -7.7714087050 -3.5000229273
11.2524578783 -7.8873529158 -3.5000230417
11.2482587416 -7.8696780678 -3.5000230242
11.2162774738 -7.7528827342 -3.5000229090
11.1247860502 -9.3049119639 -3.5000244404
11.3539251772 -8.0309434499 -3.5000231834
11.2012487759 -9.2585353834 -3.5000243947
11.2866370777 -9.0469217717 -3.5000241859
11.3981102751 -8.4888818008 -3.5000236352
11.2513197746 -7.4379066336 -3.5000225982
11.4923945545 -8.1772159726 -3.5000233277
11.5174979829 -8.1886943639 -3.5000233390
8.7615681509 -3.9880521220 -3.5000191940
8.6584496920 -4.0010387007 -3.5000192068
9.0582857062 -3.9401995956 -3.5000191468
9.0321894252 -3.9414627556 -3.5000191480
8.9409208826 -3.9470991583 -3.5000191536
8.7328816675 -3.9670688944 -3.5000191733
8.6292747093 -3.9807401648 -3.5000191868
8.5775998056 -3.9884942765 -3.5000191945
9.2278736831 -3.9115819754 -3.5000191186
9.0178326744 -3.9180148054 -3.5000191249
8.4444122742 -3.9867866315 -3.5000191928
9.3333535429 -3.8879252292 -3.5000190952
9.2277056459 -3.8874095314 -3.5000190947
8.9769702036 -3.8962024763 -3.5000191034
8.8847763483 -3.9029919414 -3.5000191101
8.5049784320 -3.9513938744 -3.5000191578
9.5460119387 -3.8723309588 -3.5000190798
9.5075818909 -3.8458217185 -3.5000190537
9.4008889006 -3.8411949975 -3.5000190491
8.9723931594 -3.8238279766 -3.5000190320
8.9054558251 -3.8285584225 -3.5000190366
10.5885488578 -7.3800014563 -3.5000225410
10.6209635467 -7.3913107708 -3.5000225522
10.6080017847 -7.3648459152 -3.5000225261
10.6205848255 -7.3362525411 -3.5000224979
10.6182943129 -7.3318271810 -3.5000224935
10.6255275103 -7.2938968490 -3.5000224561
10.6157855365 -7.2761808147 -3.5000224386
10.7382308139 -7.4158147503 -3.5000225764
10.6897749106 -7.3122661619 -3.5000224742
10.7625165635 -7.4111324912 -3.5000225718
10.8200164902 -7.4910895480 -3.5000226507
10.9069961756 -7.7007050914 -3.5000228575
10.5285832422 -6.9366764663 -3.5000221036
10.5816385356 -6.9638238873 -3.5000221304
11.0622072786 -7.8955355975 -3.5000230497
11.1463620157 -8.1026111396 -3.5000232541
11.1108152347 -8.7725953551 -3.5000239152
11.1589590473 -8.6058959426 -3.5000237507
11.2034635410 -8.3621241798 -3.5000235102
11.1509160164 -8.7265057217 -3.5000238697
11.2239537262 -8.5369354887 -3.5000236826
11.2656396625 -8.1910317571 -3.5000233413
11.2651373014 -8.0135168407 -3.5000231662
11.1156857240 -8.9633406161 -3.5000241034
11.1305467050 -8.9278477301 -3.5000240684
11.3362385898 -8.2331214651 -3.5000233829
11.2525376867 -8.8059891708 -3.5000239481
10.9955094946 -9.3827060806 -3.5000245172
11.1570132280 -9.1049566814 -3.5000242431
11.1816902566 -9.1095105597 -3.5000242476
11.1933925329 -9.0850866455 -3.5000242235
9.3301827924 -4.0117667642 -3.5000192174
9.4653553810 -3.9965707859 -3.5000192024
9.3584989643 -3.9406574020 -3.5000191473
9.8040832305 -3.9653969653 -3.5000191717
9.8695555067 -3.9521239613 -3.5000191586
9.7462985727 -3.9318749588 -3.5000191386
9.6100906497 -3.9138225855 -3.5000191208
9.1617020282 -3.8616886190 -3.5000190693
10.0021054347 -3.9286977821 -3.5000191354
9.9029554895 -3.9090767361 -3.5000191161
10.4563145292 -3.9997828087 -3.5000192056
10.4198009401 -3.9881163446 -3.5000191941
10.2357593534 -3.9346689597 -3.5000191413
10.7296279617 -4.0727013034 -3.5000192775
10.5247343123 -3.9970649780 -3.5000192029
10.6202615241 -7.5532526931 -3.5000227120
10.6138761846 -7.5204904202 -3.5000226797
10.6109321955 -7.5064912527 -3.5000226659
10.6078640875 -7.4925187628 -3.5000226521
10.6002238602 -7.4600262096 -3.5000226200
10.6225330537 -7.4495517415 -3.5000226097
10.6189591827 -7.4354785427 -3.5000225958
10.6459885758 -7.4437059082 -3.5000226039
10.6251873232 -7.3679327159 -3.5000225291
10.6179540804 -7.3444649143 -3.5000225060
10.6942235182 -7.5548310721 -3.5000227136
10.6706419976 -7.4426969433 -3.5000226029
10.6236222444 -7.2851918666 -3.5000224475
10.6714926603 -7.3540346268 -3.5000225154
10.7207568024 -7.3501015852 -3.5000225115
10.7172002312 -7.1260464959 -3.5000222904
10.8589787508 -7.5148630839 -3.5000226741
10.8135303073 -7.3228538092 -3.5000224846
10.8072248896 -7.3018455620 -3.5000224639
10.9358864338 -7.7801412707 -3.5000229359
10.9606903963 -7.8020972169 -3.5000229575
11.2397182950 -8.2436104756 -3.5000233932
11.2651200142 -8.0598354388 -3.5000232119
11.2834174303 -8.1154323845 -3.5000232667
11.2864572755 -8.0888087292 -3.5000232405
11.2908169690 -8.2322029668 -3.5000233819
11.3031300303 -8.1518972381 -3.5000233027
11.2917964321 -7.4639954117 -3.5000226239
11.2166828545 -8.6133163303 -3.5000237580
11.3426139230 -10.7565921301 -3.5000258729
9.8885817657 -4.0311819327 -3.5000192366
10.0182611972 -4.0375676552 -3.5000192429
9.9618369556 -4.0234408134 -3.5000192289
9.9505273791 -4.0207156791 -3.5000192262
10.0469539235 -4.0200827887 -3.5000192256
10.1326047231 -4.0186209256 -3.5000192242
10.2713545509 -4.0103439035 -3.5000192160
10.2600048771 -4.0067032175 -3.5000192124
10.5134744736 -4.0451043850 -3.5000192503
10.7456671786 -4.1172060851 -3.5000193215
11.5883016357 -11.0862048987 -3.5000261981
11.2581057445 -4.2551826440 -3.5000194576
10.6084866955 -7.5692041692 -3.5000227277
10.6081220143 -7.5358274393 -3.5000226948
10.6319162068 -7.5207979917 -3.5000226800
10.6312180428 -7.5014507681 -3.5000226609
10.6564964621 -7.6035546846 -3.5000227616
10.6567052724 -7.5495310746 -3.5000227083
10.6801453927 -7.6239664958 -3.5000227818
10.6802972948 -7.6189858146 -3.5000227769
10.6809955464 -7.5641796923 -3.5000227228
10.6959277350 -7.3925622595 -3.5000225534
10.7281087571 -7.6357575188 -3.5000227934
10.7287641136 -7.6152640523 -3.5000227732
10.7525620156 -7.5119590572 -3.5000226712
10.7926434516 -7.3878263904 -3.5000225488
10.7925272277 -7.9187183905 -3.5000230726
10.8255563897 -7.6123723327 -3.5000227703
10.7854036341 -6.9238584361 -3.5000220909
10.7730738497 -8.3750316128 -3.5000235229
11.3334415473 -7.6033567610 -3.5000227614
11.3568572944 -7.6386181402 -3.5000227962
11.4018444248 -7.9416629074 -3.5000230953
11.4057048896 -6.9725280025 -3.5000221390
11.2093234065 -9.0741953462 -3.5000242128
11.3640755077 -8.8164833288 -3.5000239585
10.5795603941 -4.0761363810 -3.5000192809
10.6413652643 -4.0780636789 -3.5000192828
10.6114487535 -7.4705916026 -3.5000226304
10.6134074681 -7.4516186557 -3.5000226117
10.6114061751 -7.6261548537 -3.5000227839
10.6179075967 -7.5929052442 -3.5000227511
10.6388084183 -7.4395009158 -3.5000225997
10.6400215137 -7.4250317804 -3.5000225855
10.6350806372 -7.6310390247 -3.5000227887
10.7020287614 -7.5262404714 -3.5000226853
10.8986135937 -6.6441563359 -3.5000218149
11.3165395678 -7.1367925515 -3.5000223010
11.3452989589 -7.2318068762 -3.5000223948
10.2346361547 -10.9558816725 -3.5000260696
10.2640810535 -10.9714428038 -3.5000260849
10.5728081159 -11.0875614717 -3.5000261995
10.6168776937 -7.5613435612 -3.5000227200
10.6231594312 -7.5430312083 -3.5000227019
10.6608627135 -7.5820021373 -3.5000227404
10.6625143747 -7.5773008316 -3.5000227357
10.6641521213 -7.5725946605 -3.5000227311
10.6162496854 -7.7535248792 -3.5000229096
10.6950879915 -7.5565646622 -3.5000227153
10.7064519903 -7.5980943395 -3.5000227562
10.7212270552 -7.5543915868 -3.5000227131
10.5801071383 -8.3700398661 -3.5000235180
11.2209462467 -6.7317224978 -3.5000219013
11.2643716517 -6.9934879034 -3.5000221596
11.2786173584 -6.8099290234 -3.5000219785
11.3095947648 -7.3729917975 -3.5000225341
11.3748686546 -6.8007066322 -3.5000219694
11.4548124155 -6.8993477415 -3.5000220667
11.4789538264 -6.8981117971 -3.5000220655
11.4260243933 -6.2327209993 -3.5000214090
9.5956924772 -10.9920767411 -3.5000261053
9.7637919374 -10.9908222513 -3.5000261040
9.7989918545 -10.9845305445 -3.5000260978
9.8151417724 -11.0061277076 -3.5000261191
9.8739974390 -10.9947069334 -3.5000261079
9.9361370110 -11.0558567009 -3.5000261682
10.1260571603 -11.0104738919 -3.5000261234
10.1796340068 -11.0210245884 -3.5000261338
9.9685886441 -11.1477736051 -3.5000262589
10.9328938399 -10.8389293731 -3.5000259541
10.6435626385 -7.5097402428 -3.5000226691
10.6513819511 -7.5975000014 -3.5000227557
10.6959948386 -7.6168021854 -3.5000227747
10.8087019910 -7.5576143590 -3.5000227163
11.0248278694 -7.1431676027 -3.5000223073
11.1559096840 -6.6569466335 -3.5000218276
11.1346639556 -6.4595731600 -3.5000216328
11.1235542924 -6.3962917148 -3.5000215704
11.1825348304 -6.7146423598 -3.5000218845
11.1812497415 -6.6791904688 -3.5000218495
11.1793356486 -6.6437669698 -3.5000218146
11.1758061446 -6.5965990891 -3.5000217680
11.1711614824 -6.5495279356 -3.5000217216
11.1585377115 -6.4557811866 -3.5000216291
11.1155623269 -6.2534459468 -3.5000214294
11.2043443730 -6.8814718874 -3.5000220491
11.1970828359 -6.5647217533 -3.5000217366
11.1885536916 -6.4934244928 -3.5000216662
11.0869936264 -6.0816729986 -3.5000212599
11.0701889966 -6.0368476267 -3.5000212157
11.2133178661 -6.4961279100 -3.5000216689
11.1606987250 -6.2351197036 -3.5000214113
11.0815500371 -5.9999533969 -3.5000211793
11.0628131784 -5.9552797208 -3.5000211352
11.0480696430 -5.9220722793 -3.5000211024
11.0649703194 -5.9009271525 -3.5000210816
11.2404623391 -7.1743231539 -3.5000223381
11.2616401450 -7.0459072073 -3.5000222114
11.2212092253 -6.2765456351 -3.5000214522
11.1530785319 -6.0511952010 -3.5000212298
11.0816852536 -5.8795527438 -3.5000210605
11.0403495097 -5.7962752338 -3.5000209783
11.2769137478 -6.4306302624 -3.5000216042
11.2323323403 -6.2222506581 -3.5000213986
11.0225282070 -5.7136051238 -3.5000208967
10.3337153971 -8.5790585847 -3.5000237242
11.3266748148 -6.6853224077 -3.5000218556
11.3166774819 -6.5461892984 -3.5000217183
10.9771016453 -5.5935160972 -3.5000207782
11.2997055610 -7.2448146629 -3.5000224076
11.3051837909 -7.2197539318 -3.5000223829
10.9613517765 -5.5271610734 -3.5000207127
11.3247029184 -7.2437876993 -3.5000224066
11.0981980367 -5.7000535701 -3.5000208833
11.1350779017 -5.7169963794 -3.5000209001
11.3403086606 -6.0755739356 -3.5000212539
11.2805333942 -5.5321987451 -3.5000207177
11.4505811215 -5.6983492846 -3.5000208817
8.9629147732 -10.9861430291 -3.5000260994
9.2379253977 -11.0158014802 -3.5000261287
9.2508623187 -11.0397951356 -3.5000261524
9.4150000445 -11.0340884194 -3.5000261467
9.0733701814 -11.0630435957 -3.5000261753
9.4303663487 -11.0816557649 -3.5000261937
9.6722277972 -11.0610374114 -3.5000261733
9.5726952285 -11.0954519201 -3.5000262073
9.6110719602 -11.0918370366 -3.5000262037
9.6494151005 -11.0878817235 -3.5000261998
9.8151069354 -11.0668163237 -3.5000261790
9.8058298542 -11.0925900361 -3.5000262044
9.4474631317 -11.1532987724 -3.5000262644
9.9631601984 -11.0916069953 -3.5000262035
8.9658107531 -11.1799270621 -3.5000262906
9.0702414602 -11.1838682338 -3.5000262945
9.9931448490 -11.1106892095 -3.5000262223
10.0828631420 -11.0930159579 -3.5000262049
9.8810806888 -11.1545495135 -3.5000262656
10.2797327711 -11.0723389429 -3.5000261845
10.5462886218 -7.5730106271 -3.5000227315
10.5708229245 -7.5814954636 -3.5000227399
10.5800253886 -7.5705429108 -3.5000227291
10.6496393711 -7.5214842762 -3.5000226806
10.6630483567 -7.5438364623 -3.5000227027
10.6689697198 -7.5359988518 -3.5000226950
10.6748446093 -7.5281263456 -3.5000226872
10.6978753434 -7.4962928944 -3.5000226558
10.6701367371 -7.5742612683 -3.5000227327
10.7031122666 -7.5304798448 -3.5000226895
10.7233481173 -7.5020694503 -3.5000226615
10.6703578229 -7.6128744830 -3.5000227708
10.6663234781 -7.6557414706 -3.5000228131
11.0526262900 -6.2670944920 -3.5000214429
11.0484163747 -6.2418127690 -3.5000214179
11.0981947586 -6.5220316961 -3.5000216944
11.0981366491 -6.5168344990 -3.5000216893
11.0929709509 -6.4026259167 -3.5000215766
11.0858195052 -6.3302180867 -3.5000215052
11.0845532952 -6.3199004604 -3.5000214950
11.0593629441 -6.1713390124 -3.5000213484
11.0400399811 -6.0904626801 -3.5000212686
11.0184681564 -6.0155502895 -3.5000211947
11.0105415414 -5.9908012933 -3.5000211702
11.1202720733 -6.6271416408 -3.5000217981
11.1224464212 -6.5428730431 -3.5000217150
11.1221431664 -6.5059917240 -3.5000216786
11.1203854473 -6.4533326515 -3.5000216266
11.1157734591 -6.3849949053 -3.5000215592
11.1091870551 -6.3221138413 -3.5000214972
11.1365539099 -6.7294886730 -3.5000218991
11.1371093279 -6.7241770949 -3.5000218939
11.1414003753 -6.6763055838 -3.5000218467
11.1427039641 -6.4201782591 -3.5000215939
11.1198604087 -6.2293722084 -3.5000214056
10.9802208846 -5.7820179618 -3.5000209642
10.9688444199 -5.7578602022 -3.5000209404
11.1692897857 -6.6133123369 -3.5000217845
11.1706181510 -6.5646234545 -3.5000217365
11.1691645301 -6.4618183401 -3.5000216350
11.1388359514 -6.1986015648 -3.5000213753
11.1219637291 -6.1192003189 -3.5000212969
10.9763264242 -5.7182515528 -3.5000209013
10.9528355688 -7.4550753836 -3.5000226151
11.1498703991 -6.9454825468 -3.5000221123
11.1834413372 -6.7454902537 -3.5000219149
11.0882241973 -5.9191162662 -3.5000210995
11.0331907237 -5.7817108202 -3.5000209639
10.3944946211 -8.0937814377 -3.5000232454
10.8914810123 -7.5989090806 -3.5000227570
10.9655517813 -7.4814720704 -3.5000226412
11.2048591563 -6.7702489066 -3.5000219394
11.2123691688 -6.6984290915 -3.5000218685
11.2178132211 -6.6097232422 -3.5000217810
11.2166898355 -6.4431297539 -3.5000216166
11.1958667298 -6.2443294622 -3.5000214204
11.2314867259 -6.7508737235 -3.5000219202
11.2188487779 -6.2349797720 -3.5000214112
11.2100881699 -6.1851056802 -3.5000213620
11.2023582604 -6.1464863683 -3.5000213239
11.1483372095 -5.9455417748 -3.5000211256
11.1337862290 -5.9029470856 -3.5000210835
11.2376774604 -6.9947797779 -3.5000221609
11.2503263407 -6.9384896353 -3.5000221054
11.1793482606 -5.8867779051 -3.5000210676
10.1798871632 -8.3267020110 -3.5000234752
11.2851015478 -6.8860983295 -3.5000220537
11.2427204887 -6.0067325357 -3.5000211860
11.3034876882 -6.9194100742 -3.5000220865
11.3258358043 -6.3014830147 -3.5000214768
11.3640582304 -6.5613401615 -3.5000217332
11.3483795965 -6.2867304156 -3.5000214622
11.3866678637 -6.6221400808 -3.5000217932
8.5703731298 -11.0099966151 -3.5000261229
8.5836022926 -11.0122575348 -3.5000261252
8.6498452441 -11.0229745874 -3.5000261358
8.6631124503 -11.0250003575 -3.5000261378
8.7295351760 -11.0345400303 -3.5000261472
8.9028242339 -11.0547359895 -3.5000261671
8.4204426971 -11.0062241459 -3.5000261192
8.5662656620 -11.0338181177 -3.5000261465
8.7530248834 -11.0620517770 -3.5000261743
8.9542350228 -11.0836937145 -3.5000261957
8.8846534179 -11.1015249252 -3.5000262133
9.0604031516 -11.1157075386 -3.5000262273
8.7603137448 -11.1117326619 -3.5000262233
8.7237048424 -11.1801008703 -3.5000262908
10.9997144920 -6.2246288306 -3.5000214010
10.9869747349 -6.1169187448 -3.5000212947
10.9682536676 -6.0189030899 -3.5000211980
11.0281039071 -6.3019500145 -3.5000214773
11.0238087443 -6.2226788846 -3.5000213990
11.0134746098 -6.1306425515 -3.5000213082
11.0080372162 -6.0957773608 -3.5000212738
11.0050094978 -6.0783954589 -3.5000212567
10.9992168767 -6.0480677246 -3.5000212267
10.9927975369 -6.0178664332 -3.5000211969
10.9647995848 -5.9112325859 -3.5000210917
11.0247961344 -5.9454098799 -3.5000211254
11.0792427752 -6.6040022006 -3.5000217753
11.0957115644 -6.2122192212 -3.5000213887
11.0712116765 -6.0382611506 -3.5000212171
11.0493370937 -5.9436376830 -3.5000211237
11.1176632755 -6.1868107945 -3.5000213637
11.1480089389 -6.4130415351 -3.5000215869
11.0867576970 -6.8692279969 -3.5000220370
10.5945434842 -7.6545551681 -3.5000228120
10.6849211799 -7.5762729479 -3.5000227347
10.7865507590 -7.5787172859 -3.5000227371
10.8260940746 -7.5374285162 -3.5000226964
11.1091551179 -7.1285628869 -3.5000222929
11.2942663053 -6.3102252136 -3.5000214854
8.4919708222 -11.1295793827 -3.5000262409
8.0785246946 -11.0454744172 -3.5000261580
7.9025722094 -11.0640418847 -3.5000261763
7.9858046578 -11.1428855937 -3.5000262541
10.9675744632 -6.1775071999 -3.5000213545
10.9669315281 -6.1455391112 -3.5000213229
10.9666730878 -6.1384381568 -3.5000213159
10.9829049814 -6.3328333275 -3.5000215077
10.9882356149 -6.2787346605 -3.5000214544
10.9910411986 -6.2280751361 -3.5000214044
10.9945178726 -6.4160822207 -3.5000215899
11.0013641039 -6.3760102958 -3.5000215503
11.0151997440 -6.2289117753 -3.5000214052
11.0228710771 -6.3945726288 -3.5000215687
11.0355335124 -6.2936724293 -3.5000214691
11.0374977276 -6.2673746476 -3.5000214431
11.0126360529 -6.5481708268 -3.5000217202
11.0580039308 -6.0580516475 -3.5000212366
11.0452267018 -6.5210039929 -3.5000216934
11.0840312609 -6.2938756210 -3.5000214693
11.0884368111 -6.1766856576 -3.5000213537
11.0473708120 -6.5997393999 -3.5000217711
11.1117911690 -6.4463357944 -3.5000216197
11.1536456551 -6.3285626590 -3.5000215035
10.5179752055 -7.6390601567 -3.5000227967
10.5308436326 -7.6323347524 -3.5000227900
10.5393892069 -7.6277878190 -3.5000227855
10.5984341761 -7.5945550110 -3.5000227527
11.4018030525 -6.1309998993 -3.5000213086
10.5377890620 -7.6559962782 -3.5000228134
10.6022509780 -7.6203397573 -3.5000227782
10.6567917406 -7.5871502116 -3.5000227454
10.6856196671 -7.5684172808 -3.5000227270
10.5357482282 -7.6842882277 -3.5000228413
10.5401780444 -7.6820063449 -3.5000228390
10.5971355919 -7.6511577193 -3.5000228086
10.6823354725 -7.5994837905 -3.5000227576
10.7072838387 -7.5830081847 -3.5000227414
10.6912305184 -7.6225142057 -3.5000227803
10.5269659896 -7.7696088326 -3.5000229255
10.6554054524 -7.7012687010 -3.5000228580
10.7520894684 -7.6402565238 -3.5000227978
10.8130943188 -7.6269844687 -3.5000227847
9.9479634674 -8.2732257587 -3.5000234224
7.1445890295 -11.1344928493 -3.5000262458
10.9411456736 -6.2376739023 -3.5000214138
10.9421016569 -6.2322246471 -3.5000214085
10.9434751412 -6.2240403979 -3.5000214004
10.9467821426 -6.2021594723 -3.5000213788
10.9478886309 -6.1939348703 -3.5000213707
10.9518384830 -6.1581935330 -3.5000213354
10.9639288748 -6.2475055120 -3.5000214235
10.9572389083 -6.3731394537 -3.5000215475
10.9640702273 -6.3508910825 -3.5000215256
10.9664959444 -6.3425072016 -3.5000215173
10.9703731641 -6.3284872898 -3.5000215035
10.9877002822 -6.2518936176 -3.5000214279
11.0266182088 -6.3025190986 -3.5000214778
11.0480657699 -6.3170156036 -3.5000214921
11.0443474318 -6.4177921540 -3.5000215916
11.3729042087 -6.2941496510 -3.5000214696
11.3760217470 -6.2741240934 -3.5000214498
11.3831714037 -6.2178329024 -3.5000213943
11.3845899542 -6.3629046967 -3.5000215374
11.4256352932 -6.2687460551 -3.5000214445
11.4329189489 -6.2062279634 -3.5000213828
11.4768775551 -6.2495858282 -3.5000214256
11.4949604709 -6.4229880672 -3.5000215967
11.4248697476 -6.7041162291 -3.5000218741
10.5100453491 -7.6092171809 -3.5000227672
10.4710601626 -7.6462611446 -3.5000228038
10.5127717794 -7.6337116940 -3.5000227914
10.5173854077 -7.6322488725 -3.5000227899
10.5905848684 -7.6069975483 -3.5000227650
10.6132055077 -7.5983991919 -3.5000227565
10.4064642162 -7.6882065290 -3.5000228452
10.4160113955 -7.6858952421 -3.5000228429
10.4965699723 -7.6639790707 -3.5000228213
10.6311066416 -7.6173457093 -3.5000227752
10.5557473373 -7.6705716226 -3.5000228278
10.6260697163 -7.6452603792 -3.5000228028
10.5143230387 -7.7595630820 -3.5000229156
10.5837128349 -7.7376748842 -3.5000228940
10.4294289038 -7.8069789330 -3.5000229624
10.4856143082 -7.7927595608 -3.5000229483
10.5864669505 -7.7622540630 -3.5000229182
10.9794969322 -7.6029886040 -3.5000227611
10.5243051745 -7.8321708721 -3.5000229872
10.1443280442 -7.9471477226 -3.5000231007
10.9323429215 -6.2003094168 -3.5000213770
10.9275346516 -6.2842770523 -3.5000214598
10.9323100330 -6.2729345277 -3.5000214486
10.9346220423 -6.2672319282 -3.5000214430
10.9398192627 -6.2538477238 -3.5000214298
10.9578052041 -6.1993215205 -3.5000213760
10.9471806834 -6.2996898331 -3.5000214750
10.9497295453 -6.2938542113 -3.5000214693
10.9513999721 -6.2899513295 -3.5000214654
10.9729951810 -6.2323264142 -3.5000214086
10.9421518475 -6.3645623421 -3.5000215390
10.9442407399 -6.3607030549 -3.5000215352
10.9493627593 -6.3510013604 -3.5000215257
11.3574123210 -6.2960405143 -3.5000214714
11.3623287718 -6.2770665910 -3.5000214527
11.3646641568 -6.3567265591 -3.5000215313
11.3725784918 -6.3312203771 -3.5000215061
11.3781169323 -6.3119717407 -3.5000214872
11.3800875203 -6.3867965294 -3.5000215610
11.4092350054 -6.2887775424 -3.5000214643
11.3885597490 -6.4339320241 -3.5000216075
11.4189190781 -6.3450004782 -3.5000215197
11.3698792114 -6.5370385654 -3.5000217092
11.3751991360 -6.5799758194 -3.5000217516
11.3931830774 -6.5443966752 -3.5000217165
11.4000145152 -6.5846781764 -3.5000217562
11.4213058594 -6.5416105936 -3.5000217138
10.5580798983 -7.5992251494 -3.5000227574
10.5190383481 -7.6297113426 -3.5000227874
10.5525359135 -7.6246400381 -3.5000227824
10.6001914190 -7.6161946312 -3.5000227741
10.5029393223 -7.6562725297 -3.5000228136
10.5564015753 -7.6485019730 -3.5000228060
10.3770202550 -7.6918388283 -3.5000228487
10.4515581995 -7.6863624363 -3.5000228433
10.5159071677 -7.6789455488 -3.5000228360
10.3883504432 -7.7154334938 -3.5000228720
10.5141260432 -7.7035697131 -3.5000228603
10.6083975615 -7.7130515502 -3.5000228697
10.3082371988 -7.7906498306 -3.5000229462
10.4974567744 -7.7787159033 -3.5000229345
10.4471312405 -7.8081339013 -3.5000229635
10.1015454301 -7.9021513276 -3.5000230563
10.9111553943 -7.8076217586 -3.5000229630
10.9323726914 -7.8514353459 -3.5000230062
9.9152299811 -7.9480540972 -3.5000231016
10.6583534222 -8.0479541599 -3.5000232001
18.5392506686 -7.9655251880 -3.5000231188
18.5627714283 -7.9711027456 -3.5000231243
11.3391109124 -6.3264504326 -3.5000215014
11.3398775469 -6.3822583663 -3.5000215565
11.3509482016 -6.3592688235 -3.5000215338
11.3520177568 -6.3569520787 -3.5000215315
11.3572624771 -6.3453214540 -3.5000215201
11.3623346024 -6.3336145302 -3.5000215085
11.3444024753 -6.4255670672 -3.5000215992
11.3494244406 -6.4163540572 -3.5000215902
11.3409728339 -6.4790680312 -3.5000216520
11.3466280875 -6.4698918569 -3.5000216430
11.3521743684 -6.4606494094 -3.5000216339
11.3560928225 -6.7355675130 -3.5000219051
10.4982066709 -7.6069866088 -3.5000227650
10.5363344368 -7.6081947588 -3.5000227662
10.5448600583 -7.6808678367 -3.5000228379
10.3781189101 -7.6945850450 -3.5000228515
10.2616220698 -7.7756542844 -3.5000229314
10.6179373072 -7.8012143617 -3.5000229567
10.7966090003 -7.8117703333 -3.5000229671
10.1406084799 -7.8002236545 -3.5000229557
10.6630995737 -7.8478177246 -3.5000230027
10.0490657088 -7.8011978389 -3.5000229567
10.4311868748 -7.8694016262 -3.5000230240
10.5977154566 -7.8741853256 -3.5000230287
10.6809749529 -7.8710331926 -3.5000230256
10.0138315308 -7.8412270705 -3.5000229962
10.7159145194 -7.9655835416 -3.5000231189
9.7655956388 -7.8270028415 -3.5000229821
10.6646101502 -7.9929597599 -3.5000231459
10.0367217204 -8.0234194564 -3.5000231759
10.0788036170 -8.0339920821 -3.5000231864
3.9919007499 -9.4706700795 -3.5000246040
11.3276854780 -6.8797863977 -3.5000220474
11.3400938175 -6.8582036241 -3.5000220262
10.6482899313 -8.2281986361 -3.5000233780
10.6914460856 -8.2247293115 -3.5000233746
10.7318512080 -8.2448761724 -3.5000233945
10.6307830044 -8.3019532292 -3.5000234508
10.6480524899 -8.3977874604 -3.5000235453
3.9934534862 -9.3686780589 -3.5000245034
3.9724546392 -9.4958942123 -3.5000246289
10.9292684272 -6.6629821852 -3.5000218335
10.9348591216 -6.7203988840 -3.5000218902
10.9447784438 -6.6934524414 -3.5000218636
10.9511763271 -6.6739649658 -3.5000218444
10.9407189965 -6.7682639060 -3.5000219374
10.9424873278 -6.7644043962 -3.5000219336
10.9484960255 -6.7508151448 -3.5000219202
10.9509847976 -6.7449536439 -3.5000219144
10.9521922344 -6.8001419299 -3.5000219689
10.9370551729 -6.8760672952 -3.5000220438
10.9453771067 -6.8625665817 -3.5000220305
10.9522864112 -6.8508594773 -3.5000220189
10.9654763050 -6.8270866439 -3.5000219954
10.9468184920 -6.9476762695 -3.5000221144
10.9510543622 -6.9418219037 -3.5000221087
10.9593694101 -6.9300015547 -3.5000220970
10.9594068566 -7.0105633656 -3.5000221765
11.3539358892 -6.8415814589 -3.5000220097
11.3645360532 -6.8099273056 -3.5000219785
11.3665434616 -6.8035596225 -3.5000219722
11.3561571311 -6.9037779253 -3.5000220711
11.3709707044 -6.8656380718 -3.5000220335
11.3721438922 -6.8624364362 -3.5000220303
11.3789836662 -6.8431550190 -3.5000220113
11.3875690054 -6.8172634078 -3.5000219858
11.3906301784 -6.8075027639 -3.5000219761
11.3591531795 -6.9576451646 -3.5000221243
11.3690737568 -6.9353870780 -3.5000221023
11.3745350458 -6.9225774716 -3.5000220897
11.3811478876 -6.9064760631 -3.5000220738
11.3972199067 -6.8641717612 -3.5000220320
11.3983886420 -6.8608924822 -3.5000220288
11.3658549775 -6.9997900051 -3.5000221659
11.3840699836 -6.9612454804 -3.5000221278
11.3692743278 -7.0459482560 -3.5000222114
11.3709809132 -7.0427508496 -3.5000222083
11.3726780325 -7.0395484089 -3.5000222051
11.3826611374 -7.0202296145 -3.5000221860
11.3781322239 -7.0800393916 -3.5000222450
11.3817374682 -7.0735865416 -3.5000222387
11.3835257580 -7.0703521461 -3.5000222355
11.3954861486 -7.0984478346 -3.5000222632
11.4065110185 -7.0787149603 -3.5000222437
10.4872047423 -7.7499717329 -3.5000229061
11.3722816417 -7.1823716658 -3.5000223460
11.3909294942 -7.1532877266 -3.5000223173
10.4870264389 -7.7744526415 -3.5000229303
10.5294442470 -7.7673265751 -3.5000229232
10.8500125434 -8.1834957509 -3.5000233339
10.8831795544 -8.1978781396 -3.5000233481
9.9661030371 -8.2927509839 -3.5000234417
9.8252881005 -8.3369414933 -3.5000234853
9.8807861323 -8.3498467407 -3.5000234980
9.9646880885 -8.3661130867 -3.5000235141
10.0888533080 -8.3832019981 -3.5000235309
10.6095458158 -8.3913510725 -3.5000235390
7.6439221611 -9.2785281002 -3.5000244144
4.0526887924 -10.6516966966 -3.5000257694
7.7313371273 -14.7520298097 -3.5000298154
7.6750995876 -14.7598058328 -3.5000298231
7.6996413224 -14.7675027120 -3.5000298307
7.7487925610 -14.7826785061 -3.5000298457
10.9348901711 -6.7799737938 -3.5000219490
10.9384438145 -6.7624691676 -3.5000219317
10.9455592754 -6.7196821640 -3.5000218895
10.9475557119 -6.7045027888 -3.5000218745
10.9439170302 -6.8435541970 -3.5000220117
10.9621821222 -6.7670329414 -3.5000219362
10.9453137515 -6.9167566632 -3.5000220839
10.9609824361 -6.8708579560 -3.5000220386
10.9735178855 -6.8268009533 -3.5000219952
10.9864252703 -6.7689496942 -3.5000219381
