3.4548156379 -6.1070189939 -2.9893565835
3.4564804088 -6.1042916474 -2.9893565808
3.8740684500 -6.0073457633 -2.9893564851
3.8859575380 -5.9714993940 -2.9893564497
3.8731737438 -6.1979645537 -2.9893566732
3.8827160595 -6.1780813070 -2.9893566536
3.9044096693 -6.1298029050 -2.9893566059
3.8808134315 -6.2366265677 -2.9893567113
3.9176575629 -6.1598547469 -2.9893566356
3.8950214549 -6.3600916530 -2.9893568332
3.9474299325 -6.2656492000 -2.9893567400
3.0074136973 -7.7574156992 -2.9893582120
3.0124703777 -7.7810539155 -2.9893582353
3.0389198777 -7.7752319907 -2.9893582296
2.9436847208 -7.8192363159 -2.9893582730
2.9638698891 -7.8155081375 -2.9893582693
2.9907304698 -7.8102588643 -2.9893582641
3.0175270582 -7.8046921317 -2.9893582586
3.0442559025 -7.7988087191 -2.9893582528
3.0575937507 -7.7957485135 -2.9893582498
3.0642558270 -7.7941888323 -2.9893582483
2.9275409190 -7.8466125232 -2.9893583000
3.0225837386 -7.8283303479 -2.9893582820
3.0966801763 -7.8112144256 -2.9893582651
3.0821425044 -7.8396333294 -2.9893582931
2.8869148250 -7.9020868857 -2.9893583547
2.9773576099 -7.8867619018 -2.9893583396
2.9748476927 -7.9118285679 -2.9893583644
3.0794954276 -7.8899274977 -2.9893583427
2.9225293186 -7.9454671614 -2.9893583976
2.9863494237 -7.9342644113 -2.9893583865
3.2586198654 -7.8662593299 -2.9893583194
2.6299350682 -7.9990180628 -2.9893584504
2.9836989462 -7.9593574690 -2.9893584113
3.1671845328 -7.9428743288 -2.9893583950
3.3774001588 -7.8772829412 -2.9893583303
3.4392439633 -7.8539954559 -2.9893583073
1.8790554650 -8.0372993266 -2.9893584882
2.7412722478 -8.1133998315 -2.9893585633
3.3979376614 -8.0494758807 -2.9893585002
1.4519965515 -8.0691427708 -2.9893585196
2.4689460730 -8.3627557734 -2.9893588093
-3.3074823150 -9.4487237409 -2.9893598809
-3.4179811354 -10.3957963979 -2.9893608154
-3.3891655360 -10.4309235052 -2.9893608501
3.4383478823 -5.9287323657 -3.0027618824
3.4406289243 -5.9176629084 -3.0027618715
3.4481502368 -5.8769120847 -3.0027618312
3.4488837025 -5.9897801678 -3.0027619455
3.4579055387 -5.9524681266 -3.0027619087
3.4620015830 -5.9337161118 -3.0027618902
3.4635622654 -5.9261986871 -3.0027618828
3.4665500686 -5.9111367952 -3.0027618679
3.4672691557 -5.9073658806 -3.0027618642
3.4755997358 -5.8581639535 -3.0027618156
3.4703203817 -6.0033761051 -3.0027619618
3.5037685532 -5.8307497586 -3.0027617915
3.5042496781 -5.8268690967 -3.0027617876
3.4686072893 -6.0934590517 -3.0027620536
3.4947037263 -6.0056909329 -3.0027619670
3.4650436587 -6.1734383523 -3.0027621354
3.4709568127 -6.1583416236 -3.0027621205
3.4822451815 -6.1279435586 -3.0027620905
3.4928110717 -6.0972868858 -3.0027620602
3.5139127736 -6.0274529832 -3.0027619913
3.5337925037 -5.9446998109 -3.0027619097
3.5455537825 -6.0018951847 -3.0027619690
3.5002891994 -6.2747312785 -3.0027622440
3.0838235548 -7.7478760866 -3.0027637956
3.1022624375 -7.7398811986 -3.0027637877
3.1267358679 -7.7289674054 -3.0027637769
2.9991276222 -7.8079999402 -3.0027638578
3.0054600188 -7.8056034461 -3.0027638554
3.0370141409 -7.7933405726 -3.0027638433
3.0433030066 -7.7908320675 -3.0027638408
2.9819823258 -7.8401183375 -3.0027638924
3.0965653077 -7.7950017291 -3.0027638478
3.1216913487 -7.7841514882 -3.0027638371
3.0377541677 -7.8708981657 -3.0027639285
2.9333686614 -7.9335931706 -3.0027639932
3.0398179621 -7.8959853926 -3.0027639561
3.1343727565 -7.8839958937 -3.0027639472
3.1930785955 -7.8581280269 -3.0027639217
2.5850057483 -8.0680979347 -3.0027641317
2.6818781044 -8.0749072078 -3.0027641413
3.0994733367 -7.9506023851 -3.0027640187
2.5128995663 -8.1275477621 -3.0027641961
2.5380663476 -8.1485462762 -3.0027642197
1.9793170273 -8.2119922228 -3.0027642881
2.5222698939 -8.1994589191 -3.0027642758
-3.0433972072 -11.6424956764 -3.0027683158
-2.9521072599 -11.7529385731 -3.0027684277
3.4515591838 -5.8778517129 -3.0006652658
3.4513949449 -5.8027074547 -3.0006651916
3.4497398932 -5.7604684237 -3.0006651500
3.4678265548 -6.0068428164 -3.0006653931
3.4704685751 -5.9783545968 -3.0006653650
3.4754935949 -5.8879049922 -3.0006652757
3.4760946366 -5.8402257784 -3.0006652287
3.4757782055 -5.8116170595 -3.0006652004
3.4928264364 -5.9996554488 -3.0006653860
3.5002498696 -5.8353329967 -3.0006652238
3.4982661127 -5.7627663272 -3.0006651522
3.5240615389 -5.8794092912 -3.0006652673
3.5243900496 -5.8302972742 -3.0006652189
3.5102785004 -6.2010902193 -3.0006655847
3.5409524978 -6.0042623283 -3.0006653905
3.5109025509 -6.2994462898 -3.0006656818
3.5135697883 -6.2896955093 -3.0006656722
3.5672376041 -5.9813913402 -3.0006653680
3.5683920374 -5.9662718771 -3.0006653530
3.5395514135 -6.2860999481 -3.0006656686
3.5234382905 -6.4214743001 -3.0006658022
3.5301580443 -6.4018002581 -3.0006657828
3.6185736899 -5.9386155715 -3.0006653257
3.6197848973 -5.9126564303 -3.0006653001
3.5356075727 -6.4591851883 -3.0006658394
3.6001770896 -6.2421717549 -3.0006656253
3.6260960017 -6.2371614788 -3.0006656203
3.5655367376 -6.5163388547 -3.0006658958
3.6842673897 -6.0288546963 -3.0006654148
3.5735862101 -6.6210255023 -3.0006659991
3.5538272658 -6.7170723405 -3.0006660939
3.5914473283 -6.7495057143 -3.0006661259
3.0752060734 -7.7573504693 -3.0006671204
3.1588979611 -7.7017461237 -3.0006670655
3.1279164022 -7.7520181250 -3.0006671151
3.1391842453 -7.7445077968 -3.0006671077
3.0787400431 -7.8405001846 -3.0006672024
3.2173234097 -7.7493100737 -3.0006671125
3.1737764175 -7.8086146925 -3.0006671710
3.1338731836 -7.8632458266 -3.0006672249
2.9418081942 -7.9990065284 -3.0006673588
3.1827433925 -7.8606249190 -3.0006672223
3.2832820893 -7.8802391110 -3.0006672416
3.5956387540 -7.6891522613 -3.0006670531
-0.6989357277 -11.3081241955 -3.0006706241
-1.2934154414 -11.1569801882 -3.0006704750
-1.6877724764 -11.2235372574 -3.0006705407
3.4707094500 -5.8461511491 -2.9989829530
3.4629437899 -5.7904259601 -2.9989828980
3.5092151727 -6.0533923398 -2.9989831575
3.5070296502 -5.9850538860 -2.9989830901
3.4611790589 -5.6524389486 -2.9989827619
3.5328618599 -6.1338153811 -2.9989832369
3.5327622243 -6.0242076420 -2.9989831287
3.5226515351 -5.8745764740 -2.9989829811
3.5179660496 -5.8344627818 -2.9989829415
3.5503978436 -6.2510893789 -2.9989833526
3.5576041258 -6.1052731527 -2.9989832087
3.5678180417 -6.3178679201 -2.9989834185
3.5751705798 -5.9165555345 -2.9989830225
3.5673837339 -5.8400918555 -2.9989829470
3.5418543057 -5.6825489896 -2.9989827916
3.5394639354 -5.6709679104 -2.9989827801
3.5872453257 -6.3563468021 -2.9989834564
3.6051825736 -6.1417688563 -2.9989832447
3.5959943140 -5.8788141007 -2.9989829852
3.5824789682 -6.5205562656 -2.9989836185
3.5899692208 -6.4850034581 -2.9989835834
3.6120090547 -6.3536393076 -2.9989834538
3.6178976148 -6.3055546732 -2.9989834063
3.6123188314 -5.8102414992 -2.9989829176
3.6383355857 -6.3386333332 -2.9989834390
3.6425882395 -6.3021178273 -2.9989834029
3.6523566464 -6.1738401486 -2.9989832764
3.6065936033 -5.6381248141 -2.9989827477
3.6124304556 -6.6032905177 -2.9989837001
3.6762176160 -6.1811181475 -2.9989832835
3.6786207960 -6.0819782887 -2.9989831857
3.6734267751 -5.9333328907 -2.9989830390
3.6670235171 -6.4685451151 -2.9989835672
3.7022288965 -6.0318352352 -2.9989831362
3.6278563898 -6.7250800812 -2.9989838203
3.6371621296 -6.6947683663 -2.9989837904
3.7061106432 -6.3790925165 -2.9989834789
3.7200350277 -6.2530446583 -2.9989833545
3.6787833411 -5.6288234466 -2.9989827386
3.6826587874 -6.6213736300 -2.9989837180
3.7490607658 -5.9858525217 -2.9989830909
3.6577918713 -6.7889000912 -2.9989838833
3.6994517845 -6.6524818155 -2.9989837487
3.7530744934 -6.3922401948 -2.9989834919
3.7738875198 -6.1598323455 -2.9989832625
3.7906521869 -6.2784695550 -2.9989833796
3.7939923010 -5.9248278323 -2.9989830306
3.8065470225 -5.8044038108 -2.9989829118
3.1232967463 -7.7411029153 -2.9989848229
3.7977962326 -6.5542000518 -2.9989836517
3.2031006829 -7.6977407739 -2.9989847801
3.2173864801 -7.6833014019 -2.9989847658
3.2678236302 -7.6656845723 -2.9989847484
3.8928296437 -6.2052020950 -2.9989833073
3.2421946181 -7.7269951088 -2.9989848089
3.2789163684 -7.7240723429 -2.9989848061
3.2158117267 -7.8200868244 -2.9989849008
3.3254696404 -7.7102293670 -2.9989847924
2.9961490526 -8.0327274758 -2.9989851106
3.0305699443 -8.0073427725 -2.9989850856
2.7169578660 -8.2344281152 -2.9989853097
3.3803262772 -7.7221032828 -2.9989848041
2.6276073345 -8.3325552140 -2.9989854065
3.4454449180 -7.7219136613 -2.9989848039
3.4717843770 -7.7650812322 -2.9989848465
3.4386977171 -7.8368198499 -2.9989849173
3.0455124173 -8.2049942623 -2.9989852806
0.8785929241 -11.3198740291 -2.9989883542
-0.3353571936 -11.1102272395 -2.9989881474
-0.3204707956 -11.1158806765 -2.9989881529
-0.1405720374 -11.1802713698 -2.9989882165
-0.7280808667 -11.0491306134 -2.9989880871
-0.6740858004 -11.1269036875 -2.9989881638
3.5760421797 -6.1682904201 -3.0006824801
3.5676436881 -6.0892070206 -3.0006824021
3.5411656037 -5.9256823447 -3.0006822407
3.5315917028 -5.8802879533 -3.0006821959
3.6072804062 -6.2798137978 -3.0006825901
3.6067349579 -6.2664265286 -3.0006825769
3.5932442809 -6.0995290956 -3.0006824122
3.5476985453 -5.8424080140 -3.0006821585
3.5295197471 -5.7709976379 -3.0006820881
3.5030396828 -5.6810316294 -3.0006819993
3.6276639223 -6.5225022213 -3.0006828296
3.6326787561 -6.4075216513 -3.0006827162
3.6330527237 -6.3736704942 -3.0006826828
3.6330367629 -6.3533584483 -3.0006826627
3.2969023600 -7.6050976725 -3.0006838979
3.6559638380 -6.4421667773 -3.0006827503
3.6570111706 -6.3327065732 -3.0006826423
3.6322222058 -6.0260344479 -3.0006823397
3.5978585002 -5.8445687834 -3.0006821607
3.5592215781 -5.6991105848 -3.0006820171
3.4914601249 -5.5054225639 -3.0006818260
3.1556248916 -7.8422158330 -3.0006841318
3.6707966768 -6.5878348807 -3.0006828941
3.6793423727 -6.4636963658 -3.0006827716
3.6807206978 -6.4222374784 -3.0006827307
3.6571377820 -6.0293290621 -3.0006823430
3.5803690644 -5.6855302960 -3.0006820037
3.6805867742 -6.7080118347 -3.0006830127
3.6863010580 -6.6664923791 -3.0006829717
3.6908667260 -6.1020597037 -3.0006824147
3.3389915995 -7.6736147111 -3.0006839655
3.6784578923 -6.8573805290 -3.0006831601
3.7297441911 -6.3740235643 -3.0006826831
3.7274848172 -6.2611488824 -3.0006825717
3.5534957943 -5.4653759960 -3.0006817865
3.3233101720 -7.7400426013 -3.0006840310
3.3785308100 -7.6569258566 -3.0006839490
3.3936713629 -7.6327650449 -3.0006839252
3.4011341670 -7.6206178796 -3.0006839132
3.7528288729 -6.4382549369 -3.0006827465
3.7013269951 -5.8645542028 -3.0006821804
3.6142104755 -5.4872863928 -3.0006818081
3.8020349261 -6.3306619487 -3.0006826403
3.7533686931 -6.9632033133 -3.0006832645
3.7921866832 -6.7763273513 -3.0006830801
3.6990758095 -5.5803800538 -3.0006819000
3.7137505617 -7.1822463015 -3.0006834806
3.8700253157 -6.2099635717 -3.0006825212
3.8591490717 -7.0370568151 -3.0006833374
3.8363925656 -5.4602085221 -3.0006817814
4.0474189949 -6.0296270919 -3.0006823433
0.6753599192 -11.1213034403 -3.0006873675
0.6894319260 -11.1232613698 -3.0006873694
0.7175930073 -11.1270523037 -3.0006873732
0.0710468177 -11.0213388359 -3.0006872689
0.3765428228 -11.0942847952 -3.0006873408
0.1618346080 -11.0701476075 -3.0006873170
0.7397515104 -11.1786457839 -3.0006874241
1.3985710504 -11.2403285410 -3.0006874849
1.4850851463 -11.2385968179 -3.0006874832
0.7018224813 -11.2468841549 -3.0006874914
0.8030371302 -11.2591398769 -3.0006875035
1.4427994731 -11.2879909978 -3.0006875320
1.7191798923 -11.2746821993 -3.0006875188
1.0336688815 -11.3033918501 -3.0006875472
-0.0228852770 -11.1959319419 -3.0006874411
0.1907733635 -11.3258410059 -3.0006875693
0.3084786843 -11.3517473476 -3.0006875949
3.2040829223 -7.7808037369 -2.9996562488
3.2200101257 -7.7505266770 -2.9996562189
3.2928366395 -7.5957917328 -2.9996560662
3.1953990152 -8.1168221417 -2.9996565803
3.6898646143 -6.5183502520 -2.9996550030
3.6734306477 -6.3545141122 -2.9996548414
3.6703647205 -6.3322670868 -2.9996548194
3.7375754925 -6.5074819113 -2.9996549923
3.6555045541 -6.0192226419 -2.9996545105
3.6389613358 -5.9604785914 -2.9996544525
3.6210326733 -5.9021424568 -2.9996543950
3.6139542648 -5.8803782478 -2.9996543735
3.7664386211 -6.7828213635 -2.9996552640
3.7421601672 -6.3220479200 -2.9996548093
3.6510029500 -5.9167989274 -2.9996544094
3.6270796008 -5.8436092788 -2.9996543372
3.7921047424 -6.7215390901 -2.9996552035
3.7922520924 -6.7059961665 -2.9996551882
3.7081464820 -6.0292112634 -2.9996545204
3.5181969338 -5.5204587635 -2.9996540184
3.7977510586 -7.0034576185 -2.9996554817
3.7916541194 -6.1791519298 -2.9996546683
3.8218707689 -7.2898640464 -2.9996557643
3.7054419979 -5.5198318032 -2.9996540177
3.9205454981 -6.0861493509 -2.9996545765
4.0647945314 -7.4173532910 -2.9996558901
4.1281922093 -7.2403513484 -2.9996557155
4.1588298484 -7.0376259780 -2.9996555154
0.6369567848 -11.0001469526 -2.9996594255
0.7135574240 -11.0088411285 -2.9996594340
0.9569492655 -11.0273841727 -2.9996594523
1.1239059952 -11.0321785036 -2.9996594571
1.1496032336 -11.0323460965 -2.9996594572
0.7238969347 -11.0342073068 -2.9996594591
0.7367531817 -11.0354933978 -2.9996594603
0.7624768079 -11.0379514587 -2.9996594628
1.0074266999 -11.0537004425 -2.9996594783
1.0849194629 -11.0558110167 -2.9996594804
1.0978380380 -11.0560290432 -2.9996594806
1.1624374788 -11.0565459029 -2.9996594811
0.8379279662 -11.0685177959 -2.9996594929
0.7535639163 -11.1342319078 -2.9996595578
1.7418462501 -11.1158251527 -2.9996595396
1.7975941441 -11.1326225056 -2.9996595562
1.3225113589 -11.1988380033 -2.9996596215
1.1218436017 -11.2497259798 -2.9996596717
2.0604639072 -11.1611813161 -2.9996595844
2.1100290971 -11.2003784284 -2.9996596230
1.5338953949 -11.3319982464 -2.9996597529
3.2257170777 -7.7406028996 -3.0001728621
3.2473618627 -7.6693431500 -3.0001727918
3.2564314917 -7.6367274709 -3.0001727596
3.2380146961 -7.7804933543 -3.0001729015
3.2466248438 -7.7545143046 -3.0001728759
3.2508144917 -7.7414870292 -3.0001728630
3.2696150743 -7.7619832124 -3.0001728832
3.2747118633 -7.8223903867 -3.0001729429
3.7750546824 -6.4260057454 -3.0001715650
3.8529187727 -6.5722899082 -3.0001717093
4.0937701417 -7.5324838446 -3.0001726568
1.2655809930 -10.9663385623 -3.0001760452
1.3953396729 -10.9812218902 -3.0001760598
1.4069974159 -10.9801736691 -3.0001760588
1.4677930412 -10.9984530318 -3.0001760768
1.6114291405 -11.0049502017 -3.0001760833
1.6419765848 -11.0493624954 -3.0001761271
1.7603074748 -11.0300051090 -3.0001761080
1.8711613009 -11.0332716149 -3.0001761112
1.4322817598 -11.1234872964 -3.0001762002
1.3372432953 -11.1555781121 -3.0001762319
1.3175646796 -11.2295924500 -3.0001763049
1.5894673357 -11.2031154794 -3.0001762788
2.5016893684 -11.0811210568 -3.0001761584
2.0323294636 -11.2452663059 -3.0001763204
1.7726403314 -11.3958323484 -3.0001764690
3.2563363752 -7.5417313327 -2.9999323400
3.2707113436 -7.6578497308 -2.9999324546
3.2721581529 -7.6443858509 -2.9999324413
3.2781960519 -7.5769510245 -2.9999323747
3.2804663143 -7.5431740116 -2.9999323414
3.3006832252 -7.5992130821 -2.9999323967
3.3081953730 -7.7454415919 -2.9999325410
3.3120431130 -7.7180558475 -2.9999325140
3.3387011507 -7.7004966043 -2.9999324966
3.3450002329 -7.6449722232 -2.9999324419
3.3532627055 -7.5405286619 -2.9999323388
3.3528681502 -7.7733839665 -2.9999325686
3.3644014988 -7.6894966660 -2.9999324858
3.3710130296 -7.8122765156 -2.9999326069
3.4006800624 -7.5575023077 -2.9999323555
3.4293376380 -7.3719237230 -2.9999321724
3.4747229184 -7.5327208455 -2.9999323311
3.3829595140 -8.5603134609 -2.9999333451
3.6663025427 -6.5770147324 -2.9999313880
3.9315087341 -8.0888063632 -2.9999328798
3.9796394256 -6.9816963335 -2.9999317874
3.7902260217 -6.2774051266 -2.9999310924
4.0457510973 -6.2676319408 -2.9999310828
1.8163113920 -10.9554377267 -2.9999357085
1.8268059792 -10.9529948065 -2.9999357061
1.9060607307 -10.9584428383 -2.9999357114
1.9165638148 -10.9557344101 -2.9999357088
1.9964084724 -10.9591747756 -2.9999357122
1.9287051145 -11.0025310977 -2.9999357549
2.0452031142 -10.9702741753 -2.9999357231
2.0557405888 -10.9671540871 -2.9999357200
2.1155261437 -10.9741504336 -2.9999357269
2.1260747773 -10.9708223002 -2.9999357237
2.2074159903 -10.9695395490 -2.9999357224
2.2575429627 -10.9777451816 -2.9999357305
1.8544307487 -11.1202993155 -2.9999358711
2.2868369720 -10.9929615487 -2.9999357455
2.2974405027 -10.9891265646 -2.9999357417
2.3291823781 -10.9774336454 -2.9999357302
2.0156184180 -11.1545142322 -2.9999359049
2.5040425968 -10.9859919569 -2.9999357386
2.5347115973 -10.9992258695 -2.9999357517
2.0954969895 -11.1822400451 -2.9999359323
2.6921509266 -11.0079483802 -2.9999357603
2.7027970175 -11.0029143385 -2.9999357553
2.7558543651 -11.0041775164 -2.9999357566
2.4873358163 -11.2275379280 -2.9999359770
3.6596058755 -3.9758431975 -2.9999288213
3.2701684293 -7.5970458501 -3.0000229936
3.2962513123 -7.6221405280 -3.0000230184
3.2947918965 -7.6018809730 -3.0000229984
3.2931527461 -7.5816351673 -3.0000229784
3.2906878500 -7.5546649033 -3.0000229518
3.2893357715 -7.5411911806 -3.0000229385
3.2822659862 -7.4806681409 -3.0000228788
3.3194063016 -7.6068602234 -3.0000230033
3.3178103700 -7.5863957826 -3.0000229831
3.3096126387 -7.5047038067 -3.0000229025
3.3062363027 -7.4775441672 -3.0000228757
3.3449432972 -7.6257795500 -3.0000230220
3.3283790944 -7.4607140690 -3.0000228591
3.3202590972 -7.4060048838 -3.0000228051
3.3473562936 -7.4228785304 -3.0000228218
3.3976677276 -7.7284102043 -3.0000231232
3.3783388423 -8.3484122219 -3.0000237350
3.4444672387 -7.6770624561 -3.0000230726
3.4655569832 -7.6179871935 -3.0000230143
3.3699104880 -8.6280435163 -3.0000240110
3.5117153676 -7.5852868303 -3.0000229820
3.5209907554 -7.4420068318 -3.0000228406
3.5320436441 -8.5214438497 -3.0000239058
3.9400689113 -8.3841478466 -3.0000237703
4.0015998208 -7.8488933539 -3.0000232421
4.0169057486 -8.0186279571 -3.0000234096
3.9759953562 -8.5488250119 -3.0000239328
3.9009499927 -6.6881928156 -3.0000220968
4.1125323137 -8.0355681170 -3.0000234263
3.9661493457 -6.4065610918 -3.0000218189
2.3612240006 -10.9247208991 -3.0000262772
2.3798265724 -10.9166872151 -3.0000262693
2.3891099531 -10.9126291359 -3.0000262653
2.4081616713 -10.9306497068 -3.0000262831
2.5019987099 -10.9142206957 -3.0000262669
2.5403447188 -10.9226251036 -3.0000262752
2.6068858632 -10.9165700747 -3.0000262692
2.7036448261 -10.9205445824 -3.0000262731
2.7222166964 -10.9104850949 -3.0000262632
2.8107681682 -10.9163691264 -3.0000262690
2.9002860260 -10.9199119056 -3.0000262725
3.0408931250 -10.9177585624 -3.0000262704
3.1046234339 -10.9338421062 -3.0000262862
2.9063304410 -4.1107404635 -3.0000195535
2.8846096759 -4.0996010027 -3.0000195425
2.9940400658 -4.1023744967 -3.0000195452
3.0599519307 -4.1109775377 -3.0000195537
3.2869707149 -7.4703139615 -3.0000228686
3.2596584756 -7.3866451911 -3.0000227860
3.3629936387 -7.5627216483 -3.0000229598
3.4602219782 -7.8068703258 -3.0000232007
3.4027321235 -7.5234941287 -3.0000229210
3.5271242804 -8.2885351044 -3.0000236760
3.3870233805 -7.3118507996 -3.0000227122
3.5559121670 -8.1446948564 -3.0000235340
3.3328489568 -7.0586597623 -3.0000224624
3.5023494375 -7.3497778041 -3.0000227496
3.6348926341 -8.4389726517 -3.0000238244
3.5741451771 -7.2607948346 -3.0000226618
3.9142512461 -8.5398344717 -3.0000239239
3.9229570302 -8.4730781399 -3.0000238581
3.9403051481 -8.2550207428 -3.0000236429
4.1306699228 -7.9575029082 -3.0000233493
4.1223318406 -7.8499818282 -3.0000232432
4.1439979920 -8.4536388146 -3.0000238389
4.1544283577 -7.7093845574 -3.0000231045
3.0160533893 -10.7991382261 -3.0000261533
3.3944905030 -10.7763857604 -3.0000261309
2.2683165921 -4.0311105028 -3.0000194749
2.2561607594 -4.0276661840 -3.0000194715
2.3602189548 -4.0331199266 -3.0000194769
2.3480686642 -4.0294037352 -3.0000194732
2.3237353695 -4.0220792617 -3.0000194660
2.4282478102 -4.0292412072 -3.0000194731
2.4160857481 -4.0253237911 -3.0000194692
2.5654550021 -4.0248521017 -3.0000194687
2.5980244050 -4.0108874340 -3.0000194550
3.4120762691 -4.1801898700 -3.0000196220
2.6257725425 -3.8154047227 -3.0000192621
2.5770972578 -3.7474634367 -3.0000191950
3.3504868566 -7.4568295697 -3.0000228553
3.3661166779 -7.4337380298 -3.0000228325
3.5062980006 -7.7098359127 -3.0000231049
3.5818721715 -7.8797193984 -3.0000232726
3.3804372413 -7.3552191565 -3.0000227550
3.6562554261 -7.9882577919 -3.0000233797
3.6784826361 -7.9762712320 -3.0000233678
3.7403685130 -8.2204753919 -3.0000236088
3.3087642705 -7.0503491139 -3.0000224542
3.7752359244 -8.3673182378 -3.0000237537
3.7344832142 -8.0106226010 -3.0000234017
3.7258408007 -7.9665477877 -3.0000233582
3.3455290435 -7.0613356644 -3.0000224650
3.2072095578 -6.8751057347 -3.0000222812
3.7699443940 -9.0097687487 -3.0000243876
3.7859910786 -8.9274041777 -3.0000243064
3.8258220911 -8.4949074557 -3.0000238796
3.7096385198 -9.3189216977 -3.0000246927
3.7121227585 -9.3116331208 -3.0000246855
3.7218437804 -9.2824062829 -3.0000246567
3.7801186805 -9.0748861238 -3.0000244519
3.7903578185 -9.0298337306 -3.0000244074
3.8042133165 -8.9619321601 -3.0000243404
3.8264783203 -8.8251430596 -3.0000242055
3.8304349602 -8.7945971708 -3.0000241753
3.8420469510 -8.6796871579 -3.0000240619
3.3926729521 -7.0017097274 -3.0000224062
3.8018413639 -9.0880126517 -3.0000244648
3.8571811551 -8.7744085091 -3.0000241554
3.8689514783 -8.3088597860 -3.0000236960
3.8673694509 -8.2855981303 -3.0000236731
3.8038720843 -9.1772054449 -3.0000245529
3.8342089680 -9.0554462577 -3.0000244327
3.8440945640 -9.0094369223 -3.0000243873
3.8560021969 -8.9478320034 -3.0000243265
3.8744806944 -8.1200470914 -3.0000235097
3.2958644015 -6.7925986792 -3.0000221998
3.0079633761 -6.4933280420 -3.0000219045
3.9123749440 -8.7090386153 -3.0000240909
3.9052939889 -8.1717831884 -3.0000235607
3.6369256850 -9.7312607443 -3.0000250996
3.7627068444 -9.4552480767 -3.0000248272
3.9222941710 -8.8381310260 -3.0000242183
3.9327491070 -8.2007988808 -3.0000235894
3.6315730497 -9.7921611605 -3.0000251597
3.6354575578 -9.7851014449 -3.0000251527
3.6507862439 -9.7567485996 -3.0000251247
3.9659042637 -8.6409390200 -3.0000240237
3.6448333900 -9.8180555393 -3.0000251852
3.9951027943 -8.4799227639 -3.0000238648
3.7993946337 -9.5575322266 -3.0000249281
3.6582062277 -9.8919040390 -3.0000252581
3.6829651487 -9.8488866802 -3.0000252156
3.8118627518 -9.5897726346 -3.0000249600
4.0289394040 -8.1909606253 -3.0000235797
3.8373472811 -9.5917469243 -3.0000249619
3.8843126104 -9.4757456505 -3.0000248474
3.6811747939 -9.9939720862 -3.0000253588
4.1026880566 -8.0114568028 -3.0000234025
3.8093065246 -9.9201181824 -3.0000252859
4.1835755088 -8.6454669040 -3.0000240282
4.1868019187 -8.3758363797 -3.0000237621
3.9818813465 -7.3925414400 -3.0000227918
3.9528876716 -9.6892992975 -3.0000250582
4.2121078029 -8.5329074731 -3.0000239171
3.5342505944 -10.4010029096 -3.0000257604
3.5456025252 -10.3874371547 -3.0000257471
4.2098482272 -8.0746782335 -3.0000234649
3.9109515545 -9.8853181732 -3.0000252516
4.2479710148 -8.1954453257 -3.0000235841
4.0260838511 -9.7618475559 -3.0000251298
3.5002301346 -10.6896546795 -3.0000260453
1.6367011136 -4.0281567259 -3.0000194720
1.6235433826 -4.0270234221 -3.0000194709
1.5972181508 -4.0248736080 -3.0000194688
1.7049022633 -4.0103598835 -3.0000194544
1.6916915876 -4.0090249063 -3.0000194531
1.6520366751 -4.0052545323 -3.0000194494
1.6255821526 -4.0029365232 -3.0000194471
1.7471890401 -3.9905751193 -3.0000194349
1.8962973502 -3.9852979598 -3.0000194297
1.8830116993 -3.9833969110 -3.0000194278
1.6162848795 -3.9536505726 -3.0000193985
2.0462749397 -3.9849999432 -3.0000194294
2.0196936844 -3.9803498427 -3.0000194248
2.1438107560 -3.9788058101 -3.0000194233
1.6607616370 -3.9089568710 -3.0000193544
2.2286253497 -3.9718120525 -3.0000194164
2.1083871338 -3.9472771213 -3.0000193922
1.7172320005 -3.8901252810 -3.0000193358
2.3139690857 -3.9664197860 -3.0000194111
2.2471614375 -3.9511323385 -3.0000193960
1.7824565240 -3.7999458781 -3.0000192468
2.5528051071 -3.9290156306 -3.0000193742
2.5124062477 -3.9176065078 -3.0000193629
2.4989176575 -3.9138831936 -3.0000193592
2.5864910312 -3.9136268335 -3.0000193590
2.0007671700 -3.7566880470 -3.0000192041
2.7297315246 -3.8818880173 -3.0000193277
1.8670771850 -3.6885129290 -3.0000191369
1.7394255274 -3.6737029965 -3.0000191223
1.6256615723 -3.6633955170 -3.0000191121
4.7071477532 -11.8756533071 -3.0000272156
2.1676536511 -3.7125076910 -3.0000191605
3.2424263700 -4.0272286413 -3.0000194711
3.1192217033 -3.9478168696 -3.0000193927
3.5372220590 -4.1168904686 -3.0000195596
3.1419103022 -3.9310638544 -3.0000193762
2.2670669875 -3.6586518519 -3.0000191074
4.0524113789 -4.3412949276 -3.0000197810
3.6265507455 -9.2322297247 -3.0000246071
3.6538700066 -9.0706558639 -3.0000244477
3.6698789355 -8.8944115971 -3.0000242738
3.6715217474 -8.8551093444 -3.0000242350
3.5914542094 -9.4614330105 -3.0000248333
3.6358046002 -9.3018258321 -3.0000246758
3.6959376926 -8.7167456382 -3.0000240985
3.5910105674 -9.5386087144 -3.0000249095
3.5976391652 -9.5196357778 -3.0000248907
3.5998874637 -9.5848514651 -3.0000249551
3.6889576279 -9.2866576205 -3.0000246609
3.7091367321 -9.1871304095 -3.0000245626
3.7380092257 -8.6004132660 -3.0000239837
3.6052660099 -9.6380052987 -3.0000250075
3.7690339862 -8.8240903608 -3.0000242044
3.7330273874 -9.3107914147 -3.0000246847
3.7930676281 -8.8314404955 -3.0000242117
3.7594139156 -8.3840043252 -3.0000237702
3.5416169049 -9.8902976686 -3.0000252565
3.7087390457 -9.4914154245 -3.0000248629
3.8055417987 -9.1972894801 -3.0000245727
3.8439477641 -8.4561778232 -3.0000238414
3.9100981719 -8.9284305540 -3.0000243074
3.8589565099 -8.1583828414 -3.0000235475
3.8552237176 -8.1441796421 -3.0000235335
3.4138814181 -7.2558808828 -3.0000226570
3.5577280436 -7.4160358404 -3.0000228150
3.8236309147 -9.6766288063 -3.0000250457
3.8937475043 -8.0166709041 -3.0000234077
3.4211417177 -7.0017978544 -3.0000224063
1.0445845142 -3.9728357720 -3.0000194174
1.0303593308 -3.9740751467 -3.0000194186
0.9877066496 -3.9780456770 -3.0000194226
1.4151338477 -3.9312362699 -3.0000193764
1.7608596145 -3.9164010674 -3.0000193617
1.7464643530 -3.9155218178 -3.0000193609
1.9068672678 -3.9034633498 -3.0000193490
1.8510455503 -3.8743799135 -3.0000193203
1.4436461537 -3.8585579723 -3.0000193047
2.1472682930 -3.8584227728 -3.0000193045
1.6820193470 -3.7427226021 -3.0000191904
1.8045110703 -3.7012387574 -3.0000191494
2.5694631280 -3.7876729980 -3.0000192347
2.5102875807 -3.7748527933 -3.0000192221
2.8987032961 -3.8474286164 -3.0000192937
2.9347922665 -3.8328860804 -3.0000192793
5.8372819862 -11.6534295262 -3.0000269963
3.5191992653 -9.3647594591 -3.0000247379
3.5040492337 -9.5400354064 -3.0000249109
3.5410380680 -9.3797964383 -3.0000247528
3.5510177032 -9.3203112896 -3.0000246941
3.5716401250 -9.0691073079 -3.0000244462
3.5032402389 -9.6262699567 -3.0000249960
3.5066574921 -9.6156984373 -3.0000249855
3.5491165902 -9.4603487617 -3.0000248322
3.5617126619 -9.4005581411 -3.0000247732
3.5946686303 -9.1138674390 -3.0000244904
3.5907303327 -8.9029228433 -3.0000242822
3.4922353881 -9.7291668697 -3.0000250975
3.6012687832 -9.3108323128 -3.0000246847
3.6310765739 -9.2690277861 -3.0000246435
3.6427583629 -9.1213755638 -3.0000244978
3.5703785100 -9.6542613934 -3.0000250236
3.6684862404 -9.0531406719 -3.0000244304
3.6630462409 -8.8974981814 -3.0000242769
3.6424618708 -8.7256960286 -3.0000241073
3.6687472452 -9.3499129217 -3.0000247233
3.6663120508 -8.7217584923 -3.0000241034
3.7164653220 -9.0829427902 -3.0000244598
3.6819059323 -8.6712473593 -3.0000240536
3.6648142127 -8.5902606822 -3.0000239737
3.6708400787 -8.5151443940 -3.0000238996
3.6854186151 -9.6093279801 -3.0000249793
3.7618636564 -8.9265194602 -3.0000243055
3.7892523769 -9.0659985904 -3.0000244431
3.7884124002 -8.9802289907 -3.0000243585
3.7699699041 -8.7605291802 -3.0000241417
3.7511715699 -9.5508592107 -3.0000249216
3.7069101603 -8.3834434065 -3.0000237696
3.7462215525 -9.6594402983 -3.0000250287
3.7395064551 -8.4056573414 -3.0000237915
3.4549997462 -7.4081952583 -3.0000228073
3.0900064771 -6.9169979480 -3.0000223226
4.1047466143 -8.1320282503 -3.0000235215
2.6520991402 -6.5619380416 -3.0000219722
0.6566125138 -3.9388585337 -3.0000193839
0.9874566703 -3.8566931456 -3.0000193028
0.8496429568 -3.8779821306 -3.0000193238
0.7581031152 -3.8942097859 -3.0000193398
0.4703589469 -3.9562712777 -3.0000194011
1.5887787022 -3.7828965762 -3.0000192300
0.8609894402 -3.8515854129 -3.0000192978
0.4192961389 -3.9441197652 -3.0000193891
0.3440179872 -3.9638877817 -3.0000194086
1.7601860386 -3.7573007983 -3.0000192047
1.3851015347 -3.7676340661 -3.0000192149
0.2023545394 -3.9791094761 -3.0000194236
1.6347082914 -3.7336157261 -3.0000191814
0.0830006629 -3.9655615626 -3.0000194102
0.4415665866 -3.8388856651 -3.0000192852
1.0748782102 -3.6746663850 -3.0000191232
0.5965925140 -3.7291526475 -3.0000191770
0.7658618290 -3.6716755860 -3.0000191202
0.6024746590 -3.6785247828 -3.0000191270
0.0694328597 -3.8176589148 -3.0000192643
3.4829953452 -9.4016091842 -3.0000247743
3.4903633948 -9.2760204139 -3.0000246504
3.4905333374 -9.2586636499 -3.0000246332
3.4904569426 -9.2369668606 -3.0000246118
3.4902570720 -9.2239501648 -3.0000245990
3.5061241829 -9.4128321765 -3.0000247854
3.5087277549 -9.3864953055 -3.0000247594
3.5108634853 -9.3601163742 -3.0000247333
3.5142668919 -9.2896301585 -3.0000246638
3.5141047903 -9.2102429165 -3.0000245855
3.5068729770 -9.1002321735 -3.0000244769
3.5011182267 -9.0520565509 -3.0000244294
3.5240753870 -9.4643516832 -3.0000248362
3.5291704643 -9.4243339566 -3.0000247967
3.5381857561 -9.2991857834 -3.0000246732
3.5370439103 -9.1781974344 -3.0000245538
3.5368160677 -9.1737207895 -3.0000245494
3.5348505273 -9.1424058887 -3.0000245185
3.5294819514 -9.0843855936 -3.0000244613
3.5551412348 -9.4089568476 -3.0000247815
3.5529915032 -9.0771710910 -3.0000244541
3.5366674016 -8.9691254708 -3.0000243475
3.5358210880 -8.9646508545 -3.0000243431
3.5340887692 -8.9557092304 -3.0000243343
3.5723458643 -9.0377023266 -3.0000244152
3.5682811339 -9.0102492285 -3.0000243881
3.5645220895 -8.9874296918 -3.0000243656
3.5629240356 -8.9783178642 -3.0000243566
3.5471712909 -8.9012875994 -3.0000242806
3.5395625788 -8.8698166918 -3.0000242495
3.6037074808 -9.4091817984 -3.0000247818
3.5987652388 -9.0529980033 -3.0000244303
3.5899119485 -8.9925864882 -3.0000243707
3.5582869576 -8.8457057251 -3.0000242257
3.6108360869 -9.5343483711 -3.0000249053
3.6355791552 -9.2496886632 -3.0000246244
3.6328487910 -9.1591407372 -3.0000245350
3.6227457662 -9.0499534036 -3.0000244273
3.6152938908 -8.9980345581 -3.0000243761
3.6096737988 -8.9651323749 -3.0000243436
3.5963961311 -8.8997123308 -3.0000242790
3.5779205183 -8.8256948909 -3.0000242060
3.6518190205 -9.4139379388 -3.0000247865
3.6597037323 -9.2399594746 -3.0000246148
3.6835404248 -9.2888790702 -3.0000246630
3.6837687649 -9.2299447193 -3.0000246049
3.6761713379 -9.0926723714 -3.0000244694
3.6507536892 -8.9227373493 -3.0000243018
3.5686878638 -8.6452062398 -3.0000240279
3.6451753771 -8.7968704839 -3.0000241776
3.7262864840 -9.3959047354 -3.0000247687
3.7285549467 -9.3656630507 -3.0000247388
3.7322347435 -9.2646546554 -3.0000246391
3.7559241412 -9.2955717155 -3.0000246697
3.7514461225 -9.1214182014 -3.0000244978
3.6389299293 -8.5617317553 -3.0000239455
3.6221204214 -8.5237018723 -3.0000239080
3.7999799980 -8.8151589436 -3.0000241956
3.7334229448 -7.5208793929 -3.0000229185
3.5339864685 -7.3444752398 -3.0000227444
3.4941455123 -7.3136110972 -3.0000227139
3.4361403821 -7.2709651646 -3.0000226719
3.6096156947 -7.3435596376 -3.0000227435
3.3359283994 -7.1460596622 -3.0000225486
3.2920215480 -7.1193390116 -3.0000225222
3.8358024280 -7.3507904905 -3.0000227506
3.3927634838 -7.0107103346 -3.0000224151
0.8787888679 -3.6966683292 -3.0000191449
0.3677527661 -3.8017240896 -3.0000192486
0.5662984015 -3.6953263540 -3.0000191436
0.4025542843 -3.7408619687 -3.0000191885
0.3793666982 -3.7225108476 -3.0000191704
-0.2111509702 -3.8550598866 -3.0000193012
-0.5213419327 -3.9673444482 -3.0000194120
-0.8062765468 -3.9492830304 -3.0000193942
3.4423855788 -9.3894770632 -3.0000247623
3.4419854544 -9.3703097411 -3.0000247434
3.4603607375 -9.2848723360 -3.0000246591
3.4585018143 -9.2686446103 -3.0000246431
3.4576910734 -9.2621615168 -3.0000246367
3.4572713229 -9.2589217971 -3.0000246335
3.4568419905 -9.2556833334 -3.0000246303
3.4857393627 -9.2955843846 -3.0000246697
3.4847468741 -9.2856187926 -3.0000246598
3.4832860595 -9.2723457837 -3.0000246467
3.4816682947 -9.2590909889 -3.0000246337
3.4779628426 -9.2326434627 -3.0000246076
3.4747736036 -9.2128694120 -3.0000245880
3.4724526826 -9.1997195043 -3.0000245751
3.4706099702 -9.1898755992 -3.0000245654
3.5038330171 -9.2425022418 -3.0000246173
3.4917020765 -9.1719428218 -3.0000245477
3.4820052927 -9.1286916064 -3.0000245050
3.4803661314 -9.1220719078 -3.0000244985
3.5386347893 -9.3674338782 -3.0000247406
3.5313098088 -9.2667725771 -3.0000246412
3.5291754225 -9.2494974670 -3.0000246242
3.5139744309 -9.1602912087 -3.0000245362
3.5094953989 -9.1398894142 -3.0000245160
3.4909831324 -9.0691763970 -3.0000244463
3.4879811935 -9.0591731851 -3.0000244364
3.4784444290 -9.0293288968 -3.0000244069
3.5632420198 -9.3880269880 -3.0000247609
3.5591945060 -9.3028730393 -3.0000246769
3.5456602148 -9.1971860979 -3.0000245726
3.5218921386 -9.0896829787 -3.0000244665
3.5844006422 -9.3153233587 -3.0000246891
3.5819970655 -9.2864291031 -3.0000246606
3.5809195384 -9.2756096385 -3.0000246500
3.4924198612 -8.9292070795 -3.0000243081
3.5759311127 -9.1057284873 -3.0000244823
3.5284858479 -8.9541667328 -3.0000243328
3.5103890459 -8.9096623084 -3.0000242889
3.5014623720 -8.8893636248 -3.0000242688
3.4999396264 -8.8859960529 -3.0000242655
3.6069008471 -9.0349497189 -3.0000244125
3.5010970800 -8.7801689251 -3.0000241611
3.5128078714 -8.7514901711 -3.0000241328
3.5149536908 -8.6177253488 -3.0000240008
3.9014155326 -9.3703068195 -3.0000247434
3.9239341173 -9.3235788316 -3.0000246973
3.9189610599 -9.0895388882 -3.0000244663
3.9367732386 -9.0567769385 -3.0000244340
3.0558406030 -7.1958824499 -3.0000225978
3.4603672228 -7.2574938582 -3.0000226586
3.1726805333 -7.1331176788 -3.0000225358
3.2816769881 -7.1489158937 -3.0000225514
3.1740259249 -7.1079413643 -3.0000225110
2.8974814906 -7.0281614859 -3.0000224323
3.2366928854 -7.1051998270 -3.0000225083
3.2452918826 -7.0826079584 -3.0000224860
2.5787163209 -6.8811720522 -3.0000222872
3.7164504597 -7.1793318959 -3.0000225814
2.7483442117 -6.7548586998 -3.0000221626
2.6305224175 -6.7403409764 -3.0000221483
3.1713678568 -6.8014442624 -3.0000222086
3.4398126817 -6.8481377110 -3.0000222546
1.9214343392 -6.6164941750 -3.0000220261
2.6596010116 -6.4517258070 -3.0000218635
-2.1711657563 -4.0337909537 -3.0000194776
3.4545670637 -9.1302980371 -3.0000245066
3.4448041434 -9.1109432839 -3.0000244875
3.8719447996 -9.2336820704 -3.0000246086
3.8656215834 -9.2065594495 -3.0000245818
3.8679948845 -9.1255472529 -3.0000245019
3.8802730495 -9.0171322754 -3.0000243949
2.6741855599 -6.9330541402 -3.0000223384
-3.2183267809 -3.5083826396 -3.0000189591
-3.1997863426 -3.4560902682 -3.0000189075
-3.0167966364 -3.2488079438 -3.0000187030
11.0453626511 -7.7535756462 -3.0000231481
11.0690276590 -7.7486458708 -3.0000231432
11.0585951246 -7.6992969366 -3.0000230945
11.0532694158 -7.6746458314 -3.0000230702
11.0659888542 -7.6201121726 -3.0000230164
11.0604288702 -7.5954395419 -3.0000229920
11.0429268339 -7.4173707727 -3.0000228163
11.0602078149 -7.3868619058 -3.0000227862
11.0539578597 -7.3622073971 -3.0000227619
3.8362888972 -9.1727785097 -3.0000245485
3.8424649820 -9.1293027849 -3.0000245056
3.8449604304 -9.0824202084 -3.0000244593
3.8487924945 -9.0411800426 -3.0000244186
3.8418583953 -9.0300468534 -3.0000244076
3.2403704102 -6.9055548257 -3.0000223113
3.1183871049 -6.7806157090 -3.0000221880
1.5026301573 -6.7467531771 -3.0000221546
-3.4532137498 -5.8227502276 -3.0000212428
-3.4835072246 -5.4920287033 -3.0000209165
10.9516477969 -6.1381247272 -3.0000215540
10.9638474923 -6.1053076069 -3.0000215216
10.9911182714 -5.7555383276 -3.0000211765
11.0018011715 -5.7217599853 -3.0000211432
10.9792833049 -5.6750329057 -3.0000210971
11.0010285255 -5.6644744652 -3.0000210867
10.9882904716 -5.5836921205 -3.0000210069
10.6921791508 -4.8488261433 -3.0000202818
3.8291405853 -8.6678509031 -3.0000240502
3.8286502028 -8.5718568020 -3.0000239555
3.8270993686 -8.5694803060 -3.0000239532
3.2809901804 -6.6989390655 -3.0000221074
2.9322153746 -6.6870191179 -3.0000220957
2.2513029145 -6.6093549167 -3.0000220190
-3.4909883005 -5.4086589277 -3.0000208342
-3.5110018788 -5.3461204383 -3.0000207725
-3.4983368468 -5.2760558706 -3.0000207034
10.9500452550 -5.1257789250 -3.0000205551
11.0384224699 -5.1406494638 -3.0000205698
11.0406343541 -4.9309910311 -3.0000203629
11.0460698798 -4.8373507350 -3.0000202705
11.0674217416 -4.8260178943 -3.0000202593
11.0420247184 -4.7785080552 -3.0000202124
3.4394672052 -8.7786359865 -3.0000241596
3.4477350204 -8.7302672306 -3.0000241118
3.4423597239 -8.7168520579 -3.0000240986
3.4579518322 -8.6916738752 -3.0000240738
3.4477151261 -8.6690838663 -3.0000240515
3.4345558529 -8.6423902870 -3.0000240251
3.8907908755 -8.6840591922 -3.0000240662
3.8866560190 -8.6698659090 -3.0000240522
2.9290691896 -7.0177661423 -3.0000224220
3.3037597877 -6.6964053455 -3.0000221049
2.5451478128 -6.5726125668 -3.0000219828
3.3080426599 -6.6225809705 -3.0000220321
2.6097457821 -6.5454855934 -3.0000219560
2.3785273608 -6.4663069701 -3.0000218779
-3.3355236943 -4.7899575221 -3.0000202237
-3.3369922469 -4.5445213779 -3.0000199815
3.4537119216 -8.7298082960 -3.0000238730
3.4521494725 -8.7171230659 -3.0000238604
3.4499855180 -8.7012939832 -3.0000238448
3.4485748497 -8.6918125060 -3.0000238355
3.4389963850 -8.6383495376 -3.0000237827
3.4682027412 -8.6623658391 -3.0000238064
3.4613433768 -8.6270934000 -3.0000237716
3.4578468430 -8.6111381837 -3.0000237559
3.4548799445 -8.5984123349 -3.0000237433
3.4978363032 -8.6943915575 -3.0000238380
3.4849936736 -8.6220935258 -3.0000237667
3.4701378658 -8.5604385270 -3.0000237058
3.4628505370 -8.5347461768 -3.0000236805
3.5042349046 -8.5971157714 -3.0000237420
3.4820724397 -8.5148218222 -3.0000236608
3.4635546668 -8.4598987558 -3.0000236066
3.4600012169 -8.4503063659 -3.0000235972
3.5538712570 -8.7601255840 -3.0000239029
3.5383660576 -8.6428308037 -3.0000237871
3.5101870832 -8.5243435690 -3.0000236702
3.4838503906 -8.4450696812 -3.0000235920
3.4801645418 -8.4352977621 -3.0000235824
3.4763921178 -8.4255589376 -3.0000235727
3.5373015934 -8.5312016564 -3.0000236770
3.5828484879 -8.5145898456 -3.0000236606
3.5617990370 -8.4476075221 -3.0000235945
3.5543735284 -8.4267129322 -3.0000235739
3.4955480015 -8.2911808067 -3.0000234401
3.5903542542 -8.3220382927 -3.0000234706
3.5228790617 -8.1897352192 -3.0000233400
3.8811602323 -8.5104143897 -3.0000236565
3.9250222978 -8.6094046145 -3.0000237542
3.9187699811 -8.1109013559 -3.0000232623
3.0751265733 -7.1628251004 -3.0000223267
3.1205492590 -6.5875782815 -3.0000217591
3.5270667389 -6.7358852779 -3.0000219055
3.1992275503 -6.5120932771 -3.0000216846
3.2768228773 -6.5147468373 -3.0000216872
2.7691081240 -6.3793947808 -3.0000215537
2.3020987142 -6.3020168942 -3.0000214773
4.1776624567 -7.0055728970 -3.0000221716
-0.9090737040 -3.6804359247 -3.0000188905
3.4426811796 -8.8942037368 -3.0000242736
3.4507612010 -8.7639877375 -3.0000241451
3.4722373245 -8.8345969262 -3.0000242148
3.4749689477 -8.7368980192 -3.0000241184
3.4748752327 -8.7290778430 -3.0000241107
3.4744385463 -8.7095310258 -3.0000240914
3.4902709940 -8.9035758547 -3.0000242828
3.4924135166 -8.8837822410 -3.0000242633
3.4976979252 -8.8123119112 -3.0000241928
3.4991710378 -8.7406616289 -3.0000241221
3.4987133764 -8.7127927046 -3.0000240946
3.4970588426 -8.6730097183 -3.0000240553
3.4927674047 -8.6174327804 -3.0000240005
3.4915485947 -8.6055495113 -3.0000239888
3.4906774876 -8.5976335431 -3.0000239810
3.5138117974 -8.9103807040 -3.0000242896
3.5207385234 -8.8336885801 -3.0000242139
3.5218440536 -8.8134519844 -3.0000241939
3.5220292349 -8.8094028270 -3.0000241899
3.5232753364 -8.7648349085 -3.0000241459
3.5232158923 -8.7283555141 -3.0000241099
3.5230707925 -8.7202500423 -3.0000241020
3.5065301938 -8.5346735550 -3.0000239188
3.5052394985 -8.5266701912 -3.0000239109
3.5032147303 -8.5146798133 -3.0000238991
3.5469379874 -8.7898611414 -3.0000241706
3.5473924270 -8.7692418395 -3.0000241503
3.5473862221 -8.7279943497 -3.0000241096
3.5470421049 -8.7114984371 -3.0000240933
3.5465028245 -8.6950077511 -3.0000240770
3.5461600207 -8.6867650896 -3.0000240689
3.5450897149 -8.6661685712 -3.0000240486
3.5443013472 -8.6538190518 -3.0000240364
3.5391748542 -8.5963025993 -3.0000239796
3.5357195449 -8.5676363122 -3.0000239514
3.5340571277 -8.5553738279 -3.0000239393
3.5255984250 -8.5024248299 -3.0000238870
3.5036409135 -8.4016911770 -3.0000237876
3.5653839521 -8.8826999740 -3.0000242622
3.5692202330 -8.6647356095 -3.0000240472
3.5632028337 -8.5936584574 -3.0000239770
3.5585724333 -8.5561768353 -3.0000239401
3.5413658342 -8.4569652451 -3.0000238422
3.5183113774 -8.3632609064 -3.0000237497
3.5890400479 -8.8892294701 -3.0000242687
3.5940748455 -8.8211350667 -3.0000242015
3.5739316319 -8.4980835220 -3.0000238827
3.5658936204 -8.4561697026 -3.0000238414
3.5493962454 -8.3855234484 -3.0000237717
3.5201071549 -8.2873926960 -3.0000236748
3.6033651223 -8.5281376184 -3.0000239124
3.5738768276 -8.3836375370 -3.0000237698
3.5550073874 -8.3168267684 -3.0000237039
3.6433025383 -8.8015237420 -3.0000241821
3.5659138201 -8.2719301428 -3.0000236596
3.6350605909 -8.4326862993 -3.0000238182
3.6239906494 -8.3846404117 -3.0000237708
3.5873772509 -8.2599539935 -3.0000236478
3.5437995721 -8.1470803016 -3.0000235364
3.5384046381 -8.1347626725 -3.0000235242
3.6833427309 -8.5804377481 -3.0000239640
3.5800555985 -8.1710843549 -3.0000235601
3.5530233997 -8.1083575933 -3.0000234982
3.5511226478 -8.1042192868 -3.0000234941
3.6937545491 -8.4816338530 -3.0000238665
3.5730744441 -8.0940973344 -3.0000234841
3.6590227999 -8.2454575082 -3.0000236334
3.6177139818 -8.1355678911 -3.0000235250
3.5554006319 -8.0040259497 -3.0000233952
3.6577755311 -8.1704817876 -3.0000235595
3.7440922913 -8.2739761756 -3.0000236616
3.6738326391 -7.9697367080 -3.0000233614
3.5925344565 -7.6591451737 -3.0000230549
3.6013168201 -6.8228763528 -3.0000222297
3.1485144018 -6.5543494987 -3.0000219647
3.6330500654 -6.8166131111 -3.0000222235
2.9040530117 -6.4083218114 -3.0000218206
2.8623365164 -6.3701099467 -3.0000217829
3.6335828240 -6.6668051806 -3.0000220757
2.7222935508 -6.2583271153 -3.0000216726
3.1765605656 -6.3817126812 -3.0000217944
2.6978911488 -6.2281394063 -3.0000216429
2.6594290917 -6.1462156002 -3.0000215620
2.9855743465 -6.2060456815 -3.0000216210
0.8733174072 -3.6447501467 -3.0000190937
0.2304929854 -3.7468344849 -3.0000191944
-0.3056132986 -3.8788489822 -3.0000193247
-0.3128578228 -3.8283751242 -3.0000192749
-0.8591819386 -3.9987789488 -3.0000194430
-0.4225598011 -3.7213698499 -3.0000191693
-0.4966361085 -3.7600153653 -3.0000192074
-0.7203821952 -3.7734703252 -3.0000192207
-0.7324718583 -3.7525376874 -3.0000192000
3.4735268643 -8.8446172377 -3.0000242247
3.4682501798 -8.9772054670 -3.0000243555
3.4706766952 -8.9681303518 -3.0000243465
3.5005832886 -8.8304789571 -3.0000242107
3.5136884550 -8.7374720983 -3.0000241189
3.5951003954 -8.6132161066 -3.0000239963
3.5861102973 -8.3827371978 -3.0000237689
3.6200074825 -8.5740979245 -3.0000239577
3.7131867580 -8.8777151688 -3.0000242573
3.6884691201 -8.1305544659 -3.0000235201
3.7594752387 -8.2315795817 -3.0000236198
3.6646013565 -7.8942433245 -3.0000232869
1.1901515807 -3.8179330624 -3.0000192646
1.7831056028 -3.7379696973 -3.0000191857
1.3561088102 -3.7704684951 -3.0000192177
1.9401730298 -3.7113904261 -3.0000191594
1.1118495370 -3.7818330439 -3.0000192289
1.3932809214 -3.7174687707 -3.0000191654
1.7953020643 -3.6650504339 -3.0000191137
1.0831176558 -3.6150790100 -3.0000190644
3.5364377601 -8.7840329272 -3.0000241649
3.5495629903 -8.7259679772 -3.0000241076
3.5517460631 -8.7153663294 -3.0000240971
3.5825763864 -8.4957618908 -3.0000238804
3.5490556596 -8.8322447620 -3.0000242125
3.5624863087 -8.7790814464 -3.0000241600
3.5996953436 -8.5686049989 -3.0000239523
3.6015479398 -8.5522590304 -3.0000239362
3.6027023823 -8.5413528623 -3.0000239254
3.6053060223 -8.5140592315 -3.0000238985
3.6109207640 -8.4265103684 -3.0000238121
3.4741418799 -9.1157293809 -3.0000244922
3.5123750221 -9.0233491890 -3.0000244010
3.5351083063 -8.9606882664 -3.0000243392
3.5572094476 -8.8919421706 -3.0000242714
3.5634761805 -8.8706240492 -3.0000242503
3.5885376700 -8.7738366804 -3.0000241548
3.6147281234 -8.6374842314 -3.0000240203
3.6361239713 -8.3941727826 -3.0000237802
3.6365594367 -8.3386258621 -3.0000237254
3.5052589157 -9.1049518454 -3.0000244816
3.5162090613 -9.0790377924 -3.0000244560
3.6558455698 -8.2147915464 -3.0000236032
3.4419204357 -9.2882643706 -3.0000246624
3.4868727015 -9.2024703846 -3.0000245778
3.5428715963 -9.0777390070 -3.0000244547
3.5752258046 -8.9925128566 -3.0000243706
3.6190953758 -8.8510451795 -3.0000242310
3.6303910714 -8.8068833062 -3.0000241874
3.6810017958 -8.4749593272 -3.0000238599
3.6813580686 -8.4692723963 -3.0000238543
3.6803575936 -8.2187357349 -3.0000236071
3.6771929082 -8.1789756213 -3.0000235678
3.6750150901 -8.1562877117 -3.0000235455
3.6668732347 -8.0884008133 -3.0000234785
3.5284551110 -9.1714997773 -3.0000245472
3.5780249947 -9.0546724882 -3.0000244319
3.7084853982 -8.4015816868 -3.0000237875
3.7062511156 -8.2458601841 -3.0000236338
3.7059295612 -8.2400995636 -3.0000236282
3.7001999818 -8.1653186871 -3.0000235544
3.6791416085 -8.0110114503 -3.0000234021
3.5328193895 -9.2185801959 -3.0000245937
3.5671902547 -9.1443851800 -3.0000245205
3.6026704784 -9.0579337967 -3.0000244352
3.7176022045 -8.6001426319 -3.0000239834
3.7332362461 -8.3671589363 -3.0000237535
3.7300629986 -8.2387166395 -3.0000236268
3.7192474649 -8.1165511196 -3.0000235062
3.5138455706 -9.3079875846 -3.0000246819
3.7497866498 -8.5267642873 -3.0000239110
3.7452825280 -8.1312933649 -3.0000235208
3.7344545444 -8.0492340966 -3.0000234398
3.7609869739 -8.0633337010 -3.0000234537
3.7098199032 -7.8174294372 -3.0000232111
3.7879853511 -8.6212782835 -3.0000240043
3.6223761874 -9.2555224970 -3.0000246301
3.8178278157 -8.5757999123 -3.0000239594
3.8241679717 -8.1965029546 -3.0000235851
3.8173594204 -8.1232971706 -3.0000235129
3.8159583256 -8.7499838625 -3.0000241313
3.8531222319 -8.4176848084 -3.0000238034
3.8286337799 -7.8953652724 -3.0000232880
3.8387522488 -8.8706117792 -3.0000242503
3.8068791833 -7.7185389599 -3.0000231135
3.9264096551 -8.3173712316 -3.0000237044
3.9261687369 -8.3045471835 -3.0000236918
3.9156672771 -8.7428690571 -3.0000241243
3.9112566880 -7.9369071410 -3.0000233290
3.9746362069 -8.3100509393 -3.0000236972
3.8100839786 -7.3364846288 -3.0000227365
3.8940802246 -7.4627507749 -3.0000228611
3.8273323014 -9.4394323236 -3.0000248116
4.0858492159 -8.1352456126 -3.0000235247
4.0417397185 -7.3774204335 -3.0000227769
3.8537755544 -7.0204794802 -3.0000224247
3.4893785130 -6.5387414577 -3.0000219493
3.9183310560 -7.0326724500 -3.0000224367
3.5276060260 -6.5420596005 -3.0000219526
3.1051532831 -6.1805723760 -3.0000215959
3.2965557735 -6.2514376595 -3.0000216658
2.8021247988 -5.8093657490 -3.0000212296
1.2615708927 -3.9880535690 -3.0000194324
1.1455850817 -4.0028349494 -3.0000194470
1.0813310561 -4.0123794733 -3.0000194564
1.0556701545 -4.0164632102 -3.0000194605
1.0300338628 -4.0206986942 -3.0000194646
1.5974457400 -3.9385958458 -3.0000193836
1.2848019574 -3.9611550969 -3.0000194059
1.1551484055 -3.9770939857 -3.0000194216
0.9874052895 -4.0035346924 -3.0000194477
1.6359472239 -3.9131744289 -3.0000193585
1.5703134469 -3.9154761146 -3.0000193608
1.5178354163 -3.9180162524 -3.0000193633
1.4260844425 -3.9239549503 -3.0000193692
1.0868547751 -3.9626052051 -3.0000194073
1.0479306591 -3.9687406648 -3.0000194134
0.9961194493 -3.9774581497 -3.0000194220
1.8465605470 -3.8881669290 -3.0000193339
1.8201513695 -3.8877254852 -3.0000193334
1.0571001507 -3.9427845172 -3.0000193878
1.9929928515 -3.8692468460 -3.0000193152
1.9399382246 -3.8667888811 -3.0000193128
1.9809221171 -3.8444297903 -3.0000192907
1.8475115577 -3.8398302276 -3.0000192862
