25.8650893439 -10.8924114546 -3.0000262453
25.5283932503 -4.0797853064 -3.0000195230
25.8966868552 -10.9022970266 -3.0000262551
25.9065357030 -10.8966614353 -3.0000262495
25.9261831701 -10.8853029720 -3.0000262383
25.6002052605 -4.0855637782 -3.0000195287
25.5795613478 -4.0761368743 -3.0000195194
25.5692185669 -4.0714692649 -3.0000195147
25.9776814781 -10.8829846280 -3.0000262360
25.6516891743 -4.0829451786 -3.0000195261
25.6413662180 -4.0780641722 -3.0000195213
25.6310288680 -4.0732137244 -3.0000195165
25.6103113487 -4.0636046739 -3.0000195070
26.0195935324 -10.8859079401 -3.0000262389
25.7137719620 -4.0861247910 -3.0000195292
25.7034581400 -4.0810601186 -3.0000195242
25.6931293808 -4.0760259786 -3.0000195192
25.8181283026 -4.0848892978 -3.0000195280
25.8078103691 -4.0795159259 -3.0000195227
25.8706895881 -4.0853979583 -3.0000195285
25.8396907716 -4.0689030549 -3.0000195122
25.9131791389 -4.0809804178 -3.0000195241
25.8925026319 -4.0697019356 -3.0000195130
26.0091629276 -4.0795315281 -3.0000195227
26.0419774573 -4.0706304753 -3.0000195139
26.0599469511 -11.1151111965 -3.0000264651
26.9114187235 -10.4559585914 -3.0000258147
25.9851881678 -3.8725045496 -3.0000193184
27.2789586370 -4.7625768000 -3.0000201967
27.2568926065 -4.6276043423 -3.0000200635
25.4492922938 -7.3799267493 -3.0000227794
26.3118963300 -6.6732262549 -3.0000220820
26.3191883863 -6.5296275267 -3.0000219403
26.3597846684 -6.5774459944 -3.0000219875
26.3650779285 -6.5144126969 -3.0000219253
26.2622854361 -6.1980282329 -3.0000216131
26.2254378825 -6.0744838404 -3.0000214912
26.2493929094 -8.6678033939 -3.0000240502
26.1821216062 -8.9379284993 -3.0000243167
26.0330503164 -4.1803551042 -3.0000196222
25.1513780652 -10.9573986694 -3.0000263095
25.1730226558 -10.9505759614 -3.0000263027
25.2237962631 -10.9594917480 -3.0000263115
25.2562636405 -10.9485669411 -3.0000263008
26.3089636406 -4.1955391938 -3.0000196372
25.2640743777 -10.9714432971 -3.0000263233
25.2858000888 -10.9639535941 -3.0000263159
25.2966462323 -10.9601605739 -3.0000263122
25.3373321971 -10.9713233645 -3.0000263232
25.3807323797 -10.9553487407 -3.0000263074
25.4958383746 -10.9623387639 -3.0000263143
25.5066788221 -10.9579244196 -3.0000263100
25.3287000105 -11.0513851311 -3.0000264022
25.5376022514 -10.9713195868 -3.0000263232
25.5593224434 -10.9622116032 -3.0000263142
25.5905337661 -10.9751838472 -3.0000263270
25.6546564502 -10.9734550056 -3.0000263253
25.3753422524 -11.1117866717 -3.0000264618
25.4428578645 -11.0869357048 -3.0000264373
25.6620943988 -11.0494957834 -3.0000264003
25.9250484414 -10.9769272645 -3.0000263287
25.9798869611 -10.9753071470 -3.0000263271
25.5787358409 -11.2676445258 -3.0000266156
25.7302891661 -11.2043566970 -3.0000265532
26.3391186281 -10.9897955009 -3.0000263414
25.4516486283 -7.4448022258 -3.0000228434
26.2482315748 -6.7542200862 -3.0000221620
26.2373813892 -6.6771682888 -3.0000220859
26.2843429862 -6.8818179644 -3.0000222879
26.2804226348 -6.8295164599 -3.0000222363
26.2452461438 -6.4748549979 -3.0000218863
26.3362282073 -6.9590788695 -3.0000223641
26.3176730768 -6.7254473257 -3.0000221336
26.1759467178 -6.1823491902 -3.0000215977
26.3840423987 -7.1014126870 -3.0000225046
26.3087427593 -6.4306649753 -3.0000218427
26.4579182604 -7.0333730291 -3.0000224374
26.4495992958 -6.8219038769 -3.0000222288
26.5540634510 -6.9677809746 -3.0000223727
26.5511283990 -6.6498152935 -3.0000220589
24.5691908693 -10.9711193962 -3.0000263230
24.6042235940 -10.9665555845 -3.0000263185
24.6074526288 -10.9905119744 -3.0000263421
24.6426559451 -10.9856078474 -3.0000263373
24.6543805413 -10.9839037371 -3.0000263356
24.6778143538 -10.9803915038 -3.0000263322
24.6895233652 -10.9785834114 -3.0000263304
24.7012269767 -10.9767406896 -3.0000263286
24.6696830509 -11.0060709616 -3.0000263575
24.7638081499 -10.9908227447 -3.0000263424
24.7755476425 -10.9887602215 -3.0000263404
24.8269425291 -11.0039137087 -3.0000263554
24.8622561351 -10.9970612042 -3.0000263486
24.9092437032 -10.9874375550 -3.0000263391
24.9496078362 -11.0034624283 -3.0000263549
24.9849126070 -10.9955213558 -3.0000263471
25.1914772363 -11.0177322904 -3.0000263690
25.2032944610 -11.0144045269 -3.0000263657
24.8550207062 -11.2200022791 -3.0000265686
25.5129149760 -11.0420680726 -3.0000263930
24.5957939574 -11.2844795190 -3.0000266322
24.7843851439 -11.2570687519 -3.0000266052
25.5688109848 -11.0474010265 -3.0000263983
25.5807143240 -11.0429569117 -3.0000263939
25.0045157507 -11.3131307933 -3.0000266605
25.9362784483 -11.0247497910 -3.0000263759
25.3830906923 -11.2636784271 -3.0000266117
24.8644743280 -11.4148753322 -3.0000267609
25.3337869574 -11.3289971481 -3.0000266761
25.4072572574 -7.4885818918 -3.0000228866
25.4340067280 -7.4410407344 -3.0000228397
26.1512044584 -6.5928699813 -3.0000220027
26.0876047789 -6.2427762139 -3.0000216573
26.1758004225 -6.5965995824 -3.0000220064
26.1741892307 -6.5789351475 -3.0000219890
26.1585319895 -6.4557816800 -3.0000218675
26.1461607441 -6.3859210476 -3.0000217985
26.1109024938 -6.2363301482 -3.0000216509
26.2039980406 -6.8874467922 -3.0000222934
26.2074363013 -6.7618476342 -3.0000221695
26.2284744982 -6.8828125903 -3.0000222889
26.1368812748 -6.1537604596 -3.0000215695
26.1013529150 -6.0507255400 -3.0000214678
26.0723080403 -5.9775616245 -3.0000213956
26.2196481787 -6.3840439858 -3.0000217967
26.1303636744 -6.0594800440 -3.0000214764
26.2505094877 -7.1194507938 -3.0000225224
26.2612257469 -6.4896764426 -3.0000219009
26.1309712695 -5.9932858038 -3.0000214111
26.0167987739 -5.7526340232 -3.0000211736
26.2828410004 -7.2085267488 -3.0000226103
26.3056054240 -6.4581053740 -3.0000218698
26.2523708291 -6.2037682692 -3.0000216188
26.3505628060 -6.6779679160 -3.0000220867
26.1163473637 -5.7853893622 -3.0000212060
26.3678913313 -6.5734288653 -3.0000219836
26.0981923147 -5.7000540635 -3.0000211218
26.0964956743 -5.6484342783 -3.0000210708
26.3438796426 -6.1718694908 -3.0000215873
25.9436028311 -8.5206002544 -3.0000239049
25.9607335418 -8.5376552840 -3.0000239218
25.8996957791 -8.8854477424 -3.0000242650
23.9889870508 -10.9632342290 -3.0000263152
24.0128200058 -10.9884708699 -3.0000263401
24.0377849367 -10.9894130361 -3.0000263411
24.0502693832 -10.9898287270 -3.0000263415
24.0627550047 -10.9902074848 -3.0000263418
24.0877293360 -10.9908541884 -3.0000263425
24.1501780786 -10.9918244261 -3.0000263434
24.1626691666 -10.9919076272 -3.0000263435
24.2630423669 -11.0154118962 -3.0000263667
24.3132786274 -11.0141858778 -3.0000263655
24.3771377985 -11.0359660421 -3.0000263870
24.4654409406 -11.0310636208 -3.0000263822
24.5430525642 -11.0494957108 -3.0000264003
24.1877228498 -11.0886552611 -3.0000264390
24.7259828090 -11.0789515747 -3.0000264294
24.8023856756 -11.0686633002 -3.0000264193
24.8278112331 -11.0649327272 -3.0000264156
24.8441662856 -11.0869068197 -3.0000264373
24.8349711488 -11.1127456620 -3.0000264628
24.1616671223 -11.1852892550 -3.0000265343
25.1519751190 -11.1028494768 -3.0000264530
24.0557827474 -11.2318371930 -3.0000265803
24.8098706938 -11.2140959371 -3.0000265628
24.2012143653 -11.2820098796 -3.0000266298
25.1938156421 -11.1677321730 -3.0000265170
25.3621749522 -11.1256769866 -3.0000264755
23.9451457747 -11.3240994092 -3.0000266713
23.9845218028 -11.3501946360 -3.0000266971
25.0374532405 -11.2745368280 -3.0000266224
25.3680000751 -11.1992035632 -3.0000265481
24.1333950164 -11.3784489041 -3.0000267249
24.7861766473 -11.3393014823 -3.0000266863
25.5445729137 -11.1735251148 -3.0000265227
25.7937498096 -11.1402686591 -3.0000264899
26.1474955970 -11.0198881384 -3.0000263711
26.2057979947 -11.0460108574 -3.0000263969
26.0592639305 -6.3127483039 -3.0000217263
26.0335537400 -6.1663803344 -3.0000215819
26.0205324565 -6.1115208238 -3.0000215278
26.0976193217 -6.4908528361 -3.0000219021
26.0765035114 -6.2633008137 -3.0000216775
26.1417905066 -6.2145677665 -3.0000216295
26.1302796689 -6.1561613396 -3.0000215718
26.1948861351 -6.5210941595 -3.0000219319
26.2431339793 -6.5656365804 -3.0000219759
26.2631433790 -6.6684430220 -3.0000220773
26.2070788114 -7.1853551888 -3.0000225874
23.5968419004 -11.0144798037 -3.0000263658
24.0753560769 -11.0923869848 -3.0000264427
24.1157746190 -11.0945676411 -3.0000264448
23.7364629263 -11.0842541251 -3.0000264346
23.9792243435 -11.1100021084 -3.0000264600
24.1958953235 -11.1220133503 -3.0000264719
23.3041186788 -11.0302900399 -3.0000263814
23.3440165156 -11.0393174408 -3.0000263903
24.6651140381 -11.2340293496 -3.0000265824
24.9729888807 -11.2269868026 -3.0000265755
25.0108226660 -11.2949783347 -3.0000266426
25.1371899574 -11.2754694225 -3.0000266233
25.2490456322 -11.2553094200 -3.0000266034
25.4227745003 -7.4822260773 -3.0000228803
26.0031743267 -6.2809316317 -3.0000216949
26.0000495557 -6.2289551183 -3.0000216437
25.9955662685 -6.1814345744 -3.0000215968
25.9796462861 -6.0741484236 -3.0000214909
25.9477816923 -5.9390455343 -3.0000213576
26.0274347501 -6.4033802394 -3.0000218158
26.0281654174 -6.3813378844 -3.0000217940
26.0286249121 -6.3328219423 -3.0000217461
26.0280953240 -6.3019505079 -3.0000217157
26.0275057315 -6.2843167343 -3.0000216983
26.0267075292 -6.2666911715 -3.0000216809
26.0195923047 -6.1787728328 -3.0000215941
26.0164448408 -6.1524954122 -3.0000215682
26.0072909889 -6.0914290390 -3.0000215080
26.0042118650 -6.0740561697 -3.0000214908
25.9898466282 -6.0049654341 -3.0000214226
25.9867899249 -5.9920905611 -3.0000214099
26.0413174293 -6.5294111643 -3.0000219401
26.0423942173 -6.5205111981 -3.0000219313
26.0453083956 -6.4937752574 -3.0000219050
26.0527415688 -6.3595518183 -3.0000217725
26.0527602743 -6.3281752983 -3.0000217416
26.0525693998 -6.3147293744 -3.0000217283
26.0492349732 -6.2386089054 -3.0000216532
26.0478944135 -6.2207294319 -3.0000216355
26.0426048467 -6.1672036955 -3.0000215827
26.0123679229 -5.9951217408 -3.0000214129
26.0641593171 -6.5414209287 -3.0000219520
26.0689014357 -6.5007118659 -3.0000219118
26.0764954576 -6.3825822101 -3.0000217952
26.0690884389 -6.1870346189 -3.0000216023
26.0632047500 -6.1372901356 -3.0000215532
26.0625896652 -6.1327779178 -3.0000215488
26.0898584528 -6.5307689174 -3.0000219415
26.0982474398 -6.4386544688 -3.0000218506
26.0594229206 -5.9840236185 -3.0000214020
26.1248254977 -6.3838265359 -3.0000217965
26.0967160229 -6.0427702935 -3.0000214599
26.1143968988 -6.6776461365 -3.0000220864
26.1474144561 -6.2605089503 -3.0000216748
26.1380431511 -6.6826651039 -3.0000220914
26.1727174227 -6.3995841498 -3.0000218120
26.1734965769 -6.3173168093 -3.0000217308
26.1730786266 -6.2979615048 -3.0000217117
26.1563300920 -6.1052013897 -3.0000215215
26.1300054172 -5.9673764350 -3.0000213855
26.1331443177 -6.8020258449 -3.0000222091
26.1880948180 -6.5228655586 -3.0000219337
26.1253253254 -5.8575411431 -3.0000212772
26.1181737211 -6.9919336068 -3.0000223965
26.1330879611 -6.9543495155 -3.0000223594
26.1348895800 -6.9496269957 -3.0000223548
26.2150004614 -6.7775768082 -3.0000221850
26.1961671932 -5.8412431783 -3.0000212611
26.1091465348 -7.1285633803 -3.0000225313
26.2231632211 -6.8387419397 -3.0000222454
26.2434960616 -6.7634838141 -3.0000221711
26.2902458393 -6.4660486212 -3.0000218776
26.2849927525 -6.1598288388 -3.0000215754
26.3423106785 -6.3894260018 -3.0000218020
26.3473432727 -6.6109793045 -3.0000220206
26.4839081434 -7.8042395999 -3.0000231981
26.4541848387 -7.8819236545 -3.0000232747
25.7306512045 -8.9254668404 -3.0000243044
25.0171665857 -9.1960607496 -3.0000245715
23.2666624755 -11.0747484158 -3.0000264253
23.6055221072 -11.1529819420 -3.0000265025
23.6197550994 -11.1557180482 -3.0000265052
23.5866285900 -11.1739216422 -3.0000265231
23.2258731311 -11.1137627379 -3.0000264638
23.3249377028 -11.1398995890 -3.0000264895
24.3809571738 -11.2883183223 -3.0000266360
23.4621212766 -11.1972681917 -3.0000265462
22.9025636263 -11.0640423781 -3.0000264147
23.9521390851 -11.3047263609 -3.0000266522
23.2209735906 -11.1876029871 -3.0000265366
22.6924572278 -11.1157749658 -3.0000264657
23.0285787214 -11.2577458010 -3.0000266058
23.4106771950 -11.3591620656 -3.0000267059
25.9657741655 -6.2520832339 -3.0000216665
25.9671171115 -6.2201368952 -3.0000216350
25.9676028943 -6.1810604749 -3.0000215964
25.9658527663 -6.1206940410 -3.0000215368
25.9652289050 -6.1100538503 -3.0000215263
25.9603088454 -6.0534271669 -3.0000214705
25.9590882467 -6.0428388243 -3.0000214600
25.9907784267 -6.2353191850 -3.0000216499
25.9906890607 -6.1338666730 -3.0000215498
25.9893539733 -6.1085318903 -3.0000215248
25.9886212543 -6.0976836186 -3.0000215141
26.0111382307 -6.2953050074 -3.0000217091
26.0136156864 -6.2621357362 -3.0000216764
26.0150759028 -6.2326057095 -3.0000216473
26.0158568312 -6.1697877395 -3.0000215853
26.0099818603 -6.4611393540 -3.0000218728
26.0146750702 -6.4390280930 -3.0000218509
26.0209772559 -6.4057137355 -3.0000218181
26.0285097780 -6.3573238589 -3.0000217703
26.0364515341 -6.2824074582 -3.0000216964
26.0256613285 -6.4999964436 -3.0000219111
26.0640014705 -6.1576582362 -3.0000215733
26.0559846716 -6.0389655062 -3.0000214562
26.0452362385 -6.5210044863 -3.0000219318
26.0509863926 -6.4982580948 -3.0000219094
26.0706159694 -6.5194274722 -3.0000219303
26.1074573414 -6.3037899025 -3.0000217175
26.1122444182 -6.1526337928 -3.0000215683
26.1106785152 -6.1128472194 -3.0000215291
26.1048976861 -6.0414153286 -3.0000214586
26.1169095918 -6.4184267998 -3.0000218306
25.4292292740 -7.4399716791 -3.0000228386
25.4366385395 -7.4360293536 -3.0000228347
26.0519006824 -6.7859559721 -3.0000221933
26.0554296735 -6.7783411597 -3.0000221858
25.4024946667 -7.4807203849 -3.0000228788
26.1284768490 -6.7307698402 -3.0000221388
26.1573782130 -6.7233336184 -3.0000221315
26.0927399589 -6.9187273889 -3.0000223243
26.3736780070 -6.0603974331 -3.0000214773
26.4461325623 -7.9803826407 -3.0000233719
25.4345342739 -8.6264620454 -3.0000240094
25.4986535014 -8.6584657916 -3.0000240410
23.4104633423 -11.2950204810 -3.0000266426
23.4861809314 -11.3145192968 -3.0000266619
23.2008371973 -11.2853205054 -3.0000266330
22.7959250880 -11.1949259464 -3.0000265438
23.1258695056 -11.3124823114 -3.0000266598
22.7128704816 -11.1875925922 -3.0000265366
22.1672327834 -11.0917729337 -3.0000264421
22.0191773641 -11.1213844083 -3.0000264713
25.9507514625 -6.1692071789 -3.0000215847
25.9523059269 -6.1526829000 -3.0000215684
25.9535668705 -6.1361336349 -3.0000215521
25.9537484618 -6.1333733608 -3.0000215493
25.9539218869 -6.1306125616 -3.0000215466
25.9577458907 -6.2781050317 -3.0000216922
25.9612319920 -6.2614394617 -3.0000216757
25.9831868306 -6.2747293674 -3.0000216888
25.9902168527 -6.2375704905 -3.0000216522
26.0049780095 -6.2884233690 -3.0000217023
26.0112902829 -6.3616049209 -3.0000217745
26.0298792928 -6.2876148226 -3.0000217015
26.0099334402 -6.4424685863 -3.0000218543
25.9823930282 -6.5649052504 -3.0000219752
26.0325817200 -6.4509178883 -3.0000218627
26.0422736595 -6.4238435752 -3.0000218360
26.0585996925 -6.3720410981 -3.0000217848
26.0703242615 -6.4161980728 -3.0000218284
26.3610675793 -6.1954715355 -3.0000216106
26.3627269156 -6.1756315721 -3.0000215910
26.3728860889 -6.2941501444 -3.0000217080
26.3835746782 -6.2138019699 -3.0000216287
26.3858524443 -6.1895888429 -3.0000216048
26.3865161540 -6.1815092874 -3.0000215968
26.3882203205 -6.1572490409 -3.0000215729
26.3889108656 -6.1451085305 -3.0000215609
26.4090832853 -6.3638183193 -3.0000217767
26.4132272835 -6.3432497706 -3.0000217564
25.3931180139 -7.4671836571 -3.0000228655
26.4854703579 -6.1501710361 -3.0000215659
26.4129222069 -6.6069334571 -3.0000220166
26.4734316622 -6.4088212640 -3.0000218211
26.4907247416 -6.3223272752 -3.0000217358
25.3521424269 -8.5333090881 -3.0000239175
25.2081034578 -8.7908222452 -3.0000241716
21.4915812950 -11.2355927034 -3.0000265840
25.9329100969 -6.1984115467 -3.0000216135
25.9323157551 -6.2729350211 -3.0000216871
25.9390995094 -6.2557667936 -3.0000216701
25.9487371624 -6.2287183302 -3.0000216434
25.9730009030 -6.2323269076 -3.0000216470
25.9556479112 -6.3899780149 -3.0000218025
26.3725842138 -6.3312208705 -3.0000217446
26.3743946842 -6.4028653877 -3.0000218153
26.3887148125 -6.3609174535 -3.0000217739
26.3601025283 -6.5012593005 -3.0000219124
26.3835442054 -6.5081289160 -3.0000219191
26.3907986509 -6.4919137121 -3.0000219031
26.4303483135 -6.3891632071 -3.0000218017
26.3735127318 -6.5831813946 -3.0000219932
26.4365536465 -6.5079434419 -3.0000219189
26.3711016026 -6.6841419751 -3.0000220928
25.6262144719 -7.4128050127 -3.0000228118
19.1963670074 -10.6018971343 -3.0000259587
19.3638285180 -11.6222261357 -3.0000269655
19.4813139582 -11.7437476454 -3.0000270854
19.4641097679 -11.7607285500 -3.0000271022
19.5153775752 -11.8122115484 -3.0000271530
19.5498090662 -11.8462799071 -3.0000271866
19.7115889075 -12.0998311981 -3.0000274368
19.7314955142 -12.1506542220 -3.0000274869
33.5627771503 -7.9711032390 -3.0000233627
33.5685435443 -7.9466249400 -3.0000233386
33.5685141932 -8.0502203606 -3.0000234408
33.5745146048 -8.0257247442 -3.0000234166
26.3400700852 -6.3241693416 -3.0000217376
26.3454845335 -6.3708050253 -3.0000217836
26.3443891239 -6.4255675606 -3.0000218377
26.3418329231 -6.5220009280 -3.0000219328
26.3477258133 -6.5963027523 -3.0000220061
25.5905123999 -7.4149545646 -3.0000228139
25.6072940277 -7.4145925111 -3.0000228136
24.9243931434 -8.3937673309 -3.0000237798
19.0773830898 -9.4255058601 -3.0000247979
19.0409094418 -9.9026471833 -3.0000252687
19.0345674425 -9.9856130147 -3.0000253506
18.9934116250 -10.2827281095 -3.0000256437
18.9773143672 -10.4335009813 -3.0000257925
33.4848736612 -9.4125757753 -3.0000247851
33.4866626143 -9.4690613690 -3.0000248408
33.5171673613 -9.3986536532 -3.0000247714
33.5216866837 -9.5689087560 -3.0000249394
33.5224040630 -9.6259357772 -3.0000249956
33.5226458021 -9.7403866567 -3.0000251086
33.5221670826 -9.7978050856 -3.0000251652
33.5333770713 -9.7742594938 -3.0000251420
33.5326668312 -9.8318052928 -3.0000251988
33.5315537122 -9.8894745529 -3.0000252557
33.5416883131 -9.9236949928 -3.0000252895
33.5497026912 -10.0160451855 -3.0000253806
33.5473074039 -10.0741957743 -3.0000254380
26.3305186236 -6.8250966922 -3.0000222319
26.3366739092 -6.8131113314 -3.0000222201
26.3332874287 -6.8702353674 -3.0000222764
26.3228639062 -6.9329759416 -3.0000223384
26.3426502705 -6.9018430064 -3.0000223076
26.3542260721 -6.8823146264 -3.0000222884
26.3232111102 -6.9750819708 -3.0000223799
26.3430122562 -6.9463318120 -3.0000223515
26.3293984237 -7.0470225867 -3.0000224509
26.3264019576 -7.0886031930 -3.0000224919
25.4243416868 -7.5998934023 -3.0000229964
25.6018150026 -7.6014069369 -3.0000229979
25.6831107545 -7.5932956654 -3.0000229899
25.5635775930 -7.6274871322 -3.0000230237
25.5997785013 -7.6257598549 -3.0000230220
25.6611495136 -7.6203691571 -3.0000230166
25.2813379297 -7.6286700090 -3.0000230248
25.2849648638 -7.6293803915 -3.0000230255
25.3652286736 -7.6422835415 -3.0000230383
25.7841962732 -7.6247768081 -3.0000230210
25.1813834632 -7.6297409057 -3.0000230259
25.4221219034 -7.6724707740 -3.0000230681
25.6403564680 -7.6711039760 -3.0000230667
25.2832834417 -7.6782809566 -3.0000230738
25.3249022056 -7.6854143530 -3.0000230808
25.4623428005 -7.6992365862 -3.0000230945
25.6196251926 -7.6970882334 -3.0000230923
25.6387553304 -7.6955218795 -3.0000230908
25.7455807557 -7.7060176672 -3.0000231012
25.2236670772 -7.7152435269 -3.0000231103
25.7856084942 -7.7478445927 -3.0000231424
25.0209943127 -8.8337930353 -3.0000242140
24.6948140690 -8.7684334594 -3.0000241495
24.5143597366 -8.7762852862 -3.0000241572
24.4065924649 -8.7543133005 -3.0000241356
24.5977579176 -8.8359143490 -3.0000242161
24.3127060367 -8.7346532624 -3.0000241162
24.3822014629 -8.7694392880 -3.0000241505
24.4547205639 -8.8558840108 -3.0000242358
24.4085767746 -8.8618273678 -3.0000242417
24.2042411977 -8.7861994123 -3.0000241670
24.4781595752 -8.9445536522 -3.0000243233
23.7860017096 -8.6860998873 -3.0000240683
23.9808523500 -8.8220063206 -3.0000242024
24.4272487609 -9.1846350500 -3.0000245602
22.5239744345 -9.5779798093 -3.0000249483
19.0508415686 -9.3195559817 -3.0000246933
19.0594977104 -9.3386899010 -3.0000247122
19.0154790359 -9.3586823352 -3.0000247319
19.0509081166 -9.4354788893 -3.0000248077
19.0253058899 -9.4944891516 -3.0000248659
19.0219435163 -9.5433935469 -3.0000249142
19.0379170353 -9.6308717272 -3.0000250005
19.0318897642 -9.7789272032 -3.0000251466
19.0092172174 -9.8398336799 -3.0000252067
19.0183412916 -9.9589936389 -3.0000253243
18.9757298678 -10.3692869725 -3.0000257291
33.4512828257 -10.3128400571 -3.0000256734
33.4628142733 -10.2893705206 -3.0000256503
33.4613301591 -10.3470314260 -3.0000257072
33.4729627070 -10.3235320180 -3.0000256840
33.5217032067 -10.4957390919 -3.0000258539
33.5310477294 -10.5304569848 -3.0000258882
25.9518085387 -6.7429954240 -3.0000221509
25.9641036295 -6.7113397964 -3.0000221197
25.9399727201 -6.8234607700 -3.0000222303
25.9461888110 -6.8118558448 -3.0000222188
25.9551243306 -6.7942461782 -3.0000222015
25.9545489252 -6.8469305786 -3.0000222534
25.9648821303 -6.8770380066 -3.0000222832
25.9468242141 -6.9476767629 -3.0000223529
26.3709764264 -6.8656385652 -3.0000222719
26.3772144774 -6.9161491529 -3.0000223217
26.4073939960 -6.8345372124 -3.0000222412
25.2992884288 -7.6925975090 -3.0000230879
26.3799453403 -7.0768161262 -3.0000224803
26.3704139378 -7.1405127586 -3.0000225431
26.3821893248 -7.1212183463 -3.0000225241
26.3848053838 -7.1630379037 -3.0000225654
26.4052124790 -7.1759949769 -3.0000225782
26.4123086572 -7.2524980010 -3.0000226536
26.3828829985 -7.3325257936 -3.0000227326
24.8596296860 -8.9367105477 -3.0000243155
24.6547889644 -8.9919922379 -3.0000243701
22.6779438656 -9.1774039210 -3.0000245530
19.1811379873 -10.5393710805 -3.0000258970
27.2141184320 -14.7975688341 -3.0000300988
26.2478034093 -15.0118141405 -3.0000303102
26.2730749967 -15.0089412300 -3.0000303073
27.2745316148 -14.8330746037 -3.0000301338
26.0982736144 -15.0515469736 -3.0000303494
26.2758409570 -15.0329554913 -3.0000303310
27.1558166633 -14.8851221731 -3.0000301852
26.1514563474 -15.0706629244 -3.0000303682
25.9475585729 -6.7045037590 -3.0000221129
25.9562771470 -6.7952768331 -3.0000222025
25.9577149398 -6.8811297018 -3.0000222872
25.9735207466 -6.8268019235 -3.0000222336
25.9910450487 -6.7424027827 -3.0000221503
25.9789794071 -6.8938566325 -3.0000222997
25.9856935706 -6.8727703533 -3.0000222789
26.0086010215 -6.7815913268 -3.0000221890
25.9935665421 -6.9255954948 -3.0000223311
26.0038575702 -6.9664260347 -3.0000223714
25.3929106598 -7.7621615339 -3.0000231566
25.2674119483 -7.8365136762 -3.0000232299
26.3671634277 -6.8370741628 -3.0000222437
26.3742135955 -6.7954412193 -3.0000222026
26.3747872705 -6.7916454611 -3.0000221989
26.3994396573 -7.0076171469 -3.0000224120
26.4028267521 -7.1403745862 -3.0000225430
26.4352182424 -7.0539399578 -3.0000224577
26.4719373377 -7.3337158355 -3.0000227338
26.4264295231 -7.5866380853 -3.0000229834
25.1265569507 -9.0815542697 -3.0000244585
27.6271169856 -14.7645361571 -3.0000300662
27.7068503491 -14.7647320543 -3.0000300664
28.0902398147 -14.6318406569 -3.0000299352
29.5945427898 -14.1500585188 -3.0000294598
29.6739372746 -14.1304482912 -3.0000294405
29.5968287980 -14.2049417487 -3.0000295140
25.9616939534 -6.7623522884 -3.0000221700
25.9642518353 -6.7288763254 -3.0000221370
25.9644303287 -6.7258292750 -3.0000221339
25.9660074058 -6.6526070400 -3.0000220617
25.9659602732 -6.6495551300 -3.0000220587
25.9651298999 -6.6220980194 -3.0000220316
25.9897928072 -6.6991208369 -3.0000221076
25.9898831667 -6.6959983619 -3.0000221045
25.9899296956 -6.6397769236 -3.0000220490
25.9896464125 -6.6304098870 -3.0000220398
25.9895335132 -6.6272881457 -3.0000220367
25.9818413119 -6.9304336078 -3.0000223358
25.9833814569 -6.9242313994 -3.0000223297
25.9856228055 -6.9149112733 -3.0000223205
25.9924950310 -6.8837073166 -3.0000222897
25.9931314189 -6.8805760402 -3.0000222866
26.0025281369 -6.8270808285 -3.0000222339
26.0064106311 -6.7985873493 -3.0000222057
26.0101237229 -6.7636373785 -3.0000221713
26.0121089019 -6.7381528453 -3.0000221461
26.0139109504 -6.6327654916 -3.0000220421
26.0120742445 -6.9077231746 -3.0000223134
26.0222559882 -6.8564606209 -3.0000222628
26.0366404619 -6.7332242307 -3.0000221412
26.0373467214 -6.7201762075 -3.0000221284
26.0380123554 -6.7038559253 -3.0000221123
26.0032807231 -7.0286665283 -3.0000224328
26.0095310202 -7.0096371270 -3.0000224140
26.0287276694 -6.9422238836 -3.0000223475
26.0430857312 -6.8770298150 -3.0000222831
26.0623749282 -6.6979888526 -3.0000221065
25.4166906982 -7.7668978013 -3.0000231612
25.4393612711 -7.7566737342 -3.0000231511
25.5091571650 -7.7215208299 -3.0000231165
26.1175146870 -6.8730481111 -3.0000222792
25.4363377365 -7.7846240114 -3.0000231787
25.7126959794 -7.6131611760 -3.0000230095
25.5708525920 -7.7420547772 -3.0000231367
26.0284860992 -7.2700644901 -3.0000226710
26.1201192909 -7.0603916371 -3.0000224641
26.1301709674 -7.0286851373 -3.0000224328
25.7228741822 -7.6670385997 -3.0000230627
26.3755758981 -6.7322045792 -3.0000221402
26.3750677098 -6.5914201852 -3.0000220013
26.4004849322 -6.6205021777 -3.0000220300
26.4001612413 -6.9401744394 -3.0000223455
26.4153406905 -6.8398848032 -3.0000222465
26.4353905895 -6.8738129288 -3.0000222800
26.4359957702 -6.8693715306 -3.0000222756
26.4362161370 -7.1019144592 -3.0000225051
26.4374960796 -7.0974696208 -3.0000225007
26.4894070046 -6.8299030121 -3.0000222366
26.4829330586 -7.4444588177 -3.0000228431
25.3966633598 -9.1303590003 -3.0000245066
23.7987250788 -11.3585090147 -3.0000267053
23.6817857055 -11.3536773002 -3.0000267005
23.3641505322 -11.3080957187 -3.0000266555
23.4329656735 -11.3308111977 -3.0000266779
23.4744133777 -11.3439510560 -3.0000266909
23.1970121065 -11.2998229393 -3.0000266474
23.2471712379 -11.4210509780 -3.0000267670
22.2315343082 -11.1537486775 -3.0000265032
21.7392290828 -11.2077216054 -3.0000265565
25.9690075763 -6.7700842132 -3.0000221776
25.9684644037 -6.7492036022 -3.0000221570
25.9574388685 -6.6244212755 -3.0000220339
25.9548588147 -6.6072070849 -3.0000220169
25.9482883586 -6.5694821063 -3.0000219797
25.9420018542 -6.5387882750 -3.0000219494
25.9909904474 -6.8655461470 -3.0000222718
25.9921380878 -6.8442603438 -3.0000222508
25.9914981291 -6.7235166241 -3.0000221317
25.9901249240 -6.7022441817 -3.0000221107
25.9678478028 -6.5440455164 -3.0000219546
25.9648523524 -6.5301535443 -3.0000219409
25.5765131618 -7.7316055679 -3.0000231264
26.0146400487 -6.8742947589 -3.0000222804
25.9929724121 -6.5461893115 -3.0000219567
25.4291138913 -7.8651521238 -3.0000232582
26.0244683889 -6.9970275424 -3.0000224016
26.0412768768 -6.7577568833 -3.0000221655
26.0302543086 -6.6215238830 -3.0000220310
26.0259151582 -6.5922779178 -3.0000220022
25.6748154646 -7.7084644874 -3.0000231036
26.0545007999 -6.9600546449 -3.0000223651
26.0609299724 -6.6781552546 -3.0000220869
26.0372604573 -6.5218095106 -3.0000219326
26.1090884036 -6.6739000649 -3.0000220827
26.1068160732 -6.6505484244 -3.0000220597
26.1282690451 -6.4856000117 -3.0000218969
26.1834526174 -6.8859027514 -3.0000222919
26.4654962404 -6.9851832212 -3.0000223899
23.9489524800 -11.2480623518 -3.0000265963
24.3473637563 -11.3052677818 -3.0000266527
23.5900044756 -11.2400891097 -3.0000265884
23.8552237894 -11.3033962556 -3.0000266509
24.1096968010 -11.4465799049 -3.0000267922
23.5458670128 -11.4034424482 -3.0000267496
26.0176555706 -6.8770610394 -3.0000222832
26.0080049568 -6.7620259421 -3.0000221697
26.0428112186 -6.9125406371 -3.0000223182
26.0339363559 -6.7750695943 -3.0000221825
26.0268976289 -6.7228510085 -3.0000221310
25.9927418148 -6.5644505986 -3.0000219747
25.9725985986 -6.4985604297 -3.0000219097
25.9633458400 -6.4717382990 -3.0000218832
26.0658907820 -6.9905530665 -3.0000223952
26.0481729785 -6.7028707946 -3.0000221113
26.0407950399 -6.6622885143 -3.0000220712
26.0349177845 -6.6340192192 -3.0000220434
26.0160291085 -6.5579669859 -3.0000219683
26.0469821758 -6.4188794829 -3.0000218311
26.1637470155 -6.9461134346 -3.0000223513
26.1242499804 -6.4191955035 -3.0000218314
23.6858839490 -11.0128185614 -3.0000263642
23.7221380593 -11.0214154792 -3.0000263726
23.7584670347 -11.0296903236 -3.0000263808
23.7705928356 -11.0323769198 -3.0000263835
24.0146250638 -11.0785446437 -3.0000264290
23.4631666828 -10.9776732999 -3.0000263295
23.9123348798 -11.0855887410 -3.0000264360
23.4321909775 -10.9935651011 -3.0000263452
23.9327102384 -11.1138179533 -3.0000264638
24.0691554889 -11.1356798592 -3.0000264854
23.5464914864 -11.0517973675 -3.0000264026
23.6075485307 -11.0680040797 -3.0000264186
23.8539726365 -11.1237501464 -3.0000264736
25.0507804797 -11.2104636622 -3.0000265592
23.7571055079 -11.1531459866 -3.0000265026
25.0656343180 -11.2333993764 -3.0000265818
23.6892997756 -11.1626872644 -3.0000265120
24.1318175919 -11.2416693291 -3.0000265900
25.2210997540 -11.2407242599 -3.0000265890
25.0093421025 -11.3351510081 -3.0000266822
25.2101480332 -11.3638794223 -3.0000267106
25.2232560741 -11.3622702214 -3.0000267090
25.6438556717 -7.7064290713 -3.0000231016
26.0984162387 -7.0985749838 -3.0000225018
26.0440832183 -6.6910680821 -3.0000220996
26.1214265287 -7.1532924174 -3.0000225557
26.1225663145 -7.1032141555 -3.0000225063
26.1219508681 -7.0485731004 -3.0000224524
26.1038535167 -6.8537239018 -3.0000222601
26.1024099083 -6.8447311511 -3.0000222513
26.1396868174 -7.2419097690 -3.0000226432
26.0906954262 -6.6782367452 -3.0000220870
26.1701333853 -7.0424758968 -3.0000224464
26.0408274852 -6.4637323197 -3.0000218753
26.1526070746 -6.7254739844 -3.0000221336
26.0915992691 -6.5248814402 -3.0000219357
26.2127692454 -7.2391666803 -3.0000226405
26.2190977888 -7.1183603432 -3.0000225213
26.0927817811 -6.4623833480 -3.0000218740
26.3641919863 -7.1153196208 -3.0000225183
26.3335114732 -6.5608804246 -3.0000219712
26.2930750413 -8.9257227089 -3.0000243047
24.1425234633 -10.9767079781 -3.0000263285
24.1885054355 -10.9816499095 -3.0000263334
24.3152213825 -10.9924312151 -3.0000263440
24.3729213956 -10.9959675992 -3.0000263475
24.4768888327 -11.0001811332 -3.0000263517
24.2208011627 -11.0090693049 -3.0000263605
24.5692845766 -11.0257746958 -3.0000263769
24.6041842582 -11.0257429608 -3.0000263769
24.1370728998 -11.0247458016 -3.0000263759
24.1487049888 -11.0260482014 -3.0000263772
24.1836236594 -11.0297488636 -3.0000263809
24.2302303588 -11.0342007652 -3.0000263853
24.3820095531 -11.0448559852 -3.0000263958
24.4638743359 -11.0481737552 -3.0000263990
24.4755742991 -11.0485093148 -3.0000263994
24.6745341487 -11.0489169575 -3.0000263998
24.6162187520 -11.0740079452 -3.0000264245
24.6868651190 -11.0727941680 -3.0000264233
24.8515411465 -11.0650881036 -3.0000264157
24.8750353006 -11.0634307476 -3.0000264141
24.8867785977 -11.0625499518 -3.0000264132
24.4742597655 -11.0968374963 -3.0000264471
24.4861036395 -11.0971421210 -3.0000264474
24.6401135541 -11.0979132630 -3.0000264481
24.9004341801 -11.0857314807 -3.0000264361
24.3052784037 -11.1371281650 -3.0000264868
24.9182019876 -11.1570493211 -3.0000265065
25.2294632601 -11.1192915776 -3.0000264692
24.0937491684 -11.1900543752 -3.0000265390
24.1786822020 -11.1993096830 -3.0000265482
24.2969925882 -11.2577089567 -3.0000266058
24.4449734531 -11.2652415998 -3.0000266132
24.0851471543 -11.2620614783 -3.0000266101
24.5435073185 -11.2915152362 -3.0000266392
24.2189558897 -11.3001399764 -3.0000266477
24.6059936576 -11.3641605156 -3.0000267108
25.7045195923 -11.2143849886 -3.0000265630
25.8138295106 -11.1830732797 -3.0000265322
24.2253612787 -11.3734659776 -3.0000267200
25.0372731122 -11.3643210547 -3.0000267110
24.1573545900 -11.4158190150 -3.0000267618
24.2173066021 -11.4698220189 -3.0000268151
24.1348058984 -11.5107384052 -3.0000268555
26.1240768308 -6.9287795499 -3.0000223342
26.1545220700 -6.9574533348 -3.0000223625
26.1163919064 -6.7999893715 -3.0000222071
26.1135891569 -6.7905747406 -3.0000221978
26.2056856309 -6.9682620893 -3.0000223732
26.2538521504 -7.1726264639 -3.0000225748
26.0661443330 -6.4276185201 -3.0000218397
26.4852647535 -7.0428001693 -3.0000224467
24.7851831691 -10.9748082407 -3.0000263266
24.8290136081 -10.9714549432 -3.0000263233
24.7206439208 -11.0030046818 -3.0000263545
24.8420225989 -10.9946208797 -3.0000263462
24.8640590017 -10.9926724326 -3.0000263443
24.9960002718 -10.9782473020 -3.0000263300
25.0100949795 -11.0008042434 -3.0000263523
25.0211321780 -10.9993491012 -3.0000263509
25.0431934198 -10.9963408988 -3.0000263479
25.0762509471 -10.9915839999 -3.0000263432
24.8238056300 -11.0446329822 -3.0000263955
24.8573003616 -11.0418211252 -3.0000263928
25.1572549020 -11.0031775694 -3.0000263546
25.1793364120 -10.9993639523 -3.0000263509
25.1429559713 -11.0545723941 -3.0000264054
25.2657888048 -11.0324216685 -3.0000263835
25.3657098404 -11.0113334387 -3.0000263627
25.2480462540 -11.0604898088 -3.0000264112
25.3598720284 -11.0374069184 -3.0000263884
24.8887016809 -11.1360457371 -3.0000264857
25.0712551899 -11.1144460922 -3.0000264644
25.4657551416 -11.0372636869 -3.0000263883
25.6010991211 -11.0511163923 -3.0000264019
25.0698876192 -11.1878738667 -3.0000265369
25.1509138311 -11.1757246591 -3.0000265249
25.7086380987 -11.0441590221 -3.0000263951
25.1351704409 -11.2271463320 -3.0000265756
25.2094377998 -11.2394909626 -3.0000265878
25.4017627964 -11.2261994544 -3.0000265747
24.7625550498 -11.3396155344 -3.0000266866
24.9114165095 -11.3767064211 -3.0000267232
26.0581352507 -11.0990265486 -3.0000264492
26.0694584229 -11.0944706840 -3.0000264447
25.4574147456 -11.3623413871 -3.0000267090
32.7236995521 -9.7730200286 -3.0000251408
33.1666705175 -8.5878456474 -3.0000239713
25.7466175778 -7.4971630730 -3.0000228951
25.6779104516 -7.9925066213 -3.0000233838
26.2279158921 -7.3506324423 -3.0000227505
26.2064785875 -7.1622805462 -3.0000225646
26.1877599558 -6.8886461680 -3.0000222946
26.2515892690 -7.8815625747 -3.0000232744
26.1711473328 -6.7118971603 -3.0000221202
26.2838093827 -6.9548417378 -3.0000223599
26.2623179431 -8.0953792610 -3.0000234854
26.2513811947 -6.7796217172 -3.0000221870
26.7941841332 -8.1831101447 -3.0000235719
26.7199848885 -8.5586164323 -3.0000239425
26.6934413380 -8.6613235906 -3.0000240438
26.7882588396 -8.5841737525 -3.0000239677
25.3077107901 -10.9538867215 -3.0000263060
25.3284142495 -10.9490353039 -3.0000263012
25.3652078578 -10.9649973164 -3.0000263170
25.3963485289 -10.9571635861 -3.0000263092
25.4170698240 -10.9517877006 -3.0000263039
25.4023497135 -10.9805798426 -3.0000263323
25.4232094420 -10.9751680422 -3.0000263270
25.4336272082 -10.9724158856 -3.0000263243
25.4440367875 -10.9696329234 -3.0000263215
25.4648310208 -10.9639746799 -3.0000263160
25.4752154928 -10.9610994481 -3.0000263131
25.4817002436 -10.9843864249 -3.0000263361
25.5025811043 -10.9785050935 -3.0000263303
25.5130083949 -10.9755181266 -3.0000263273
25.5338362399 -10.9694517209 -3.0000263214
25.5546278294 -10.9632621968 -3.0000263153
25.3507528233 -11.0431116168 -3.0000263940
25.6137505512 -10.9702933336 -3.0000263222
25.6241530634 -10.9669775432 -3.0000263189
25.6524397707 -10.9832301211 -3.0000263350
25.6628803830 -10.9797998244 -3.0000263316
25.6733108022 -10.9763386575 -3.0000263282
25.6941406962 -10.9693238346 -3.0000263212
25.6704596550 -11.0027539072 -3.0000263542
25.7228466663 -10.9850253694 -3.0000263367
25.7541509918 -10.9740170067 -3.0000263259
25.7645639050 -10.9702858702 -3.0000263222
25.7727515407 -10.9930300541 -3.0000263446
25.8145600010 -10.9776994969 -3.0000263295
25.4600471501 -11.1154500917 -3.0000264654
25.5356931584 -11.0947461101 -3.0000264450
25.8439854879 -10.9924442583 -3.0000263440
25.8753508816 -10.9803605643 -3.0000263321
25.4552765752 -11.1416781789 -3.0000264913
25.6072136869 -11.0988833673 -3.0000264491
25.9051243018 -10.9946160987 -3.0000263462
25.9260582741 -10.9862294694 -3.0000263379
25.9561307299 -11.0000777421 -3.0000263516
26.1530715295 -10.9928150296 -3.0000263444
26.0204500055 -11.1565879962 -3.0000265060
25.9047947994 -11.2536260304 -3.0000266018
25.9832065046 -11.2236835623 -3.0000265722
26.7703272732 -10.8379308031 -3.0000261916
27.1080880388 -10.5849575553 -3.0000259420
32.8141647314 -9.4366787372 -3.0000248089
33.1675274771 -7.5852371328 -3.0000229820
33.1925399487 -7.5084518987 -3.0000229062
33.1926685474 -7.4827318257 -3.0000228808
33.1370773726 -8.7965806264 -3.0000241773
25.7936124582 -7.4732440487 -3.0000228715
26.2288561755 -7.4488323590 -3.0000228474
26.2297177724 -7.9789784095 -3.0000233705
26.2537798830 -7.8197191093 -3.0000232133
26.2249354189 -8.1898977089 -3.0000235786
26.3248407382 -8.1053914732 -3.0000234952
26.3395425472 -8.1440357220 -3.0000235334
26.3496451469 -8.1059681475 -3.0000234958
26.8696336539 -8.6692530195 -3.0000240516
26.8697038985 -8.7280976737 -3.0000241097
25.9507490631 -10.9282594331 -3.0000262807
26.0681909448 -10.9277719459 -3.0000262802
26.0876320747 -10.9184736491 -3.0000262711
26.1070178525 -10.9090604947 -3.0000262618
26.1468065639 -10.9163447365 -3.0000262690
26.1564998577 -10.9114774565 -3.0000262642
26.2368746573 -10.9244536364 -3.0000262770
26.3065843351 -10.9144080066 -3.0000262670
26.3668100029 -10.9084348956 -3.0000262612
26.4223555464 -10.9601940566 -3.0000263122
26.5004532832 -10.9139232739 -3.0000262666
26.5227657367 -10.9286222812 -3.0000262811
26.5841587726 -10.9188612561 -3.0000262714
26.6165901137 -10.9268570145 -3.0000262793
26.6783668887 -10.9154363508 -3.0000262681
26.7266165246 -10.8829519648 -3.0000262360
26.4502364225 -4.1078312341 -3.0000195506
26.6010663711 -4.1105953567 -3.0000195534
26.6029086269 -4.0835946396 -3.0000195267
26.6887502948 -4.1072079641 -3.0000195500
26.6782985593 -4.1007673094 -3.0000195437
26.7224298377 -4.0996968279 -3.0000195426
33.0773677936 -6.7001522450 -3.0000221086
33.0745585033 -6.6748015591 -3.0000220836
33.0656808562 -6.5988009160 -3.0000220086
33.0698456272 -6.4437143973 -3.0000218556
33.1177289339 -6.4370413119 -3.0000218490
26.1952712678 -8.1733843397 -3.0000235623
26.2566130647 -7.8678229998 -3.0000232608
26.2595803643 -8.0929130072 -3.0000234829
26.2263967784 -8.7142234601 -3.0000240960
26.6437800673 -10.7977618008 -3.0000261519
25.6710280977 -4.0490958120 -3.0000194927
25.6487097131 -4.0425216178 -3.0000194862
25.6375360327 -4.0392840658 -3.0000194830
25.6263528239 -4.0360795817 -3.0000194798
25.7635822182 -4.0271031856 -3.0000194710
25.7411320979 -4.0199817950 -3.0000194639
25.8720575144 -4.0379725683 -3.0000194817
25.9249499085 -4.0311767623 -3.0000194750
25.9025210647 -4.0231005950 -3.0000194670
26.0006029086 -4.0336303662 -3.0000194774
25.9894013866 -4.0293518894 -3.0000194732
25.9781872571 -4.0251065674 -3.0000194690
26.2492009639 -4.0058870653 -3.0000194500
26.4040103712 -3.9979977048 -3.0000194422
26.9240201733 -4.2105509737 -3.0000196520
33.0198606326 -6.8576903181 -3.0000222641
33.0494293688 -6.9052444334 -3.0000223110
32.7876149169 -5.2762015198 -3.0000207035
33.2152878997 -7.1202205181 -3.0000225231
33.2433712467 -7.1697095751 -3.0000225719
25.7616214415 -7.6045503270 -3.0000230010
26.1339555464 -8.1010609474 -3.0000234910
26.1608254429 -8.0574321049 -3.0000234479
26.1623190430 -7.9663786536 -3.0000233581
26.1022722152 -8.4933006944 -3.0000238780
26.1670520294 -8.2333016790 -3.0000236215
26.1821636355 -8.1047107792 -3.0000234946
26.1842735534 -8.0724019759 -3.0000234627
26.1851787054 -8.0539224084 -3.0000234444
26.1909224527 -8.2371145747 -3.0000236252
26.2072969891 -7.8812730423 -3.0000232741
26.2228090475 -8.4308127544 -3.0000238163
26.0855762137 -8.9602935230 -3.0000243388
25.0525349727 -4.0289910786 -3.0000194728
25.0173959003 -4.0253351557 -3.0000194692
25.0056758371 -4.0241858310 -3.0000194681
24.9587631240 -4.0199353788 -3.0000194639
25.1727231972 -4.0194825667 -3.0000194634
25.1492423778 -4.0162997262 -3.0000194603
25.1139868685 -4.0117860792 -3.0000194559
24.9844069918 -3.9979167997 -3.0000194422
24.9726059645 -3.9968651820 -3.0000194411
25.2350108705 -4.0041543814 -3.0000194483
25.2232271985 -4.0023614049 -3.0000194466
25.1996442007 -3.9988800654 -3.0000194431
25.1760410188 -3.9955383118 -3.0000194398
25.0695990906 -3.9822308172 -3.0000194267
25.0221854713 -3.9772269326 -3.0000194218
24.9865882163 -3.9738423829 -3.0000194184
25.3333147475 -3.9959524343 -3.0000194402
25.3215063826 -3.9938686930 -3.0000194382
25.3096919053 -3.9918198921 -3.0000194362
25.2623749404 -3.9839744464 -3.0000194284
25.2268281074 -3.9784580843 -3.0000194230
25.2149684570 -3.9766894263 -3.0000194212
25.4441659332 -3.9925975203 -3.0000194369
25.4323471588 -3.9901858758 -3.0000194345
25.2780963250 -3.9620242699 -3.0000194068
25.0509737938 -3.9315797010 -3.0000193767
25.6739390304 -3.9718064511 -3.0000194164
25.0951944504 -3.8634891188 -3.0000193095
24.9852659550 -3.8523805988 -3.0000192986
25.1347300659 -3.8438511258 -3.0000192901
25.7581006832 -3.9445452179 -3.0000193895
25.0812247100 -3.7646400466 -3.0000192120
24.9561470609 -3.7529344428 -3.0000192004
25.9829457984 -3.9379693067 -3.0000193830
25.9740910674 -3.8840743018 -3.0000193298
25.6106615549 -3.7569345460 -3.0000192044
25.5909769650 -3.7275933880 -3.0000191754
26.1804617726 -3.8802379103 -3.0000193260
25.4564860549 -3.6746222812 -3.0000191232
25.6198526104 -3.6598075228 -3.0000191085
26.9193420559 -4.1299917057 -3.0000195725
32.4332368768 -4.5685374473 -3.0000200052
32.1631523645 -3.8549266308 -3.0000193011
32.1843513370 -3.8433103128 -3.0000192896
32.1597055082 -3.7986474088 -3.0000192455
32.2055503096 -3.8316939947 -3.0000192781
25.7240764445 -7.4273876976 -3.0000228262
25.8192080547 -7.4842729579 -3.0000228823
26.0439057911 -8.4212366148 -3.0000238069
26.0667359896 -8.2757610114 -3.0000236633
25.9990127756 -8.6508695405 -3.0000240335
26.0907859769 -8.2781968670 -3.0000236658
26.0953337052 -8.2216359801 -3.0000236099
26.0376687131 -8.6175082636 -3.0000240006
26.0600096095 -8.5510468164 -3.0000239350
26.0636038628 -8.5392056385 -3.0000239233
26.1217048217 -8.1653730441 -3.0000235544
26.1216448436 -8.1117526894 -3.0000235015
26.1497309133 -8.3827551529 -3.0000237689
26.1260940684 -7.7857995645 -3.0000231799
26.1859699079 -7.8297693345 -3.0000232233
26.2037825933 -7.7984834329 -3.0000231924
24.3147293047 -4.0348705011 -3.0000194786
24.2540561972 -4.0414250520 -3.0000194851
24.5817355156 -3.9925568181 -3.0000194369
24.5204073663 -3.9951668723 -3.0000194395
24.4713768278 -3.9979078325 -3.0000194422
24.4346270849 -4.0003441756 -3.0000194446
24.4223821541 -4.0012287529 -3.0000194454
24.3734302050 -4.0051291685 -3.0000194493
24.3245278343 -4.0096085334 -3.0000194537
24.2390885737 -4.0188385861 -3.0000194628
24.5315348001 -3.9704259304 -3.0000194150
24.4945388018 -3.9723294875 -3.0000194169
24.3467674213 -3.9832242664 -3.0000194277
24.8780511522 -3.9443480452 -3.0000193893
24.8656386344 -3.9439211390 -3.0000193889
24.3940604414 -3.9549132394 -3.0000193997
25.0784071099 -3.9320790491 -3.0000193772
24.4918403196 -3.9240587994 -3.0000193693
24.6536889608 -3.8939450003 -3.0000193396
24.3610551161 -3.8606199047 -3.0000193067
25.0991732500 -3.8368018793 -3.0000192832
24.5502548199 -3.8244233664 -3.0000192710
24.5119623936 -3.8261665431 -3.0000192727
25.3691858677 -3.8442671834 -3.0000192906
24.5364254115 -3.8008170465 -3.0000192477
25.2575338769 -3.8047140162 -3.0000192515
25.7262912431 -3.8385174369 -3.0000192849
25.6469657058 -3.7714498663 -3.0000192187
24.4783479088 -3.6827053593 -3.0000191311
24.1935684543 -3.6347581896 -3.0000190838
26.4868865380 -3.9058441776 -3.0000193513
25.9797662950 -8.5367769176 -3.0000239209
25.9917146081 -8.4800610561 -3.0000238649
25.9923284534 -8.4767069490 -3.0000238616
26.0047909154 -8.3889540982 -3.0000237750
26.0064119042 -8.3719824067 -3.0000237583
26.0084828734 -8.3447832401 -3.0000237315
26.0096133931 -8.3243558691 -3.0000237113
26.0313616701 -8.3636950750 -3.0000237501
26.0317305406 -8.1828449911 -3.0000235717
26.0143356283 -8.5960762152 -3.0000239794
26.0259837387 -8.5513852552 -3.0000239353
26.0573656408 -8.3372436087 -3.0000237240
26.0589914588 -8.2484579059 -3.0000236364
26.0563464062 -8.1881240598 -3.0000235769
26.0061154076 -8.6990631558 -3.0000240810
26.0643238966 -8.4860894873 -3.0000238709
26.0696255280 -8.4539051163 -3.0000238391
26.0745090358 -8.4179935498 -3.0000238037
26.0753581402 -8.4107947812 -3.0000237966
26.0828704818 -8.3059900036 -3.0000236932
26.0784519928 -8.1611682980 -3.0000235503
26.1065224800 -8.3214572624 -3.0000237084
26.1057144424 -8.2032369869 -3.0000235918
26.0896350375 -8.0600789568 -3.0000234505
26.0782823937 -8.0020509743 -3.0000233933
26.0487587062 -8.7230111582 -3.0000241047
26.0540252226 -8.7088920601 -3.0000240907
26.1015812119 -8.5462980631 -3.0000239303
26.1310831389 -8.3111412171 -3.0000236983
26.0771569731 -7.9020971069 -3.0000232946
25.9509592407 -7.6168614112 -3.0000230132
25.8330164282 -7.4513672790 -3.0000228499
26.1200016023 -8.5739685642 -3.0000239576
26.1548288993 -8.3234145518 -3.0000237104
26.0849284123 -7.8476197575 -3.0000232409
26.1176318613 -7.8694258296 -3.0000232624
26.1735606747 -7.9851355931 -3.0000233766
26.1575341060 -7.9193754877 -3.0000233117
26.1071133295 -7.7072276626 -3.0000231023
26.2143837297 -7.9467219367 -3.0000233387
26.4209951576 -8.6658838920 -3.0000240483
26.4370655328 -8.6998973071 -3.0000240819
26.5113715548 -8.1173153025 -3.0000235070
24.5539088501 -3.8653412924 -3.0000193114
24.3847545063 -3.8802969568 -3.0000193261
24.1775519103 -3.9076134278 -3.0000193531
24.1388571979 -3.9138254653 -3.0000193592
24.1002191377 -3.9203806520 -3.0000193657
24.0744934072 -3.9249411612 -3.0000193702
23.6672215598 -4.0184731414 -3.0000194625
24.7096477317 -3.8331583425 -3.0000192796
24.4998510044 -3.8451558357 -3.0000192914
24.3560529887 -3.8591568009 -3.0000193052
24.0185540958 -3.9107814727 -3.0000193562
23.5222299819 -4.0364184424 -3.0000194802
24.7352396696 -3.8081933659 -3.0000192550
24.4189808329 -3.8281569113 -3.0000192747
23.8589293243 -3.9197676602 -3.0000193651
23.6414712611 -3.9754989077 -3.0000194200
23.5149568857 -4.0133655174 -3.0000194574
25.0399017703 -3.7860071181 -3.0000192331
23.5203523816 -3.9863363009 -3.0000194307
25.1475274938 -3.7674397208 -3.0000192147
24.6138668537 -3.7647725533 -3.0000192121
24.5206166654 -3.7707973731 -3.0000192181
24.2815910862 -3.7951413647 -3.0000192421
24.1494621194 -3.8141537147 -3.0000192608
25.1624694780 -3.7441967609 -3.0000191918
25.3522440412 -3.7366457255 -3.0000191844
25.4222266225 -3.7204596162 -3.0000191684
25.3413761602 -3.7111656096 -3.0000191592
24.2723253028 -3.7232166624 -3.0000191711
23.9512046581 -3.7762319515 -3.0000192234
23.6608193190 -3.8447314913 -3.0000192910
25.3845825951 -3.6916183537 -3.0000191399
25.2217295706 -3.6758209382 -3.0000191243
25.0868530308 -3.6429349373 -3.0000190919
24.5389186848 -3.6483010823 -3.0000190972
24.2797453495 -3.6735356226 -3.0000191221
23.4509794612 -3.8561384878 -3.0000193023
24.7299141147 -3.6148824854 -3.0000190642
23.9320785907 -3.6814503180 -3.0000191299
23.5156920000 -3.7855426095 -3.0000192326
24.0876692261 -3.6037731242 -3.0000190532
23.5420985862 -3.7273682317 -3.0000191752
24.0559919857 -3.5845869571 -3.0000190343
23.9867676943 -3.5969642749 -3.0000190465
25.9533108694 -8.5544660954 -3.0000239384
25.9662316416 -8.4617535339 -3.0000238469
25.9689687361 -8.4221222759 -3.0000238078
25.9696389331 -8.4051091939 -3.0000237910
25.9910504865 -8.4552219589 -3.0000238404
25.9932496455 -8.4203820290 -3.0000238061
26.0013621968 -8.5605381405 -3.0000239444
26.0119674511 -8.4898053886 -3.0000238746
26.0183492004 -8.3887032449 -3.0000237748
26.0184289878 -8.3737997606 -3.0000237601
26.0100270520 -8.2459890479 -3.0000236340
26.0349095617 -8.5016323657 -3.0000238862
26.0417580920 -8.3340822462 -3.0000237209
26.0237688825 -8.1796077396 -3.0000235685
26.0140665257 -8.1348673048 -3.0000235243
26.0640478534 -8.4517301893 -3.0000238370
26.0539757445 -8.2119299548 -3.0000236004
26.0404174082 -8.1413879512 -3.0000235308
26.0382960797 -8.1322598851 -3.0000235217
26.0220945889 -8.0719309353 -3.0000234622
26.0754647752 -8.5581026621 -3.0000239420
26.0773550323 -8.2050215846 -3.0000235935
26.1012238110 -8.2011984070 -3.0000235898
26.1381390951 -8.4269484253 -3.0000238125
26.0856103023 -8.0319287441 -3.0000234227
26.0664473470 -7.9129797559 -3.0000233054
25.4274857213 -7.2237012227 -3.0000226252
25.8399683443 -7.3775953855 -3.0000227771
