18.7380349337 -13.8188200749 -2.9989908201
18.7502309057 -13.5178910825 -2.9989905231
18.7493350932 -13.4922542191 -2.9989904978
18.6660283792 -14.2642972772 -2.9989912596
18.6925420173 -14.1774765301 -2.9989911740
18.7295560889 -14.0263436294 -2.9989910248
18.6420321695 -14.4012332770 -2.9989913948
18.7419570633 -14.0824806447 -2.9989910802
18.2815013615 -15.0420921943 -2.9989920271
18.7176201279 -14.3376285407 -2.9989913320
18.3776669536 -15.1156235268 -2.9989920997
18.3957023354 -15.0942831622 -2.9989920786
18.4134839455 -15.0727308885 -2.9989920574
18.3775631621 -15.1526775766 -2.9989921363
18.7340564674 -14.6124886722 -2.9989916032
17.8962455208 -15.6012800354 -2.9989925789
18.0701536029 -15.4769550690 -2.9989924562
18.2061924575 -15.3619054893 -2.9989923427
18.2224737540 -15.3797731882 -2.9989923603
18.1057019378 -15.5105033677 -2.9989924893
17.7329794061 -15.7806134420 -2.9989927559
17.8547415806 -15.7125499625 -2.9989926887
18.5437402638 -15.1031305937 -2.9989920874
18.6586113985 -14.9859585569 -2.9989919718
18.6750928563 -14.9613030044 -2.9989919474
18.0609529051 -15.6350085541 -2.9989926122
18.2086950438 -15.5202067656 -2.9989924989
17.2975942366 -16.0335676127 -2.9989930055
18.0005266310 -15.7062725818 -2.9989926825
17.5845806868 -15.9573026764 -2.9989929302
15.4781229483 -18.7502398157 -2.9989956862
15.0262517075 -18.7336478288 -2.9989956698
14.7309624487 -18.6607580988 -2.9989955979
14.3804621019 -18.6245787974 -2.9989955622
14.0737148520 -18.6955177337 -2.9989956322
18.5707542172 -13.6155329816 -3.0006898287
18.5564429225 -13.5104700816 -3.0006897250
18.5371767833 -13.4062019561 -3.0006896221
18.6086226397 -13.9003762052 -3.0006901098
18.6067341235 -13.7664250981 -3.0006899776
18.5759103619 -13.4802087352 -3.0006896952
18.5507528283 -13.3554519945 -3.0006895721
18.5397227247 -13.3098741308 -3.0006895271
18.4705604434 -13.0859442981 -3.0006893061
18.6323881498 -13.9210585128 -3.0006901302
18.6008728112 -13.4827718735 -3.0006896977
18.5898896888 -13.4228353134 -3.0006896385
18.5091058448 -13.1222907516 -3.0006893420
18.4789383873 -13.0396085524 -3.0006892604
18.5611817993 -13.2056643146 -3.0006894243
18.6652613572 -13.5910166090 -3.0006898045
18.5882551933 -13.2120350894 -3.0006894305
18.6763674106 -14.2356308707 -3.0006904406
18.6844773554 -14.1803419557 -3.0006903860
18.6888807958 -14.1456948227 -3.0006903518
18.7049632000 -13.8110715760 -3.0006900216
18.6540355602 -13.3745996744 -3.0006895910
18.7079312126 -13.5433410521 -3.0006897575
18.3192339794 -15.2458895325 -3.0006914375
18.7355642110 -13.5683526150 -3.0006897821
18.4217671947 -15.1332092651 -3.0006913263
18.7625543275 -14.1400031166 -3.0006903462
18.7730621232 -13.7087125533 -3.0006899206
18.6927992644 -13.2265895012 -3.0006894449
18.4075701737 -15.2012018167 -3.0006913934
18.7263619371 -14.4714831762 -3.0006906733
18.8002406571 -13.7652456521 -3.0006899764
18.8402515948 -13.6375212676 -3.0006898504
18.8950351670 -13.7235669037 -3.0006899353
18.8531069802 -14.9261765809 -3.0006911220
19.1536483778 -14.6514475487 -3.0006908509
15.6507409869 -18.5933442130 -3.0006947406
15.7347641956 -18.6049082486 -3.0006947520
15.0710459832 -18.5213374053 -3.0006946695
15.7711088526 -18.6581345971 -3.0006948045
15.4703118211 -18.6370845039 -3.0006947837
16.2834989718 -18.7160759887 -3.0006948617
16.2687755131 -18.7400451435 -3.0006948853
16.5582021898 -18.7601295007 -3.0006949051
14.9125783469 -18.6014883879 -3.0006947486
15.9460750604 -18.7971001199 -3.0006949416
16.5749349398 -18.8077687006 -3.0006949522
16.6334002408 -18.8046932821 -3.0006949491
16.7939464790 -18.7926715970 -3.0006949373
16.3702320624 -18.8372538819 -3.0006949812
16.7375241502 -18.8217448108 -3.0006949659
15.5862837727 -18.8281175931 -3.0006949722
15.8342682820 -18.8839946951 -3.0006950274
14.9244512740 -18.8820060528 -3.0006950254
18.3791678308 -14.8579457779 -2.9996637090
18.3920633256 -14.8979538935 -2.9996637485
18.3888138624 -15.0523414641 -2.9996639008
18.3913584449 -15.0457594709 -2.9996638943
18.4062160531 -15.0061120625 -2.9996638552
18.3982014936 -15.0942191361 -2.9996639421
18.4113477272 -15.0610913339 -2.9996639094
17.9621442793 -15.8302504210 -2.9996646684
18.2464338719 -15.4504309797 -2.9996642936
18.4564154567 -15.0785910736 -2.9996639267
18.4865488966 -14.9967091992 -2.9996638459
18.5005209583 -14.9553800596 -2.9996638051
18.5050150300 -14.9415493749 -2.9996637915
18.4654074514 -15.1214657280 -2.9996639690
18.6348889424 -14.7398975113 -2.9996635925
18.6806357527 -13.9139687290 -2.9996627775
18.6753605716 -13.8693654450 -2.9996627335
18.6636369041 -13.7878642844 -2.9996626531
18.6624397319 -13.7804748475 -2.9996626458
18.7012041357 -13.8813125853 -2.9996627453
18.6993401513 -13.8663133895 -2.9996627305
18.6772184847 -13.7244581611 -2.9996625905
18.6241344592 -13.4963595383 -2.9996623654
18.6220751361 -13.4890882322 -2.9996623583
18.6003024256 -13.4167224451 -2.9996622869
18.5557557329 -13.2882088274 -2.9996621600
18.7422770543 -14.2819540654 -2.9996631406
18.6995908442 -13.7125642162 -2.9996625788
18.6256398969 -13.4166917028 -2.9996622868
18.6139499732 -13.3803834930 -2.9996622510
18.5618602691 -13.2369981937 -2.9996621095
18.7590755511 -14.4058001549 -2.9996632628
18.6896807040 -13.4617525658 -2.9996623313
18.6598587868 -13.3652269113 -2.9996622360
18.7129095012 -13.4550624044 -2.9996623247
18.5889805236 -13.0560033880 -2.9996619309
18.8510143676 -14.4615717083 -2.9996633179
18.8319639238 -13.7689373904 -2.9996626344
18.7571454352 -13.4340109723 -2.9996623039
18.6340242428 -13.0966556933 -2.9996619710
18.8901384589 -13.8338341677 -2.9996626984
18.8331136525 -13.5303927194 -2.9996623990
18.4467279967 -15.7635169135 -2.9996646026
18.9096544619 -14.7249265024 -2.9996635777
18.8655951525 -13.4627363387 -2.9996623323
18.9651735219 -13.8493011456 -2.9996627137
18.6128078852 -12.7872758082 -2.9996616657
19.0049848233 -14.0223768385 -2.9996628845
18.7750997243 -12.9406758406 -2.9996618171
19.0860495063 -14.9318924793 -2.9996637820
19.0946368376 -14.8972781619 -2.9996637478
19.1197070643 -14.7841218224 -2.9996636361
19.1618027499 -14.5110496522 -2.9996633667
19.2019697584 -14.1008443417 -2.9996629619
19.0795444248 -13.3307618378 -2.9996622020
15.7796536892 -18.4909754554 -2.9996672939
15.8178476617 -18.4942264619 -2.9996672971
15.6624687446 -18.5032013063 -2.9996673060
15.7007758292 -18.5074917820 -2.9996673102
15.8159044035 -18.5183212545 -2.9996673209
15.8671569563 -18.5221497413 -2.9996673247
15.9954551184 -18.5290656298 -2.9996673315
15.6725073870 -18.5286880508 -2.9996673311
16.0461641073 -18.5549329044 -2.9996673570
16.0590802387 -18.5552655674 -2.9996673573
15.8768035439 -18.5712538805 -2.9996673731
15.9546283293 -18.5756799376 -2.9996673775
16.2013939231 -18.5805748206 -2.9996673823
16.1624039204 -18.6048971953 -2.9996674063
16.3974384155 -18.5987806155 -2.9996674003
15.7688686423 -18.6113584476 -2.9996674127
16.1361196035 -18.6289766052 -2.9996674301
16.6894196996 -18.6223450321 -2.9996674235
16.7712880043 -18.6362921348 -2.9996674373
16.8238695607 -18.6288078204 -2.9996674299
16.8801894767 -18.6445694493 -2.9996674455
16.8933671200 -18.6424345223 -2.9996674433
16.4076138414 -18.7918969503 -2.9996675908
16.2993235384 -18.8205101264 -2.9996676191
17.3152176860 -18.6774432639 -2.9996674779
16.9031730680 -18.7877749823 -2.9996675868
17.4541625685 -18.7149806824 -2.9996675149
17.8327310110 -18.6154325846 -2.9996674167
18.3930954226 -14.8060271954 -3.0001795956
18.3960806096 -14.7782463600 -3.0001795682
18.4186637741 -14.7947238359 -3.0001795844
18.4232837332 -14.9385222975 -3.0001797263
18.4320519969 -14.8821757946 -3.0001796707
18.1752085802 -15.7203478679 -3.0001804978
18.2914225213 -15.4807906656 -3.0001802614
18.4409055311 -14.9779789223 -3.0001797652
18.4490081755 -15.0607595622 -3.0001798469
18.0340983662 -16.0271337193 -3.0001808005
18.4741776254 -15.0587040144 -3.0001798449
18.5222259069 -14.9325670356 -3.0001797204
18.5336919957 -14.8518236097 -3.0001796408
18.5516913255 -14.8993459175 -3.0001796876
17.9664355706 -16.2619803902 -3.0001810322
17.8650600105 -16.6325737624 -3.0001813979
18.8060353643 -14.2711747630 -3.0001790678
18.8017596257 -14.2303943143 -3.0001790276
18.7947613056 -14.1734174186 -3.0001789713
18.8363230814 -14.3430201829 -3.0001791387
18.8478916440 -14.2084196499 -3.0001790059
18.8426831546 -14.1670269950 -3.0001789650
18.8515221524 -14.0639910146 -3.0001788634
18.7533730806 -13.6638592279 -3.0001784685
18.7234402910 -13.5762672207 -3.0001783821
18.7612444459 -13.4709498161 -3.0001782782
18.9647370599 -14.1683078009 -3.0001789663
18.6145317843 -13.0082248874 -3.0001778216
19.1428645809 -14.2383754613 -3.0001790354
19.1003189048 -15.2494363109 -3.0001800331
19.1584438095 -14.9208495341 -3.0001797089
19.2035852845 -14.4201372689 -3.0001792148
19.1891166201 -14.2150932902 -3.0001790125
19.0086558615 -13.3735220964 -3.0001781820
16.2902938021 -18.4891028159 -3.0001832299
16.3253315489 -18.4867866208 -3.0001832276
16.3370060597 -18.4859454685 -3.0001832267
16.3603473611 -18.4841595767 -3.0001832250
16.3953384808 -18.4812218902 -3.0001832221
16.4535946577 -18.4756360696 -3.0001832166
16.5146023169 -18.4931947905 -3.0001832339
16.2696138410 -18.5387453580 -3.0001832788
16.5056750300 -18.5185751326 -3.0001832589
16.5879592484 -18.5082212067 -3.0001832487
16.3779740645 -18.5554886000 -3.0001832954
16.6973098984 -18.5162654312 -3.0001832567
16.7443150631 -18.5082901787 -3.0001832488
16.4993000494 -18.5679589895 -3.0001833077
16.7484995834 -18.5320982671 -3.0001832723
16.8074696115 -18.5212834922 -3.0001832616
16.8192440608 -18.5190159373 -3.0001832594
16.8427725781 -18.5143763847 -3.0001832548
16.2616032634 -18.6118053332 -3.0001833509
16.7408008172 -18.5579768525 -3.0001832978
17.0472589278 -18.5924998360 -3.0001833319
16.2857500011 -18.8283725407 -3.0001835646
17.5903647036 -18.5998536257 -3.0001833391
16.5985218653 -18.8725583678 -3.0001836082
17.7402784455 -18.5920937217 -3.0001833315
16.6564236029 -18.9136102810 -3.0001836487
18.0803332301 -18.4870387973 -3.0001832278
18.2427933667 -18.4545462137 -3.0001831958
18.4292232928 -14.8647420250 -2.9999398044
18.4289331027 -14.8503454583 -2.9999397902
18.4262049120 -14.7784022331 -2.9999397192
18.4100898805 -14.5991723621 -2.9999395424
18.5493719617 -14.8324427926 -2.9999397725
18.5865409677 -14.6543183197 -2.9999395968
17.9261743186 -16.9631115204 -2.9999418750
18.8707043129 -14.1788158956 -2.9999391276
18.9793052380 -15.4800102760 -2.9999404115
16.8163101999 -18.4554548928 -2.9999433476
16.8268047871 -18.4530119726 -2.9999433452
16.8372921017 -18.4505380182 -2.9999433427
16.8428769683 -18.4740570434 -2.9999433659
16.9270576488 -18.4530120900 -2.9999433452
17.0662675953 -18.4640200069 -2.9999433560
17.1366123273 -18.4674801427 -2.9999433594
17.1863138977 -18.4766630271 -2.9999433685
17.1968696034 -18.4731254762 -2.9999433650
17.3694750748 -18.4880463556 -2.9999433797
17.1699177251 -18.6090919945 -2.9999434992
17.8414408255 -18.5154325237 -2.9999434067
17.3882453753 -18.7390613727 -2.9999436274
18.7656276847 -11.6873995698 -2.9999366692
17.7814008303 -18.7863853537 -2.9999436741
18.3979662409 -15.3060289007 -3.0000303621
18.3865373367 -15.8133588579 -3.0000308627
18.4275642778 -15.5794317126 -3.0000306319
18.4451621294 -15.3570125608 -3.0000304124
18.4097579691 -14.8551769089 -3.0000299172
18.3800895229 -16.0224501163 -3.0000310690
18.4767762137 -14.9775308581 -3.0000300379
18.4421017471 -14.7674987277 -3.0000298307
18.4374893535 -14.7459587781 -3.0000298094
18.5326850543 -15.0461441705 -3.0000301056
18.3997553498 -16.2523512270 -3.0000312959
18.5805641466 -15.5140672398 -3.0000305674
18.5588087724 -14.7351816437 -3.0000297988
18.5488010599 -14.6900772783 -3.0000297543
18.5452874496 -14.6750828394 -3.0000297395
18.5758094147 -14.6997863073 -3.0000297639
18.6364630647 -14.8949582161 -3.0000299565
18.5790893426 -14.6106307116 -3.0000296759
18.4331474942 -14.1363276916 -3.0000292079
18.3295132666 -16.7089005428 -3.0000317464
18.5818506798 -16.3179356128 -3.0000313606
18.9757995613 -15.6749541456 -3.0000307261
19.0011168183 -15.3665742541 -3.0000304218
18.9719582602 -15.9641922861 -3.0000310115
19.0979853142 -15.6728166538 -3.0000307240
19.1101086520 -15.5630661509 -3.0000306157
19.1153790558 -15.4988693647 -3.0000305524
19.0239006528 -14.3215337741 -3.0000293906
18.9640374986 -14.0839256202 -3.0000291562
17.3519028266 -18.4286950031 -3.0000334434
17.3612218549 -18.4247194685 -3.0000334395
17.3798244267 -18.4166857846 -3.0000334315
17.4174840858 -18.4265063157 -3.0000334412
17.4546585779 -18.4096631833 -3.0000334246
17.5112721139 -18.4097997896 -3.0000334247
17.6458215681 -18.4237533583 -3.0000334385
17.6551246921 -18.4189083806 -3.0000334337
17.6943345081 -18.4255316475 -3.0000334403
17.7036426803 -18.4205431519 -3.0000334353
17.7129360549 -18.4155271429 -3.0000334304
17.7222145506 -18.4104836644 -3.0000334254
17.7431166001 -18.4265995554 -3.0000334413
17.7617236113 -18.4163064209 -3.0000334312
17.8014697332 -18.4216730999 -3.0000334365
17.8507585480 -18.4211562725 -3.0000334359
17.9907087674 -18.4210747225 -3.0000334359
18.0048978574 -11.6082504358 -3.0000267133
18.1260380490 -11.6207297187 -3.0000267256
18.1152144975 -11.6144939399 -3.0000267194
18.3403551285 -11.6093203632 -3.0000267143
19.3688974927 -12.0120848894 -3.0000271118
18.3587794485 -10.7017610252 -3.0000258188
18.3855366924 -14.9623640318 -3.0000300230
18.5314588241 -15.6014455108 -3.0000306536
18.9026755325 -15.9370771371 -3.0000309848
18.9771199334 -15.3552494596 -3.0000304106
19.1135726643 -15.2695799081 -3.0000303261
19.1554879022 -15.8091729214 -3.0000308586
17.3602149017 -11.5331275560 -3.0000266392
17.3115485251 -11.5184786731 -3.0000266247
17.5980203519 -11.5108950634 -3.0000266172
17.6797022045 -11.5156005570 -3.0000266219
17.6552813962 -11.5063142458 -3.0000266127
17.8656097731 -11.5128059129 -3.0000266191
17.5411498786 -11.3119073630 -3.0000264209
17.7831960226 -11.3223741923 -3.0000264312
18.8495805780 -16.0258829578 -3.0000310724
18.3706406612 -14.4701310529 -3.0000295373
18.8930760740 -15.8073218276 -3.0000308567
19.2592523955 -16.0784020836 -3.0000311242
16.6235436210 -11.5270186538 -3.0000266331
16.6103825950 -11.5259242780 -3.0000266320
16.6916918260 -11.5090201380 -3.0000266154
17.1171913855 -11.4735739949 -3.0000265804
17.2203765326 -11.4452895503 -3.0000265525
17.9624206681 -11.4119253024 -3.0000265196
18.6329713101 -16.7000865267 -3.0000317377
18.6530090108 -16.5771578696 -3.0000316164
18.6593734102 -16.5250972227 -3.0000315650
18.6106119004 -16.8979901255 -3.0000319329
18.6212015990 -16.8596604698 -3.0000318951
18.6342598409 -16.8082733856 -3.0000318444
18.6692896414 -16.6328363758 -3.0000316713
18.6811341263 -16.5474997889 -3.0000315871
18.6954557882 -16.3625311390 -3.0000314046
18.5725157874 -17.0889107874 -3.0000321213
18.5748929004 -17.0826475171 -3.0000321152
18.5887655575 -17.0449227230 -3.0000320779
18.7188036451 -16.3834789809 -3.0000314253
18.7210689607 -16.2830247941 -3.0000313261
18.7208333225 -16.2495299384 -3.0000312931
18.7015971334 -16.7270508236 -3.0000317643
18.7230412106 -16.6002244673 -3.0000316391
18.6822089651 -16.9113402533 -3.0000319461
18.7660924403 -16.4061427057 -3.0000314476
18.7400996514 -15.9151214076 -3.0000309631
18.5170192623 -17.3850573108 -3.0000324136
18.5609133781 -17.2987979224 -3.0000323284
18.6251578661 -17.1533714394 -3.0000321849
18.7091922914 -16.9045981816 -3.0000319395
18.7689565800 -16.6206294320 -3.0000316593
18.7825428517 -16.0552562861 -3.0000311014
18.7570196252 -15.8703889656 -3.0000309190
18.4774270580 -15.1083794779 -3.0000301670
18.8324702199 -16.4944893767 -3.0000315348
18.7981354107 -15.8271857297 -3.0000308763
18.6199737472 -17.3431603015 -3.0000323722
18.8642921143 -16.3757208167 -3.0000314176
18.8271376135 -15.8505958368 -3.0000308994
18.7382316064 -17.1289705756 -3.0000321609
18.7505059560 -17.0951293450 -3.0000321275
18.8884469332 -16.3766589038 -3.0000314185
18.5277524471 -15.0042236902 -3.0000300643
18.3579150057 -14.7630067480 -3.0000298262
18.7062968120 -17.2721450435 -3.0000323021
18.8832995529 -15.8921027548 -3.0000309404
18.8391744061 -15.6785473621 -3.0000307297
18.7835573537 -17.1457907349 -3.0000321775
18.8779822000 -15.7368802469 -3.0000307872
18.9263846363 -16.8326336654 -3.0000318685
18.9834342696 -16.1484388323 -3.0000311933
18.1954731096 -14.4439044473 -3.0000295114
19.0078692349 -16.4115481128 -3.0000314530
19.0035420659 -16.6857989292 -3.0000317236
19.0615639026 -15.9421520887 -3.0000309898
19.0587912685 -16.7898273573 -3.0000318262
18.0209047577 -14.1116940562 -3.0000291836
19.1312926922 -15.5537827085 -3.0000306065
17.7790457006 -13.8457846886 -3.0000289212
16.0346287446 -11.5222353490 -3.0000266284
16.1741809385 -11.4877105618 -3.0000265943
16.0041983548 -11.5007485968 -3.0000266072
15.9052912822 -11.5111376787 -3.0000266175
16.2155341070 -11.4612515846 -3.0000265682
16.5155878876 -11.4314239244 -3.0000265388
16.4725375678 -11.4310900201 -3.0000265385
16.4294859801 -11.4311381763 -3.0000265385
16.3864365150 -11.4315683893 -3.0000265389
16.0568239506 -11.4475504712 -3.0000265547
17.0713657099 -11.3727321539 -3.0000264809
16.9258864563 -11.3566920586 -3.0000264651
16.8383935675 -11.3491360291 -3.0000264576
17.0305639456 -11.3434570150 -3.0000264520
17.1213443730 -11.3304666064 -3.0000264392
16.4286801742 -11.2861022468 -3.0000263954
17.3446169208 -11.3410429913 -3.0000264496
16.8458578561 -11.2527324560 -3.0000263625
17.5003326621 -11.3221653018 -3.0000264310
17.4415700496 -11.3101606890 -3.0000264191
17.3531700877 -11.2934595440 -3.0000264027
17.5053110751 -11.2985104781 -3.0000264076
17.2534647616 -11.2520863320 -3.0000263618
17.0145805352 -11.2200096129 -3.0000263302
17.7460236227 -11.3303245742 -3.0000264390
17.8694841642 -11.3389849075 -3.0000264476
18.0224027234 -11.3599066444 -3.0000264682
17.9786583915 -11.3462034199 -3.0000264547
16.0766385327 -11.1307957562 -3.0000262421
18.2042537692 -11.3958241615 -3.0000265037
18.5445442118 -16.6499066362 -3.0000316882
18.5620681559 -16.7332945164 -3.0000317704
18.5641859136 -16.7114628915 -3.0000317489
18.5646749779 -16.7060011892 -3.0000317435
18.5668778358 -16.6786722916 -3.0000317165
18.5243314250 -17.0572203059 -3.0000320901
18.5705684298 -16.8513677567 -3.0000318869
18.5913835842 -16.6748953786 -3.0000317128
18.5959692542 -16.5527915867 -3.0000315923
18.5959026599 -16.5250165933 -3.0000315649
18.5952805041 -16.4916924464 -3.0000315320
18.5949416938 -16.4805874993 -3.0000315211
18.5863285059 -16.3531363498 -3.0000313953
18.5244661441 -17.1391325415 -3.0000321709
18.5521284497 -17.0475785889 -3.0000320806
18.5565304749 -17.0312830289 -3.0000320645
18.5865076124 -16.8996437065 -3.0000319346
18.5996547566 -16.8219822715 -3.0000318579
18.6070711574 -16.7662095257 -3.0000318029
18.6089740264 -16.7494374599 -3.0000317864
18.6073197560 -16.3227210897 -3.0000313653
18.5401563681 -17.1683064511 -3.0000321997
18.5456302567 -17.1521123825 -3.0000321837
18.6437567171 -16.4960572022 -3.0000315363
18.6418138364 -16.4448127979 -3.0000314858
18.6285511511 -16.2972941750 -3.0000313402
18.6147672896 -16.2071814863 -3.0000312513
18.5373309252 -17.2466112618 -3.0000322770
18.6260237315 -16.9482898654 -3.0000319826
18.6684500636 -16.5589234903 -3.0000315984
18.6460874865 -16.2485012222 -3.0000312921
18.6452066680 -16.2427992659 -3.0000312864
18.6215773961 -16.1181098664 -3.0000311634
18.5681729370 -17.2334845255 -3.0000322640
18.6790909832 -16.7747043611 -3.0000318113
18.6908208654 -16.6291821559 -3.0000316677
18.6476823757 -16.1242472851 -3.0000311695
18.6421935916 -17.0846016252 -3.0000321171
18.7063433357 -16.7481519266 -3.0000317851
18.7168536896 -16.5474830797 -3.0000315871
18.6505611692 -16.0328941269 -3.0000310793
18.6411961264 -15.9986774058 -3.0000310455
18.6778796673 -17.0449132942 -3.0000320779
18.7364759442 -16.6790809940 -3.0000317169
18.6935750143 -17.0801824523 -3.0000321127
18.7637618153 -16.6202311262 -3.0000316589
18.7650069336 -16.5718032738 -3.0000316111
18.6860530433 -15.9796773366 -3.0000310268
18.6970542249 -15.9319141627 -3.0000309797
18.7993979004 -16.3002835210 -3.0000313432
18.7631253351 -16.0864831192 -3.0000311322
18.7487159620 -16.0261971054 -3.0000310727
18.7684083865 -17.0810242375 -3.0000321136
18.7069560112 -15.7432165412 -3.0000307935
18.8118051160 -17.1929291492 -3.0000322240
18.9008458511 -16.3406581614 -3.0000313830
18.9585834666 -16.5479761233 -3.0000315876
18.9641997617 -16.2540538524 -3.0000312975
19.0054166669 -16.4600739756 -3.0000315008
18.6553948190 -14.9915480862 -3.0000300518
17.9757353612 -14.3753943673 -3.0000294438
18.6872259477 -14.8780878763 -3.0000299398
16.0061054924 -11.3785142775 -3.0000264866
15.9297926254 -11.3896103522 -3.0000264975
15.5812317800 -11.4551304762 -3.0000265622
15.7276568119 -11.3999930917 -3.0000265078
16.5576592944 -11.2837672744 -3.0000263931
16.3089881605 -11.2972499519 -3.0000264064
15.4042184414 -11.4479976104 -3.0000265551
16.5100377011 -11.2612441885 -3.0000263709
16.3538953935 -11.2697100540 -3.0000263792
15.9807137416 -11.3088331437 -3.0000264178
16.8075035044 -11.2337259376 -3.0000263437
16.7289615020 -11.2329848634 -3.0000263430
16.5396751001 -11.2117864932 -3.0000263221
16.6815036251 -11.1847529312 -3.0000262954
15.3800749967 -11.3543682422 -3.0000264628
15.1217898448 -11.3772961408 -3.0000264854
15.5337916593 -11.2428085678 -3.0000263527
18.4484676722 -16.9795559457 -3.0000320134
18.4566269428 -16.9203691479 -3.0000319550
18.4646917184 -16.8225579295 -3.0000318585
18.4716529068 -16.9876368159 -3.0000320214
18.4816181624 -16.9145506256 -3.0000319493
18.4825485730 -16.9059218058 -3.0000319408
18.4850332795 -16.8800044341 -3.0000319152
18.4873501908 -16.8497174978 -3.0000318853
18.4878969264 -16.8410559002 -3.0000318768
18.4900589371 -16.7152697599 -3.0000317526
18.4962138063 -16.9871485611 -3.0000320209
18.5108627701 -16.8601125595 -3.0000318956
18.5111731911 -16.8557125651 -3.0000318912
18.5133809122 -16.8160767818 -3.0000318521
18.5147054687 -16.7587534924 -3.0000317956
18.5146694420 -16.7411099018 -3.0000317781
18.5142239779 -16.7146484029 -3.0000317520
18.5136661131 -16.6970135970 -3.0000317346
18.5068722618 -16.6002283588 -3.0000316391
18.5054583010 -16.5870713644 -3.0000316261
18.5207842797 -16.9865170153 -3.0000320203
18.5240746717 -16.9643478685 -3.0000319984
18.5323949980 -16.8931198210 -3.0000319281
18.5388707469 -16.7453998733 -3.0000317824
18.5386750223 -16.7274712826 -3.0000317647
18.5383890188 -16.7140270459 -3.0000317514
18.5376472531 -16.6916273241 -3.0000317293
18.5299733805 -16.5888371191 -3.0000316279
18.5289759142 -16.5799279142 -3.0000316191
18.5212097417 -16.5221796431 -3.0000315621
18.5176323579 -16.5000549945 -3.0000315403
18.5605518798 -16.8408640942 -3.0000318766
18.5601801473 -16.6588127570 -3.0000316969
18.5579009938 -16.6270172643 -3.0000316656
18.5563031789 -16.6088717864 -3.0000316477
18.5558701855 -16.6043384703 -3.0000316432
18.5865933660 -16.7081605853 -3.0000317456
18.5843079118 -16.6573341556 -3.0000316955
18.5569062056 -16.4465004540 -3.0000314874
18.5652728945 -16.3730035475 -3.0000314149
18.5582862423 -16.3457019104 -3.0000313880
18.5508161362 -16.3185285740 -3.0000313612
18.5414931284 -16.2869999238 -3.0000313301
18.6267962493 -16.9210439096 -3.0000319557
18.6334689870 -16.8354813137 -3.0000318713
18.6353534360 -16.7258437573 -3.0000317631
18.6333750970 -16.6686592837 -3.0000317067
18.6061561020 -16.4463818241 -3.0000314873
18.6386850338 -17.0147051994 -3.0000320481
18.6484904302 -16.5613172332 -3.0000316007
18.6210345194 -16.3991347786 -3.0000314407
18.5891239134 -16.2774404956 -3.0000313206
18.6732775449 -16.9407317674 -3.0000319751
18.6826411130 -16.8183301088 -3.0000318543
18.6825664978 -16.6857551282 -3.0000317235
18.6719144791 -16.5536087490 -3.0000315931
18.6497689367 -16.4179216334 -3.0000314592
18.6122534053 -16.2704146941 -3.0000313137
18.7007044979 -16.5952949958 -3.0000316343
18.6789320281 -16.3293727139 -3.0000313719
18.5944819623 -16.0807485332 -3.0000311265
18.7204955260 -16.2972768168 -3.0000313402
18.7001733078 -16.2274123447 -3.0000312713
18.7542913673 -16.3318426015 -3.0000313743
18.6097224471 -15.9425102243 -3.0000309901
18.7852766799 -16.0358193563 -3.0000310822
18.3560835065 -14.9518100798 -3.0000300125
18.6495560338 -14.9419191048 -3.0000300028
18.4710943361 -14.7963431473 -3.0000298591
18.9080183604 -15.1747205269 -3.0000302325
18.4383011504 -14.7428709961 -3.0000298064
18.5116272547 -14.7662451788 -3.0000298294
19.0190713943 -15.2363910606 -3.0000302934
18.4233773348 -14.6739059682 -3.0000297383
17.8550874505 -14.3885497198 -3.0000294567
17.7132834230 -14.3182336355 -3.0000293874
18.1293132238 -14.4499396610 -3.0000295173
17.6453613809 -14.2501649123 -3.0000293202
17.9089227199 -14.3050934107 -3.0000293744
17.8871642704 -14.2973332622 -3.0000293667
17.5965047192 -14.1889706892 -3.0000292598
18.6573085128 -14.0774543894 -3.0000291498
18.5613229717 -14.0211591873 -3.0000290942
18.5532350345 -14.0166223441 -3.0000290897
18.5207501409 -13.9987148195 -3.0000290721
18.6298487077 -14.0327690827 -3.0000291057
15.2402279231 -11.2912169942 -3.0000264004
14.7030386736 -11.4177364491 -3.0000265253
14.8850035723 -11.3162431327 -3.0000264251
14.7315882896 -11.3528493400 -3.0000264613
14.2320571195 -11.4836522768 -3.0000265903
14.2009308860 -11.5002603371 -3.0000266067
18.4423403719 -16.8862801556 -3.0000319214
18.4646912159 -16.8369544539 -3.0000318727
18.4644926914 -16.8336936929 -3.0000318695
18.4625574374 -16.8076316565 -3.0000318438
18.4610349210 -16.7913689193 -3.0000318277
18.4893711689 -16.8455209481 -3.0000318812
18.4857372170 -16.7955824772 -3.0000318319
18.4850853841 -16.7889377658 -3.0000318253
18.4843942504 -16.7822970270 -3.0000318188
18.5356592039 -16.8118154014 -3.0000318479
18.4879790477 -16.5591712778 -3.0000315986
18.4784422833 -16.5293269895 -3.0000315692
18.5526743863 -16.7428321004 -3.0000317798
18.5090082494 -16.5453299601 -3.0000315850
18.4833567596 -16.4715113001 -3.0000315121
18.5789082834 -16.7575979074 -3.0000317944
18.5682155895 -16.6859147575 -3.0000317237
18.5032994171 -16.4560797654 -3.0000314969
18.5161372568 -16.4232794952 -3.0000314645
18.5074513913 -16.4028766081 -3.0000314444
18.5975993841 -16.5926719831 -3.0000316317
18.4940199011 -16.3183747201 -3.0000313610
18.5637099983 -16.4118371736 -3.0000314532
18.5157840702 -16.2086325387 -3.0000312527
18.5845804620 -16.0913184582 -3.0000311370
18.8760730730 -16.8349699079 -3.0000318708
18.8978525240 -16.7929778779 -3.0000318293
18.8904090912 -16.7159276004 -3.0000317533
18.8952599095 -16.5943006412 -3.0000316333
18.3860684531 -14.7477863428 -3.0000298112
18.4349082527 -14.7446493943 -3.0000298081
18.3899996027 -14.7229029448 -3.0000297867
18.1255165619 -14.6168229169 -3.0000296820
17.4152808702 -14.3240979485 -3.0000293932
17.7248310997 -14.2515352191 -3.0000293215
14.2427293970 -11.2333359660 -3.0000263433
18.4293696082 -16.7617918419 -3.0000317986
18.4405641939 -16.7201813408 -3.0000317575
18.4520781306 -16.6834857494 -3.0000317213
18.8726866807 -16.7370788825 -3.0000317742
18.8856216488 -16.6870084129 -3.0000317248
18.8829109726 -16.6767004017 -3.0000317146
18.8921285214 -16.6217200358 -3.0000316603
18.8759899717 -16.5736179992 -3.0000316129
18.8735223301 -16.5668022826 -3.0000316061
18.9129739639 -16.6074588039 -3.0000316463
18.1324926673 -14.6863437184 -3.0000297506
17.8693089583 -14.5820878865 -3.0000296477
18.5994829348 -14.7168495958 -3.0000297807
17.9195668849 -14.4886743688 -3.0000295555
17.2376652856 -14.2087104389 -3.0000292793
25.6253356479 -15.1449313053 -3.0000302031
25.6029827040 -15.0515532138 -3.0000301110
25.6206799236 -15.0224145517 -3.0000300822
11.7993825944 -10.9908301966 -3.0000261040
11.7823948245 -10.9736327852 -3.0000260871
18.8582923412 -16.6071199750 -3.0000316459
18.0392437228 -14.6920517852 -3.0000297562
18.2280239891 -14.6227614099 -3.0000296879
18.3742053343 -14.5869124347 -3.0000296525
17.5811321230 -14.5261131802 -3.0000295925
17.5392972918 -14.5103504140 -3.0000295769
16.8955862756 -14.6115565171 -3.0000296768
25.9615724523 -13.6613878369 -3.0000287392
25.9516487506 -13.6381247272 -3.0000287163
25.9693625765 -13.3228053484 -3.0000284051
25.9803058832 -13.2892202738 -3.0000283720
25.9911192251 -13.2555383276 -3.0000283387
25.9905777487 -13.1983797925 -3.0000282823
18.8414228281 -16.1918462037 -3.0000312362
18.8353717125 -16.1798079142 -3.0000312243
18.8291432079 -16.1678604398 -3.0000312125
18.8240335984 -16.1583696043 -3.0000312031
18.8609674684 -16.1252700478 -3.0000311705
18.8489162415 -16.0586856997 -3.0000311048
18.8293651651 -16.0297649039 -3.0000310762
18.8276897842 -16.0273864848 -3.0000310739
18.8404933581 -16.0037401047 -3.0000310505
18.8352147509 -15.9965220361 -3.0000310434
18.8323929230 -15.9530897409 -3.0000310006
18.8266651413 -15.9459455537 -3.0000309935
18.8315292417 -15.9138853484 -3.0000309619
18.8408991794 -15.7811917411 -3.0000308309
18.0186186865 -14.4995180448 -3.0000295662
18.3234767047 -14.2038780077 -3.0000292745
17.8539274987 -14.1913061728 -3.0000292621
17.7970976698 -14.1960158842 -3.0000292668
17.6979710358 -14.2074885709 -3.0000292781
18.2764057239 -14.1741571603 -3.0000292452
17.8019849053 -14.1712818627 -3.0000292424
17.7446957803 -14.1772263129 -3.0000292482
17.7997747251 -14.1472100870 -3.0000292186
17.4273895753 -14.2105470554 -3.0000292811
17.6445487210 -14.1419957924 -3.0000292135
17.5577315957 -14.1570264304 -3.0000292283
17.5361149540 -14.1612648738 -3.0000292325
17.4286426615 -14.1853249171 -3.0000292562
17.2942218281 -14.2226036499 -3.0000292930
17.2801991325 -14.2269658301 -3.0000292973
17.6262013861 -14.1204209121 -3.0000291922
17.2871097968 -14.1995005269 -3.0000292702
17.2447114423 -14.2129654365 -3.0000292835
18.1221710676 -14.0662802678 -3.0000291387
17.8603081591 -14.0697285809 -3.0000291422
17.3952602729 -14.1438803513 -3.0000292153
17.2799977654 -14.1763974039 -3.0000292474
17.8587395654 -14.0456064998 -3.0000291183
17.2294022625 -14.1416828396 -3.0000292132
16.9870929724 -14.2339172334 -3.0000293042
18.1941770749 -13.9974111613 -3.0000290708
18.1403569616 -13.9944550505 -3.0000290679
17.7252415323 -14.0091371667 -3.0000290824
17.4220775978 -14.0625480726 -3.0000291351
17.2513055371 -14.1093644534 -3.0000291813
16.8795979331 -14.2571845824 -3.0000293271
17.3561724549 -14.0541350493 -3.0000291268
16.8653826009 -14.2103266959 -3.0000292809
17.7090429997 -13.9380205598 -3.0000290122
16.7447294495 -14.2177938036 -3.0000292883
17.0856810309 -14.0379151460 -3.0000291108
16.3967750780 -14.2913873455 -3.0000293609
16.3550420080 -14.2617403162 -3.0000293316
16.3269089794 -14.2224227141 -3.0000292928
16.1541695353 -14.3246680878 -3.0000293937
18.2583956974 -13.5657771871 -3.0000286449
22.5071804357 -12.9241109470 -3.0000280117
11.5428785962 -13.6988031403 -3.0000287761
11.5468536262 -13.6313394635 -3.0000287096
11.5289702137 -13.3875297977 -3.0000284690
11.5195105658 -13.4067588281 -3.0000284880
11.5088695799 -13.1094871487 -3.0000281946
11.4976316442 -13.0286200793 -3.0000281148
11.5099691284 -12.8581575321 -3.0000279466
11.4879751454 -12.8967651739 -3.0000279847
11.5001189667 -12.8268131440 -3.0000279157
11.4890007438 -12.8461299751 -3.0000279348
11.4791195737 -12.5786107659 -3.0000276708
25.9517142218 -12.6834443886 -3.0000277742
25.9500478776 -12.6257884617 -3.0000277173
26.0461814624 -12.5479191523 -3.0000276405
26.0191853831 -12.4421434765 -3.0000275361
26.0497027847 -12.3960993311 -3.0000274907
26.0460725024 -12.3373602717 -3.0000274327
26.0547609883 -12.3022537292 -3.0000273981
26.0420273410 -12.2785175920 -3.0000273747
26.0163496782 -12.2311588417 -3.0000273279
26.0587822214 -12.2079894567 -3.0000273051
18.4471292260 -16.3031865430 -3.0000313460
18.4457952855 -16.2987065423 -3.0000313416
18.4494721003 -16.2347713393 -3.0000312785
18.4386426118 -16.2079739688 -3.0000312521
18.4338508194 -16.1969248955 -3.0000312412
18.4328728793 -16.1947236535 -3.0000312390
18.4456082887 -16.0187443017 -3.0000310654
18.8624470945 -16.1733035856 -3.0000312179
18.8581868213 -16.1594464132 -3.0000312042
18.8755850552 -16.1346168712 -3.0000311797
18.8622102540 -16.0962274881 -3.0000311418
18.8615619981 -15.9698870193 -3.0000310171
18.9035236611 -15.9455591366 -3.0000309931
18.8802938696 -15.8993032436 -3.0000309475
18.9268944724 -15.8840906100 -3.0000309325
18.0645370818 -14.4403082350 -3.0000295078
18.1790199327 -14.3897149955 -3.0000294579
18.1138761998 -14.3511863917 -3.0000294199
17.8969254730 -14.1257091327 -3.0000291974
18.4616581094 -14.2183903701 -3.0000292888
17.9300535987 -14.0802211044 -3.0000291525
17.7728539714 -13.9972592147 -3.0000290706
17.3175853376 -14.0233189344 -3.0000290964
18.1391122518 -13.9379882923 -3.0000290122
16.8801515515 -14.0014782926 -3.0000290748
18.0143023843 -13.8706587395 -3.0000289457
11.6717836917 -12.3216556756 -3.0000274172
11.6148669092 -11.8676258426 -3.0000269692
11.6085906059 -11.7183201474 -3.0000268219
18.4323204700 -16.2574691773 -3.0000313009
18.4307554899 -16.2419290053 -3.0000312856
18.4554568303 -16.2456846063 -3.0000312893
18.4508822927 -16.2076169932 -3.0000312517
18.4729620759 -16.1913741313 -3.0000312357
18.4714625121 -16.1816891681 -3.0000312261
18.4704150789 -16.1752400840 -3.0000312198
18.4693295091 -16.1687973097 -3.0000312134
18.4658443667 -16.1495090999 -3.0000311944
18.4606660550 -16.1238934789 -3.0000311691
18.4509630131 -16.0825510841 -3.0000311283
18.4849967730 -16.1220887575 -3.0000311673
18.4835964869 -16.1155606432 -3.0000311609
18.4828818665 -16.1122997214 -3.0000311577
18.4760171139 -16.0830506140 -3.0000311288
18.4710090703 -16.0636572175 -3.0000311097
18.4647324393 -16.0411482154 -3.0000310875
18.4559800284 -16.0124074705 -3.0000310591
18.5086470699 -16.1170888833 -3.0000311624
18.4704085918 -15.9791714807 -3.0000310263
18.5552076663 -16.1036142223 -3.0000311491
18.5282616536 -16.0005277585 -3.0000310474
18.5161053641 -15.9633871172 -3.0000310107
18.4724828700 -15.8546111937 -3.0000309034
18.4974568675 -15.8511267560 -3.0000309000
18.5356170916 -15.8784907303 -3.0000309270
18.4818851381 -15.7649577972 -3.0000308149
18.5304117059 -15.8073049439 -3.0000308567
18.5874976205 -15.8778257460 -3.0000309263
18.5803005934 -15.8600319708 -3.0000309087
18.5000606017 -15.6985917771 -3.0000307494
18.5637626409 -15.7654076117 -3.0000308154
18.5584792876 -15.7549336184 -3.0000308050
18.8842490377 -16.1658191902 -3.0000312105
18.8806456846 -16.1391673834 -3.0000311842
18.8958107353 -16.0817784278 -3.0000311275
18.9176520744 -15.7939648696 -3.0000308435
18.9126082151 -15.7803491815 -3.0000308301
18.2159841172 -14.5929417548 -3.0000296584
18.2104652257 -14.5636640871 -3.0000296295
18.2723441726 -14.3528345900 -3.0000294215
18.0460225588 -14.0143072758 -3.0000290875
17.8288321249 -13.9632359638 -3.0000290371
18.5564567430 -14.1968218062 -3.0000292676
18.5680175881 -14.1755925306 -3.0000292466
18.5226262388 -14.1514796672 -3.0000292228
17.8858295699 -13.9005305027 -3.0000289752
17.8873209280 -13.7775477528 -3.0000288538
17.8108497682 -13.7636969928 -3.0000288402
17.3309424202 -13.7287525219 -3.0000288057
17.2834416870 -13.7058962529 -3.0000287831
17.9505621478 -13.5436719087 -3.0000286231
18.4662556189 -16.4008025480 -3.0000314423
18.4675525497 -16.3891433744 -3.0000314308
18.4687459608 -16.3774731504 -3.0000314193
18.4694840105 -16.3696873158 -3.0000314116
18.4747408648 -16.2760054109 -3.0000313192
18.4748784923 -16.2681858843 -3.0000313115
18.4750137717 -16.2447243350 -3.0000312883
18.4748084029 -16.2251737191 -3.0000312690
18.4949181104 -16.3560282753 -3.0000313982
18.4976953026 -16.3123176332 -3.0000313550
18.4991931714 -16.2486310665 -3.0000312922
18.4978592527 -16.1889226222 -3.0000312333
18.4970562200 -16.1730154404 -3.0000312176
18.4963304551 -16.1610918986 -3.0000312058
18.4954989040 -16.1491752672 -3.0000311941
18.4931476110 -16.1214019380 -3.0000311666
18.4911162727 -16.1015966050 -3.0000311471
18.4892804301 -16.0857753226 -3.0000311315
18.4856177226 -16.0581443442 -3.0000311042
18.5142811239 -16.4063606054 -3.0000314478
18.5168625466 -16.3821779671 -3.0000314240
18.5233608136 -16.2526808162 -3.0000312962
18.5233661992 -16.2486274301 -3.0000312922
18.5122696041 -16.0748029261 -3.0000311207
18.5071551566 -16.0386837875 -3.0000310850
18.5472446266 -16.2774960708 -3.0000313207
18.5427413375 -16.1332593496 -3.0000311783
18.5400503642 -16.1045112394 -3.0000311500
18.5210064199 -15.9781107222 -3.0000310253
18.5201995878 -15.9740655022 -3.0000310213
18.5687230653 -16.3408764220 -3.0000313832
18.5438986619 -15.9693021874 -3.0000310166
18.5331545841 -15.8280318283 -3.0000308772
18.5293658616 -15.8158015188 -3.0000308651
18.6006496659 -16.0109990507 -3.0000310577
18.5587833283 -15.8292902902 -3.0000308784
18.5524243664 -15.8085461319 -3.0000308579
18.5511157941 -15.8044087139 -3.0000308539
18.5457592859 -15.7878982942 -3.0000308376
18.6375767690 -16.3895493838 -3.0000314312
18.6437088818 -16.2883030308 -3.0000313313
18.6440649187 -16.2265554140 -3.0000312704
18.6337783475 -16.0725849539 -3.0000311185
18.6222994944 -15.9940318102 -3.0000310410
18.5449549198 -15.7138520515 -3.0000307645
18.6681616481 -16.2217124146 -3.0000312656
18.6611678705 -16.1009209766 -3.0000311464
18.5576468606 -15.6801620820 -3.0000307313
18.5402124702 -15.6388689452 -3.0000306905
18.6860877014 -16.1076283087 -3.0000311531
18.6215998808 -15.7867799712 -3.0000308365
18.5783376629 -15.6668715299 -3.0000307181
18.5623404551 -15.6291381915 -3.0000306809
18.6982514689 -16.0090247671 -3.0000310558
18.6270625981 -15.7268850161 -3.0000307774
18.6122113483 -15.6226004885 -3.0000306745
18.7002081303 -15.7163858955 -3.0000307670
18.5935290935 -15.4728179855 -3.0000305267
18.2009661899 -14.9299242324 -3.0000299910
18.2800463917 -14.4822379536 -3.0000295492
18.2809521969 -14.3973496769 -3.0000294654
18.2560240193 -14.2709067532 -3.0000293407
18.6013141975 -14.3228820749 -3.0000293920
18.8090558640 -14.4651515656 -3.0000295323
18.5102371396 -14.2284702684 -3.0000292988
18.4192816176 -14.1702603981 -3.0000292414
18.4007855878 -14.1591059281 -3.0000292303
18.7660100032 -14.3939803561 -3.0000294621
17.9797995831 -13.9339969819 -3.0000290082
18.1314418570 -13.9675666405 -3.0000290413
17.9254052729 -13.8898378455 -3.0000289646
17.8974384763 -13.8808651550 -3.0000289558
17.8623338938 -13.8701156687 -3.0000289452
18.0812716612 -13.8946520566 -3.0000289694
17.9909335787 -13.8354071478 -3.0000289109
17.7075463284 -13.7550091207 -3.0000288316
17.7351108956 -13.7364779333 -3.0000288133
17.5591971243 -13.6776465686 -3.0000287553
17.5134992780 -13.6708447355 -3.0000287486
17.4551737483 -13.6390265113 -3.0000287172
18.0078087175 -13.7389618730 -3.0000288158
17.3977526590 -13.5844665430 -3.0000286633
17.5505984741 -13.5785057569 -3.0000286574
17.9460933140 -13.6176307767 -3.0000286960
15.8733147846 -11.1447558688 -3.0000262559
15.6481667372 -11.2065505061 -3.0000263169
15.3804657588 -11.2430039538 -3.0000263529
15.6274260900 -11.1370606285 -3.0000262483
15.2515782221 -11.2129382111 -3.0000263232
14.9716848958 -11.3277123106 -3.0000264365
15.2259604338 -11.1450946671 -3.0000262563
14.7496747299 -11.2706773128 -3.0000263802
14.4595256094 -11.4215021999 -3.0000265290
18.4886171099 -16.2440021999 -3.0000312876
18.4730504304 -16.4590429467 -3.0000314998
18.4964500350 -16.3535987247 -3.0000313958
18.5177871033 -16.1954016414 -3.0000312397
18.4684559893 -16.5612059824 -3.0000316006
18.5355016377 -16.2590822337 -3.0000313025
18.5472472698 -16.0926741851 -3.0000311383
18.5475167459 -16.0688335550 -3.0000311148
18.5460095216 -15.9925599819 -3.0000310395
18.5702341293 -16.1318270621 -3.0000311769
18.5878159636 -16.2259252934 -3.0000312698
18.5954467381 -16.0248223007 -3.0000310713
18.5374177216 -16.5836402645 -3.0000316228
18.6030924291 -16.4351714216 -3.0000314763
18.6063794540 -16.6060745465 -3.0000316449
18.1936330383 -14.7342251461 -3.0000297978
18.8131673605 -16.0309885580 -3.0000310774
18.7206988943 -15.4797128187 -3.0000305335
18.2778033087 -14.4850458853 -3.0000295520
16.4720011486 -11.2821604940 -3.0000263915
16.4013482659 -11.2895397483 -3.0000263988
16.2604085423 -11.3074289430 -3.0000264164
16.0835806791 -11.2867920213 -3.0000263961
16.5511997080 -11.2023926058 -3.0000263128
15.3188281923 -11.4374773844 -3.0000265448
18.5750500993 -16.0711501045 -3.0000311171
18.5940496680 -16.1121072322 -3.0000311575
18.6122026247 -15.8223443492 -3.0000308716
18.5123780024 -16.5233491890 -3.0000315633
18.5404459451 -16.4449000319 -3.0000314859
18.5820966354 -16.3008538854 -3.0000313437
18.5910062482 -16.2630036075 -3.0000313064
18.6121216626 -16.1539438106 -3.0000311988
18.6273117454 -16.0382995528 -3.0000310846
18.6278556249 -16.0327711785 -3.0000310792
18.6337506202 -15.9552295790 -3.0000310027
18.6352931074 -15.9219353365 -3.0000309698
18.5007747180 -16.6152716412 -3.0000316540
18.5074825694 -16.5997820372 -3.0000316387
18.5845082611 -16.4655762654 -3.0000315063
18.6759763541 -16.0374334251 -3.0000310838
18.6840511023 -15.7927142382 -3.0000308423
18.6791051002 -15.7016877115 -3.0000307525
18.6719185382 -15.6279666678 -3.0000306797
18.5999362569 -16.4951112555 -3.0000315354
18.6525106139 -16.3182000428 -3.0000313608
18.6666860020 -16.2563407539 -3.0000312998
18.6908223771 -15.5850967850 -3.0000306374
18.5198065211 -16.7447246583 -3.0000317817
18.7332521926 -15.8379537131 -3.0000308870
18.7253472269 -15.6746409085 -3.0000307258
18.5081599950 -16.8183546285 -3.0000318544
18.5138485509 -16.8079875846 -3.0000318441
18.5386839762 -16.7609269132 -3.0000317977
18.5963815932 -16.6378126575 -3.0000316762
18.6895974129 -15.3352280913 -3.0000303909
18.5519733382 -16.7878742975 -3.0000318243
18.5891967489 -16.7128269617 -3.0000317502
18.7686425146 -15.6226813250 -3.0000306745
18.2993007203 -14.5406434075 -3.0000296068
18.7066545412 -16.4810923499 -3.0000315216
18.7347283038 -15.3168882900 -3.0000303728
18.6937982428 -15.1837868944 -3.0000302415
18.5305026660 -14.8263082745 -3.0000298887
18.4256516028 -14.6634313575 -3.0000297280
18.7296565782 -16.4885248174 -3.0000315289
18.7146408201 -15.1701111557 -3.0000302280
18.4127323693 -14.6049279997 -3.0000296703
18.8719021318 -15.6866290704 -3.0000307376
18.8999112782 -15.9572261188 -3.0000310046
18.8908004983 -15.6279110151 -3.0000306797
18.8613502621 -15.4336077310 -3.0000304880
18.5849476273 -14.7288631910 -3.0000297926
18.7619981743 -14.9615491860 -3.0000300222
18.6395865906 -14.7257176780 -3.0000297895
18.9137763430 -16.4644544270 -3.0000315052
18.6117982453 -13.9892852022 -3.0000290628
16.2744844436 -11.4866019391 -3.0000265932
16.1198695672 -11.5065387049 -3.0000266129
16.0685005654 -11.5144023643 -3.0000266207
16.5191499235 -11.4421536752 -3.0000265494
16.0776055276 -11.4884957235 -3.0000265951
15.9745490453 -11.5058354715 -3.0000266122
15.9360129962 -11.5129659057 -3.0000266193
16.2430526627 -11.4415245026 -3.0000265488
16.0738770190 -11.4646119737 -3.0000265715
15.9789637860 -11.4559318372 -3.0000265630
17.0327656843 -11.3715022010 -3.0000264797
16.9797349597 -11.3685735028 -3.0000264768
16.8337632739 -11.3637570247 -3.0000264720
17.1407508822 -11.3551546737 -3.0000264635
16.6739821488 -11.3397531841 -3.0000264483
16.0099825865 -11.4015088924 -3.0000265093
17.0491118653 -11.3240854678 -3.0000264329
17.2924975524 -11.3219494539 -3.0000264308
16.0552344755 -11.3451932246 -3.0000264537
15.9620748185 -11.3607261268 -3.0000264690
17.3895001748 -11.3100291350 -3.0000264190
17.3087947959 -11.2995497441 -3.0000264087
16.4016968868 -11.2803606117 -3.0000263897
16.8361873275 -11.2187391150 -3.0000263289
16.0575950360 -11.2714478058 -3.0000263809
17.5763764630 -11.2662446186 -3.0000263758
17.3585087643 -11.2326950240 -3.0000263427
16.2149777112 -11.2014300934 -3.0000263118
17.8031419665 -11.2629241792 -3.0000263725
17.9309170283 -11.2689336804 -3.0000263785
15.9821479281 -11.0630990290 -3.0000261753
15.9679858384 -11.0654172962 -3.0000261776
18.3306706956 -14.6162437135 -3.0000296814
18.4485268761 -14.7934745797 -3.0000298563
18.6727727024 -16.0454940024 -3.0000310917
18.6848055586 -15.9846890365 -3.0000310317
18.5833967519 -16.4153941387 -3.0000314567
18.6664843159 -16.2577957123 -3.0000313012
18.7323655142 -15.9933718787 -3.0000310403
18.5170139066 -14.6032820912 -3.0000296686
18.4833121119 -14.5422086178 -3.0000296084
18.4409469086 -14.4714911617 -3.0000295386
18.7008523276 -16.2283464374 -3.0000312722
18.4301842995 -14.4101512555 -3.0000294781
18.5471515242 -16.6594291838 -3.0000316975
18.8134236467 -15.5113990095 -3.0000305647
18.8060222266 -15.9934900933 -3.0000310404
18.6352944630 -16.5943391145 -3.0000316333
18.6657652028 -16.5868913952 -3.0000316260
18.8277440423 -16.3090570961 -3.0000313518
18.7979852812 -14.4623783610 -3.0000295296
18.6957182543 -14.2863986765 -3.0000293560
19.0763406712 -15.0933723411 -3.0000301522
16.8665170072 -11.5137830677 -3.0000266201
16.8544034553 -11.5130819676 -3.0000266194
16.8301703947 -11.5117872847 -3.0000266181
16.8180510979 -11.5111937132 -3.0000266175
16.7695579431 -11.5091780111 -3.0000266155
16.7331742814 -11.5080428668 -3.0000266144
16.7210443324 -11.5077362437 -3.0000266141
16.6967819786 -11.5072306517 -3.0000266136
17.0261201813 -11.5020976933 -3.0000266085
16.9410104166 -11.4946405567 -3.0000266012
16.9044909916 -11.4919844402 -3.0000265986
16.8679494331 -11.4896525178 -3.0000265963
17.0406957441 -11.4792562581 -3.0000265860
16.9795791181 -11.4735367915 -3.0000265803
16.9673460157 -11.4725014094 -3.0000265793
17.1902601268 -11.4727165496 -3.0000265795
16.9816534041 -11.4494529252 -3.0000265566
17.2586381765 -11.4337561947 -3.0000265411
17.6556874157 -11.4390703416 -3.0000265463
17.6738951424 -11.4186948125 -3.0000265262
16.7262203378 -11.2902405729 -3.0000263995
17.7543825122 -11.4146588310 -3.0000265223
16.8577635188 -11.2227534773 -3.0000263329
17.9363410415 -11.3920000046 -3.0000264999
17.9113726836 -11.3843063347 -3.0000264923
16.7422266415 -11.1697415660 -3.0000262806
17.0106934089 -11.1122787959 -3.0000262239
17.8047342066 -11.2279447048 -3.0000263380
18.5454620092 -11.4720241512 -3.0000265789
18.5006761559 -14.6194238146 -3.0000296846
18.4936556607 -14.5351465428 -3.0000296014
18.7898223185 -15.5554902368 -3.0000306082
18.8336386615 -15.7676141459 -3.0000308175
17.3271557857 -11.5426473467 -3.0000266485
17.3998692352 -11.5337323745 -3.0000266397
17.3660102651 -11.5262069984 -3.0000266323
17.5182697803 -11.5375762548 -3.0000266435
17.5070017467 -11.5346841456 -3.0000266407
17.5808686237 -11.5292228549 -3.0000266353
17.5129766879 -11.5112611791 -3.0000266176
17.6665290237 -11.5285211521 -3.0000266346
17.6099546365 -11.5122024893 -3.0000266185
17.7413717532 -11.5261550525 -3.0000266323
17.7187557036 -11.5190844334 -3.0000266253
17.8776824995 -11.4950335917 -3.0000266016
17.4843030800 -11.3796716222 -3.0000264877
17.4663135530 -11.3505828105 -3.0000264590
17.9334017957 -11.3352594108 -3.0000264439
18.3620542124 -11.4847710665 -3.0000265914
18.5126076535 -14.5952879914 -3.0000296607
18.0795575331 -11.5761383048 -3.0000266816
18.3706857734 -11.5853993888 -3.0000266907
18.5317645757 -14.7702899989 -3.0000298334
18.5514511324 -14.9333847737 -3.0000299944
18.5560265455 -14.8123764391 -3.0000298750
18.5711248877 -14.9899753455 -3.0000300502
18.6465588286 -14.9588703092 -3.0000300195
18.6498245457 -14.9082434602 -3.0000299696
18.6757657378 -14.7235979550 -3.0000297874
18.8144899204 -15.4965122051 -3.0000305500
18.8581466531 -15.8596343360 -3.0000309083
17.6838392561 -18.4471108938 -3.0000334616
17.7238057998 -18.4594860260 -3.0000334738
17.8074906447 -18.4563297635 -3.0000334706
17.9218508350 -18.4655847983 -3.0000334798
17.9435391579 -18.4571617956 -3.0000334715
18.0484786199 -18.4667759361 -3.0000334810
18.3834144967 -14.9169584302 -3.0000299782
18.5017705473 -14.8070894578 -3.0000298697
18.5142451510 -14.7040011292 -3.0000297680
18.5289691791 -14.7874992734 -3.0000298504
18.5383119151 -14.7062652285 -3.0000297703
18.4760468717 -15.1305720431 -3.0000301889
18.5525387404 -15.0406595368 -3.0000301002
18.5043319021 -15.2682153360 -3.0000303248
18.5108840678 -15.2510414435 -3.0000303078
18.6145077330 -15.0893225165 -3.0000301482
