41.0643465777 -5.6718693248 -3.4989827810
40.4257836612 -7.6260972437 -3.4989847094
40.4439745513 -7.6101030619 -3.4989846936
40.4753486434 -7.5815993732 -3.4989846655
40.5191300248 -7.5397666034 -3.4989846242
40.5658368848 -7.4922774765 -3.4989845773
41.0863078615 -6.5027955099 -3.4989836010
41.0934823078 -6.4671776306 -3.4989835658
41.1245979450 -6.2331991647 -3.4989833349
41.1285726647 -5.9971942769 -3.4989831021
41.1181574516 -5.8583318459 -3.4989829650
41.1138888248 -5.8222502047 -3.4989829294
41.0842693943 -5.6492076293 -3.4989827587
40.4230416949 -7.6603093410 -3.4989847431
40.5917678770 -7.5000449018 -3.4989845850
40.6167195799 -7.4730471287 -3.4989845584
41.1248798356 -6.4295406537 -3.4989835287
41.1503840369 -6.2105482609 -3.4989833126
41.1540330570 -6.0390764355 -3.4989831434
41.1524662871 -5.9900855733 -3.4989830950
41.1458577375 -5.8922836357 -3.4989829985
41.1415125003 -5.8496151632 -3.4989829564
40.3713563496 -7.7334937209 -3.4989848154
40.4004860613 -7.7103710801 -3.4989847925
40.5922777399 -7.5345665813 -3.4989846191
40.6346168494 -7.4892959141 -3.4989845744
41.0995029096 -6.6511614407 -3.4989837474
41.1310238002 -6.5248855988 -3.4989836228
41.1328266780 -5.6450762946 -3.4989827546
40.4205527664 -7.7252212987 -3.4989848072
40.4495279086 -7.7012268141 -3.4989847835
40.6312696824 -7.5285995248 -3.4989846132
40.4110574041 -7.7637989270 -3.4989848453
40.7164534202 -7.4693920403 -3.4989845547
41.1161041342 -6.7612665320 -3.4989838560
41.1884363078 -6.4854287238 -3.4989835838
41.2269587366 -6.0883465201 -3.4989831920
41.2113713069 -5.8226250193 -3.4989829298
41.2010566087 -5.6174591763 -3.4989827273
40.5787316929 -7.6835173989 -3.4989847660
41.2511987236 -6.4050714722 -3.4989835045
41.2738924074 -6.1598313753 -3.4989832625
41.2978036039 -6.1672546243 -3.4989832699
41.2979007550 -5.9968359483 -3.4989831017
41.1644897198 -6.9101867371 -3.4989840030
41.2655044948 -6.5879574687 -3.4989836850
41.2833903078 -6.5036798171 -3.4989836018
41.3141328164 -6.2872251323 -3.4989833882
41.2963830884 -5.7322141654 -3.4989828406
41.3550382641 -6.3589967998 -3.4989834591
41.4038560650 -6.3580097827 -3.4989834581
41.2586212417 -7.1721843243 -3.4989842615
41.4309335388 -6.7224713906 -3.4989838177
37.2773438468 -11.1261142421 -3.4989881630
37.0666713277 -11.0978122282 -3.4989881351
36.6881739702 -11.0361657103 -3.4989880743
40.3360718710 -7.3820721019 -3.5006836778
40.0844929693 -7.7429983753 -3.5006840339
40.3769812304 -7.4502881384 -3.5006837451
40.4918964933 -7.5389661776 -3.5006838326
40.5225558677 -7.4946896409 -3.5006837889
40.4422332584 -7.6447783190 -3.5006839370
40.4830138488 -7.5921124725 -3.5006838851
40.5324015909 -7.5232121373 -3.5006838171
40.5560149338 -7.4880098084 -3.5006837823
40.4181289120 -7.7118041005 -3.5006840032
40.5592375158 -7.5267593034 -3.5006838206
40.6937030379 -7.4494431501 -3.5006837443
41.0714929022 -6.1221213751 -3.5006824345
41.0411743060 -5.9256818513 -3.5006822407
41.0301560429 -5.8738190709 -3.5006821895
41.0130084886 -5.8029630822 -3.5006821196
41.0079325515 -5.7837389125 -3.5006821006
41.1079587511 -6.2998996732 -3.5006826100
41.0995312744 -6.1594918232 -3.5006824714
41.0853806647 -6.0397537629 -3.5006823533
41.0259740347 -5.7580788386 -3.5006820753
40.9705699802 -5.5859452353 -3.5006819055
41.0773244531 -5.8632133079 -3.5006821791
41.0758293824 -5.8566097336 -3.5006821725
41.0712270555 -5.8368259511 -3.5006821530
41.0341219171 -5.6995917193 -3.5006820176
41.0219616600 -5.6608307402 -3.5006819794
40.9690283827 -5.5144088238 -3.5006818349
41.1536867868 -6.2369799313 -3.5006825479
41.1457210047 -6.1346647535 -3.5006824469
41.0341908334 -5.6209192492 -3.5006819400
41.1318265481 -5.8863889653 -3.5006822019
41.1958232173 -6.1507039758 -3.5006824627
41.1938260866 -6.1298437343 -3.5006824422
41.1839889122 -6.0466046233 -3.5006823600
41.1820623807 -6.0327676539 -3.5006823464
41.0613557104 -5.5526688819 -3.5006818726
41.1881548313 -6.8089431500 -3.5006831123
41.1944599181 -6.7742277000 -3.5006830780
41.2195932920 -6.5854117887 -3.5006828917
41.2279409047 -6.4586801085 -3.5006827666
41.2295816546 -6.3951925272 -3.5006827040
41.2194866651 -6.7713468382 -3.5006830752
41.2268210963 -6.0048011080 -3.5006823188
41.2111989891 -5.9134659817 -3.5006822286
41.0993000720 -5.5159851561 -3.5006818364
41.0890925712 -5.4893620817 -3.5006818102
41.1063377972 -5.4671759725 -3.5006817883
41.2333772171 -6.9432555773 -3.5006832448
41.2934005297 -6.7690836613 -3.5006830729
41.2915464277 -5.9504515062 -3.5006822651
41.2975137595 -5.7446579809 -3.5006820621
41.2643906276 -7.2561844778 -3.5006835536
41.3189431872 -5.4830854822 -3.5006818040
41.4469223659 -5.2780871317 -3.5006816017
38.0112103831 -11.0707639079 -3.5006873176
38.2880982229 -11.1357996583 -3.5006873818
38.3869942923 -11.1462929660 -3.5006873922
37.9045466474 -11.0999268999 -3.5006873464
38.0449960239 -11.1256502336 -3.5006873718
38.3704805815 -11.1689756347 -3.5006874145
38.4131290547 -11.1729911116 -3.5006874185
37.5923863256 -11.0521438952 -3.5006872993
37.7036426410 -11.0804552410 -3.5006873272
37.7175958768 -11.0838088000 -3.5006873305
37.5443975224 -11.0641475276 -3.5006873111
37.5861482350 -11.0754981562 -3.5006873223
40.2359258041 -7.6730485401 -3.4996566193
40.3600545122 -7.5518897260 -3.4996564997
40.4668128938 -7.6606061028 -3.4996566070
40.5312064521 -7.5303492429 -3.4996564785
40.5689301258 -7.4411145020 -3.4996563904
40.4733471375 -7.6989364050 -3.4996566448
40.5272335688 -7.5957605649 -3.4996565430
40.5404432644 -7.5681194654 -3.4996565157
40.5822708620 -7.4727374483 -3.4996564216
40.5093645819 -7.6835559388 -3.4996566296
40.5181193098 -7.6671498210 -3.4996566134
40.5516721008 -7.6007678887 -3.4996565479
40.5543614295 -7.5951830324 -3.4996565424
40.5803416024 -7.5389063576 -3.4996564869
40.6294195989 -7.4183638131 -3.4996563680
41.1837200074 -6.4437474923 -3.4996554062
41.1734339856 -6.3545136188 -3.4996553182
41.1612283350 -6.2730832458 -3.4996552378
41.2437057759 -6.6522800811 -3.4996556120
41.1367991588 -5.9531631011 -3.4996549222
41.1115552459 -5.8731370834 -3.4996548432
41.1320406499 -5.8581895864 -3.4996548284
41.0167283316 -5.5727703065 -3.4996545468
41.2553180835 -6.2495319844 -3.4996552146
41.0677123713 -5.6259883483 -3.4996545993
41.3147565096 -6.7845659568 -3.4996557426
41.1650699847 -5.8056893065 -3.4996547766
41.1023412524 -5.6449745555 -3.4996546181
41.0257326678 -5.4816910356 -3.4996544569
41.3382956078 -6.8012560799 -3.4996557590
41.3404503966 -6.7221399144 -3.4996556810
41.1458462346 -5.6866086685 -3.4996546591
41.1176075752 -5.5602527439 -3.4996545345
41.2424180103 -5.7352574203 -3.4996547071
41.1944134925 -5.6143832437 -3.4996545879
38.3178552911 -10.9942207233 -3.4996598964
38.3815711961 -10.9988854462 -3.4996599010
38.2135607619 -11.0088406351 -3.4996599109
38.4697876466 -11.0279803893 -3.4996599298
38.1725150164 -11.0286823122 -3.4996599304
38.1697888799 -11.0527011269 -3.4996599542
38.6234510234 -11.0805218938 -3.4996599816
38.9221177817 -11.0731913749 -3.4996599744
38.2580237000 -11.0860911899 -3.4996599871
38.7018013309 -11.1289134850 -3.4996600294
39.0054195419 -11.1402469799 -3.4996600405
39.0843699181 -11.1335055150 -3.4996600339
39.1106585852 -11.1309470950 -3.4996600314
39.2156480943 -11.1191595140 -3.4996600197
40.5365785137 -7.5208912510 -3.5001724069
40.5379927932 -7.5150030967 -3.5001724011
40.5148234025 -7.6856492536 -3.5001725695
40.6099776916 -7.5257344329 -3.5001724117
38.8511925235 -11.1788084256 -3.5001760164
39.5414692925 -11.0690308271 -3.5001759081
40.2770820067 -7.6999950215 -3.4999327346
40.2271870872 -7.9975322039 -3.4999330282
40.1623396724 -8.2181281184 -3.4999332458
40.3444409709 -7.2706326853 -3.4999323109
40.3732382652 -7.8370280090 -3.4999328698
40.4136090250 -7.0519224314 -3.4999320951
40.5057502609 -7.6346037300 -3.4999326700
40.5094807721 -7.5988938403 -3.4999326348
40.5105833563 -7.5869765242 -3.4999326230
40.5130311865 -7.5571565204 -3.4999325936
40.5290777048 -7.6433446204 -3.4999326787
40.5310988401 -7.6252905900 -3.4999326609
40.5407510942 -7.4985098459 -3.4999325358
40.4353131047 -8.1332999495 -3.4999331621
40.5581813348 -7.5973899290 -3.4999326333
40.5621191484 -7.5485324528 -3.4999325851
40.5667457948 -7.4383542112 -3.4999324764
40.5848785104 -7.5687355077 -3.4999326050
40.5862353343 -7.5501892145 -3.4999325867
40.5887608245 -7.5068730705 -3.4999325440
40.5902112739 -7.4697100134 -3.4999325073
40.6067338488 -7.7800028834 -3.4999328135
40.6394134316 -7.4267845827 -3.4999324650
41.3061057877 -6.6239404477 -3.4999316728
41.3235002648 -6.4355836084 -3.4999314869
39.3955503957 -10.9611192143 -3.4999359525
39.4060614459 -10.9584418681 -3.4999359499
39.4120628527 -10.9818580676 -3.4999359730
39.4753733016 -10.9650319073 -3.4999359564
39.5135366731 -10.9794462495 -3.4999359706
39.5346571713 -10.9733621079 -3.4999359646
39.5626385546 -10.9903212678 -3.4999359813
39.6968715108 -10.9731073399 -3.4999359643
39.7045866715 -10.9960161062 -3.4999359869
39.7469739901 -10.9814612212 -3.4999359726
39.7974412179 -10.9891255944 -3.4999359801
39.5219662182 -11.1778381370 -3.4999361663
39.8058625562 -11.1144971133 -3.4999361038
39.6022577641 -11.2054476268 -3.4999361936
39.8249460651 -11.1333735463 -3.4999361225
41.0495127849 -4.1967660982 -3.4999292777
41.8533015623 -4.5754592472 -3.4999296514
40.2885084438 -8.1014673483 -3.5000232529
40.3177379087 -7.7454343381 -3.5000229016
40.3258542784 -8.0203040655 -3.5000231729
40.3254048744 -7.5292935422 -3.5000226884
40.3190485566 -7.4864672992 -3.5000226461
40.2933419151 -8.2915701942 -3.5000234405
40.2948579185 -8.2863003641 -3.5000234353
40.3417001997 -8.0777562491 -3.5000232295
40.2711341343 -8.4353512297 -3.5000235824
40.3211227822 -8.2822583435 -3.5000234313
40.3417790901 -8.2015403368 -3.5000233517
40.3501886221 -8.1635758204 -3.5000233142
40.3557132465 -8.1363557318 -3.5000232874
40.3698635268 -8.0542469672 -3.5000232064
40.3876173966 -7.6720246086 -3.5000228292
40.3528698804 -7.4022935703 -3.5000225630
40.3171501729 -7.2566633028 -3.5000224193
40.2816450745 -8.4753392440 -3.5000236219
40.4138324201 -7.8337876231 -3.5000229888
40.4117530144 -7.6706802744 -3.5000228279
40.3888342876 -7.4638669876 -3.5000226238
40.4360814999 -7.8800596588 -3.5000230345
40.3893607023 -7.3425481089 -3.5000225041
40.3487578047 -7.1941968489 -3.5000223577
40.2610990266 -8.6407226287 -3.5000237851
40.2661817049 -8.6303631560 -3.5000237748
40.2687000380 -8.6251721884 -3.5000237697
40.2977152533 -8.5623143288 -3.5000237077
40.4175067797 -8.1954464237 -3.5000233457
40.4407228397 -8.0706794272 -3.5000232226
40.4592119026 -7.8986391687 -3.5000230528
40.3976123422 -7.2755119844 -3.5000224379
40.4218995895 -8.2801189713 -3.5000234292
40.4654918422 -8.0685504565 -3.5000232205
40.4852224152 -7.8651580776 -3.5000230198
40.3644941345 -7.0911988820 -3.5000222561
40.3277064054 -6.9989773459 -3.5000221651
40.3112189060 -6.9615620314 -3.5000221281
40.5046292454 -7.6122174987 -3.5000227702
40.2010450201 -8.8906784276 -3.5000240317
40.5254527440 -7.5744759350 -3.5000227329
40.5208390182 -7.5328427409 -3.5000226919
40.4676985963 -7.2568858061 -3.5000224196
40.3859907879 -7.0130690397 -3.5000221790
40.3271191229 -6.8821041088 -3.5000220497
40.2827722751 -6.7972577073 -3.5000219660
40.5574965357 -7.6807572692 -3.5000228378
40.5572044882 -7.6747086946 -3.5000228318
40.5562210076 -7.6565685246 -3.5000228139
40.5523052684 -7.6022103786 -3.5000227603
40.5501007004 -7.5780885583 -3.5000227365
40.5482600500 -7.5600152352 -3.5000227187
40.5455564926 -7.5359442337 -3.5000226949
40.5433420140 -7.5179128975 -3.5000226771
40.5401406265 -7.4939030358 -3.5000226534
40.4261258093 -7.0490219268 -3.5000222144
40.4083764900 -7.0039467799 -3.5000221700
40.3584596270 -8.7161872268 -3.5000238595
40.4107955272 -8.6054024329 -3.5000237502
40.5807023392 -7.6612699352 -3.5000228186
40.5795986718 -7.6429217642 -3.5000228005
40.5783322182 -7.6245841101 -3.5000227824
40.5753113639 -7.5879461288 -3.5000227462
40.5729364041 -7.5635530882 -3.5000227222
40.5557446889 -7.4360578744 -3.5000225964
40.5515738865 -7.4119069889 -3.5000225725
40.5435884378 -7.3697677881 -3.5000225309
40.3916324481 -6.9049481881 -3.5000220723
40.3039285531 -6.7365428294 -3.5000219061
40.5976094298 -7.5672350632 -3.5000227258
40.5969813876 -7.5610683240 -3.5000227197
40.5920747113 -7.5179569455 -3.5000226772
40.5896987737 -7.4995134945 -3.5000226590
40.5795890319 -7.4320851439 -3.5000225924
40.5764515219 -7.4137558779 -3.5000225743
40.5672909082 -7.3650214019 -3.5000225263
40.2782863001 -8.9491649255 -3.5000240894
40.5683938776 -8.2928264384 -3.5000234418
40.6311703295 -7.7086931555 -3.5000228654
40.6304855293 -7.6898952420 -3.5000228468
40.6183485870 -7.3741995852 -3.5000225353
40.5764846390 -8.4402285260 -3.5000235872
40.5524817098 -6.9098264289 -3.5000220771
39.8519104560 -10.9286954634 -3.5000260427
39.8612294843 -10.9247199289 -3.5000260388
39.8891154367 -10.9126281657 -3.5000260269
39.8988303828 -10.9347630953 -3.5000260487
39.9268039820 -10.9223372498 -3.5000260365
39.9361038739 -10.9181401944 -3.5000260323
39.9834140763 -10.9229762641 -3.5000260371
39.9927156108 -10.9186117431 -3.5000260328
40.0217096907 -10.9316073927 -3.5000260456
40.0403502024 -10.9226241334 -3.5000260367
40.0991008358 -10.9475647449 -3.5000260613
40.1458291975 -10.9237538187 -3.5000260378
40.1551323215 -10.9189088409 -3.5000260331
40.1922002750 -10.8992543664 -3.5000260137
40.2036503097 -10.9205436122 -3.5000260347
40.3776019697 -10.8205858432 -3.5000259360
39.9668494507 -11.0632853013 -3.5000261755
40.4353531820 -10.8130930521 -3.5000259287
40.0648208364 -11.0716910208 -3.5000261838
40.5129414691 -10.9356333633 -3.5000260496
40.5501822662 -10.9117439539 -3.5000260260
40.6139598742 -10.9276389016 -3.5000260417
40.9896520419 -10.9544242019 -3.5000260681
40.3846151595 -4.0996000325 -3.5000193041
41.1690976924 -10.9650158137 -3.5000260786
41.1785183997 -10.9571436421 -3.5000260708
40.4609257977 -4.1120591250 -3.5000193164
40.5265729652 -4.1201018834 -3.5000193243
40.5164424102 -4.0870086109 -3.5000192917
40.6829721116 -4.0979903433 -3.5000193025
40.8295045177 -4.1024511059 -3.5000193069
40.8859498928 -4.1098292544 -3.5000193142
40.9341110451 -4.0835046868 -3.5000192882
41.0020187647 -4.0997061168 -3.5000193042
41.8202566679 -4.4628022708 -3.5000196625
41.6495043968 -4.3007254360 -3.5000195025
41.8959252583 -4.5052252456 -3.5000197043
41.7474890154 -4.3583695798 -3.5000195594
42.0372040614 -4.6215977728 -3.5000198192
40.6587990125 -3.5610531301 -3.5000187727
41.8913380246 -4.4314074668 -3.5000196315
41.9774023276 -4.4854349927 -3.5000196848
40.9043069357 -3.6393944989 -3.5000188500
40.7434812639 -3.5505018213 -3.5000187623
40.7058904255 -3.5308709550 -3.5000187429
40.6807337207 -3.5179693779 -3.5000187302
40.9654362592 -3.6472001641 -3.5000188577
42.3997933784 -4.8740781070 -3.5000200683
41.1124052327 -3.6807362329 -3.5000188908
41.0637607504 -3.6502615765 -3.5000188607
40.3490482708 -7.8129112441 -3.5000229682
40.4032145927 -8.1270558029 -3.5000232782
40.3929314594 -7.9458454884 -3.5000230994
40.3892276010 -7.9140174526 -3.5000230680
40.3306975506 -7.6319432605 -3.5000227896
40.3683172842 -7.6773217426 -3.5000228344
40.3846004315 -7.6447470160 -3.5000228023
40.2693352608 -7.3370460488 -3.5000224987
40.4795763335 -8.5504347411 -3.5000236960
40.5155801385 -8.3197492592 -3.5000234683
40.3468531519 -7.3314671797 -3.5000224931
40.5052332676 -7.7310519576 -3.5000228874
40.5928397311 -8.2617305915 -3.5000234111
40.5333311059 -7.4717847699 -3.5000226316
40.5273372403 -7.4546352341 -3.5000226147
40.5253054934 -7.4489306262 -3.5000226091
40.5926534842 -7.5808824442 -3.5000227393
40.6271839079 -7.6162792362 -3.5000227742
40.6256298963 -7.6102785565 -3.5000227683
40.6208614508 -7.5923044671 -3.5000227505
40.6020170521 -7.5267783045 -3.5000226859
40.5399046618 -7.3515636241 -3.5000225130
40.0854444836 -6.6627930175 -3.5000218333
40.6971882678 -8.4313439973 -3.5000235785
40.6323177155 -7.5437506372 -3.5000227026
40.4173326747 -10.8093016827 -3.5000259249
40.5222570297 -10.8244503311 -3.5000259399
40.5539024889 -10.8014925141 -3.5000259172
40.5919397480 -10.8033835818 -3.5000259191
39.7804657590 -4.0345902723 -3.5000192399
39.7561643357 -4.0276656906 -3.5000192331
39.8359110099 -4.0257230094 -3.5000192312
39.8115561545 -4.0184705503 -3.5000192240
39.9966695021 -4.0264812250 -3.5000192319
39.9601216333 -4.0142299312 -3.5000192198
40.1675062974 -4.0109312183 -3.5000192166
40.6591158805 -3.9887180293 -3.5000191947
40.9113859633 -3.9573265129 -3.5000191637
40.4069249255 -7.8295363661 -3.5000229846
40.3877952995 -7.7224340721 -3.5000228789
40.4294909023 -7.7568845896 -3.5000229129
40.2390869595 -7.2573003170 -3.5000224200
40.5363805803 -7.4811723656 -3.5000226409
40.5304665239 -7.4706032689 -3.5000226304
40.6236138588 -7.4900783877 -3.5000226497
41.2446775490 -8.8820357493 -3.5000240232
41.2508926825 -8.9825606414 -3.5000241224
41.3016968029 -8.4644969642 -3.5000236112
41.2996970773 -8.3738362074 -3.5000235217
41.2035465519 -9.2603934768 -3.5000243965
41.2148868168 -9.2239745421 -3.5000243606
41.2612801878 -9.1495473193 -3.5000242871
41.2801170115 -9.0748865841 -3.5000242135
41.3482998740 -8.3796070657 -3.5000235274
41.3979027891 -9.3659135779 -3.5000245006
39.0972164819 -4.0248740683 -3.5000192304
39.4095756504 -3.9872387620 -3.5000191932
39.3830100304 -3.9833973713 -3.5000191894
39.3298129350 -3.9761864340 -3.5000191823
39.5196920154 -3.9803503029 -3.5000191864
39.4930837138 -3.9758575475 -3.5000191820
39.3863986849 -3.9594630382 -3.5000191658
39.4970377840 -3.9520101029 -3.5000191585
39.8864551709 -3.9592555841 -3.5000191656
40.1719913060 -4.0156797161 -3.5000192213
40.2718623223 -4.0232722457 -3.5000192288
39.9790878623 -3.9335301601 -3.5000191402
40.3325387987 -4.0188519904 -3.5000192244
40.4986152179 -4.0554584280 -3.5000192605
40.7097987933 -8.2598524002 -3.5000234092
40.5648454942 -7.8606910541 -3.5000230154
40.6516040927 -7.8176335581 -3.5000229729
40.5093872677 -7.4484662427 -3.5000226086
40.4854712600 -7.4211142669 -3.5000225816
40.4009482896 -7.2642541247 -3.5000224268
41.1687960069 -8.9140478408 -3.5000240548
41.1925221632 -8.9221012310 -3.5000240627
41.1946528917 -8.8823927405 -3.5000240235
41.0951012265 -9.5975163945 -3.5000247292
41.1226899716 -9.5210998865 -3.5000246538
41.1270236202 -9.5082706695 -3.5000246411
41.1455826859 -9.4502311891 -3.5000245838
41.1533338513 -9.4242814244 -3.5000245582
41.1251559587 -9.6533661776 -3.5000247843
41.2277192656 -9.5870501162 -3.5000247189
41.3103424170 -8.1635647662 -3.5000233142
41.0550001536 -10.0619953331 -3.5000251875
41.2762937732 -7.9697378854 -3.5000231230
38.4783341546 -4.0275543580 -3.5000192330
38.4502124236 -4.0304661843 -3.5000192359
38.5891298844 -3.9934700378 -3.5000191994
38.5749655531 -3.9945775490 -3.5000192005
38.9153396552 -3.9554060210 -3.5000191618
38.9007839842 -3.9313772739 -3.5000191381
38.8864346076 -3.9315631276 -3.5000191383
38.9726158835 -3.9069118634 -3.5000191140
38.7995778648 -3.9094090452 -3.5000191164
39.3057523618 -3.8951803509 -3.5000191024
39.2912941363 -3.8941683932 -3.5000191014
39.2479023843 -3.8913892005 -3.5000190986
39.1465716031 -3.8864026881 -3.5000190937
39.3655620594 -3.8755663126 -3.5000190830
39.2202568293 -3.8656120838 -3.5000190732
39.5071820943 -3.5004067023 -3.5000187128
40.5540240776 -7.8652837551 -3.5000230199
40.6403910683 -7.9314470900 -3.5000230852
40.5141410854 -7.7865688004 -3.5000229422
41.0191947353 -9.3647589658 -3.5000244995
41.0350456095 -9.2577008455 -3.5000243939
40.6009690129 -7.8455313168 -3.5000230004
40.4337977699 -7.6761804153 -3.5000228333
40.3337495832 -7.5933886819 -3.5000227516
40.9852933628 -9.6031057125 -3.5000247347
40.9885738855 -9.5926407515 -3.5000247244
41.0192571819 -9.4816683426 -3.5000246149
41.0410335380 -9.3797959449 -3.5000245143
41.0467169570 -9.3473896395 -3.5000244824
41.0577353262 -9.2714202043 -3.5000244074
41.0609067199 -9.2441867049 -3.5000243805
41.0705081013 -9.1129597548 -3.5000242510
41.0718101013 -9.0471734087 -3.5000241861
40.9656473260 -9.7308018194 -3.5000248607
41.0414234540 -9.4927792902 -3.5000246258
41.0527402067 -9.4440828607 -3.5000245778
41.0781043164 -9.3019318998 -3.5000244375
41.0830588268 -9.2633640691 -3.5000243995
41.0872136965 -9.2247019198 -3.5000243613
41.0909806977 -9.1804223810 -3.5000243176
41.0913778622 -9.1748815338 -3.5000243121
41.0955478858 -9.0027853588 -3.5000241423
41.0949359717 -8.9805736545 -3.5000241204
40.9539760259 -8.3270218115 -3.5000234755
40.9962570766 -9.7186581645 -3.5000248487
41.1154915587 -9.1765741427 -3.5000243138
41.1175564327 -9.1428783527 -3.5000242806
41.1201560567 -9.0472720174 -3.5000241862
41.1192753746 -8.9853887049 -3.5000241252
41.1134937747 -8.8842875239 -3.5000240254
41.1066529409 -8.8171196458 -3.5000239591
40.9153708449 -8.1848507654 -3.5000233352
41.0401506460 -9.6682926063 -3.5000247990
41.0491938595 -9.6412757797 -3.5000247724
41.1123484464 -9.3929565448 -3.5000245273
41.1143834323 -9.3817435612 -3.5000245163
41.1310720440 -9.2690272927 -3.5000244050
41.1336079412 -9.2463766116 -3.5000243827
41.1353338819 -9.2293697764 -3.5000243659
41.1442880488 -9.0302271814 -3.5000241694
41.1420913551 -8.9504899889 -3.5000240907
41.1418081144 -8.9447989531 -3.5000240851
41.1292651146 -8.8029327780 -3.5000239451
41.1285454290 -8.7972803302 -3.5000239395
41.1270559110 -8.7859819451 -3.5000239284
40.8316816107 -7.9913883300 -3.5000231443
40.7734047570 -7.9070023156 -3.5000230611
41.1317977000 -9.4200132488 -3.5000245540
41.1673400965 -9.1108226805 -3.5000242489
41.1252709870 -8.6350047960 -3.5000237794
41.0742184192 -9.7170254142 -3.5000248471
41.1281075124 -9.5442226167 -3.5000246766
41.1836665654 -8.8549509123 -3.5000239964
41.1681763224 -8.7332897337 -3.5000238764
41.1570550272 -8.6700103318 -3.5000238140
41.1669601827 -9.4871848496 -3.5000246203
41.1978184716 -9.3185723056 -3.5000244539
41.2168512818 -9.0415566312 -3.5000241806
41.2139207664 -8.9351826411 -3.5000240756
41.1785214874 -8.6538341012 -3.5000237980
41.1674564957 -8.6017853634 -3.5000237466
41.1578947443 -8.5615175262 -3.5000237069
41.1519512768 -9.6370600158 -3.5000247682
41.2356322012 -9.1910059864 -3.5000243281
41.2393666716 -9.1252896491 -3.5000242632
41.2306145297 -8.8384268516 -3.5000239801
41.2186631384 -8.7434388577 -3.5000238864
41.1611525231 -8.4805700383 -3.5000236270
41.1275138932 -9.7814594982 -3.5000249107
41.1464849540 -9.7303689912 -3.5000248603
41.1525055484 -9.7132288208 -3.5000248434
41.2140994317 -9.4979194821 -3.5000246309
41.2503868414 -9.2891982271 -3.5000244249
41.2569748142 -8.8600893692 -3.5000240015
41.2076998383 -8.5616242981 -3.5000237070
41.1957425152 -8.5146793342 -3.5000236607
41.2844487291 -8.9006791559 -3.5000240416
41.2840175161 -8.8945672192 -3.5000240355
41.2049446782 -8.3775626261 -3.5000235254
41.1928144629 -8.3424050594 -3.5000234907
41.1712170306 -8.2843052796 -3.5000234334
40.4361491577 -7.3383412233 -3.5000224999
40.0878675748 -7.1370003665 -3.5000223013
41.2790949251 -9.5384424482 -3.5000246709
40.1263263618 -7.1282311563 -3.5000222926
41.3617874951 -9.0223987736 -3.5000241617
41.3050780305 -9.6304050729 -3.5000247616
41.3679825414 -9.3228010914 -3.5000244581
41.3846259406 -8.9644606751 -3.5000241045
40.4783030204 -7.2793321612 -3.5000224417
41.4194410187 -8.7862461957 -3.5000239287
41.3165701834 -8.1918768274 -3.5000233422
38.4297869034 -3.8895965073 -3.5000190969
38.2928695436 -3.9124089103 -3.5000191194
38.3343620072 -3.8805733767 -3.5000190880
38.2536680556 -3.8704457555 -3.5000190780
38.0706838089 -3.9079339851 -3.5000191150
37.7473523742 -3.9658567598 -3.5000191721
37.7023500095 -3.9791089827 -3.5000191852
37.6276130990 -4.0020818220 -3.5000192079
37.6360572828 -3.9234733994 -3.5000191303
40.9566212208 -9.4203734229 -3.5000245544
40.9593664243 -9.3949138373 -3.5000245293
40.9773808037 -9.4490106057 -3.5000245826
40.9892238168 -9.3150580970 -3.5000244505
40.9897170062 -9.3020492123 -3.5000244376
40.9898557453 -9.2977120080 -3.5000244333
40.9905348523 -9.2499852779 -3.5000243863
41.0041225179 -9.4303630862 -3.5000245642
41.0074779640 -9.3996699777 -3.5000245340
41.0147103124 -9.2543468491 -3.5000243906
41.0346389192 -9.3663240575 -3.5000245010
41.0355852769 -9.3529101204 -3.5000244878
41.0385872228 -9.2229938699 -3.5000243596
41.0536902826 -9.4225425289 -3.5000245565
41.0626971034 -9.2862661979 -3.5000244221
41.0457819727 -9.0230038569 -3.5000241623
41.0349551040 -8.9601792216 -3.5000241003
41.0648135875 -9.5167963844 -3.5000246495
41.0620983625 -8.9737659961 -3.5000241137
41.0417965337 -8.8787926644 -3.5000240200
41.1045975309 -9.3998312158 -3.5000245341
41.1113084437 -9.2356479273 -3.5000243721
41.1044312299 -9.1043504646 -3.5000242425
41.0899055112 -8.9925869485 -3.5000241323
41.0717681699 -8.9004291597 -3.5000240413
41.1108296496 -9.5343488314 -3.5000246668
41.1227393289 -9.0499538639 -3.5000241889
41.0766432933 -8.8210993282 -3.5000239630
41.0514565219 -8.7390559874 -3.5000238821
41.1546520548 -9.1239343942 -3.5000242619
41.0973115021 -8.8053044721 -3.5000239475
41.1368184112 -8.7681631886 -3.5000239108
41.1916587833 -8.5624003260 -3.5000237078
40.8297499648 -7.9376170906 -3.5000230913
40.7112073741 -7.7058486332 -3.5000228626
40.2229477015 -7.1244627062 -3.5000222889
39.2192791765 -6.9113517457 -3.5000220786
37.4274367429 -3.8775085898 -3.5000190849
37.4115442962 -3.8837329895 -3.5000190911
37.1144081100 -3.9306247018 -3.5000191374
40.9423031183 -9.3830857570 -3.5000245176
40.9407607208 -9.3415781730 -3.5000244766
40.9666043417 -9.3924522191 -3.5000245268
40.9665699800 -9.3891856011 -3.5000245236
40.9577041864 -9.2621600697 -3.5000243983
40.9572844359 -9.2589203501 -3.5000243951
40.9906962797 -9.3855575823 -3.5000245200
40.9899809511 -9.3588613218 -3.5000244937
40.9825098952 -9.2657145464 -3.5000244018
40.9645718414 -9.1604459754 -3.5000242979
40.9623809221 -9.1506736712 -3.5000242883
40.9616313542 -9.1474206047 -3.5000242850
40.9577393506 -9.1311893148 -3.5000242690
41.0094890231 -9.2899001024 -3.5000244256
40.9795449843 -9.1187642771 -3.5000242568
40.9687734584 -9.0792919500 -3.5000242178
41.0356744627 -9.3118158617 -3.5000244473
40.9817247079 -9.0392472034 -3.5000241783
40.9871520725 -8.9814774039 -3.5000241213
41.0793466711 -9.2611979236 -3.5000243973
41.0789235422 -9.2575983677 -3.5000243938
40.9910281323 -8.9258646356 -3.5000240664
41.0636394288 -9.0592864330 -3.5000241981
41.0484020628 -9.0098428917 -3.5000241493
40.9999527394 -8.8859946059 -3.5000240271
41.3952751683 -9.0943011015 -3.5000242326
41.4141760291 -9.0665482057 -3.5000242052
40.5497573265 -7.7592660078 -3.5000229153
41.0011996241 -7.7599139861 -3.5000229159
39.7997220852 -7.0661231411 -3.5000222313
35.7393310562 -3.9228065611 -3.5000191296
40.9465693563 -9.3253096839 -3.5000244606
40.9435803244 -9.3124886168 -3.5000244479
40.9414614200 -9.3039715842 -3.5000244395
40.9403642128 -9.2997226190 -3.5000244353
40.9369220344 -9.2870157122 -3.5000244228
40.9701588623 -9.3200304331 -3.5000244554
40.9625925898 -9.2892288251 -3.5000244250
40.9530782949 -9.2566054225 -3.5000243928
40.9495863561 -9.2458287300 -3.5000243821
40.9429006981 -9.2265653816 -3.5000243631
40.9754214439 -9.2470967787 -3.5000243834
40.9590573309 -9.2008324391 -3.5000243377
40.9564861030 -9.1943093519 -3.5000243313
40.9538570876 -9.1878093398 -3.5000243249
40.9493475430 -9.1770286537 -3.5000243143
40.9991791315 -9.2420433489 -3.5000243784
40.9858690206 -9.2033236036 -3.5000243402
40.9762260874 -9.1786462001 -3.5000243159
40.9607788664 -9.1433421418 -3.5000242810
40.9534987260 -9.1281342676 -3.5000242660
40.9604179371 -9.0888156354 -3.5000242272
40.9544435197 -9.0779487401 -3.5000242165
40.9742904208 -9.0639214602 -3.5000242027
40.9759581927 -8.9331265220 -3.5000240736
40.9531550326 -8.8654213041 -3.5000240068
41.3656125235 -9.2065589562 -3.5000243434
41.3639315671 -9.1998022755 -3.5000243367
41.3630761057 -9.1964276942 -3.5000243334
41.3829052506 -9.1767037230 -3.5000243139
41.3791489208 -9.1629978996 -3.5000243004
41.3711510777 -9.1357243837 -3.5000242735
41.3701060307 -9.1323287261 -3.5000242702
41.4175627108 -9.2161889920 -3.5000243529
41.3831446326 -9.0941543943 -3.5000242325
41.3710086855 -9.0600046060 -3.5000241988
41.4394795464 -9.2036364015 -3.5000243405
41.4129682419 -9.1074621253 -3.5000242456
41.4024349753 -9.0759123451 -3.5000242145
41.3830254001 -9.0239882878 -3.5000241632
41.3774620620 -9.0102917336 -3.5000241497
41.3890725757 -8.9183277352 -3.5000240590
41.3856859360 -8.9114373016 -3.5000240522
41.3839773436 -8.9079996286 -3.5000240488
41.4325240329 -8.8971307544 -3.5000240381
41.4307729142 -8.8935545885 -3.5000240345
41.3915818686 -8.8197031092 -3.5000239617
41.4023908654 -8.7901904555 -3.5000239325
41.3882929462 -8.7218891991 -3.5000238651
41.3898840882 -8.6391802061 -3.5000237835
40.9520296296 -7.8358128302 -3.5000229908
40.8128944435 -7.7811376594 -3.5000229369
40.7774404519 -7.7692838937 -3.5000229252
40.7621721855 -7.7644289268 -3.5000229204
40.7417486193 -7.7581667731 -3.5000229142
40.7315094070 -7.7551264302 -3.5000229112
40.5864546977 -7.7189725145 -3.5000228755
40.5812220758 -7.7179043296 -3.5000228745
40.8868292109 -7.7825642782 -3.5000229383
40.7538792165 -7.7365777218 -3.5000228929
40.6494311523 -7.7082352939 -3.5000228649
40.5860219938 -7.6942126419 -3.5000228511
40.5274928710 -7.6833428729 -3.5000228404
40.7556472634 -7.7118616026 -3.5000228685
40.2039524046 -7.6337050104 -3.5000227914
40.7519460729 -7.6855465464 -3.5000228425
40.5901757551 -7.6457342791 -3.5000228032
40.5792740071 -7.6435926598 -3.5000228011
40.8921333734 -7.7069461695 -3.5000228637
40.7317080057 -7.6546250124 -3.5000228120
40.0349711165 -7.5945550592 -3.5000227527
40.4759895404 -7.5778107932 -3.5000227362
40.4590339284 -7.5756385739 -3.5000227341
40.3967143069 -7.5689630429 -3.5000227275
40.1519501262 -7.5623920566 -3.5000227210
40.3183253631 -7.5392611092 -3.5000226982
40.5264935989 -7.5117870552 -3.5000226711
39.7058523640 -7.5565648525 -3.5000227153
40.1603577808 -7.4653607865 -3.5000226253
39.7809540536 -7.5132301402 -3.5000226725
40.0793188168 -7.4210242705 -3.5000225815
40.1006763183 -7.2501691108 -3.5000224129
40.4592709364 -7.1135581774 -3.5000222781
40.6171004982 -7.1101185066 -3.5000222747
41.3420548026 -9.1860287522 -3.5000243231
41.3362860361 -9.1727780163 -3.5000243101
41.3542691076 -9.1538960518 -3.5000242914
41.3468481014 -9.1382008864 -3.5000242759
41.3413491977 -9.1270858006 -3.5000242650
41.3356864990 -9.1160532615 -3.5000242541
41.3523286653 -9.0958385873 -3.5000242341
41.3487896335 -9.0411795493 -3.5000241802
41.3432555157 -9.0322647734 -3.5000241714
41.3490342753 -8.9967995934 -3.5000241364
41.3473959418 -8.8368363827 -3.5000239786
41.3443379649 -8.7287392032 -3.5000238719
40.8332845320 -7.7151799062 -3.5000228718
40.2813161505 -7.7015773386 -3.5000228584
40.0445854882 -7.6830432842 -3.5000228401
40.0085954701 -7.6435279449 -3.5000228011
40.1770498863 -7.5493663242 -3.5000227082
40.8234406029 -7.4703917459 -3.5000226302
39.7983540777 -7.4872156561 -3.5000226468
40.6296687041 -7.0950274873 -3.5000222598
34.0076737580 -6.1517612630 -3.5000213291
41.3353431023 -8.6797978841 -3.5000238236
41.3385032516 -8.6346849176 -3.5000237791
41.3259630868 -8.6131784704 -3.5000237579
41.3266365311 -8.4459355236 -3.5000235929
40.1379044029 -7.3314515495 -3.5000224931
40.0958092107 -7.3163340283 -3.5000224782
40.2407289354 -7.2630771508 -3.5000224257
39.6926553098 -7.3575835101 -3.5000225189
40.1237705764 -7.1861462920 -3.5000223497
40.5061930210 -6.9995795734 -3.5000221657
40.3681805044 -6.9810978183 -3.5000221474
39.8786944096 -6.9748083265 -3.5000221412
34.0122119163 -6.2081836031 -3.5000213847
33.9858139328 -6.0329544708 -3.5000212118
33.9730392193 -6.0033090645 -3.5000211826
33.9735294625 -5.8360187970 -3.5000210175
40.9497327345 -8.8121588445 -3.5000239542
40.9484518968 -8.8076633736 -3.5000239498
40.9471444848 -8.8031755592 -3.5000239454
40.9423599394 -8.7875307697 -3.5000239299
40.9639316291 -8.7756347282 -3.5000239182
40.9593589659 -8.7619251906 -3.5000239047
40.9545437036 -8.7482989688 -3.5000238912
40.9494873591 -8.7347603555 -3.5000238779
40.9789435052 -8.7447099281 -3.5000238877
40.9498294465 -8.6735779443 -3.5000238175
40.9477287160 -8.6690843265 -3.5000238130
40.9525215952 -8.6245297774 -3.5000237691
40.9477130360 -8.6155266281 -3.5000237602
40.9687959199 -8.5550879727 -3.5000237006
40.9603081871 -8.5413268414 -3.5000236870
40.9594739682 -8.4961110215 -3.5000236424
40.9765798456 -8.3975522452 -3.5000235451
41.3645309277 -8.6802398494 -3.5000238241
41.3877190634 -8.6734100877 -3.5000238173
41.3609478173 -8.5927485382 -3.5000237377
41.4031949125 -8.6413622353 -3.5000237857
41.3680802486 -8.4837864148 -3.5000236302
41.3803091284 -8.3992922598 -3.5000235468
41.3709036672 -8.3817447572 -3.5000235295
41.4200494778 -8.4241706655 -3.5000235714
41.4073159413 -8.3988152463 -3.5000235464
41.3882205887 -8.3630626846 -3.5000235111
40.4942544637 -7.2715374569 -3.5000224340
40.7441580238 -7.2830657986 -3.5000224454
40.1252540500 -7.1980043102 -3.5000223615
40.0384632479 -7.1303523302 -3.5000222947
40.8969194063 -7.2348943218 -3.5000223979
39.8704009648 -7.0777613718 -3.5000222428
40.6699289447 -7.0117001100 -3.5000221776
40.6340959626 -7.0034864244 -3.5000221695
40.5318458120 -6.9836827939 -3.5000221500
39.8264383803 -6.9626311138 -3.5000221292
34.0549732489 -4.8205341407 -3.5000200155
34.0425583744 -4.8386988686 -3.5000200334
34.0402524693 -4.7567409758 -3.5000199525
40.9317068031 -8.7512546194 -3.5000238941
40.9577393652 -8.7711471317 -3.5000239138
40.9557617354 -8.7488680913 -3.5000238918
40.9517232563 -8.7139542231 -3.5000238573
40.9512998286 -8.7107871124 -3.5000238542
40.9773235839 -8.7237506824 -3.5000238670
40.9734275645 -8.6946096376 -3.5000238382
40.9714472533 -8.6816934431 -3.5000238255
40.9664337308 -8.6527237339 -3.5000237969
40.9578346836 -8.6111376903 -3.5000237559
40.9548677852 -8.5984118415 -3.5000237433
40.9525439072 -8.5888909804 -3.5000237339
40.9942486232 -8.6712984912 -3.5000238152
40.9914023065 -8.6548515783 -3.5000237990
40.9791489846 -8.5960318810 -3.5000237410
40.9683609087 -8.5539988904 -3.5000236995
40.9656423594 -8.5443600343 -3.5000236900
41.0180974263 -8.6673526235 -3.5000238113
40.9820602804 -8.5148213288 -3.5000236608
40.9681477556 -8.4727364514 -3.5000236193
41.0493246644 -8.7150984022 -3.5000238584
41.0407893722 -8.6565408961 -3.5000238007
40.9862472229 -8.4516018065 -3.5000235984
40.9850475582 -8.4483337156 -3.5000235952
40.9763799585 -8.4255584442 -3.5000235727
41.0282463948 -8.5005320335 -3.5000236467
41.0125655858 -8.4533325343 -3.5000236002
40.9783179896 -8.3675666340 -3.5000235155
41.0671617889 -8.5491709285 -3.5000236947
41.0341243285 -8.4418245994 -3.5000235888
41.0278796424 -8.4248130101 -3.5000235720
41.0194712609 -8.3411796640 -3.5000234895
41.4076922733 -8.1439393635 -3.5000232949
40.6196280505 -7.2347588205 -3.5000223977
40.5126601146 -7.1901464319 -3.5000223537
40.5162380888 -7.1656582135 -3.5000223295
39.9562558475 -6.9791587439 -3.5000221455
40.4973153883 -7.0561320926 -3.5000222215
41.0046370355 -7.2910710752 -3.5000224533
40.0434944996 -6.9361754448 -3.5000221031
39.9245663076 -6.9056157191 -3.5000220729
40.7737516093 -7.0134163980 -3.5000221793
40.9488241090 -8.8215324934 -3.5000239635
40.9507738372 -8.7639872441 -3.5000239067
40.9662708777 -8.9007963326 -3.5000240417
40.9683749240 -8.8813581807 -3.5000240225
40.9691360024 -8.8735745635 -3.5000240148
40.9701912424 -8.8618910355 -3.5000240033
40.9739101717 -8.8033582528 -3.5000239455
40.9744629457 -8.7877266166 -3.5000239301
40.9748307203 -8.7720895340 -3.5000239147
40.9745616483 -8.7134393449 -3.5000238568
40.9983532342 -8.7008524198 -3.5000238444
41.0207511596 -8.8336880867 -3.5000239755
41.0233748529 -8.7445678304 -3.5000238875
41.0221980049 -8.6918901367 -3.5000238355
41.0045890362 -8.5226709144 -3.5000236686
41.0409360982 -8.8845241600 -3.5000240256
41.0470659091 -8.7857373615 -3.5000239282
41.0470547411 -8.7114979437 -3.5000238549
41.0440268433 -8.6497036668 -3.5000237939
41.0387302287 -8.5922026310 -3.5000237372
41.0225994259 -8.4862020185 -3.5000236326
41.0218165408 -8.4821520958 -3.5000236286
41.0015761367 -8.3937067412 -3.5000235413
41.0715002843 -8.7234368514 -3.5000238667
41.0657473429 -8.6187084557 -3.5000237633
41.0580090236 -8.5520196610 -3.5000236975
41.0249520945 -8.3875504534 -3.5000235352
41.0847524601 -8.5698203244 -3.5000237151
41.0415870265 -8.3566902143 -3.5000235048
41.0344086123 -8.3321097950 -3.5000234805
41.0267950711 -8.3076606513 -3.5000234564
41.1126822967 -8.8958995818 -3.5000240369
41.1191415830 -8.6965446527 -3.5000238401
41.1107903861 -8.5840570028 -3.5000237291
41.0877911205 -8.4427726056 -3.5000235897
41.0484772193 -8.2961393658 -3.5000234450
41.1611831293 -8.6009147612 -3.5000237458
41.1445741694 -8.4810664118 -3.5000236275
41.1012220767 -8.3025885989 -3.5000234514
41.0972049352 -8.2897553657 -3.5000234387
41.1851902093 -8.4361826703 -3.5000235832
41.1527680926 -8.3060640755 -3.5000234548
41.1487797642 -8.2927732634 -3.5000234417
41.0844836987 -8.1194012224 -3.5000232706
41.2040092948 -8.4083742582 -3.5000235558
41.1177266180 -8.1355673977 -3.5000232866
41.2234201448 -8.3845854424 -3.5000235323
41.2223190208 -8.2855290827 -3.5000234346
41.0768468090 -7.7610141438 -3.5000229170
41.2162051189 -7.8947578510 -3.5000230490
40.6724109713 -7.2881150530 -3.5000224504
40.6199270430 -7.2528610291 -3.5000224156
40.6375286647 -7.2354639704 -3.5000223984
40.7352868374 -7.2736609206 -3.5000224361
40.6867204778 -7.2392353660 -3.5000224021
40.5797557434 -7.1433456761 -3.5000223075
40.0928116002 -6.9480317236 -3.5000221148
40.8514698599 -7.3030046172 -3.5000224651
40.6205572112 -7.1393255597 -3.5000223035
40.7043594365 -7.1636764284 -3.5000223276
40.5745351779 -7.0848581681 -3.5000222498
37.5154582476 -3.8085407165 -3.5000190169
37.3745159712 -3.8452762762 -3.5000190531
36.9452725347 -3.9294852963 -3.5000191362
36.7789944422 -3.9702566895 -3.5000191765
36.7099498731 -3.9840336942 -3.5000191901
36.6267923741 -4.0077102315 -3.5000192134
40.9469075462 -9.0492577379 -3.5000241882
40.9566615490 -9.0178597493 -3.5000241572
40.9606424131 -9.0043429152 -3.5000241439
40.9632296131 -8.9953122957 -3.5000241350
40.9910307014 -8.8812542145 -3.5000240224
40.9919667284 -8.8766514626 -3.5000240179
40.9981371172 -8.8443574917 -3.5000239860
40.9997771335 -8.8351078409 -3.5000239769
41.0064788578 -8.7933710248 -3.5000239357
41.0181655940 -8.6907191279 -3.5000238344
41.0201913732 -8.6626106076 -3.5000238067
41.0217179583 -8.6344705607 -3.5000237789
41.0227448684 -8.6063078522 -3.5000237511
41.0233476782 -8.5640407071 -3.5000237094
41.0232543547 -8.5452531854 -3.5000236909
40.9851808572 -9.0064870667 -3.5000241460
40.9928161379 -8.9789142284 -3.5000241188
41.0336867604 -8.7732715448 -3.5000239159
41.0392206685 -8.7259107536 -3.5000238691
41.0430015311 -8.6831626282 -3.5000238269
41.0440087461 -8.6688927551 -3.5000238129
41.0466175817 -8.6165067746 -3.5000237612
41.0471434321 -8.5974402397 -3.5000237423
41.0472396404 -8.5926727380 -3.5000237376
41.0435683938 -8.4497125872 -3.5000235966
41.0482292973 -8.8386380198 -3.5000239804
41.0528756322 -8.8099726246 -3.5000239521
41.0588894264 -8.7668312063 -3.5000239095
41.0716155031 -8.5786062811 -3.5000237238
41.0716819600 -8.5689265586 -3.5000237142
41.0708780976 -8.5108553833 -3.5000236569
41.0701521332 -8.4915091829 -3.5000236378
41.0653926669 -8.4190715940 -3.5000235663
41.0604363410 -8.3709279866 -3.5000235188
41.0503697480 -8.9485521366 -3.5000240888
41.0952363875 -8.6083071506 -3.5000237531
41.0958283485 -8.5739324269 -3.5000237192
41.0958153333 -8.5493752010 -3.5000236949
41.0938469301 -8.4806474281 -3.5000236271
41.0906994167 -8.4316352736 -3.5000235787
41.0655696043 -8.2467973310 -3.5000233964
41.0837253786 -8.9104206501 -3.5000240512
41.0924022189 -8.8664223978 -3.5000240078
41.1160336632 -8.6786492984 -3.5000238225
41.1193500557 -8.5143090784 -3.5000236603
41.0812583079 -8.2031572149 -3.5000233533
41.1030847997 -8.9351699745 -3.5000240756
41.1197083240 -8.8508759234 -3.5000239924
41.1435131755 -8.5136170326 -3.5000236596
41.1293112812 -8.3373595171 -3.5000234857
41.1194017394 -8.2724065477 -3.5000234216
41.1121983196 -9.0002226667 -3.5000241398
41.1288821956 -8.9304300087 -3.5000240709
41.1604723133 -8.7279585533 -3.5000238711
41.1683029495 -8.5795561358 -3.5000237247
41.1682839326 -8.5436746732 -3.5000236893
41.1545944714 -8.3443404341 -3.5000234926
41.1204735822 -8.1578685603 -3.5000233086
41.1036696985 -8.0933880811 -3.5000232450
41.1202490094 -9.0614026500 -3.5000242002
41.1800760995 -8.7716056940 -3.5000239142
41.1811543326 -8.2083075878 -3.5000233584
41.1238014692 -7.9947166586 -3.5000231476
41.1221143768 -7.9897250257 -3.5000231427
41.2326601843 -8.7348816181 -3.5000238780
40.7811917785 -7.3589781515 -3.5000225203
40.4036386998 -7.0386922266 -3.5000222042
41.2548978445 -8.3697946938 -3.5000235177
41.2093122314 -8.1142689080 -3.5000232656
41.1534847087 -7.9333495100 -3.5000230871
40.9874266116 -7.5935923531 -3.5000227518
40.6817878616 -7.2231114002 -3.5000223862
41.2234785759 -9.0519413495 -3.5000241908
41.2716070279 -8.3073785724 -3.5000234561
41.2500120308 -8.1831439881 -3.5000233335
41.2327484288 -8.1083460765 -3.5000232597
41.1376226128 -7.8282618976 -3.5000229834
40.6739686928 -7.1832171672 -3.5000223469
40.5859492268 -7.1089951097 -3.5000222736
41.2729404943 -8.9503593286 -3.5000240906
41.2822533319 -8.2217999048 -3.5000233717
41.2506129305 -8.0809130043 -3.5000232327
41.1576103440 -7.8135892229 -3.5000229689
40.3712242100 -6.9343739175 -3.5000221013
40.3978663229 -6.9218905242 -3.5000220890
40.0673772674 -6.5392978181 -3.5000217115
38.5176280845 -3.8236461204 -3.5000190318
38.1287055784 -3.9158376305 -3.5000191228
38.3585710584 -3.8324493424 -3.5000190405
37.9011615725 -3.9095102174 -3.5000191165
37.7890576380 -3.8966881132 -3.5000191039
37.5837097127 -3.9743167575 -3.5000191805
40.5629861026 -7.4043855762 -3.5000225651
40.5459679494 -7.3813868504 -3.5000225424
40.5343968972 -7.3662237365 -3.5000225274
40.5314761629 -7.3624544342 -3.5000225237
40.5285442912 -7.3586937884 -3.5000225200
40.5739597101 -7.3784697928 -3.5000225395
40.5963069896 -7.3680435812 -3.5000225292
40.5666282993 -7.3289120917 -3.5000224906
40.6068713611 -7.3417188121 -3.5000225033
40.5762159380 -7.2636730090 -3.5000224262
40.6331367456 -7.2571086246 -3.5000224198
40.7390736845 -7.3611278012 -3.5000225224
40.6810909803 -7.2795330565 -3.5000224419
40.6354816071 -7.2215632674 -3.5000223847
40.5945056199 -7.1734137358 -3.5000223372
40.8422423369 -7.4846165793 -3.5000226443
40.7994454319 -7.4106670482 -3.5000225713
40.7650775864 -7.3565791801 -3.5000225179
40.5583261402 -7.0985423493 -3.5000222633
41.0669463612 -8.6301246732 -3.5000237746
41.0693462124 -8.6140669204 -3.5000237588
41.0140135724 -8.9476574789 -3.5000240879
41.0697888742 -8.7469995054 -3.5000238899
41.0855419896 -8.6662756321 -3.5000238103
41.0983807939 -8.5794914523 -3.5000237246
41.1096124642 -8.4538951728 -3.5000236007
41.1118260131 -8.3991062993 -3.5000235466
41.0073857010 -7.7365240332 -3.5000228928
40.9742524660 -7.6494010553 -3.5000228069
40.8793518685 -7.4517933545 -3.5000226119
40.6915345245 -7.1755514428 -3.5000223393
40.5505601339 -7.0222519718 -3.5000221880
41.0221185274 -8.9973373651 -3.5000241369
41.0259076016 -8.9868933449 -3.5000241266
41.0404440378 -8.9448985848 -3.5000240852
41.0556044573 -8.8972585511 -3.5000240382
41.0619342257 -8.8759590610 -3.5000240172
41.1002245509 -8.7195296913 -3.5000238628
41.1074464230 -8.6813214552 -3.5000238251
41.1112174941 -8.6594236638 -3.5000238035
41.1267496070 -8.5438248470 -3.5000236894
41.1320120751 -8.4829488603 -3.5000236294
41.1365835101 -8.3608445347 -3.5000235089
41.1363707182 -8.3219603547 -3.5000234705
41.1357257970 -8.2941927698 -3.5000234431
41.0639373349 -7.8343366145 -3.5000229894
40.9137890352 -7.4644401277 -3.5000226244
41.0162101342 -9.0790363454 -3.5000242176
41.0561432597 -8.9738461169 -3.5000241138
41.1193900629 -8.7463085698 -3.5000238892
41.1502117590 -8.5518944606 -3.5000236974
41.1607204634 -8.3665889865 -3.5000235146
41.1606214404 -8.3272037996 -3.5000234757
41.1554334021 -8.2091787235 -3.5000233592
41.0453977865 -7.6992940062 -3.5000228561
40.9868737744 -9.2024689375 -3.5000243394
41.0206170465 -9.1301900546 -3.5000242680
41.0274565219 -9.1145237566 -3.5000242526
41.1666397788 -8.6166513526 -3.5000237613
41.1748419106 -8.5487717105 -3.5000236943
41.1844587209 -8.3952653308 -3.5000235429
41.1803586665 -8.2187342878 -3.5000233687
41.1771939811 -8.1789741742 -3.5000233294
41.0111017341 -9.2079659206 -3.5000243448
41.0780260676 -9.0546710411 -3.5000241935
41.1439305304 -8.8517360015 -3.5000239933
41.1855169031 -8.6542210197 -3.5000237984
41.2086639791 -8.3092755844 -3.5000234580
41.0744681340 -7.6395462651 -3.5000227971
41.0143821571 -7.5021367027 -3.5000226616
41.0552690923 -9.1710446694 -3.5000243084
41.0809755553 -9.1121622130 -3.5000242503
41.0876526669 -9.0959609771 -3.5000242343
41.1514867361 -8.9141624999 -3.5000240549
41.1627276493 -8.8748511115 -3.5000240161
41.2153211711 -8.6175151843 -3.5000237622
41.2197311093 -8.5827476171 -3.5000237279
41.2240951760 -8.5420942248 -3.5000236877
41.2248130020 -8.1688226716 -3.5000233194
41.0138466435 -9.3079861376 -3.5000244435
41.0797081933 -9.1756924346 -3.5000243129
41.1606485597 -8.9662259677 -3.5000241063
41.1677870289 -8.9436787189 -3.5000240840
41.1746582087 -8.9210485828 -3.5000240617
40.5910928100 -6.8617932580 -3.5000220297
41.0891948415 -9.2128255147 -3.5000243496
41.1478192795 -9.0752246535 -3.5000242138
41.1583141762 -9.0472053451 -3.5000241862
41.2580777015 -8.6595571179 -3.5000238036
41.2788873457 -8.4572503970 -3.5000236040
41.2809818146 -8.4034356952 -3.5000235509
41.2772243887 -8.2180311939 -3.5000233680
41.0664288944 -7.4437133665 -3.5000226039
41.2616484982 -7.9287340290 -3.5000230825
41.2496796950 -7.8755655346 -3.5000230300
41.2180440689 -7.7586761056 -3.5000229147
41.2956409668 -8.7273259966 -3.5000238705
41.3029823727 -8.6850698327 -3.5000238288
41.3269393025 -8.2393011022 -3.5000233890
41.2601405136 -8.9723178247 -3.5000241123
41.3461081410 -8.5352328774 -3.5000236810
41.2291684258 -7.6387903925 -3.5000227964
40.6369680246 -6.7732990532 -3.5000219424
41.3766835381 -8.2679940496 -3.5000234173
41.4408253052 -8.1422196582 -3.5000232932
41.3922393357 -7.8481413169 -3.5000230030
41.3713024725 -7.7664872389 -3.5000229224
41.2261124856 -9.4236439972 -3.5000245576
41.5404493227 -8.7307305267 -3.5000238739
41.4924394032 -9.1174776419 -3.5000242555
39.0452404463 -3.9408118761 -3.5000191474
38.7069538641 -3.9702567838 -3.5000191765
39.1753423767 -3.9122580273 -3.5000191192
39.1490787354 -3.9128291524 -3.5000191198
38.8475538607 -3.9305549898 -3.5000191373
38.7169678216 -3.9446512508 -3.5000191512
38.6518454500 -3.9531463765 -3.5000191596
38.5349693157 -3.9708611041 -3.5000191771
39.3729677235 -3.8887631637 -3.5000190960
39.2805349346 -3.8873548506 -3.5000190947
39.5592652159 -3.8732003618 -3.5000190807
39.3735862086 -3.8645980492 -3.5000190722
39.4942554783 -3.8451053127 -3.5000190530
39.4409151263 -3.8426341105 -3.5000190505
39.4142349186 -3.8416352365 -3.5000190495
39.2807709228 -3.8390093706 -3.5000190469
38.5192080487 -3.8754622206 -3.5000190829
38.8632372737 -3.8077897556 -3.5000190161
38.7826538233 -3.8155249811 -3.5000190238
39.0777121465 -3.7700115882 -3.5000189789
38.4536284274 -3.8131218246 -3.5000190214
40.7078150320 -7.4065466344 -3.5000225672
39.2566473645 -4.0329033633 -3.5000192383
39.3301761167 -4.0117667642 -3.5000192174
39.4044967136 -3.9919639197 -3.5000191979
39.5040415887 -3.9756955756 -3.5000191818
39.5479922727 -3.9070840800 -3.5000191141
40.5202903906 -3.9700342671 -3.5000191762
40.6119359109 -7.5111547321 -3.5000226705
40.5955650459 -7.4415323005 -3.5000226018
40.5931493670 -7.4323063799 -3.5000225926
40.6385302203 -7.5203629131 -3.5000226795
40.6335500205 -7.4966812184 -3.5000226562
40.6282201040 -7.4730757732 -3.5000226329
40.6271122559 -7.4683642888 -3.5000226282
40.6152691438 -7.4214376142 -3.5000225819
40.6034277336 -7.3795194952 -3.5000225406
