17.1439424349 -26.5073662568 -1.8490024107
14.3456587010 -26.0827778167 -1.8490019917
14.3604652769 -26.0893749953 -1.8490019983
14.3209357133 -26.0981734573 -1.8490020069
15.1164102904 -26.3855530483 -1.8490022905
16.0274509600 -26.5564756844 -1.8490024592
14.3160464193 -26.1489754776 -1.8490020571
14.3460711877 -26.1623000431 -1.8490020702
14.2510260022 -26.1726109865 -1.8490020804
14.7897629592 -26.3863780490 -1.8490022913
14.9474738493 -26.4371023729 -1.8490023414
14.2157113513 -26.2095847961 -1.8490021169
14.3898818907 -26.3126710998 -1.8490022186
17.1016926897 -26.7543484258 -1.8490026544
14.3555911314 -26.3506910407 -1.8490022561
14.7992309190 -26.5169243103 -1.8490024201
15.1669799273 -26.6490586609 -1.8490025505
17.5482284371 -26.7692339361 -1.8490026691
17.6825654234 -26.7448054598 -1.8490026450
14.6953948151 -26.5585056933 -1.8490024612
16.6484575809 -26.8743153116 -1.8490027728
14.4134127718 -26.4791133399 -1.8490023828
14.2256693098 -26.4790322707 -1.8490023828
14.6690786503 -26.8558054561 -1.8490027545
14.3381984925 -27.0722129566 -1.8490029681
18.5315908683 -20.8802857502 -1.8506992860
18.6064317003 -21.2597319597 -1.8506996605
18.6037606225 -21.2129145464 -1.8506996143
18.5853711279 -21.0397520532 -1.8506994434
18.5759103619 -20.9802079627 -1.8506993846
18.5507528283 -20.8554512219 -1.8506992615
18.5329968360 -20.7839345437 -1.8506991910
18.5223337166 -20.7451800782 -1.8506991527
18.5109844555 -20.7066209680 -1.8506991147
18.6328397102 -21.3330451409 -1.8506997328
18.6156203843 -21.0832468246 -1.8506994863
18.5743052470 -20.8500089011 -1.8506992562
18.5281182490 -20.6801825406 -1.8506990886
18.4588018131 -20.4893255851 -1.8506989003
18.6463836957 -21.1414721535 -1.8506995438
18.5669484991 -20.7253634280 -1.8506991332
18.6687294694 -21.6084705881 -1.8507000046
18.6772276105 -21.5051220570 -1.8506999026
18.6778130417 -21.2356370125 -1.8506996367
18.6761153192 -21.2080344432 -1.8506996094
18.6740911091 -21.1804538945 -1.8506995822
18.6540642012 -21.0088146314 -1.8506994129
18.5061035004 -20.4772135145 -1.8506988883
18.7043888898 -21.2901230500 -1.8506996904
18.6970422203 -21.1646185852 -1.8506995666
18.5661152433 -20.5657984029 -1.8506989757
18.7283145325 -21.2823005297 -1.8506996827
18.6762041761 -20.8626749480 -1.8506992687
18.7301249336 -21.8461966464 -1.8507002392
18.6509230029 -20.5888392242 -1.8506989984
18.7877588625 -20.9287479508 -1.8506993339
18.8377828371 -21.6187003455 -1.8507000147
18.8333940654 -21.8211956301 -1.8507002145
18.8598457879 -21.0906332557 -1.8506994936
18.7678726573 -20.5574454185 -1.8506989675
18.7044597318 -20.3875574364 -1.8506987998
18.9453061097 -20.9953188189 -1.8506993995
19.1380335041 -21.2432026820 -1.8506996441
18.6840367350 -24.4049518811 -1.8507027640
18.7526987807 -24.3818369539 -1.8507027412
18.8312793720 -24.4427390816 -1.8507028013
17.8786352387 -25.4029321385 -1.8507037488
15.4231829680 -26.0789600261 -1.8507044158
15.5349812508 -26.0994359058 -1.8507044361
15.6331786777 -26.1151778052 -1.8507044516
15.4606250548 -26.1107130126 -1.8507044472
15.7427629329 -26.1546589692 -1.8507044905
16.1553367519 -26.1885840817 -1.8507045240
16.1838761633 -26.1896174179 -1.8507045250
16.2124211887 -26.1904818874 -1.8507045259
16.2552470676 -26.1914619016 -1.8507045269
16.2695240850 -26.1917041106 -1.8507045271
16.2980799570 -26.1920618216 -1.8507045275
15.0785177713 -26.0484183725 -1.8507043857
15.5126930445 -26.1446516527 -1.8507044807
15.8538191543 -26.1916005197 -1.8507045270
15.8680983382 -26.1930302245 -1.8507045284
15.9538565696 -26.2007208610 -1.8507045360
15.9681622954 -26.2018545971 -1.8507045371
16.2548012836 -26.2156308188 -1.8507045507
16.2834989718 -26.2160752161 -1.8507045511
16.3408997243 -26.2164546224 -1.8507045515
16.3696007795 -26.2163896180 -1.8507045515
16.3983009478 -26.2161548096 -1.8507045512
15.5939282799 -26.1825427290 -1.8507045181
15.7653682462 -26.2061378511 -1.8507045413
16.4706676407 -26.2389898668 -1.8507045738
16.4850843119 -26.2385946148 -1.8507045734
16.0367029174 -26.2551389404 -1.8507045897
16.4423148723 -26.2638206079 -1.8507045983
15.7567573367 -26.2781438909 -1.8507046124
16.0044581498 -26.3014656379 -1.8507046354
16.7793684891 -26.2939795100 -1.8507046280
15.1752145762 -26.1979302070 -1.8507045332
16.5907530028 -26.3312072379 -1.8507046648
14.9269090517 -26.1562348986 -1.8507044921
15.3860957689 -26.2687546459 -1.8507046031
16.0306331766 -26.3516403536 -1.8507046849
16.3999165568 -26.3611839790 -1.8507046943
15.4753999746 -26.3589887348 -1.8507046922
15.7424058208 -26.3981539574 -1.8507047308
15.5902310636 -26.4020571929 -1.8507047347
15.1117079623 -26.3316969278 -1.8507046652
15.5716850837 -26.4237005157 -1.8507047560
15.7366652145 -26.4461579840 -1.8507047782
16.2953045877 -26.4821248802 -1.8507048137
16.3407153706 -26.4823578663 -1.8507048139
16.1430371204 -26.5025926512 -1.8507048339
15.0050435204 -26.3791018397 -1.8507047120
15.9093045847 -26.5608762317 -1.8507048914
17.7188676572 -26.4196356244 -1.8507047520
15.9052712946 -26.6090537545 -1.8507049389
15.6235142294 -26.6022049675 -1.8507049322
16.2936856222 -26.6513283311 -1.8507049806
15.0346562021 -26.5117293023 -1.8507048429
15.0651270629 -26.5193873054 -1.8507048504
15.8049419735 -26.6725840268 -1.8507050016
14.7936701012 -26.4948496949 -1.8507048262
14.8477534176 -26.5360580219 -1.8507048669
15.1040236390 -26.6282760229 -1.8507049579
15.5437044818 -26.7128431962 -1.8507050413
15.3816033929 -26.7106153389 -1.8507050391
14.7811464980 -26.5920523291 -1.8507049221
15.7125079015 -26.7840787255 -1.8507051116
15.6132091571 -26.7959696390 -1.8507051234
14.9396843775 -26.6868855150 -1.8507050157
15.2586492366 -26.8349509954 -1.8507051618
15.4046386415 -26.8619122222 -1.8507051884
16.4723523475 -26.9401753190 -1.8507052657
18.7052744673 -26.4970928571 -1.8507048284
15.5237943062 -27.0763965531 -1.8507054001
15.5648343331 -27.1553236635 -1.8507054780
18.7184820239 -21.6072729676 -1.8496675317
18.6639653918 -21.1577236175 -1.8496670881
18.6558365952 -21.1208221911 -1.8496670517
18.6398328915 -21.0547181777 -1.8496669865
18.7439027731 -21.7056614996 -1.8496676288
18.7418104894 -21.5836299354 -1.8496675084
18.6594184886 -21.0339491716 -1.8496669660
18.6923006180 -21.0651209391 -1.8496669968
18.6063844635 -20.7855676608 -1.8496667209
18.7718545626 -22.0159983532 -1.8496679350
18.6208679206 -20.7553489501 -1.8496666911
18.7977467671 -22.0034382493 -1.8496679227
18.6876868988 -20.8725343253 -1.8496668067
18.8198243154 -22.0220186480 -1.8496679410
18.7312145216 -20.8500548525 -1.8496667845
18.7132965812 -20.7971007109 -1.8496667323
18.7934596899 -20.9737638808 -1.8496669066
18.7640237876 -20.8732393442 -1.8496668074
18.8001446945 -20.8275237893 -1.8496667623
18.7844427964 -20.7808918071 -1.8496667163
18.7134369624 -20.5973696520 -1.8496665352
18.6083075418 -20.2316469427 -1.8496661743
18.8301699917 -22.7510072758 -1.8496686603
18.9379821742 -20.8634956994 -1.8496667978
19.1790080236 -21.7084991790 -1.8496676316
19.3086070443 -23.8446058119 -1.8496697394
15.6497083640 -26.0016710081 -1.8496718679
15.7647007392 -26.0138619772 -1.8496718800
15.8030986240 -26.0172447805 -1.8496718833
15.9441117521 -26.0267301278 -1.8496718927
15.7753396704 -26.0391040378 -1.8496719049
15.8010840976 -26.0413337192 -1.8496719071
15.9816013189 -26.0526719426 -1.8496719182
16.0978337464 -26.0560096740 -1.8496719215
15.6568743915 -26.0511979824 -1.8496719168
15.8249692928 -26.0675114845 -1.8496719329
16.0714821454 -26.0797029445 -1.8496719449
16.2793330115 -26.0792139069 -1.8496719444
16.2923200232 -26.0788567078 -1.8496719441
16.3572361068 -26.0764945413 -1.8496719418
16.3702147333 -26.0759069026 -1.8496719412
16.4350786677 -26.0723929658 -1.8496719377
15.9143335643 -26.0977489903 -1.8496719627
15.9404225221 -26.0991553107 -1.8496719641
16.0448478539 -26.1032364247 -1.8496719681
16.2669023835 -26.1036992875 -1.8496719686
16.2930203747 -26.1030195882 -1.8496719679
16.3191338875 -26.1021853781 -1.8496719671
16.3462282166 -26.1253495881 -1.8496719900
16.5559310874 -26.1118102895 -1.8496719766
16.6474284445 -26.1027691080 -1.8496719677
16.0831405384 -26.1524674727 -1.8496720167
16.7844416384 -26.1344547798 -1.8496719989
16.8238695607 -26.1287832059 -1.8496719934
15.9488367176 -26.1963816222 -1.8496720601
16.7216026774 -26.1671176447 -1.8496720312
16.1086482983 -26.2253875912 -1.8496720887
15.6372941554 -26.2192724991 -1.8496720826
16.2029930367 -26.2739278183 -1.8496721366
15.8081215368 -26.2844154055 -1.8496721469
16.2440959967 -26.2975802581 -1.8496721599
16.8011195355 -26.2541637177 -1.8496721171
15.7769097808 -26.3304009830 -1.8496721923
15.8868529279 -26.3382865914 -1.8496722001
15.6205110960 -26.3633363707 -1.8496722248
16.0091199883 -26.3923648572 -1.8496722534
16.4127015543 -26.3884305033 -1.8496722496
17.4675459896 -26.2111229167 -1.8496720746
17.3120877898 -26.2779511180 -1.8496721405
17.5413227834 -26.2144915424 -1.8496720779
16.0778166396 -26.4424949485 -1.8496723029
17.5752436526 -26.2293552970 -1.8496720926
17.5886691395 -26.2251639029 -1.8496720885
17.6154826230 -26.2166620618 -1.8496720801
16.0491073225 -26.4660613974 -1.8496723262
16.4588563164 -26.4584298237 -1.8496723186
17.2939296131 -26.3819602671 -1.8496722432
17.4866361709 -26.3816254159 -1.8496722428
16.2200845045 -26.5880251526 -1.8496724465
16.6107958175 -26.5680177761 -1.8496724268
15.9291452378 -26.6068510391 -1.8496724651
16.2503119377 -26.6601223944 -1.8496725177
16.7198187239 -26.6298090631 -1.8496724877
17.0110034633 -26.5883626264 -1.8496724468
15.9109086824 -26.6785567742 -1.8496725358
16.6133832477 -26.7619484825 -1.8496726181
17.4798612498 -26.8838261366 -1.8496727384
18.8156575958 -21.9020271461 -1.8501828067
18.8419899087 -22.1241094592 -1.8501830259
18.8308841594 -21.7770705623 -1.8501826834
18.7362615920 -21.2737181192 -1.8501821867
18.8669600690 -22.0914721395 -1.8501829937
18.8392643935 -21.6422339694 -1.8501825504
18.8725138086 -22.3688874358 -1.8501832674
18.8911372520 -22.5690765667 -1.8501834649
18.7418457238 -20.9229461140 -1.8501818406
18.7318275977 -20.8990732693 -1.8501818170
18.7931777472 -20.9206651686 -1.8501818384
19.0366250840 -22.0503490944 -1.8501829531
19.2802290010 -23.2404584027 -1.8501841274
19.3204158641 -23.2005820043 -1.8501840881
19.3597241409 -24.0209396477 -1.8501848976
16.3486780311 -25.9850737804 -1.8501868357
16.3505221701 -26.0091763618 -1.8501868595
16.4209224404 -26.0031610176 -1.8501868535
16.4677918491 -25.9984570276 -1.8501868489
16.4912048605 -25.9958971442 -1.8501868464
16.5262949561 -25.9917977088 -1.8501868423
19.6563191863 -23.7189149389 -1.8501845995
16.2814422989 -26.0380727972 -1.8501868880
16.3523663091 -26.0332789433 -1.8501868832
16.4467780710 -26.0249305410 -1.8501868750
16.4703480763 -26.0224945188 -1.8501868726
16.6231549386 -26.0032666408 -1.8501868536
16.7090699853 -26.0143277665 -1.8501868645
16.7560513521 -26.0062134991 -1.8501868565
16.7603062827 -26.0300091048 -1.8501868800
16.7721067384 -26.0278810294 -1.8501868779
16.7956885060 -26.0235202019 -1.8501868736
16.9065669552 -26.0258028138 -1.8501868759
16.9301340741 -26.0206465109 -1.8501868708
16.6197175182 -26.1502566635 -1.8501869987
16.3406451188 -26.2038082483 -1.8501870515
16.3775862376 -26.2010367589 -1.8501870488
17.1785791674 -26.0578099199 -1.8501869075
16.6509829781 -26.1946381598 -1.8501870425
17.2447797126 -26.0637994156 -1.8501869134
17.1740362519 -26.1343533786 -1.8501869830
16.2717894767 -26.3049250951 -1.8501871513
16.9226248183 -26.2200943508 -1.8501870676
17.1316493378 -26.1707847279 -1.8501870189
17.3860124787 -26.0954681974 -1.8501869446
16.4400025805 -26.3412677076 -1.8501871872
16.6936533134 -26.3104932286 -1.8501871568
16.9200288507 -26.2700146533 -1.8501871168
17.5578609108 -26.0862730833 -1.8501869355
16.6591361093 -26.3399969510 -1.8501871859
17.1997008157 -26.2275772740 -1.8501870750
17.2984730461 -26.1991237581 -1.8501870469
16.3542571809 -26.3967128097 -1.8501872419
17.0810581063 -26.2833299814 -1.8501871300
17.1437075130 -26.2675690571 -1.8501871144
17.6711690922 -26.0942621984 -1.8501869434
17.6680918972 -26.1215152200 -1.8501869703
16.8716094139 -26.4273876459 -1.8501872721
17.8142468675 -26.1657902114 -1.8501870140
18.1932315754 -26.1463273902 -1.8501869948
18.2889279644 -26.1500276367 -1.8501869984
17.5698275634 -26.5182544114 -1.8501873618
17.7801109576 -26.5189895828 -1.8501873625
18.2034535081 -26.6535715255 -1.8501874953
18.3697506155 -22.6404073774 -1.8499571569
18.4211272523 -22.6092958166 -1.8499571262
18.9009329692 -22.1410456320 -1.8499566641
18.8885755735 -22.0295462512 -1.8499565541
18.8816470990 -21.8375349126 -1.8499563646
18.9648511490 -22.0552808589 -1.8499565795
18.9604983815 -22.9491579382 -1.8499574615
19.0050695509 -22.2389420507 -1.8499567607
19.0330178678 -22.4801645100 -1.8499569988
19.0267823926 -22.9891342455 -1.8499575010
19.0520944837 -21.7094184542 -1.8499562382
19.0688012362 -23.2367127116 -1.8499577453
19.0095158952 -21.2403627024 -1.8499557754
16.8268047871 -25.9530112000 -1.8499604256
16.8955484884 -25.9611365781 -1.8499604336
16.9964072803 -25.9591911691 -1.8499604317
17.0452019221 -25.9702905688 -1.8499604426
17.1155249516 -25.9741668272 -1.8499604465
17.1366123273 -25.9674793701 -1.8499604399
17.1968696034 -25.9731247036 -1.8499604454
17.3376375831 -26.0000956706 -1.8499604721
16.8653208014 -26.1674190201 -1.8499606372
17.4100613587 -25.9982054091 -1.8499604702
19.8442155425 -22.7053150001 -1.8499572209
17.4828379747 -25.9948693171 -1.8499604669
17.6081422439 -25.9934102104 -1.8499604655
17.1918397950 -26.1782174860 -1.8499606478
17.6712525536 -25.9910685659 -1.8499604632
19.9017593225 -23.0381255006 -1.8499575493
18.4856620170 -19.2387458973 -1.8499538003
17.5032049911 -26.1692884308 -1.8499606390
17.8521083519 -26.0099560467 -1.8499604818
19.8318893648 -23.7159047184 -1.8499582181
17.9386696374 -26.0190195803 -1.8499604907
17.9493473519 -26.0132562398 -1.8499604850
18.4754196053 -26.0314509191 -1.8499605030
18.9513069538 -22.6476256316 -1.8500475246
18.9664828110 -23.0409556978 -1.8500479128
18.9753084442 -22.9096687290 -1.8500477832
18.9954425731 -22.9813945596 -1.8500478540
19.0022455064 -22.8135099654 -1.8500476883
18.9655344896 -23.3803168205 -1.8500482476
18.9774050359 -23.3190455432 -1.8500481872
19.0239930390 -22.9029329717 -1.8500477766
18.9644241440 -22.1671736238 -1.8500470506
19.0564802208 -23.1126767396 -1.8500479835
19.0551014952 -23.2961376027 -1.8500481646
19.0493639464 -22.2242178968 -1.8500471068
18.9073358459 -21.7052882425 -1.8500465948
19.0609668745 -22.1566422347 -1.8500470402
19.0839488873 -23.4045327753 -1.8500482715
18.9429065135 -21.6624617670 -1.8500465525
18.9183903721 -24.0762525487 -1.8500489343
19.0190747272 -23.8225026474 -1.8500486840
19.2150687476 -22.5980754593 -1.8500474757
18.8810175433 -21.2880199392 -1.8500461830
19.1438234315 -23.7529238252 -1.8500486153
18.9919134411 -24.2600980334 -1.8500491158
19.1361513436 -23.9257820733 -1.8500487859
19.1094567730 -21.5570136909 -1.8500464485
18.9979505215 -21.3049818650 -1.8500461998
19.3582877703 -22.3202757071 -1.8500472016
17.3612218549 -25.9247091592 -1.8500507583
17.4453836800 -25.9139048771 -1.8500507477
17.4647648484 -25.9316118944 -1.8500507651
17.4834064469 -25.9229654944 -1.8500507566
17.4927079814 -25.9186009734 -1.8500507523
17.5019965642 -25.9142089559 -1.8500507480
17.5589296104 -25.9135199781 -1.8500507473
17.5789542156 -25.9305825818 -1.8500507641
17.5882778647 -25.9259353799 -1.8500507595
17.5975877258 -25.9212606172 -1.8500507549
19.5255504950 -22.5286148995 -1.8500474072
17.6551246921 -25.9188980713 -1.8500507526
17.6644134431 -25.9140255944 -1.8500507478
17.6736877397 -25.9091256611 -1.8500507429
17.6756740967 -25.9354156146 -1.8500507689
17.6943345081 -25.9255213381 -1.8500507591
17.7129360549 -25.9155168336 -1.8500507492
17.7524277180 -25.9214564396 -1.8500507551
17.7710041988 -25.9111083072 -1.8500507449
19.3684242689 -21.4893194155 -1.8500463817
17.8014697332 -25.9216627906 -1.8500507553
19.3651256521 -21.3521267059 -1.8500462463
17.9720695377 -25.9327122173 -1.8500507662
18.0315895730 -25.9237329717 -1.8500507574
18.0408909793 -25.9177468225 -1.8500507514
18.0819802027 -25.9198143111 -1.8500507535
18.1647394519 -25.9224955594 -1.8500507561
19.8000590418 -23.2061587674 -1.8500480758
19.7874230286 -23.5833592429 -1.8500484480
19.8335478382 -23.3248616325 -1.8500481929
19.8529774284 -23.1661958315 -1.8500480363
19.8602241674 -23.0865952287 -1.8500479578
19.8721342535 -22.7101145817 -1.8500475863
19.8510670101 -22.3683132598 -1.8500472490
18.2809317538 -25.9295583079 -1.8500507631
19.9438880671 -22.6739768442 -1.8500475506
19.8333949984 -21.8452976225 -1.8500467329
19.8501859504 -23.7403761800 -1.8500486029
19.8558217137 -23.7176551780 -1.8500485805
19.8982756446 -23.5232770628 -1.8500483887
19.8165426933 -23.9503802179 -1.8500488101
18.6040910220 -25.9246752859 -1.8500507583
19.7590495878 -24.3862310278 -1.8500492402
19.7109830868 -24.5504163559 -1.8500494022
17.8954761508 -19.1051429297 -1.8500440291
17.9500696888 -19.1063010690 -1.8500440302
19.6983962059 -24.7360601512 -1.8500495854
18.0048978574 -19.1082401264 -1.8500440321
18.1598514943 -19.1124311900 -1.8500440363
18.2155233566 -19.1173847204 -1.8500440412
18.1720734131 -19.0915754957 -1.8500440157
18.2605598718 -19.1164798865 -1.8500440403
18.3057849423 -19.1160878449 -1.8500440399
18.3967784306 -19.1168551457 -1.8500440406
18.4776306405 -19.1124041684 -1.8500440362
18.6412472804 -19.1083198398 -1.8500440322
19.3592262026 -19.5021604860 -1.8500444208
18.8597271538 -23.8205986895 -1.8500244826
18.9422114240 -23.0867540953 -1.8500237585
18.9101645990 -22.7097001998 -1.8500233864
18.8451005737 -23.9655353121 -1.8500246256
18.9369691613 -23.5516500346 -1.8500242172
18.9468352234 -22.6348548392 -1.8500233126
18.9438049721 -22.6180084006 -1.8500232959
18.9872458937 -23.5415230523 -1.8500242072
18.9094766740 -24.0030869731 -1.8500246627
19.0385187673 -23.0675925911 -1.8500237396
18.9974222536 -22.6435826329 -1.8500233212
19.0004864990 -23.7469422579 -1.8500244099
19.0167061859 -22.6135910553 -1.8500232916
19.0768500463 -23.3933536170 -1.8500240610
18.9592294953 -22.0474061048 -1.8500227329
18.7971669909 -24.6846812872 -1.8500253352
18.9040236862 -24.4810139180 -1.8500251343
19.0864291474 -24.2347391024 -1.8500248912
19.2054733192 -23.8283874161 -1.8500244903
18.7210325373 -25.0259654518 -1.8500256720
19.1415742645 -24.2244187919 -1.8500248811
18.9310057656 -21.5344723827 -1.8500222267
17.9923630624 -25.8160618570 -1.8500264516
18.9746397031 -24.7638055969 -1.8500254133
18.1301558501 -25.8048141246 -1.8500264405
18.1380340694 -25.7987906797 -1.8500264346
18.0374607061 -25.9320491625 -1.8500265661
19.4690960866 -22.1203246838 -1.8500228048
18.4973530465 -25.7819696324 -1.8500264180
19.4446997799 -21.8961729275 -1.8500225837
19.9071384064 -23.0014997052 -1.8500236743
19.9052493730 -22.9564366300 -1.8500236299
19.8827350766 -22.6868143461 -1.8500233638
19.9337555726 -23.1254200346 -1.8500237966
19.9562071455 -23.0225856522 -1.8500236951
19.8727371820 -22.3320130809 -1.8500230137
19.7760824702 -21.4936399336 -1.8500221865
19.7309889779 -21.3963077681 -1.8500220904
19.5146277209 -20.8257182743 -1.8500215274
17.2561567063 -19.0276720872 -1.8500197531
17.3602149017 -19.0331258297 -1.8500197585
17.3480646111 -19.0294096383 -1.8500197549
17.4160816949 -19.0253296942 -1.8500197508
17.4039080975 -19.0214482729 -1.8500197470
17.3917230715 -19.0176028802 -1.8500197432
17.4966618727 -19.0264876215 -1.8500197520
17.4601140039 -19.0142363277 -1.8500197399
17.4479073977 -19.0102246994 -1.8500197359
17.5654509490 -19.0248580048 -1.8500197504
17.5410869206 -19.0162474804 -1.8500197419
17.6345924573 -19.0243686040 -1.8500197499
17.5980203519 -19.0108933371 -1.8500197366
17.5735731339 -19.0020903656 -1.8500197279
17.7373019722 -19.0121390474 -1.8500197378
17.7250879490 -19.0073074561 -1.8500197331
17.7829816599 -19.0044653683 -1.8500197302
17.8411691770 -19.0024180328 -1.8500197282
17.9118711709 -19.0065199630 -1.8500197323
17.9706150101 -19.0062553812 -1.8500197320
17.9461338314 -18.9952480957 -1.8500197212
18.0296176916 -19.0068055080 -1.8500197326
18.0398555239 -18.9849075156 -1.8500197110
18.1238951852 -18.9983150982 -1.8500197242
18.1116385768 -18.9923399547 -1.8500197183
18.2067998467 -18.9856265866 -1.8500197117
18.3151162161 -18.9875392700 -1.8500197135
18.3388379412 -18.9728280649 -1.8500196990
18.4973004567 -18.9781112659 -1.8500197042
18.5217358117 -18.9643228819 -1.8500196906
18.6577232528 -18.9610135385 -1.8500196874
18.7828360580 -18.9538760826 -1.8500196803
18.8331012224 -18.9576393793 -1.8500196840
18.7846433739 -23.9349159936 -1.8500245954
18.8255596280 -23.4338820412 -1.8500241010
18.8461524371 -23.6182260690 -1.8500242829
18.6757003780 -24.5391723553 -1.8500251916
18.9186012746 -23.3294995285 -1.8500239980
18.9808444940 -23.1958827952 -1.8500238661
18.7030119523 -24.8127108475 -1.8500254616
18.7635294989 -24.6950119969 -1.8500253454
19.0065854147 -22.8918734045 -1.8500235662
18.8614951131 -21.7023681416 -1.8500223924
19.8442810728 -22.0756143522 -1.8500227607
19.7961068346 -21.8971609867 -1.8500225846
16.6235436210 -19.0270264643 -1.8500197525
16.5972183892 -19.0248766501 -1.8500197504
16.7313117169 -19.0131500892 -1.8500197388
16.6520369135 -19.0052575744 -1.8500197310
16.8531770641 -19.0036697635 -1.8500197295
17.0728284567 -18.9898102680 -1.8500197158
16.9930856211 -18.9758601293 -1.8500197020
17.1438109944 -18.9788088522 -1.8500197049
16.8763563964 -18.9336497087 -1.8500196604
17.2019631174 -18.9660863787 -1.8500196924
17.1752672203 -18.9605155071 -1.8500196869
17.0681680739 -18.9398142817 -1.8500196665
16.9508064634 -18.8956695925 -1.8500196229
17.3463331280 -18.9493240998 -1.8500196758
17.3329390818 -18.9460919219 -1.8500196726
17.3061225985 -18.9397465025 -1.8500196664
17.2658286566 -18.9305261282 -1.8500196573
17.4057947725 -18.9392276495 -1.8500196659
17.5327461407 -18.9484291880 -1.8500196750
17.4252608932 -18.9192722259 -1.8500196462
17.3442106238 -18.8990781636 -1.8500196263
17.6538165217 -18.9339402415 -1.8500196607
17.5999802350 -18.9176122488 -1.8500196445
16.9413493462 -18.7720165513 -1.8500195009
16.6922882850 -18.7176609721 -1.8500194472
17.8245282340 -18.9135767362 -1.8500196406
16.7962083081 -18.6798686260 -1.8500194100
16.7536281755 -18.6751836886 -1.8500194053
16.7730424999 -18.6286395249 -1.8500193594
16.8332482848 -18.6112036693 -1.8500193422
16.7756506738 -18.6046076147 -1.8500193357
18.0202639284 -18.8822342844 -1.8500196096
17.6760335008 -18.7637690357 -1.8500194927
18.1469331325 -18.8808041864 -1.8500196082
18.2106673966 -18.8813788426 -1.8500196088
18.2844158237 -18.8607078244 -1.8500195884
17.6682147349 -18.6353035278 -1.8500193660
17.4085948725 -18.5665242133 -1.8500192981
18.3625365554 -18.8693796308 -1.8500195970
18.6445579347 -24.3658919228 -1.8500250207
18.6933483514 -24.2668293760 -1.8500249229
18.5679929083 -24.7262429541 -1.8500253762
18.6433521480 -24.5353826676 -1.8500251879
18.6455706019 -24.5289100847 -1.8500251815
18.7014990488 -24.3385944517 -1.8500249937
18.7576421135 -24.0152823999 -1.8500246747
18.7661204233 -23.4249447040 -1.8500240922
18.6821516069 -24.5709085785 -1.8500252230
18.6136589337 -24.8559430715 -1.8500255042
18.6511013962 -24.8343695924 -1.8500254829
18.7255311923 -25.0577891753 -1.8500257034
18.8832101191 -24.7238381637 -1.8500253739
16.1174699731 -18.9913871379 -1.8500197173
16.0183447562 -18.9994328457 -1.8500197253
15.9194073836 -19.0095292971 -1.8500197352
16.2725947718 -18.9587397280 -1.8500196851
16.2155341070 -18.9612527194 -1.8500196876
16.0445864215 -18.9728397678 -1.8500196990
16.5442857221 -18.9318599062 -1.8500196586
16.5299371264 -18.9316212593 -1.8500196584
16.5155878876 -18.9314250592 -1.8500196582
16.4725375678 -18.9310911548 -1.8500196578
16.4007858915 -18.9313836705 -1.8500196581
16.3433925630 -18.9323817600 -1.8500196591
16.6600458042 -18.9111448990 -1.8500196382
16.8779970150 -18.9008878300 -1.8500196280
16.8491100989 -18.8984791770 -1.8500196257
16.7623709283 -18.8922792063 -1.8500196195
16.7334351043 -18.8905547866 -1.8500196178
16.4147241401 -18.8828959620 -1.8500196103
16.0817370165 -18.8970675042 -1.8500196243
16.7493423229 -18.8672653805 -1.8500195949
16.9986853962 -18.8641752880 -1.8500195918
16.9695791640 -18.8610532445 -1.8500195887
16.5314020959 -18.8349402458 -1.8500195630
17.1327017379 -18.8564047058 -1.8500195841
17.1035471869 -18.8524899126 -1.8500195803
17.0159517139 -18.8417813907 -1.8500195697
17.1798891342 -18.8386818735 -1.8500195667
17.1506289031 -18.8344882140 -1.8500195625
17.1359896114 -18.8324563203 -1.8500195605
17.1213443730 -18.8304677412 -1.8500195586
17.1245613885 -18.8065097343 -1.8500195349
17.3488935042 -18.8172524024 -1.8500195455
17.3047971517 -18.8095278742 -1.8500195379
16.3239680962 -18.7394198550 -1.8500194687
17.3384085429 -18.7908298111 -1.8500195194
17.1309954195 -18.7585937206 -1.8500194876
16.4882535574 -18.7136070397 -1.8500194432
16.2184464199 -18.7190975021 -1.8500194487
17.4758074878 -18.7923933509 -1.8500195210
16.5486631296 -18.6901692640 -1.8500194201
15.8720034765 -18.7229787840 -1.8500194525
16.7167279093 -18.6475813112 -1.8500193781
17.6841330289 -18.7648332313 -1.8500194938
17.3853115651 -18.7010193274 -1.8500194308
17.1438634815 -18.6627616931 -1.8500193931
16.6263517729 -18.6196104564 -1.8500193505
17.7939890149 -18.7679729894 -1.8500194969
17.1622925997 -18.6408692360 -1.8500193715
16.7958041103 -18.6037501709 -1.8500193348
16.1586818613 -18.4559201386 -1.8500191890
18.3226358791 -18.7073397219 -1.8500194371
16.6883128495 -18.2348906307 -1.8500189709
17.2743964932 -18.1928887334 -1.8500189294
17.4435631556 -18.1957230486 -1.8500189322
18.5166383943 -24.4923050552 -1.8500250262
18.5032414310 -24.6262577400 -1.8500251584
18.5414291761 -24.4927675669 -1.8500250266
18.5244661441 -24.6391069734 -1.8500251710
18.6057199196 -24.2773556678 -1.8500248141
18.6201213075 -24.0303806773 -1.8500245704
18.6148368275 -23.9011024060 -1.8500244428
18.5491995815 -24.6412640564 -1.8500251732
18.6680557347 -24.0012054719 -1.8500245416
18.5702062182 -24.7279831768 -1.8500252587
18.6266233315 -24.5498587775 -1.8500250830
18.6469206288 -24.5674797615 -1.8500251004
18.7052339419 -24.4222552924 -1.8500249571
18.8054735534 -24.2271787868 -1.8500247646
18.7049504003 -23.3775509028 -1.8500239262
18.6418307181 -21.4167627473 -1.8500219914
18.6730348076 -20.6032990152 -1.8500211887
16.4500258797 -18.8123333325 -1.8500194215
15.8802196545 -18.8729220627 -1.8500194812
15.8649281686 -18.8754233763 -1.8500194837
15.8343677292 -18.8805616534 -1.8500194888
15.8038382245 -18.8858806464 -1.8500194940
15.5910874808 -18.9281572077 -1.8500195357
15.4703601390 -18.9562590610 -1.8500195635
16.2624475766 -18.8010618754 -1.8500194103
15.7689805097 -18.8676036298 -1.8500194760
15.5100047273 -18.9218588250 -1.8500195295
16.5412923886 -18.7600799225 -1.8500193699
16.0116961408 -18.8045363865 -1.8500194138
15.1276188211 -19.0020700987 -1.8500196087
15.2406325443 -18.9426264613 -1.8500195500
17.0459005886 -18.6946356507 -1.8500193053
16.3172761477 -18.6996158111 -1.8500193102
15.9705975603 -18.7369975455 -1.8500193471
16.1838030514 -18.6384303655 -1.8500192499
15.6123190974 -18.7258459754 -1.8500193361
16.3082350445 -18.5790892974 -1.8500191913
15.4703576346 -18.6828712215 -1.8500192937
15.9469931374 -18.5694408087 -1.8500191818
15.6843658010 -18.5883057820 -1.8500192004
15.8423694089 -18.5362431766 -1.8500191490
15.5241208393 -18.5468920568 -1.8500191595
17.4295923170 -18.4395085945 -1.8500190536
16.0265868870 -18.4126602133 -1.8500190271
14.9792708471 -18.6434164645 -1.8500192548
15.3148813933 -18.3223767530 -1.8500189380
14.9218399360 -18.4079831407 -1.8500190225
18.4933398812 -24.5045729455 -1.8500251575
18.5001379874 -24.4609922558 -1.8500251145
18.5079111273 -24.3952919248 -1.8500250497
18.5146451925 -24.2675915324 -1.8500249237
18.5121879112 -24.1661894192 -1.8500248236
18.5381320709 -24.2050822538 -1.8500248620
18.5376472531 -24.1916437177 -1.8500248487
18.5800992254 -24.4022126203 -1.8500250565
18.5522055928 -23.9238725125 -1.8500245845
18.5461235393 -23.8967947864 -1.8500245578
18.5833108840 -23.9556084643 -1.8500246158
18.6314155213 -24.3688132047 -1.8500250235
18.5766490154 -23.8211114468 -1.8500244831
18.6354750719 -24.5338134405 -1.8500251864
18.6492595790 -24.4380145567 -1.8500250918
18.6836386423 -24.2839811567 -1.8500249398
18.6838289287 -24.2348684097 -1.8500248914
18.6783608745 -24.1171443106 -1.8500247752
18.6308705957 -23.8366185608 -1.8500244984
18.5925258282 -23.7097098935 -1.8500243732
18.7062867548 -24.1748362478 -1.8500248321
18.5965927948 -23.6503054993 -1.8500243146
18.6331850675 -23.6795836191 -1.8500243434
18.5127493732 -21.3306249185 -1.8500220256
16.7570404951 -18.5136334092 -1.8500192459
15.5662976863 -18.6953389329 -1.8500194252
17.0801119764 -18.4835491517 -1.8500192162
15.2652056109 -18.7577547687 -1.8500194868
15.0391953979 -18.8352700281 -1.8500195633
16.8568671453 -18.4373167869 -1.8500191706
16.7708692905 -18.4404193037 -1.8500191737
16.0355328728 -18.5194447109 -1.8500192517
14.7980949848 -18.8774070658 -1.8500196049
14.8850035723 -18.8162595263 -1.8500195445
14.7888483146 -18.8550724655 -1.8500195828
14.7251340622 -18.8818932391 -1.8500196093
14.6933970614 -18.8955858719 -1.8500196228
14.5886463650 -18.9157946247 -1.8500196428
17.1335661908 -18.3634335706 -1.8500190977
14.9486186184 -18.7399759943 -1.8500194693
14.6741138368 -18.8512519303 -1.8500195791
14.5786128480 -18.8938022665 -1.8500196211
14.4996157940 -18.9305511130 -1.8500196573
14.4947855057 -18.8793637378 -1.8500196068
14.4789004041 -18.8868680070 -1.8500196142
14.1699034560 -19.0170686536 -1.8500197427
14.9311435068 -18.6432670751 -1.8500193738
14.3625748616 -18.8895688513 -1.8500196169
18.0990089299 -18.2893799713 -1.8500190246
15.0576921038 -18.5209555092 -1.8500192531
14.7130205170 -18.6248666582 -1.8500193557
14.0497477186 -18.8348153204 -1.8500195628
15.7534960444 -18.1795463066 -1.8500189163
14.7352002681 -18.4855759493 -1.8500192182
14.2003059839 -18.7277002978 -1.8500194572
14.5426980261 -18.4078324975 -1.8500191415
13.9783062943 -18.6259816652 -1.8500193568
13.6829223360 -18.2089444048 -1.8500189453
13.7071711148 -18.1680602720 -1.8500189049
18.4648800936 -24.3402112005 -1.8500249953
18.4902037512 -24.3655286354 -1.8500250203
18.4898318603 -24.3555206509 -1.8500250104
18.4895345973 -24.3488506651 -1.8500250038
18.4828941781 -24.2690238102 -1.8500249251
18.5147953076 -24.3817816631 -1.8500250363
18.5147291844 -24.3783724890 -1.8500250330
18.5131493568 -24.3374873508 -1.8500249926
18.5107250175 -24.3034767253 -1.8500249591
18.5098016427 -24.2932890696 -1.8500249490
18.4986009913 -24.2088022994 -1.8500248656
18.4843883842 -24.1386325533 -1.8500247964
18.5331863103 -24.2840708714 -1.8500249399
18.5003441830 -24.1026990599 -1.8500247610
18.5614186200 -24.3347635011 -1.8500249899
18.5462600581 -24.2006810634 -1.8500248576
18.5376280817 -24.1553109260 -1.8500248129
18.5209597387 -24.0862476007 -1.8500247447
18.5171374130 -24.0725600357 -1.8500247312
18.5797438913 -24.2647936678 -1.8500249209
18.5582170670 -24.1361679522 -1.8500247940
18.5242942656 -24.0139947526 -1.8500246734
18.5219758176 -24.0071268528 -1.8500246666
18.6108779422 -24.3578827506 -1.8500250128
18.6010773763 -24.2400666423 -1.8500248965
18.5856947741 -24.1489812386 -1.8500248066
18.5224622451 -23.8209708603 -1.8500244830
18.6415897300 -24.0695421770 -1.8500247282
18.5440729521 -23.8101397649 -1.8500244723
18.9059733029 -24.1534611486 -1.8500248110
18.3696473708 -21.2302886889 -1.8500219266
18.3709271244 -20.7015314673 -1.8500214048
18.4789387849 -20.6569385727 -1.8500213608
17.6207696761 -20.2361386938 -1.8500209456
16.1763266802 -18.4105308115 -1.8500191442
16.9443887051 -18.2843714166 -1.8500190197
16.9081995322 -18.2869510467 -1.8500190222
16.0065932623 -18.3970664387 -1.8500191309
16.2880435070 -18.3158434061 -1.8500190507
16.9028293639 -18.2146310714 -1.8500189509
14.6932250802 -18.6141264944 -1.8500193451
15.6467845198 -18.1883186007 -1.8500189249
15.3321115222 -18.2075320828 -1.8500189439
18.4465750784 -24.3253170341 -1.8500248614
18.4676088578 -24.3090015249 -1.8500248453
18.4822024611 -24.2694715658 -1.8500248063
18.4710454528 -24.2337833092 -1.8500247711
18.4984559448 -24.2397549366 -1.8500247770
18.4780447178 -24.1831168054 -1.8500247211
18.4743925267 -24.1742010991 -1.8500247123
18.4734630151 -24.1719789737 -1.8500247101
18.4667729533 -24.1565024444 -1.8500246948
18.4947859453 -24.1603324290 -1.8500246986
18.4928379439 -24.1557705260 -1.8500246941
18.4762894544 -24.1197064035 -1.8500246585
18.4876725893 -24.0886039714 -1.8500246278
18.4864898077 -24.0863429357 -1.8500246256
18.4804758582 -24.0750907833 -1.8500246145
18.4797175021 -23.9805383527 -1.8500245212
18.8772157277 -24.1561692456 -1.8500246945
18.8711567998 -24.1357317339 -1.8500246743
18.8796157190 -24.0838793212 -1.8500246232
18.8772086602 -24.0770419740 -1.8500246164
18.8710144076 -24.0600119562 -1.8500245996
18.8717427713 -23.9966693166 -1.8500245371
18.8949545353 -23.8763153628 -1.8500244184
18.9163904272 -23.8651422782 -1.8500244073
18.9145831928 -23.8112441924 -1.8500243541
18.3856524662 -21.0040225363 -1.8500215841
18.2794638906 -20.9365368774 -1.8500215175
18.2937801751 -20.9143291719 -1.8500214956
18.5510251616 -20.7419203477 -1.8500213255
18.5614644542 -20.6947148152 -1.8500212789
18.5150187754 -20.6353699777 -1.8500212203
17.3509456956 -20.4995127826 -1.8500210863
18.0272719344 -20.4695686095 -1.8500210567
17.3724437159 -20.4733013613 -1.8500210604
17.0847808602 -20.4843912424 -1.8500210714
17.0252008256 -20.4207450330 -1.8500210086
17.9205491921 -20.1966981965 -1.8500207875
18.2272363454 -20.1975307336 -1.8500207883
18.5611749785 -20.1515981130 -1.8500207430
17.4267864063 -20.0327512485 -1.8500206257
15.4705628110 -18.2666839321 -1.8500188830
15.3335445745 -18.2920969953 -1.8500189081
14.8951167963 -18.3728298348 -1.8500189878
14.4720012577 -18.3396639655 -1.8500189550
11.8935440774 -19.6378058226 -1.8500202360
12.8085936443 -18.6807978425 -1.8500192917
11.8354251950 -18.9029909400 -1.8500195109
12.2033319102 -17.9263673202 -1.8500185472
12.1683314641 -17.9242716037 -1.8500185452
12.4759261428 -17.6149325199 -1.8500182399
12.0593966501 -17.9539219326 -1.8500185744
12.4612572718 -17.5957189959 -1.8500182210
12.4408937303 -17.6113135958 -1.8500182363
12.0629690777 -17.9188847480 -1.8500185398
12.5557480382 -17.4644809021 -1.8500180915
13.0756440799 -16.8825737414 -1.8500175173
12.4624022785 -17.2931216183 -1.8500179224
13.3941951860 -16.5864206257 -1.8500172250
18.8392036329 -24.1793922135 -1.8500248366
18.8563333628 -24.1584099137 -1.8500248159
18.8457652972 -24.1359730101 -1.8500247938
18.8446720878 -24.1337467298 -1.8500247916
18.8391075197 -24.1226643719 -1.8500247807
18.8528746004 -24.0479098911 -1.8500247069
18.8527318894 -23.9191898214 -1.8500245799
18.2639235802 -20.6965593895 -1.8500213999
17.7774923292 -20.6815033587 -1.8500213851
17.8894299313 -20.6497152383 -1.8500213537
17.6021196927 -20.6512865026 -1.8500213553
17.2013757324 -20.6493559528 -1.8500213534
18.1897302820 -20.5005017135 -1.8500212065
17.6548233455 -20.4990082206 -1.8500212050
18.1789146209 -20.4518969074 -1.8500211585
16.7527724592 -20.6020729211 -1.8500213067
17.1764490763 -20.4318980099 -1.8500211388
17.1163152111 -20.4458942373 -1.8500211526
17.0744744309 -20.4312669053 -1.8500211382
18.3648022991 -20.1694376446 -1.8500208798
16.1077045922 -20.1575397655 -1.8500208681
15.0626762406 -20.4712240462 -1.8500211776
15.0799829464 -19.8983394117 -1.8500206123
11.5821516256 -21.1653921721 -1.8500218626
11.5906295220 -21.0965249432 -1.8500217946
11.5805768198 -21.1157739656 -1.8500218136
11.5895618787 -21.0467682402 -1.8500217455
11.5579848614 -21.0547355344 -1.8500217534
11.5781330259 -20.8657068702 -1.8500215668
25.5643893839 -21.2778111740 -1.8500219735
25.9615724523 -21.1613889717 -1.8500218586
25.9537588389 -21.0820391446 -1.8500217803
25.9657355229 -21.0490848991 -1.8500217478
25.9672320655 -20.9927200873 -1.8500216922
25.9568093860 -20.9694409734 -1.8500216692
25.9692811606 -20.7659045104 -1.8500214684
25.9575390381 -20.6855924810 -1.8500213891
25.9679217536 -20.6517206641 -1.8500213557
25.9449900972 -20.6051952580 -1.8500213098
25.9433702608 -20.5479274318 -1.8500212533
25.9531863109 -20.5137781361 -1.8500212196
25.9509280824 -20.4562722771 -1.8500211628
25.9603750077 -20.4219101727 -1.8500211289
25.9238352586 -20.3522491669 -1.8500210602
25.9696872133 -20.3874568497 -1.8500210949
25.9291896718 -20.2598899201 -1.8500209690
25.9630008788 -20.2716407354 -1.8500209806
25.9463144477 -20.1903241640 -1.8500209004
25.9335182274 -20.1671104390 -1.8500208775
25.9578616915 -20.0620336278 -1.8500207738
25.9265837397 -19.8631661390 -1.8500205776
25.9611125926 -19.8741009336 -1.8500205884
25.9543409786 -19.8152466325 -1.8500205303
25.9818828988 -19.7671225060 -1.8500204828
25.9807566503 -19.6720412703 -1.8500203890
25.9580611688 -19.5894189175 -1.8500203075
25.9639490628 -19.5533024869 -1.8500202718
25.9454302332 -19.4342884672 -1.8500201544
26.0105391073 -19.4912462052 -1.8500202106
25.9807409484 -19.4444889708 -1.8500201644
26.0063543199 -19.3949530735 -1.8500201156
26.0346392076 -19.0025350393 -1.8500197283
26.0310552639 -18.8294397446 -1.8500195575
26.0142329307 -18.8059812955 -1.8500195344
26.0046164215 -18.6696064031 -1.8500193998
26.0240712715 -18.6552591353 -1.8500193857
18.8378135205 -23.6846040773 -1.8500243484
18.8266024410 -23.6630990625 -1.8500243272
18.8392690363 -23.5441301440 -1.8500242098
18.4535904918 -22.1675497597 -1.8500228514
17.9870264350 -20.8877611557 -1.8500215886
17.3547725321 -20.2934165311 -1.8500210021
17.1815577448 -20.3032700682 -1.8500210119
17.5981438255 -20.2098505145 -1.8500209197
16.8786233721 -20.3330016528 -1.8500210412
17.2919359929 -20.2065869794 -1.8500209164
16.4583759727 -20.3824878904 -1.8500210900
16.0224260025 -20.3496423617 -1.8500210576
15.0171546565 -19.8655721943 -1.8500205799
15.0123119546 -19.7508249884 -1.8500204667
11.5479856244 -21.2469235798 -1.8500219430
11.5428785962 -21.1987947383 -1.8500218955
11.5468536262 -21.1313310615 -1.8500218289
11.5381151331 -21.1505061228 -1.8500218479
11.5425787694 -21.0828721993 -1.8500217811
11.5336969450 -21.1020601185 -1.8500218001
11.5248719207 -21.1212742277 -1.8500218190
11.5296257252 -21.0534591251 -1.8500217521
11.5350730020 -20.9854950084 -1.8500216850
11.5132732494 -20.9750496234 -1.8500216747
11.5458299093 -20.7999293142 -1.8500215019
11.5324294774 -20.7202661792 -1.8500214233
11.5311266502 -20.6706400865 -1.8500213744
11.5293885397 -20.5209730916 -1.8500212267
11.1897571781 -21.0410129386 -1.8500217398
24.9328614916 -20.6861642955 -1.8500213897
25.8929947368 -20.0666175009 -1.8500207783
25.9382717627 -20.1023522672 -1.8500208136
25.9480975517 -19.7073644608 -1.8500204238
26.0115396359 -19.6722344237 -1.8500203892
25.9317869519 -19.5311759058 -1.8500202500
26.0326869972 -19.6605244114 -1.8500203776
25.9326311759 -19.4366453858 -1.8500201567
25.9464432254 -19.3651561876 -1.8500200862
25.9390032122 -19.3058557739 -1.8500200276
25.9517451972 -19.2338417306 -1.8500199566
25.9579001991 -19.1977153701 -1.8500199209
25.9492819942 -19.1380455849 -1.8500198621
26.0135665288 -19.1959320946 -1.8500199192
25.9550401318 -19.1017448861 -1.8500198262
25.9457396155 -19.0419123324 -1.8500197672
25.9360080017 -18.9820155057 -1.8500197081
26.0517527782 -19.0739509636 -1.8500197988
25.9613753182 -18.9322729720 -1.8500196590
26.0573208640 -19.0373474182 -1.8500197627
26.0324624558 -18.9531994106 -1.8500196797
26.0375195928 -18.9164123128 -1.8500196434
25.9644146035 -18.7615328474 -1.8500194905
25.9527076815 -18.7010536950 -1.8500194309
25.9641220316 -18.5895851937 -1.8500193209
25.9676253792 -18.5522895713 -1.8500192841
18.4457952855 -23.7986981403 -1.8500244610
18.4668293206 -23.7848211566 -1.8500244473
18.4486060484 -23.7325153191 -1.8500243957
18.4599170645 -23.6962307035 -1.8500243599
18.4935439417 -23.3800867160 -1.8500240479
18.8624470945 -23.6732951836 -1.8500243372
18.9008803896 -23.6341895009 -1.8500242986
18.8973519977 -23.6234523464 -1.8500242881
18.8678851631 -23.4279238221 -1.8500240951
18.8670537253 -23.3747676124 -1.8500240427
18.9172589131 -23.3658471285 -1.8500240339
18.1349278090 -21.0455427849 -1.8500217443
18.0424502251 -20.2068218753 -1.8500209167
17.9859185011 -20.2020156087 -1.8500209119
17.6571455772 -20.1906599420 -1.8500209007
17.7026178804 -20.1663757890 -1.8500208768
17.9094081658 -20.1484242815 -1.8500208591
18.5096787230 -20.1309474142 -1.8500208418
17.8097324197 -20.0231272578 -1.8500207354
17.0433100969 -19.9268515491 -1.8500206404
17.9550417330 -19.7879101805 -1.8500205033
17.2014998917 -19.6860378499 -1.8500204028
16.7090191123 -19.5471622524 -1.8500202658
13.8944988407 -18.3726809808 -1.8500191068
11.7942014137 -19.9845698439 -1.8500206974
11.8028913295 -19.8872911760 -1.8500206014
11.8060562744 -19.7580965627 -1.8500204739
11.8186248255 -19.5788058426 -1.8500202970
12.4012549959 -17.5249880404 -1.8500182704
12.9824057309 -16.8312196084 -1.8500175858
12.3233854974 -17.3083263075 -1.8500180566
13.0203380023 -16.7490408505 -1.8500175047
12.9345557182 -16.8047949667 -1.8500175597
26.0511217399 -21.6439592413 -1.8500223348
26.0743695728 -21.6373355303 -1.8500223282
26.0672655892 -21.6125412635 -1.8500223038
26.0904937262 -21.6058488102 -1.8500222972
26.0760258758 -21.5561865551 -1.8500222482
26.0686818316 -21.5313877438 -1.8500222237
18.4540821716 -23.7329749746 -1.8500242769
18.4810450486 -23.7594852982 -1.8500243031
18.4748276851 -23.7043047115 -1.8500242486
18.4719719159 -23.6849133259 -1.8500242295
18.4698770587 -23.6720152141 -1.8500242168
18.4670441130 -23.6559289126 -1.8500242009
18.5042115255 -23.7474105621 -1.8500242912
18.4978394027 -23.6943841092 -1.8500242388
18.4968666312 -23.6877787483 -1.8500242323
18.4908191277 -23.6515603935 -1.8500241966
18.4806801711 -23.6025271595 -1.8500241482
18.4791642434 -23.5960249260 -1.8500241418
18.4776098729 -23.5895317751 -1.8500241354
18.5175511111 -23.6639824150 -1.8500242088
18.4986469371 -23.5739041168 -1.8500241200
18.4978090312 -23.5705988553 -1.8500241167
18.4925766067 -23.5508206528 -1.8500240972
18.4888936603 -23.5376881241 -1.8500240842
18.4830785345 -23.5180733370 -1.8500240649
18.4790087715 -23.5050554863 -1.8500240520
18.5535870637 -23.7566486867 -1.8500243003
18.5532895089 -23.7531801028 -1.8500242969
18.5072068080 -23.5143273565 -1.8500240612
18.5051685964 -23.5076697262 -1.8500240546
18.4909643079 -23.4647022741 -1.8500240122
18.4898033968 -23.4614202170 -1.8500240090
18.4862624817 -23.4515948516 -1.8500239993
18.5749523254 -23.7263268769 -1.8500242704
18.5536968498 -23.5966683602 -1.8500241424
18.5463909575 -23.5655396596 -1.8500241117
18.5001903561 -23.4200292427 -1.8500239681
18.4909335899 -23.3969468099 -1.8500239453
18.5680780583 -23.5526745320 -1.8500240990
18.5556399489 -23.4301787123 -1.8500239781
18.5543766279 -23.4267054839 -1.8500239747
18.5284355748 -23.3614615355 -1.8500239103
18.5085928277 -23.3177076394 -1.8500238671
18.5894861131 -23.4539803197 -1.8500240016
18.5404131051 -23.2727633184 -1.8500238228
18.5209076861 -23.1863524981 -1.8500237375
18.6249503608 -23.2256607511 -1.8500237763
18.8892017142 -23.7103648224 -1.8500242546
18.9626747842 -23.7174506620 -1.8500242616
18.8963556861 -23.3817256551 -1.8500239303
18.4766819504 -20.2046987980 -1.8500207954
18.4658774220 -20.2014732546 -1.8500207922
18.3355096346 -20.1652686430 -1.8500207565
18.4509834456 -20.1719047456 -1.8500207630
18.2922395043 -20.1045739551 -1.8500206966
18.0013352609 -20.0456384477 -1.8500206384
17.9223159273 -20.0336086472 -1.8500206266
18.3980985888 -20.1068341337 -1.8500206988
18.2979466319 -20.0810842983 -1.8500206734
17.9938770681 -20.0199496403 -1.8500206131
17.7684081821 -19.9663618743 -1.8500205602
18.4331958114 -20.0663347332 -1.8500206588
17.9670201629 -19.9668547922 -1.8500205607
17.8662598652 -19.9286396235 -1.8500205230
17.8368964465 -19.8764552874 -1.8500204715
17.4469071682 -19.8509561394 -1.8500204463
17.9932148966 -19.8730365594 -1.8500204681
17.6633125885 -19.8119161999 -1.8500204078
17.2678594424 -19.8036427008 -1.8500203996
16.8828639476 -19.7110180111 -1.8500203082
17.5378991635 -19.6357745422 -1.8500202340
17.0635627786 -19.6447960780 -1.8500202429
16.7533128297 -19.6797528773 -1.8500202774
17.5809061415 -19.5165970405 -1.8500201164
18.4872537615 -19.6302613802 -1.8500202285
18.1380550486 -19.5294024816 -1.8500201290
16.6255751922 -19.5290830186 -1.8500201287
17.9873611975 -19.4813119470 -1.8500200816
17.1127361203 -19.4234029849 -1.8500200244
16.7633223702 -19.2876461109 -1.8500198905
16.1166535198 -19.3474881733 -1.8500199495
16.5239967553 -19.0315270114 -1.8500196377
16.5032168541 -18.3486698837 -1.8500189639
17.5068702183 -18.2322300826 -1.8500188490
17.4070475527 -18.2308800933 -1.8500188477
17.1231734115 -18.2125287514 -1.8500188296
17.0382799328 -18.1928289948 -1.8500188102
16.0601724027 -18.3383532928 -1.8500189538
17.6432392149 -18.1643433539 -1.8500187820
15.4889975617 -18.4303734902 -1.8500190446
16.7773159159 -18.1174393285 -1.8500187358
15.5217032980 -18.3680081814 -1.8500189830
15.6612974565 -18.2973670094 -1.8500189133
15.5629215514 -18.3287623163 -1.8500189443
15.0486700667 -18.5253426175 -1.8500191383
14.9877133021 -18.4729697407 -1.8500190866
16.0324633071 -18.0716772761 -1.8500186906
15.8047004639 -18.1044836070 -1.8500187230
14.4965802847 -18.5536674219 -1.8500191662
14.3552290048 -18.5215908154 -1.8500191346
13.4829578021 -18.8428252807 -1.8500194515
13.3048742719 -18.8923248003 -1.8500195004
13.2890014895 -18.8428368170 -1.8500194516
13.0062687180 -18.9571620902 -1.8500195644
12.7945419388 -18.9873805010 -1.8500195942
13.3996307421 -18.0948490075 -1.8500187135
12.4334718289 -17.4542206398 -1.8500180813
12.5334215851 -17.3480353713 -1.8500179766
12.6160474628 -17.2574539438 -1.8500178872
12.5239266849 -17.2948675010 -1.8500179241
13.0409628008 -16.6581475036 -1.8500172958
18.4658003217 -23.9046817376 -1.8500245656
18.4747408648 -23.7760008236 -1.8500244386
18.4750137717 -23.7447197477 -1.8500244077
18.4924108940 -23.8837833757 -1.8500245449
18.4989847462 -23.7725165535 -1.8500244351
18.4990489297 -23.7685351894 -1.8500244312
18.4987107538 -23.7127938393 -1.8500243762
18.4984740081 -23.7048336050 -1.8500243684
18.4974812647 -23.6809632562 -1.8500243448
18.4945616323 -23.6372618973 -1.8500243017
18.4942257274 -23.6332942094 -1.8500242978
18.5230767060 -23.7769945969 -1.8500244396
18.5233409984 -23.7405161115 -1.8500244036
18.5231467142 -23.7243038057 -1.8500243876
18.5223451865 -23.6959418983 -1.8500243596
18.5221827461 -23.6918917649 -1.8500243556
18.5218219259 -23.6837930282 -1.8500243476
18.5071551566 -23.5386792003 -1.8500242044
18.5387620301 -23.9050368015 -1.8500245659
18.5431106192 -23.8598737819 -1.8500245213
18.5440413444 -23.8475341748 -1.8500245092
18.5475160635 -23.7568689607 -1.8500244197
18.5474391283 -23.7321200086 -1.8500243953
18.5297528293 -23.5268234169 -1.8500241927
18.5270295850 -23.5105502031 -1.8500241766
18.5210064199 -23.4781061349 -1.8500241446
18.5687230653 -23.8408718347 -1.8500245026
18.5716154708 -23.7654008239 -1.8500244281
18.5716861646 -23.7402228074 -1.8500244033
18.5657320841 -23.6187100839 -1.8500242834
18.5591335578 -23.5603363368 -1.8500242258
18.5542795060 -23.5271186428 -1.8500241930
18.5350223388 -23.4282845991 -1.8500240955
18.5801004408 -23.5359957364 -1.8500242018
18.5632381888 -23.4436449645 -1.8500241106
18.5438674827 -23.3649131506 -1.8500240329
18.6198945889 -23.7269119911 -1.8500243901
18.6163472045 -23.6445501403 -1.8500243089
18.5683174938 -23.3626653682 -1.8500240307
18.5511157941 -23.3044041266 -1.8500239732
18.6439924924 -23.7221404904 -1.8500243854
18.6379454545 -23.6120582664 -1.8500242768
18.6347951797 -23.5813434215 -1.8500242465
18.6245028634 -23.5070752478 -1.8500241732
18.6167086449 -23.4636616449 -1.8500241304
18.6679854627 -23.7844572678 -1.8500244469
18.6683009847 -23.7665303853 -1.8500244292
