11.5239857354 -28.9732493181 -2.4098281158
11.1083566105 -27.8689854150 -2.4098252395
11.6473563563 -31.7404359748 -2.4098354618
11.4190886313 -32.1931288156 -2.4098366653
9.5254066632 -33.4736373551 -2.4098400667
9.5596014315 -33.4692849563 -2.4098400553
9.5709909379 -33.4677667417 -2.4098400513
9.5823759033 -33.4662148416 -2.4098400473
9.5742203738 -33.4917230775 -2.4098401170
9.6085737205 -33.4869367722 -2.4098401044
9.6314517693 -33.4835766121 -2.4098400956
9.6657305670 -33.4782827311 -2.4098400818
9.6771462261 -33.4764505280 -2.4098400770
9.6924930077 -33.4984348992 -2.4098401375
9.7039681635 -33.4965234398 -2.4098401324
9.7154376146 -33.4945780432 -2.4098401273
9.7726957893 -33.4843426079 -2.4098401005
9.6501914559 -33.5296362804 -2.4098402221
9.8001257234 -33.5037485814 -2.4098401543
9.8116161271 -33.5015187017 -2.4098401484
9.8345768939 -33.4969570193 -2.4098401365
9.8689664364 -33.4898599898 -2.4098401179
9.8804154539 -33.4874265276 -2.4098401115
9.5371896527 -33.5696088387 -2.4098403297
9.8854760757 -33.5110639003 -2.4098401763
9.8969877459 -33.5085815068 -2.4098401698
9.9544331786 -33.4956593432 -2.4098401359
9.9658989777 -33.4929730295 -2.4098401289
9.9773567799 -33.4902528097 -2.4098401218
9.5988773483 -33.5859482303 -2.4098403754
10.0060055362 -33.5081880975 -2.4098401717
10.0175081719 -33.5053491687 -2.4098401642
9.8955973193 -33.5583386458 -2.4098403059
9.9537788314 -33.5454316045 -2.4098402721
10.0579999213 -33.5200359772 -2.4098402056
10.0695373777 -33.5170431877 -2.4098401977
10.1040959213 -33.5078602248 -2.4098401737
10.0988279049 -33.5343083873 -2.4098402459
10.1104074030 -33.5311947588 -2.4098402377
10.1450899245 -33.5216485401 -2.4098402127
10.1911989082 -33.5084421855 -2.4098401781
9.7399033955 -33.6375378128 -2.4098405192
9.7992733243 -33.6269248817 -2.4098404914
10.2211244158 -33.5247928923 -2.4098402238
10.2396741287 -33.5444551771 -2.4098402782
10.2744692386 -33.5337612666 -2.4098402502
9.5548641370 -33.7135660642 -2.4098407242
10.3281889702 -33.5420109563 -2.4098402747
10.3860816710 -33.5227075032 -2.4098402241
10.2419156833 -33.5942676413 -2.4098404145
10.4055088900 -33.5415956307 -2.4098402765
10.4402720926 -33.5294301422 -2.4098402446
9.6219793713 -33.7535749745 -2.4098408348
9.9017964497 -33.7052616674 -2.4098407082
9.8092083627 -33.7480012596 -2.4098408231
9.8823826853 -33.7339129952 -2.4098407862
10.5496772072 -33.5406513778 -2.4098402798
9.7397321172 -33.7846389299 -2.4098409220
9.8012777471 -33.7740124416 -2.4098408941
9.8135676351 -33.7717779715 -2.4098408883
10.0213886572 -33.7282482379 -2.4098407742
10.5932490017 -33.5497119830 -2.4098403064
10.6254368605 -33.5629779323 -2.4098403440
10.6370988642 -33.5583063738 -2.4098403318
9.8222861800 -33.8193313952 -2.4098410186
9.8719400838 -33.8099237648 -2.4098409940
10.6928939083 -33.5615937389 -2.4098403433
10.0008974182 -33.8074160567 -2.4098409903
10.4287617962 -33.6869205214 -2.4098406746
10.7256133048 -33.5740796999 -2.4098403789
10.7489873703 -33.5641092333 -2.4098403528
10.3954773067 -33.7489008730 -2.4098408427
10.5008615585 -33.7387593001 -2.4098408190
10.9527427407 -33.5776372052 -2.4098403997
10.9984586231 -33.5823122787 -2.4098404149
10.3250807530 -33.8721666369 -2.4098411773
11.2774347508 -33.5997066356 -2.4098404777
10.8507686818 -33.9409991321 -2.4098413864
10.8763113755 -33.9302817826 -2.4098413584
10.8214251968 -33.9791908407 -2.4098414894
10.6272355162 -30.0556956889 -2.4098306476
10.6253094061 -30.1144896213 -2.4098308016
11.2305681834 -28.9705592285 -2.4098278042
11.1756721236 -28.7452713753 -2.4098272139
9.0040570499 -33.4824463145 -2.4098396268
9.0650605635 -33.4841074699 -2.4098396311
9.1749030158 -33.4848232643 -2.4098396330
8.9909515234 -33.5061617814 -2.4098396889
9.0032203657 -33.5066048584 -2.4098396901
9.0154904650 -33.5070116400 -2.4098396911
9.0645812849 -33.5082757461 -2.4098396944
9.0768560586 -33.5085010037 -2.4098396950
9.1627906124 -33.5090610009 -2.4098396965
9.1873436993 -33.5088941511 -2.4098396961
9.2364447632 -33.5081246780 -2.4098396940
9.2609910215 -33.5075220818 -2.4098396925
8.9653669944 -33.5293169245 -2.4098397496
9.3110213054 -33.5300356048 -2.4098397515
9.3603638666 -33.5278012409 -2.4098397456
9.0263742348 -33.5557082650 -2.4098398187
9.4235924975 -33.5483079831 -2.4098397993
9.0877863148 -33.6053727044 -2.4098399489
9.7017741647 -33.5693741948 -2.4098398545
9.7266746517 -33.5660174817 -2.4098398457
9.7391173389 -33.5642838947 -2.4098398412
9.4172861105 -33.6456085449 -2.4098400543
9.0867774672 -33.6778847708 -2.4098401389
9.2020779491 -33.7021248523 -2.4098402024
9.3176755804 -33.6991159096 -2.4098401945
9.2669736718 -33.7249970592 -2.4098402623
10.1368971138 -33.6129631275 -2.4098399688
8.9169766978 -33.7448010023 -2.4098403142
9.3466308828 -33.7704742290 -2.4098403815
9.3477243820 -33.7946225114 -2.4098404448
9.7302011638 -33.7850662521 -2.4098404197
9.9779204033 -33.7453075268 -2.4098403155
10.6231959508 -33.8529600256 -2.4098405976
10.6019349250 -30.0958130590 -2.4098309911
10.6242713103 -30.1062625895 -2.4098310185
10.6639082451 -30.0500816784 -2.4098308713
11.0930745958 -29.1249854338 -2.4098284472
11.0689783843 -28.8272304418 -2.4098276670
11.0634798190 -28.7956629236 -2.4098275843
11.0345705748 -28.6653479593 -2.4098272428
11.0767107386 -28.7382225740 -2.4098274338
11.0324990006 -28.5708422603 -2.4098269952
11.0292121714 -28.5605292832 -2.4098269682
11.1352035515 -29.2729720049 -2.4098288350
11.1372457560 -29.2456306328 -2.4098287634
11.1389984047 -29.0264232993 -2.4098281890
11.1014881611 -28.7385256790 -2.4098274346
11.0771251317 -28.6372407449 -2.4098271692
11.0604315369 -28.5792804142 -2.4098270173
11.0074768512 -28.4293849202 -2.4098266245
10.9949269395 -28.3989716073 -2.4098265449
11.1639182932 -29.0418338897 -2.4098282294
11.1396166344 -28.8099410754 -2.4098276217
11.0319688110 -28.4255196023 -2.4098266144
11.1791722440 -29.3217432650 -2.4098289628
11.1803254303 -29.3105493777 -2.4098289335
11.1862047879 -29.2376451143 -2.4098287424
11.1510833395 -28.7395618244 -2.4098274373
11.1281290700 -28.6409313158 -2.4098271789
11.0480985787 -28.4009133453 -2.4098265499
11.1695673431 -29.5323123694 -2.4098295146
11.1515186939 -28.6348271550 -2.4098271629
11.0726212072 -28.3970356364 -2.4098265398
11.0040065637 -28.2467659065 -2.4098261460
11.2330808732 -28.9811678666 -2.4098280704
11.1627254978 -28.5842042071 -2.4098270302
11.0702070493 -28.3295367225 -2.4098263629
11.2620087307 -29.1545411140 -2.4098285247
11.2599954749 -29.0260753990 -2.4098281881
11.1504952660 -28.4662587845 -2.4098267212
11.2354069468 -29.8941219509 -2.4098304626
11.4071566032 -29.0942886991 -2.4098283668
11.2012604453 -28.2095886747 -2.4098260486
11.2248675371 -31.7078222066 -2.4098352151
8.6206393665 -33.5354867791 -2.4098400042
8.7252818670 -33.5500363895 -2.4098400423
8.8302393576 -33.5621057418 -2.4098400739
8.8565210627 -33.5647347169 -2.4098400808
8.9091288340 -33.5695259683 -2.4098400934
8.9617896149 -33.5736944047 -2.4098401043
8.3557762019 -33.5119647364 -2.4098399425
8.5121937913 -33.5422745260 -2.4098400219
8.7617746137 -33.5788599428 -2.4098401178
8.7749633835 -33.5803963247 -2.4098401218
8.8013542692 -33.5833520109 -2.4098401296
8.8409722306 -33.5874926549 -2.4098401404
9.1191081138 -33.6066133873 -2.4098401905
9.1456480853 -33.6075325388 -2.4098401929
9.1721930304 -33.6082946549 -2.4098401949
8.2855692740 -33.5212698450 -2.4098399669
8.3638197794 -33.5383634058 -2.4098400117
9.1048606917 -33.6302481043 -2.4098402525
9.1982627492 -33.6330679852 -2.4098402599
9.2383062824 -33.6336843313 -2.4098402615
9.2516551476 -33.6338108064 -2.4098402618
9.2917031704 -33.6339532957 -2.4098402622
8.6895274935 -33.6185171478 -2.4098402217
8.7694403333 -33.6284258682 -2.4098402477
8.9698815657 -33.6469800188 -2.4098402963
9.3185661448 -33.6580233083 -2.4098403252
8.4730986172 -33.6089618082 -2.4098401967
9.2377767389 -33.6820274871 -2.4098403881
9.6287393426 -33.6695357849 -2.4098403554
9.6825331090 -33.6651824542 -2.4098403440
9.1145674242 -33.7273932043 -2.4098405070
9.8223667431 -33.6995370254 -2.4098404340
8.2854754037 -33.6451257951 -2.4098402914
9.6478282817 -33.7408068973 -2.4098405422
9.8931817218 -33.7150946060 -2.4098404748
8.5508991296 -33.7203419518 -2.4098404885
8.6735909506 -33.7383270333 -2.4098405357
9.9782024614 -33.7275313930 -2.4098405074
9.9918257059 -33.7254687108 -2.4098405020
8.3291762151 -33.7039902523 -2.4098404457
9.0288335752 -33.7960023951 -2.4098406868
9.0980035502 -33.7993203032 -2.4098406955
8.7086401917 -33.7915740405 -2.4098406752
8.5809063986 -33.7984047518 -2.4098406931
9.0401328939 -33.8450275971 -2.4098408153
8.6608417164 -33.8341749416 -2.4098407868
8.9406110613 -33.8629965815 -2.4098408623
10.2555580463 -33.7761374576 -2.4098406347
9.0338063208 -33.9657270441 -2.4098411315
9.2340699346 -34.0204295777 -2.4098412749
9.7814380472 -34.1172542119 -2.4098415286
8.4749829500 -34.0998576667 -2.4098414830
9.2022311580 -34.1892134517 -2.4098417171
9.0361993340 -34.2078922826 -2.4098417661
8.2514106717 -34.3049156273 -2.4098420203
11.0314745767 -28.8331426055 -2.4098274441
11.0294839228 -28.8008262347 -2.4098273594
11.0263901240 -28.7639530012 -2.4098272628
10.9969093180 -28.5767323541 -2.4098267722
10.9804849865 -28.5093283903 -2.4098265956
11.0444435438 -29.1178144033 -2.4098281900
11.0531065505 -29.0337240617 -2.4098279697
11.0557561864 -28.9915357415 -2.4098278591
11.0576905862 -28.9164162060 -2.4098276623
11.0576823346 -28.9070222918 -2.4098276377
11.0574991013 -28.8882354319 -2.4098275885
11.0490464870 -28.7476265271 -2.4098272200
11.0380007660 -28.6638158758 -2.4098270004
11.0085823496 -28.5212648579 -2.4098266269
11.0013853829 -28.4940179063 -2.4098265555
11.0768404862 -29.0403144275 -2.4098279870
11.0818298371 -28.9021611452 -2.4098276250
11.0802169501 -28.8401957894 -2.4098274626
11.0661151726 -28.6883148390 -2.4098270646
11.0647572492 -28.6788750743 -2.4098270399
11.0377206495 -28.5384467828 -2.4098266719
11.0234357087 -28.4830399393 -2.4098265267
11.0128237398 -28.4463988111 -2.4098264307
10.5807712503 -30.1143263684 -2.4098308012
11.0788602644 -29.2101001408 -2.4098284319
11.0600997391 -28.5281224938 -2.4098266449
11.0530163684 -28.4999601222 -2.4098265711
10.6604616911 -30.0703499608 -2.4098306860
11.1277816866 -28.8232925818 -2.4098274183
11.1088420727 -28.6475802395 -2.4098269579
11.0881037555 -28.5415556750 -2.4098266801
11.0812543884 -28.5128941672 -2.4098266050
10.6777954265 -30.0871986076 -2.4098307301
11.1216996552 -29.2433425446 -2.4098285190
11.1281831827 -29.2090700478 -2.4098284292
11.1290514187 -29.2041632742 -2.4098284163
11.1347221313 -29.1697469527 -2.4098283261
11.1369340471 -29.1549625532 -2.4098282874
11.1427814073 -29.1104997358 -2.4098281709
11.1543854823 -28.9116343084 -2.4098276498
11.1528798457 -28.8418935594 -2.4098274670
11.1519193147 -28.8219848377 -2.4098274149
10.6374100595 -30.1606827860 -2.4098309227
11.0925680788 -29.4483364294 -2.4098290561
11.1570433011 -29.1834161437 -2.4098283619
10.6350846313 -30.1957063912 -2.4098310145
11.1248989646 -29.4266162546 -2.4098289992
11.1955898557 -29.0702820280 -2.4098280655
11.1962286764 -28.7631253150 -2.4098272606
11.1249903315 -29.5028102689 -2.4098291988
11.1464386478 -29.4387414308 -2.4098290310
11.1890523237 -28.5503715814 -2.4098267032
11.1726274328 -29.4359083789 -2.4098290235
11.1358732485 -29.6086886727 -2.4098294763
11.1914789665 -29.5322450813 -2.4098292760
11.2758752249 -28.6205181826 -2.4098268870
11.1563452427 -29.6825901612 -2.4098296699
11.3132681710 -29.1085299471 -2.4098281657
11.2785777363 -29.5756791882 -2.4098293898
11.1901162841 -30.0667802946 -2.4098306766
10.9624704916 -31.7793285103 -2.4098351640
10.8454647807 -31.8906255356 -2.4098354557
10.7104978449 -32.1054681801 -2.4098360186
10.4229617214 -32.2782117129 -2.4098364713
10.2431201476 -32.4231053301 -2.4098368509
10.5736806073 -32.4856754427 -2.4098370149
8.4676778423 -33.6348926433 -2.4098400262
8.2253893647 -33.6019072056 -2.4098399398
8.6317121013 -33.6912973150 -2.4098401740
8.8587223857 -33.7256040196 -2.4098402639
8.9442315901 -33.7356934254 -2.4098402903
9.0299063943 -33.7442636093 -2.4098403128
9.1014090943 -33.7502429503 -2.4098403285
8.0389447385 -33.5737009437 -2.4098398659
8.0803611829 -33.5862164103 -2.4098398987
8.1774194870 -33.6139862477 -2.4098399714
8.3030172021 -33.6467270226 -2.4098400572
8.7414021526 -33.7336954374 -2.4098402851
8.7556654920 -33.7358293967 -2.4098402907
9.1139549071 -33.7754203846 -2.4098403944
9.3011588337 -33.7855107009 -2.4098404209
8.0318496714 -33.5968092821 -2.4098399264
8.1849916749 -33.6411160317 -2.4098400425
8.2129866112 -33.6486352789 -2.4098400622
8.2270006393 -33.6523327590 -2.4098400719
8.4384473452 -33.7028010425 -2.4098402042
9.3148077731 -33.8101494847 -2.4098404854
7.7353347198 -33.5211205475 -2.4098397281
7.8861712129 -33.5751142701 -2.4098398696
7.9137808904 -33.5844025946 -2.4098398939
7.9552972348 -33.5980283988 -2.4098399296
7.9969328656 -33.6112852322 -2.4098399644
8.1085194268 -33.6448250826 -2.4098400522
8.3480939746 -33.7072773044 -2.4098402159
8.5761779491 -33.7549850205 -2.4098403409
8.6335317834 -33.7652210865 -2.4098403677
9.4451025957 -33.8367155935 -2.4098405551
9.5616180685 -33.8359238854 -2.4098405530
7.6313114541 -33.5066590009 -2.4098396902
7.6721489909 -33.5227946243 -2.4098397325
7.6994528736 -33.5333500919 -2.4098397601
7.7817325189 -33.5640447028 -2.4098398406
7.8507062415 -33.5885047309 -2.4098399047
7.8783957621 -33.5980026438 -2.4098399296
7.9061409911 -33.6073365699 -2.4098399540
8.0176595370 -33.6430259589 -2.4098400475
8.0316578264 -33.6473012764 -2.4098400587
8.1581940612 -33.6839104963 -2.4098401547
8.8755910756 -33.8251278134 -2.4098405247
9.0502966328 -33.8431260208 -2.4098405719
7.5406945023 -33.4955828767 -2.4098396612
7.7596667237 -33.5817283972 -2.4098398869
7.9264368765 -33.6394849566 -2.4098400383
8.0387104753 -33.6746850765 -2.4098401305
8.6253193061 -33.8128645157 -2.4098404926
9.8416311805 -33.8712090442 -2.4098406454
7.5722559061 -33.5348846190 -2.4098397642
8.2597437478 -33.7605204465 -2.4098403554
9.6663809941 -33.9054325447 -2.4098407351
9.9170862462 -33.8892447847 -2.4098406927
7.8129478765 -33.6521497919 -2.4098400714
8.2827275366 -33.7910827778 -2.4098404355
9.2505682757 -33.9528724482 -2.4098408594
7.7264071744 -33.6725202850 -2.4098401248
10.2064568548 -33.9280155832 -2.4098407943
7.9319422409 -33.7682185954 -2.4098403756
10.0456433474 -33.9733419679 -2.4098409131
7.7239985752 -33.7231019898 -2.4098402574
10.0934730945 -33.9920262454 -2.4098409620
7.4890639038 -33.6574173638 -2.4098400852
7.5453393769 -33.6805234986 -2.4098401458
8.8674636982 -34.0189163770 -2.4098410325
7.5646624834 -33.7142950353 -2.4098402343
8.0416812398 -33.8771313137 -2.4098406610
10.0841955163 -34.0418516053 -2.4098410926
7.9760864385 -33.8830342735 -2.4098406764
8.2278027011 -33.9518424787 -2.4098408567
9.1522791962 -34.0929520036 -2.4098412265
9.9038067873 -34.0845104539 -2.4098412044
10.3453076773 -34.0283153293 -2.4098410571
8.1323687135 -33.9523677554 -2.4098408581
8.8970820358 -34.1682457933 -2.4098414238
7.9563463266 -34.0032834875 -2.4098409915
7.4992265756 -33.9223638169 -2.4098407795
7.5437584608 -33.9396552497 -2.4098408248
7.4903769083 -33.9448586757 -2.4098408384
7.3400471920 -34.0143261083 -2.4098410205
7.4525718719 -34.0858181054 -2.4098412078
7.4955027071 -34.2056829974 -2.4098415219
10.9830971106 -28.8107038671 -2.4098273853
10.9844852602 -28.7109276001 -2.4098271239
10.9829756633 -28.6725700316 -2.4098270234
10.9820542358 -28.6572423270 -2.4098269832
10.9815255256 -28.6495828316 -2.4098269631
10.9806475159 -28.6380997887 -2.4098269330
11.0079633095 -28.7963446502 -2.4098273477
11.0090069147 -28.7533450902 -2.4098272350
11.0090186436 -28.7337933992 -2.4098271838
11.0088868729 -28.7220630542 -2.4098271530
11.0244097986 -28.8965497996 -2.4098276103
11.0252961704 -28.8886355262 -2.4098275895
11.0283729818 -28.8569301498 -2.4098275064
11.0293332185 -28.8450231969 -2.4098274752
11.0321164806 -28.7973242451 -2.4098273502
11.0330306585 -28.7654830462 -2.4098272668
11.0323316626 -28.6938210311 -2.4098270790
11.0321809584 -28.6898420026 -2.4098270686
11.0245933313 -28.5906072731 -2.4098268086
11.0185330268 -29.0667977948 -2.4098280564
11.0300063044 -29.0153712619 -2.4098279216
11.0346328564 -28.9914953587 -2.4098278590
11.0476711205 -28.5798225035 -2.4098267803
11.0633511270 -28.9674362928 -2.4098277960
11.0640096906 -28.9633643060 -2.4098277853
11.0772201829 -28.8528080939 -2.4098274956
11.0794346606 -28.8198840577 -2.4098274094
11.1043730312 -29.0130481657 -2.4098279155
11.1261892133 -28.6391670935 -2.4098269358
11.0675362910 -29.2391995066 -2.4098285081
11.1423987362 -28.9275893662 -2.4098276916
11.1525856523 -28.6764178500 -2.4098270334
11.1704102984 -28.8955792333 -2.4098276077
11.0988739505 -29.2933358845 -2.4098286500
11.1898210750 -29.1751126133 -2.4098283402
10.5228304076 -30.1774466897 -2.4098309666
10.5648988131 -30.1521021165 -2.4098309002
10.6265500345 -30.1117802490 -2.4098307945
10.6426829629 -30.1005691846 -2.4098307652
10.5714974411 -30.2609983765 -2.4098311855
10.8314163657 -31.7132127293 -2.4098349908
10.9361185615 -31.6707310513 -2.4098348795
10.7739238914 -31.8630077689 -2.4098353833
8.8776088923 -33.8932817396 -2.4098407033
8.3434298349 -33.8053951886 -2.4098404730
8.4786755954 -33.8393720158 -2.4098405620
8.7821476426 -33.9019117750 -2.4098407259
8.2471741708 -33.8039991935 -2.4098404693
9.4739238791 -34.0005402696 -2.4098409843
9.4894782290 -34.0011480740 -2.4098409859
8.1206489163 -33.7915943085 -2.4098404368
9.1610035958 -34.0027851039 -2.4098409902
9.6449011386 -34.0288668573 -2.4098410586
8.8625951402 -33.9888011186 -2.4098409536
9.6289993366 -34.0528902785 -2.4098411215
7.4572063739 -33.6686545186 -2.4098401147
8.1810236660 -34.0365021804 -2.4098410786
6.9295565353 -33.5617078167 -2.4098398344
6.7488711657 -33.5105978159 -2.4098397005
6.6656893326 -33.4870069127 -2.4098396387
6.6668119055 -33.5163516921 -2.4098397156
6.7235065106 -33.5517557483 -2.4098398084
6.6255771224 -33.5187493527 -2.4098397219
10.9590298402 -28.7138981249 -2.4098271316
10.9603915711 -28.6986977626 -2.4098270918
10.9615283338 -28.6834789224 -2.4098270519
10.9879927294 -28.8416330855 -2.4098274664
10.9906094946 -28.8291227358 -2.4098274336
11.0107196544 -28.6707756402 -2.4098270187
11.0295119334 -28.7371482181 -2.4098271926
11.0261284817 -28.8908151275 -2.4098275952
11.0359532483 -28.8485465950 -2.4098274845
11.0046971434 -29.0362244466 -2.4098279762
11.0012598120 -29.1059145251 -2.4098281589
11.0570588259 -28.9596528251 -2.4098277756
11.0755147546 -28.8925274671 -2.4098275997
11.0102612140 -29.2919895630 -2.4098286464
11.3692299666 -28.7408423967 -2.4098272022
11.3720910180 -28.7025389907 -2.4098271019
11.4125638881 -29.1171842110 -2.4098281884
10.5426945958 -30.1321406197 -2.4098308479
10.5380226036 -30.1600054742 -2.4098309209
10.5415259896 -30.2104880696 -2.4098310532
10.6552319786 -31.7638270181 -2.4098351234
10.6144653356 -31.8964604270 -2.4098354710
10.9515729525 -28.7662347748 -2.4098272688
10.9549201609 -28.7550385532 -2.4098272394
10.9639632632 -28.7211700470 -2.4098271507
10.9625021593 -28.8098901886 -2.4098273832
10.9641190009 -28.8053522259 -2.4098273713
10.9688080457 -28.7916820566 -2.4098273355
10.9725297439 -28.7802281377 -2.4098273055
10.9807675023 -28.7525240545 -2.4098272329
10.9538387733 -28.8936152679 -2.4098276026
11.0085351736 -28.7422278826 -2.4098272059
10.9549025756 -28.9449304444 -2.4098277370
10.9672544310 -28.9724939697 -2.4098278092
10.9815267858 -28.9961023215 -2.4098278711
11.3598262142 -28.9181194655 -2.4098276668
11.3737211180 -28.8731015048 -2.4098275488
11.3655622769 -28.9744797505 -2.4098278145
11.3827827014 -28.9256914519 -2.4098276866
11.3729578958 -29.0215355225 -2.4098279378
11.3956421730 -29.0901633670 -2.4098281176
11.3812074800 -29.2694168192 -2.4098285873
10.5056204424 -30.1409651529 -2.4098308710
10.5246091311 -30.1371925945 -2.4098308611
10.4521299887 -30.1748155183 -2.4098309597
10.4569816946 -30.1740515337 -2.4098309577
10.4715229552 -30.1716735140 -2.4098309515
10.4763652817 -30.1708521753 -2.4098309493
10.4860425397 -30.1691665425 -2.4098309449
10.5732653491 -30.1760946467 -2.4098309631
10.4944796390 -30.2167707070 -2.4098310697
10.3638021781 -30.7685267243 -2.4098325154
11.0725001902 -30.6225964444 -2.4098321330
10.1700737312 -31.8141327178 -2.4098352552
10.2089763864 -31.8383862220 -2.4098353188
9.4269734778 -31.8221207816 -2.4098352762
9.9597342185 -31.9026328508 -2.4098354871
4.6292000412 -34.5042282698 -2.4098423042
4.8553649918 -34.8346966631 -2.4098431701
4.9114874474 -34.8818463196 -2.4098432936
3.8685240413 -33.9176766712 -2.4098407672
4.7150578851 -34.8096308359 -2.4098431044
4.9988138704 -35.0465919027 -2.4098437253
11.3466225530 -28.9515415445 -2.4098277543
11.3394655196 -29.0147936495 -2.4098279201
11.3476769316 -29.0479472389 -2.4098280070
11.3540516172 -29.0375345654 -2.4098279797
10.8170423146 -30.9619473898 -2.4098330223
9.7307636610 -31.7984917014 -2.4098352143
4.1216197791 -31.7865064089 -2.4098351829
4.1162544633 -31.9822571245 -2.4098356958
4.1262715616 -32.0503080284 -2.4098358741
4.1005320980 -32.7925582374 -2.4098378190
18.5017995298 -32.1396509317 -2.4098361082
18.4684197954 -32.3260043302 -2.4098365965
18.4796909403 -32.3023294566 -2.4098365345
18.4660074662 -32.4417282032 -2.4098368997
18.4776209538 -32.4180599595 -2.4098368377
18.5569479120 -32.2514348544 -2.4098364011
18.5452143892 -32.3334050931 -2.4098366159
18.4739274616 -32.5342703135 -2.4098371422
18.4900586109 -32.6620654095 -2.4098374771
18.4991500036 -32.6969599904 -2.4098375685
10.4615938225 -30.2700390970 -2.4098312092
10.5669445746 -30.2684862987 -2.4098312052
18.4340660518 -32.5603696681 -2.4098372106
18.4341647986 -32.6175306826 -2.4098373604
18.4451266073 -32.5940262406 -2.4098372988
18.4421945241 -32.8239419169 -2.4098379013
18.4478363267 -32.9741283645 -2.4098382948
18.5244953939 -32.9834509437 -2.4098383192
18.4509372661 -33.2775076419 -2.4098390898
18.5107523092 -33.2181858716 -2.4098389343
10.9590483021 -29.5339844227 -2.4098293776
11.3493539233 -29.3162505024 -2.4098288359
11.3551172791 -29.3748605301 -2.4098289923
11.3572904675 -29.3688508140 -2.4098289766
11.3637345703 -29.4197275137 -2.4098291128
11.3673788401 -29.4106299040 -2.4098290890
11.3886259723 -29.4226215775 -2.4098291233
11.3735939480 -29.5156386910 -2.4098293699
11.3676964695 -29.5787216382 -2.4098295380
11.3777253614 -29.5603990763 -2.4098294900
11.3746285721 -29.6614441202 -2.4098297606
10.5191511008 -30.2898830404 -2.4098314159
10.5533042951 -30.2846698614 -2.4098314023
10.5224802323 -30.3138257254 -2.4098314815
10.2535720910 -32.1623776864 -2.4098365443
10.0061512903 -32.1944509844 -2.4098366342
10.0874299511 -32.2504190314 -2.4098367866
10.2316604388 -32.2584466791 -2.4098368076
10.0008997662 -32.3397182724 -2.4098370321
9.6837919155 -32.4151866752 -2.4098372442
9.5930703631 -32.4954088365 -2.4098374660
7.7106952921 -32.6718491785 -2.4098380407
7.2456538916 -34.0733918340 -2.4098418832
4.4818198512 -34.3715091867 -2.4098429035
4.5457344751 -34.4404552550 -2.4098430842
4.5618402531 -34.4575732259 -2.4098431291
4.6257911499 -34.5592930299 -2.4098433985
4.7249747451 -34.7274729882 -2.4098438449
4.7081707727 -34.7786678218 -2.4098439848
4.7941884491 -34.8613395069 -2.4098442015
4.8115381918 -34.8777206644 -2.4098442444
4.7286920315 -34.9657257540 -2.4098444894
5.1844867515 -35.3640672094 -2.4098455332
18.5552637200 -31.5425473631 -2.4098355686
18.5631574804 -31.5983767478 -2.4098357177
18.5548559287 -31.7030346557 -2.4098359949
18.5711359039 -31.9533627974 -2.4098366623
18.5762535961 -32.0102943401 -2.4098368144
18.5718884219 -32.0917530201 -2.4098370307
18.5900093532 -32.0429989122 -2.4098369030
18.5760622783 -32.1490215461 -2.4098371837
18.5853281923 -32.1246452958 -2.4098371198
18.5945219564 -32.1002417420 -2.4098370558
10.9599715967 -29.2082208583 -2.4098286653
10.9628403178 -29.1916060961 -2.4098286218
10.9778626144 -29.2417532890 -2.4098287532
10.9702579564 -29.3547212255 -2.4098290492
11.3673117246 -29.2644806274 -2.4098288128
10.5687139615 -30.2672380876 -2.4098314403
10.5829535370 -30.2623065955 -2.4098314274
11.3780603479 -29.4301139115 -2.4098292468
10.5472963796 -30.2996598674 -2.4098315253
10.5764893848 -30.2901264706 -2.4098315003
11.3845766114 -29.4882180904 -2.4098293990
11.3956239402 -29.5931765934 -2.4098296741
11.4063700852 -29.5674587637 -2.4098296067
10.2700847939 -32.2668390879 -2.4098366799
9.4304711784 -34.1262928290 -2.4098415523
8.8126759383 -34.0982763218 -2.4098414788
10.9732214020 -29.2109445928 -2.4098284341
10.9749998679 -29.1789936203 -2.4098283503
10.9753043840 -29.1702711876 -2.4098283275
10.9751713023 -29.1062789346 -2.4098281598
10.9892382895 -29.2867417749 -2.4098286327
10.9927828301 -29.2601508682 -2.4098285630
10.9973320178 -29.2126805331 -2.4098284386
10.9999262050 -29.1441852294 -2.4098282591
10.9998361068 -29.1263010907 -2.4098282123
10.9991058770 -29.0994849229 -2.4098281420
10.9944123062 -29.3860749753 -2.4098288930
10.9979375138 -29.3712264657 -2.4098288541
11.0043272037 -29.3413811610 -2.4098287759
11.0054990414 -29.3353901494 -2.4098287602
11.0127067354 -29.2932736537 -2.4098286498
11.0220596788 -29.2052804923 -2.4098284192
11.0239038132 -29.1198611245 -2.4098281954
11.0057234801 -29.4370782690 -2.4098290266
11.0140574976 -29.4069738636 -2.4098289477
11.0309670017 -29.3307501571 -2.4098287480
11.0465596426 -29.2005660966 -2.4098284069
11.0479297388 -29.1131358990 -2.4098281778
11.0307001049 -29.4377332298 -2.4098290283
11.0535726768 -29.3413917838 -2.4098287759
11.0724013322 -29.1508538905 -2.4098282766
11.0192479994 -29.5464142041 -2.4098293131
11.0624679005 -29.4128554453 -2.4098289631
11.0663817575 -29.3969974379 -2.4098289216
11.0824111081 -29.3169349060 -2.4098287118
11.0961134569 -29.1739522171 -2.4098283371
11.0569062405 -29.5146493038 -2.4098292299
11.1013500348 -29.4544215579 -2.4098290721
11.0734798454 -29.6632857685 -2.4098296193
10.5552118541 -30.3363563634 -2.4098313830
10.7056874231 -30.2531772508 -2.4098311650
11.3863400667 -29.1085478157 -2.4098281658
11.3898330197 -29.3837463539 -2.4098288869
11.4027055717 -29.2923436677 -2.4098286474
11.4051815738 -29.2672875920 -2.4098285817
11.4072124861 -29.2421915184 -2.4098285159
11.4097097753 -29.0828315369 -2.4098280984
11.4340936590 -29.1927901532 -2.4098283865
11.4180319870 -29.4854945035 -2.4098291535
11.4210390805 -29.4728283397 -2.4098291203
11.4267154691 -29.4474184492 -2.4098290537
11.5042722903 -29.2401916919 -2.4098285107
10.9085881660 -32.1887970778 -2.4098362370
10.4883145901 -32.3580383119 -2.4098366805
10.5737961679 -32.3436938219 -2.4098366429
11.1186188275 -32.2721902265 -2.4098364555
9.8806292233 -32.8052849990 -2.4098378524
9.0047979863 -33.8898926746 -2.4098406944
9.0469866726 -33.8984691697 -2.4098407169
9.5438113360 -33.9706883761 -2.4098409061
8.9153173031 -33.8951940403 -2.4098407083
9.2048545738 -34.0006070870 -2.4098409845
9.9588444645 -34.0638696898 -2.4098411503
10.0899238013 -34.0630154430 -2.4098411480
9.9733166187 -34.0881199649 -2.4098412138
8.4126080578 -33.8547076835 -2.4098406022
8.1323561465 -33.8034282220 -2.4098404678
9.4368586334 -34.1541760634 -2.4098413869
7.8700836826 -33.7699603372 -2.4098403801
8.2725846851 -33.9853926407 -2.4098409446
9.0758282734 -34.2237608653 -2.4098415692
7.9750656417 -33.9480063027 -2.4098408467
8.6459094152 -34.1772152866 -2.4098414473
7.1184842990 -33.5771788272 -2.4098398750
7.1976831364 -33.6274849679 -2.4098400068
7.2384374553 -33.6809067467 -2.4098401468
6.9074145002 -33.5516285335 -2.4098398080
7.4217208315 -33.8698320053 -2.4098406418
10.9941682710 -29.1884717096 -2.4098286136
10.9861292541 -29.1002036520 -2.4098283823
10.9753424843 -29.0328758822 -2.4098282059
11.0197540335 -29.2289550677 -2.4098287197
11.0194367580 -29.2150334646 -2.4098286832
11.0022218092 -29.0454694812 -2.4098282389
11.0382730128 -29.3669156210 -2.4098290812
11.0392740926 -29.3563042733 -2.4098290534
11.0440919223 -29.2463104980 -2.4098287652
11.0438584348 -29.2249950581 -2.4098287093
11.0156619085 -28.9890233143 -2.4098280910
11.0363771983 -29.5265239483 -2.4098294994
11.0494666116 -29.4626202919 -2.4098293320
11.0507104871 -29.4554791420 -2.4098293132
11.0585050934 -29.0944491965 -2.4098283672
11.0537963480 -29.5571383416 -2.4098295796
11.0812409596 -29.4157185334 -2.4098292091
10.6665941645 -30.2202573752 -2.4098313172
11.1110172075 -29.1295466376 -2.4098284592
10.6191524537 -30.2888830233 -2.4098314970
10.6822253651 -30.2386964872 -2.4098313655
10.6938794481 -30.2286979922 -2.4098313393
10.7309241890 -30.1952627510 -2.4098312517
11.1095693776 -29.5317337338 -2.4098295131
10.7185515710 -30.2392205106 -2.4098313669
10.7588067194 -30.2021241982 -2.4098312697
11.0901179282 -29.6872850541 -2.4098299206
11.1303196639 -29.6423454546 -2.4098298029
11.2127875179 -29.2864878804 -2.4098288704
11.4193672528 -29.0580894137 -2.4098282720
11.4441564777 -29.4357733790 -2.4098292616
11.1137691956 -32.1937388099 -2.4098364884
10.8704779848 -32.3636394030 -2.4098369335
10.7119146515 -32.5617078381 -2.4098374526
9.3435263586 -33.7581167752 -2.4098405875
8.5354141027 -33.6184029737 -2.4098402214
8.8486735567 -33.7001565578 -2.4098404356
8.9940214821 -33.7301523063 -2.4098405142
9.4079694234 -33.7890748575 -2.4098406686
8.6720947430 -33.6820051411 -2.4098403881
8.8698961071 -33.7295841723 -2.4098405128
9.3921632148 -33.8118237237 -2.4098407283
9.4732194714 -33.8191078903 -2.4098407473
9.5814713044 -33.8265801727 -2.4098407669
9.6085595246 -33.8280477994 -2.4098407708
8.4563847493 -33.6446905970 -2.4098402903
9.5256586564 -33.8472799085 -2.4098408212
9.8799299173 -33.8580747462 -2.4098408494
8.8596350464 -33.7768287673 -2.4098406366
9.1155538303 -33.8249242536 -2.4098407626
9.1968861665 -33.8371156696 -2.4098407945
8.0918984400 -33.5648367960 -2.4098400811
8.2378932403 -33.6469763138 -2.4098402963
8.3162055661 -33.6747726360 -2.4098403691
9.9359041472 -33.9298208342 -2.4098410374
10.0466462525 -33.9263134818 -2.4098410283
7.8441367128 -33.5092862523 -2.4098399355
7.8946886168 -33.5326403796 -2.4098399967
9.3525774649 -33.9292829710 -2.4098410360
9.6858311671 -33.9522864222 -2.4098410963
9.1003721338 -33.9204170837 -2.4098410128
8.0726859135 -33.6873861923 -2.4098404022
8.5001493190 -33.8348526747 -2.4098407886
7.8935328623 -33.6381303679 -2.4098402731
8.1964550801 -33.7605160026 -2.4098405938
10.7288310424 -33.9692222667 -2.4098411407
8.4728650576 -33.8772172821 -2.4098408996
10.6770915606 -34.0031819328 -2.4098412297
8.2203872346 -33.8205123643 -2.4098407510
7.6684015448 -33.6122364925 -2.4098402053
7.8115138656 -33.6806781016 -2.4098403846
10.5858351078 -34.0672132962 -2.4098413975
7.6317137067 -33.6208648014 -2.4098402279
8.7183870888 -34.0174639648 -2.4098412671
8.8315440396 -34.0427425090 -2.4098413333
10.6038390107 -34.0888748449 -2.4098414542
10.7751374436 -34.0588255853 -2.4098413755
7.8844832448 -33.7661494582 -2.4098406086
7.9784384015 -33.8057352691 -2.4098407123
9.7076785730 -34.1706093966 -2.4098416684
7.8079414412 -33.7587204977 -2.4098405891
11.0982441540 -34.0347917632 -2.4098413125
8.0558143695 -33.8884817162 -2.4098409291
9.3687672889 -34.1981421981 -2.4098417405
8.7971246227 -34.1342787217 -2.4098415732
8.1218663919 -33.9648874426 -2.4098411293
8.3109409338 -34.1057548109 -2.4098414984
7.7737025319 -34.0606082473 -2.4098413801
7.6931012461 -34.2890554558 -2.4098419788
7.2847333410 -34.4203205633 -2.4098423227
11.0623239989 -29.3836080782 -2.4098288865
11.0623074419 -29.3756443413 -2.4098288656
11.0610515547 -29.3238982922 -2.4098287300
11.0602648999 -29.3079902920 -2.4098286884
11.0510914699 -29.2088895765 -2.4098284287
11.0287126926 -29.0834982280 -2.4098281001
11.0152109420 -29.0294157428 -2.4098279584
11.0030384096 -28.9873424439 -2.4098278482
10.9945820401 -28.9607835243 -2.4098277786
10.9746205313 -28.9044948414 -2.4098276311
10.9644548270 -28.8785420987 -2.4098275631
10.9599339996 -28.8674849878 -2.4098275341
11.0839287082 -29.2985605633 -2.4098286636
11.0831306043 -29.2864266490 -2.4098286319
11.0808498466 -29.2581452349 -2.4098285577
11.0889800954 -29.1374348773 -2.4098282414
11.0811333228 -29.0969406356 -2.4098281353
11.0650571155 -29.0286925941 -2.4098279565
11.0563089757 -28.9968748926 -2.4098278731
11.1295194195 -29.5052138081 -2.4098292051
11.1097302512 -29.1166811007 -2.4098281871
11.0220691575 -28.8281324130 -2.4098274310
11.1376158407 -29.6300007750 -2.4098295321
11.1434501427 -29.1710607473 -2.4098283296
8.6317136499 -33.4884221811 -2.4098396424
8.7781219150 -33.5243271053 -2.4098397365
8.7903785161 -33.5270841901 -2.4098397437
8.9627727504 -33.5618647010 -2.4098398349
8.9875129084 -33.5662494879 -2.4098398464
9.1738172404 -33.5944576076 -2.4098399203
9.1862795689 -33.5960438472 -2.4098399244
9.2361741704 -33.6020199441 -2.4098399401
9.2986361295 -33.6086591702 -2.4098399575
9.4238204563 -33.6191626841 -2.4098399850
8.5524233523 -33.4917847845 -2.4098396512
8.9088023145 -33.5763934913 -2.4098398729
8.9584838289 -33.5856542036 -2.4098398972
9.1582011001 -33.6168002928 -2.4098399788
9.3717600229 -33.6394999649 -2.4098400383
9.4473696210 -33.6449438261 -2.4098400526
9.5988190996 -33.6518018862 -2.4098400705
8.9042322048 -33.6001305800 -2.4098399351
9.5854538033 -33.6755975833 -2.4098401329
9.6743754975 -33.6773858028 -2.4098401376
8.5146820934 -33.5312648453 -2.4098397547
9.3423950252 -33.6855518349 -2.4098401590
9.8657702336 -33.6991750735 -2.4098401947
8.5574077854 -33.5684889142 -2.4098398522
8.6942119097 -33.6039756116 -2.4098399452
9.0089243179 -33.6679533731 -2.4098401128
9.0723863154 -33.6779465003 -2.4098401390
9.3403026550 -33.7096341369 -2.4098402221
9.9821108949 -33.7177931617 -2.4098402434
8.7262367039 -33.6364233838 -2.4098400302
9.5817727014 -33.7964066539 -2.4098404494
8.6842303077 -33.7010245773 -2.4098401995
9.0191096406 -33.7675560873 -2.4098403738
10.3407649035 -33.7784925004 -2.4098404025
9.1034562425 -33.8289445645 -2.4098405347
10.5048854650 -33.8011531552 -2.4098404619
9.1133830937 -33.8546942540 -2.4098406022
9.9524836995 -33.8889608669 -2.4098406920
8.8227674567 -33.8797681028 -2.4098406679
9.5359520866 -33.9641195662 -2.4098408889
8.4339864499 -33.8098909276 -2.4098404848
9.4519054284 -34.0084649144 -2.4098410051
9.1732264464 -34.0327590897 -2.4098410688
10.6069426167 -33.9788585717 -2.4098409275
8.3466938688 -33.9100966493 -2.4098407473
8.6659827588 -34.0194196918 -2.4098410338
8.9836625228 -34.0800955272 -2.4098411928
10.4545108509 -34.0792130778 -2.4098411905
10.5001283540 -34.0963222329 -2.4098412353
9.3571923834 -34.1717819146 -2.4098414330
9.9676675327 -34.1786395369 -2.4098414510
8.8547737162 -34.3283122385 -2.4098418432
8.6450139781 -34.3860831215 -2.4098419946
11.0863347699 -29.1696831209 -2.4098283259
11.0827924290 -28.9945248784 -2.4098278670
11.0626260394 -28.9428155697 -2.4098277315
11.0518577295 -28.9172374906 -2.4098276645
11.1307423820 -28.8564549845 -2.4098275052
9.2737003854 -33.4785988642 -2.4098396167
9.4125805853 -33.5124120624 -2.4098397053
9.5773603404 -33.5174329965 -2.4098397184
9.1634210927 -33.5161208099 -2.4098397150
9.3995128537 -33.5359299833 -2.4098397669
9.5297394786 -33.5408622789 -2.4098397798
9.7074417932 -33.5407556943 -2.4098397795
9.1843820000 -33.5427637048 -2.4098397848
9.6841586705 -33.5653950872 -2.4098398441
9.8032876257 -33.5616221159 -2.4098398342
9.5047215679 -33.5886085074 -2.4098399049
9.8642767140 -33.5825423044 -2.4098398890
9.9718910577 -33.5745042809 -2.4098398680
10.0077102424 -33.5711886218 -2.4098398593
9.4678884377 -33.6116167735 -2.4098399652
9.6729133337 -33.6139199043 -2.4098399713
9.9259252451 -33.6025336309 -2.4098399414
10.0100451148 -33.5952486229 -2.4098399223
10.1179460486 -33.5833256656 -2.4098398911
10.1930869740 -33.5977157511 -2.4098399288
10.2809444603 -33.6087571949 -2.4098399577
10.0170497321 -33.6674286262 -2.4098401115
10.3695048813 -33.6178913540 -2.4098399817
9.4890546742 -33.7090701078 -2.4098402206
9.9086392453 -33.7007494959 -2.4098401988
10.2887337626 -33.6564716361 -2.4098400828
10.3495931185 -33.6460738038 -2.4098400555
9.8359543125 -33.7294239605 -2.4098402739
10.3660636217 -33.6676706214 -2.4098401121
10.0638849879 -33.7598618819 -2.4098403537
9.4608551503 -33.8048730566 -2.4098404716
9.4980741063 -33.8302473691 -2.4098405381
10.7735937864 -33.6980881428 -2.4098401918
9.7023064901 -33.8793639858 -2.4098406668
9.1352700861 -33.8778334550 -2.4098406628
10.3198909718 -33.8473294009 -2.4098405829
10.1308193078 -33.8983078734 -2.4098407164
10.3018824335 -33.8991769852 -2.4098407187
10.2536862668 -33.9309076148 -2.4098408019
10.3833770078 -33.9101295039 -2.4098407474
10.2179232710 -33.9603444514 -2.4098408790
9.6392850922 -34.1218898939 -2.4098413023
10.3020959959 -34.1681247001 -2.4098414235
11.1446409517 -29.4991918379 -2.4098282286
11.1016722073 -29.2842643457 -2.4098276654
11.1790205117 -29.8100173354 -2.4098290286
11.1899355348 -29.4734923719 -2.4098281324
11.0929665657 -29.1037495073 -2.4098271636
11.2099779599 -29.2229603433 -2.4098274327
11.1789586037 -28.8294854265 -2.4098263296
9.7986929296 -33.4618842794 -2.4098373297
9.8226685250 -33.4844328514 -2.4098373744
9.8338416160 -33.4835982844 -2.4098373722
9.8673453918 -33.4808963238 -2.4098373652
9.8896673508 -33.4789298800 -2.4098373600
9.9008238699 -33.4778971425 -2.4098373573
9.9591773899 -33.4962693538 -2.4098373910
10.0151768251 -33.4897457989 -2.4098373739
10.0744027055 -33.5063373997 -2.4098374030
10.0211259665 -33.5377244280 -2.4098374708
10.1342212613 -33.5219993550 -2.4098374296
10.1793208219 -33.5147737609 -2.4098374107
10.1905821062 -33.5128840192 -2.4098374057
10.2130876581 -33.5090046386 -2.4098373956
10.2243317286 -33.5070150336 -2.4098373904
10.1265453834 -33.5476239597 -2.4098374824
10.1832860657 -33.5386193501 -2.4098374588
9.9006299537 -33.5992968331 -2.4098376034
10.2669442101 -33.5483635170 -2.4098374699
10.3576413754 -33.5302311540 -2.4098374224
10.3170853764 -33.5632695970 -2.4098374945
10.4194678097 -33.5413798536 -2.4098374372
10.4760840983 -33.5280434911 -2.4098374022
10.4476455735 -33.5596830424 -2.4098374707
10.5045294912 -33.5459279178 -2.4098374347
10.5838119585 -33.5252605371 -2.4098373805
10.2223690157 -33.6300695334 -2.4098376408
10.5674051338 -33.5546969956 -2.4098374433
10.1128384431 -33.6962200034 -2.4098377853
10.2305815216 -33.6777129577 -2.4098377368
10.7401611040 -33.5552888019 -2.4098374160
10.7629079182 -33.5481571852 -2.4098373973
10.7930482274 -33.5638919831 -2.4098374241
10.8044521271 -33.5601865098 -2.4098374144
9.7595788275 -33.7790275386 -2.4098379735
9.9640009891 -33.7631501254 -2.4098379318
10.8463050816 -33.5717791795 -2.4098374304
10.8577320800 -33.5679161283 -2.4098374203
10.9342300143 -33.5667762775 -2.4098374029
10.9309191949 -33.5936364917 -2.4098374589
11.0628363829 -33.5960193812 -2.4098374363
10.5503958665 -33.8333800657 -2.4098380150
10.3881695380 -33.9188289879 -2.4098382101
10.4679479313 -33.9268370991 -2.4098382167
10.6542246042 -33.8817934567 -2.4098380986
10.8455515410 -33.8515972028 -2.4098380051
10.9067094575 -33.8319249645 -2.4098379536
11.2072981528 -29.7022418035 -2.4098299598
11.1880500639 -29.5722745909 -2.4098296193
11.3527337528 -29.4212297221 -2.4098292235
10.3546835186 -33.4551335215 -2.4098397936
10.4026945887 -33.4683269847 -2.4098398282
10.4344381619 -33.4602523430 -2.4098398070
10.4450032745 -33.4574982330 -2.4098397998
10.5147649190 -33.4635881252 -2.4098398158
10.5638308278 -33.4746243101 -2.4098398447
10.6451810277 -33.4750525338 -2.4098398458
10.6769747376 -33.4648256962 -2.4098398190
10.7057594807 -33.4807852023 -2.4098398608
10.7986361514 -33.4741996140 -2.4098398436
10.8494356365 -33.4813338680 -2.4098398623
10.8600612962 -33.4773520282 -2.4098398518
10.4104079971 -33.6406492780 -2.4098402797
10.8792580079 -33.4959367707 -2.4098399005
11.0252235225 -33.4895798287 -2.4098398839
10.5624780499 -33.6761497892 -2.4098403727
11.0131327515 -33.5208232500 -2.4098399657
11.2312322767 -30.2266243761 -2.4098315405
11.2342804280 -29.9552408429 -2.4098308293
11.2709815096 -29.8366736365 -2.4098305244
11.3027724200 -29.9024661831 -2.4098306997
10.9385429346 -33.4202250430 -2.4098401364
10.9679723176 -33.4338538582 -2.4098401750
11.0374514174 -33.4293575651 -2.4098401661
11.0973059250 -33.4281712405 -2.4098401658
11.1673739784 -33.4210423034 -2.4098401500
11.3927431889 -33.4386937605 -2.4098402107
11.4051418613 -26.6007017524 -2.4098223045
11.4784243992 -26.6139709821 -2.4098223421
11.5416373189 -26.6227159400 -2.4098223679
11.5846377680 -26.6202168426 -2.4098223643
11.8301694057 -33.4508622455 -2.4098402714
11.9150453322 -26.6039421230 -2.4098223447
11.2152265403 -30.3793199589 -2.4098296883
11.2197395106 -30.2698062760 -2.4098294014
11.2196124716 -30.2299434171 -2.4098292969
11.2223154213 -30.6511477067 -2.4098303487
11.2504792084 -30.6364027819 -2.4098302842
11.2895244330 -30.1561405459 -2.4098290257
11.2705789738 -30.6570620747 -2.4098303124
11.3147593792 -30.3338452937 -2.4098294654
11.2866234822 -30.6936667694 -2.4098303823
11.2583199716 -30.8703979601 -2.4098308195
11.3298658138 -29.7020809309 -2.4098277063
11.3628652678 -30.7823411634 -2.4098305110
11.2982757182 -29.5412811604 -2.4098272590
11.4539134392 -30.0840857533 -2.4098286554
11.3777371792 -29.6932873708 -2.4098276314
11.1679713234 -31.3657963212 -2.4098319620
11.1149814186 -31.4798223534 -2.4098322348
11.2863742809 -29.2915333065 -2.4098265008
11.6533416604 -33.3073438098 -2.4098351822
10.5940580838 -26.5432250336 -2.4098173024
10.5830726317 -26.5401093487 -2.4098172942
10.6558177171 -26.5361447678 -2.4098172579
10.6448110501 -26.5328464177 -2.4098172493
10.6337946742 -26.5295806417 -2.4098172407
10.6227686857 -26.5263474684 -2.4098172322
10.7620118893 -26.5443393485 -2.4098172535
10.7510289987 -26.5407268209 -2.4098172440
10.7400354697 -26.5371467986 -2.4098172346
10.7180168812 -26.5300843944 -2.4098172161
10.7069920144 -26.5266020744 -2.4098172070
10.8026860893 -26.5324883276 -2.4098171965
10.7806388432 -26.5250553428 -2.4098171770
10.7695988255 -26.5213877978 -2.4098171674
10.8767538067 -26.5328266225 -2.4098171714
10.8657363574 -26.5288747180 -2.4098171611
10.8436666285 -26.5210687699 -2.4098171406
10.8215511033 -26.5133935304 -2.4098171205
10.9512061821 -26.5346284637 -2.4098171502
10.9401937371 -26.5304563077 -2.4098171393
10.9181320623 -26.5222098171 -2.4098171177
10.9070830255 -26.5181355547 -2.4098171070
10.8960219846 -26.5140939951 -2.4098170964
11.0039953783 -26.5291531995 -2.4098171099
10.9929665055 -26.5248249074 -2.4098170986
10.9819248772 -26.5205292597 -2.4098170873
10.9598037403 -26.5120360474 -2.4098170651
11.0350116492 -26.5154712980 -2.4098170481
10.6701418040 -26.3639029656 -2.4098166250
11.1532173513 -26.5123414840 -2.4098169881
10.7231482025 -26.3544784176 -2.4098165744
11.2837020040 -26.5180415182 -2.4098169511
11.3710158090 -26.5062403682 -2.4098168683
11.4261337165 -26.5066407183 -2.4098168435
11.3803084498 -26.4301273866 -2.4098165911
11.4700653200 -26.4475987928 -2.4098166109
11.7071007729 -26.4657765499 -2.4098165548
11.7763215718 -26.4500809520 -2.4098164618
12.6372737184 -27.0110191933 -2.4098178539
12.3999160720 -26.5825259193 -2.4098165495
12.3232553372 -26.5239995917 -2.4098163962
11.1024887161 -31.0088650375 -2.4098321844
11.1705770670 -30.7855642999 -2.4098315993
11.1804562337 -30.7389159264 -2.4098314770
11.1997005920 -30.2406079241 -2.4098301713
11.0875260647 -31.1067909991 -2.4098324266
11.2132533910 -30.8154104584 -2.4098316487
11.2816456159 -30.3563147799 -2.4098304313
11.2692287010 -30.7872530044 -2.4098315461
11.3743865469 -30.5680458346 -2.4098309284
9.9283863296 -26.5338364996 -2.4098190896
10.1039189440 -26.5283211653 -2.4098190607
10.0577371664 -26.5226162764 -2.4098190458
10.0346217719 -26.5199688514 -2.4098190389
10.0230583022 -26.5186964350 -2.4098190355
10.0114911189 -26.5174582311 -2.4098190323
9.9651872765 -26.5128477516 -2.4098190202
9.9420157080 -26.5107480538 -2.4098190147
10.1765874265 -26.5139882356 -2.4098190088
10.1650056438 -26.5122958854 -2.4098190043
10.0605587735 -26.4986084898 -2.4098189685
10.2963466519 -26.5089941527 -2.4098189813
10.2150445742 -26.4953891931 -2.4098189456
9.9931361534 -26.4669763366 -2.4098188712
10.3936932071 -26.5029080365 -2.4098189509
10.3471904436 -26.4937761829 -2.4098189270
10.2889153831 -26.4831361857 -2.4098188991
10.2655623651 -26.4791217237 -2.4098188886
10.1601967451 -26.4627692124 -2.4098188458
10.4218415468 -26.4840169152 -2.4098188870
10.3868057969 -26.4768673717 -2.4098188683
10.3517079785 -26.4700290324 -2.4098188504
10.3282763152 -26.4656432976 -2.4098188389
10.3048191145 -26.4613962693 -2.4098188277
10.3444426570 -26.4440584258 -2.4098187679
10.6079590553 -26.4775703595 -2.4098188413
10.1823041785 -26.3926750563 -2.4098186189
10.6843162420 -26.4727940362 -2.4098188144
10.6726103779 -26.4695999125 -2.4098188060
10.5314363749 -26.4339801977 -2.4098187127
10.7494429212 -26.4660694640 -2.4098187824
10.0075065623 -26.3226518359 -2.4098184066
10.8032614729 -26.4568304617 -2.4098187437
10.7915078652 -26.4532845464 -2.4098187345
10.1562090249 -26.3157930894 -2.4098183742
10.1440410343 -26.3141618894 -2.4098183699
10.0343271634 -26.3011027992 -2.4098183357
10.8574587997 -26.4483135496 -2.4098187070
10.8338898088 -26.4409360032 -2.4098186877
10.9669512855 -26.4334765025 -2.4098186393
10.9432925974 -26.4254514215 -2.4098186183
10.6196340409 -26.3309331790 -2.4098183706
10.4613478827 -26.2947110582 -2.4098182757
10.2648079126 -26.2585258565 -2.4098181809
10.4785802945 -26.2736324742 -2.4098182061
10.0069790185 -26.2011551783 -2.4098180162
11.1015211350 -26.4304392495 -2.4098186025
11.1337869200 -26.4168239182 -2.4098185525
10.4138793754 -26.2112033539 -2.4098180137
10.0116268212 -26.1530330518 -2.4098178612
10.6181969279 -26.2310045724 -2.4098180511
10.4435429923 -26.1923938733 -2.4098179500
10.5864049619 -26.1985826984 -2.4098179518
10.2330748474 -26.1313670084 -2.4098177757
11.1717652570 -26.3537301085 -2.4098183439
10.6797561351 -26.1965197235 -2.4098179320
10.5541174034 -26.1663963824 -2.4098178530
10.3514025509 -26.1259656489 -2.4098177471
10.3386721623 -26.1237578617 -2.4098177413
10.2876869696 -26.1153035855 -2.4098177192
10.5827931971 -26.0985257315 -2.4098176320
10.8057338094 -26.1301948677 -2.4098177005
10.6138892555 -26.0808839488 -2.4098175713
11.0560727823 -26.1318514575 -2.4098176617
11.7396536954 -26.2645499421 -2.4098179229
11.0485126412 -30.7854353712 -2.4098325597
11.0724303756 -30.7889392633 -2.4098325689
11.0255307469 -31.0726835106 -2.4098333124
11.0589229144 -30.9688406185 -2.4098330403
11.1018158487 -30.7508383577 -2.4098324691
11.1108075668 -30.6253090628 -2.4098321402
11.0990295173 -30.9091759034 -2.4098328840
11.1354941509 -30.5918263963 -2.4098320524
11.1290713745 -30.8849007247 -2.4098328204
11.1592826815 -30.5528585037 -2.4098319503
11.1462171210 -30.3885658949 -2.4098315198
11.1367625662 -30.3285585442 -2.4098313626
11.1293757710 -30.2902098280 -2.4098312621
11.1830345110 -30.6360945226 -2.4098321684
11.2117364890 -30.8369611765 -2.4098326947
11.2742203473 -30.7283535971 -2.4098324102
11.3169690038 -30.3896982283 -2.4098315228
11.6548973777 -29.4084226376 -2.4098289515
11.6372537985 -29.3795306871 -2.4098288758
11.8075939784 -28.1433830045 -2.4098256367
9.4055841368 -26.5193366106 -2.4098213812
9.2734034557 -26.5308327493 -2.4098214113
9.6705867213 -26.4850987434 -2.4098212915
9.5250274525 -26.4884695705 -2.4098213003
9.5007831704 -26.4895336294 -2.4098213031
9.4886634963 -26.4901194434 -2.4098213046
9.4765456080 -26.4907411071 -2.4098213063
9.2347260570 -26.5106921304 -2.4098213585
9.2106183318 -26.5134733210 -2.4098213658
9.7924996170 -26.4620716531 -2.4098212311
9.6826613165 -26.4608781575 -2.4098212280
9.5850308566 -26.4622723243 -2.4098212317
9.4996518243 -26.4653870906 -2.4098212398
9.4752714227 -26.4666016843 -2.4098212430
9.8544370718 -26.4398434221 -2.4098211729
9.8053567995 -26.4382206352 -2.4098211686
9.7930839996 -26.4379056898 -2.4098211678
9.7685358732 -26.4373847212 -2.4098211665
