25.9398492808 -31.0542027905 -2.4760316671
25.9729497682 -31.0620283604 -2.4760316748
25.9659957383 -31.0504880882 -2.4760316634
25.9515794637 -31.0277223909 -2.4760316410
25.9471239180 -31.0209768750 -2.4760316343
25.9483306649 -30.9802806425 -2.4760315942
25.9761539016 -30.9777415903 -2.4760315917
26.3744380300 -31.1311020597 -2.4760317430
26.3672354473 -31.1101295810 -2.4760317223
26.4065660191 -31.1521542731 -2.4760317638
26.3973691638 -31.1234536361 -2.4760317354
26.3714292052 -31.0527241717 -2.4760316656
26.3657416370 -31.0387693626 -2.4760316519
26.3821090759 -31.0153634305 -2.4760316288
26.3948984118 -30.9843607764 -2.4760315982
26.3800416526 -30.9524581605 -2.4760315667
26.3783386045 -30.9489381257 -2.4760315632
26.3728074139 -30.8852469692 -2.4760315004
26.3709055745 -30.8817486287 -2.4760314969
26.4218275060 -30.9278180741 -2.4760315424
26.4113656544 -30.8549764804 -2.4760314705
26.3803793603 -30.8014269668 -2.4760314177
25.4169002069 -29.8329852520 -2.4760304621
25.7190605633 -28.8545057963 -2.4760294965
25.7006393401 -28.5315832531 -2.4760291779
25.5762069909 -28.5129787044 -2.4760291595
25.4802594990 -28.4779212788 -2.4760291250
25.2904424063 -28.4657358495 -2.4760291129
25.2270470648 -28.4642969671 -2.4760291115
25.3094901986 -28.4422333610 -2.4760290897
25.1816939130 -28.4399000784 -2.4760290874
24.9977161320 -28.4216206650 -2.4760290694
24.8299737708 -28.4122017549 -2.4760290601
25.2002061129 -28.3673906824 -2.4760290159
25.2756114021 -28.3443701292 -2.4760289932
24.8899876026 -28.3572981639 -2.4760290059
25.3331576306 -28.3222552195 -2.4760289713
25.8271691125 -28.3584398428 -2.4760290071
24.5733201937 -28.3540953967 -2.4760290028
24.5736327338 -28.3048004156 -2.4760289541
25.5615563602 -28.2433753160 -2.4760288935
25.0834381191 -28.2240286190 -2.4760288744
25.3090677325 -28.2003175815 -2.4760288510
25.0818896979 -28.1757073657 -2.4760288267
25.5348808216 -28.1189518151 -2.4760287707
25.3861324245 -28.0587063738 -2.4760287113
25.4184828445 -28.0364690000 -2.4760286893
24.3087893580 -28.0916589470 -2.4760287438
23.6876158099 -28.3142759495 -2.4760289635
24.7426816497 -27.9357486765 -2.4760285900
25.4615771370 -27.7244398611 -2.4760283814
20.8039937270 -26.0360318504 -2.4760267154
19.2785231380 -27.4221905422 -2.4760280832
19.2669414420 -27.2297072232 -2.4760278933
19.2542569462 -27.2472453140 -2.4760279106
20.2767314275 -26.0714205073 -2.4760267503
19.2357014119 -26.9881885651 -2.4760276550
19.2029430782 -26.3760874317 -2.4760270510
19.4116683653 -25.7258209226 -2.4760264093
19.3945344686 -25.7429374651 -2.4760264262
19.5692182099 -25.5398479057 -2.4760262258
19.8459790775 -25.2280417080 -2.4760259181
19.6620267519 -25.3888384175 -2.4760260768
19.8116782295 -25.2254887127 -2.4760259156
19.7374993265 -25.2895598665 -2.4760259788
19.0229621986 -25.9949764222 -2.4760266749
19.7215903322 -25.2713598890 -2.4760259609
19.5389736732 -25.4358167591 -2.4760261231
19.9509226593 -25.0469712972 -2.4760257394
19.9317782431 -25.0624955981 -2.4760257548
20.0518844318 -24.9359559831 -2.4760256299
20.0129830360 -24.9664657690 -2.4760256600
19.8973713854 -25.0593685331 -2.4760257517
19.8820629364 -25.0406606023 -2.4760257332
19.9246874442 -24.9749745530 -2.4760256684
20.2120863022 -24.6941505099 -2.4760253913
33.5977451790 -28.7218486053 -2.4760293656
33.5894120039 -28.6969870580 -2.4760293411
33.6038908020 -28.6643663124 -2.4760293089
33.5953875570 -28.6394868367 -2.4760292844
33.5868107511 -28.6146326239 -2.4760292599
33.5781604596 -28.5898038917 -2.4760292354
33.5922285343 -28.5569466525 -2.4760292029
25.9560744004 -31.2520425693 -2.4760318623
25.9529392078 -31.2234572113 -2.4760318341
25.9780858235 -31.2302342156 -2.4760318408
25.9734294718 -31.1946039723 -2.4760318056
25.9709302135 -31.1784624611 -2.4760317897
25.9676163803 -31.1591440822 -2.4760317707
26.0031946953 -31.2374473605 -2.4760318479
25.9637844246 -31.0379420322 -2.4760316511
26.0002800465 -31.0805232932 -2.4760316931
25.9830651831 -31.0180746266 -2.4760316315
25.9820621877 -31.0148156635 -2.4760316282
25.9611849052 -30.9534941620 -2.4760315677
26.0627677144 -31.1419514056 -2.4760317537
26.0014603122 -30.9233434970 -2.4760315380
25.9840166215 -30.8805804518 -2.4760314958
26.0104746047 -30.8810274019 -2.4760314962
26.0605769726 -30.9441098301 -2.4760315585
26.0808998363 -30.9290429563 -2.4760315436
26.0336215654 -30.8141140374 -2.4760314302
26.0047408670 -30.6595648782 -2.4760312777
26.0104082429 -30.5798018820 -2.4760311990
26.0302126257 -30.4833930769 -2.4760311039
26.4109017650 -31.1854026519 -2.4760317966
26.3933085685 -31.0683438454 -2.4760316811
26.3898048948 -31.0504682853 -2.4760316634
26.3841534205 -31.0237358040 -2.4760316370
26.4076015835 -30.8382421347 -2.4760314540
25.7853543157 -28.8374419908 -2.4760294797
25.8217860017 -28.4412885666 -2.4760290888
25.7090477643 -28.4072685703 -2.4760290552
26.3005828149 -28.6148757511 -2.4760292601
25.5538708161 -28.2689860467 -2.4760289188
25.1661886099 -28.2093789717 -2.4760288600
25.1674400816 -28.0881457826 -2.4760287403
25.0416083836 -28.0795444759 -2.4760287319
25.8432237225 -27.5424963133 -2.4760282019
23.1721173056 -25.9459416273 -2.4760266265
23.1561223226 -25.9510201491 -2.4760266315
22.7713397643 -25.9333535149 -2.4760266141
22.3504847176 -26.0896865596 -2.4760267684
21.8348143228 -26.2009972013 -2.4760268782
21.6905596758 -26.2035186427 -2.4760268807
21.2067369385 -26.2359466030 -2.4760269127
20.9384277643 -26.2855790186 -2.4760269616
25.9683730167 -31.3813553765 -2.4760319899
25.9691340950 -31.3735717592 -2.4760319822
25.9698491096 -31.3657837754 -2.4760319746
25.9705180353 -31.3579916976 -2.4760319669
25.9711408488 -31.3501957986 -2.4760319592
25.9743401860 -31.2916323175 -2.4760319014
25.9745703282 -31.2838149668 -2.4760318937
25.9749433083 -31.2642668302 -2.4760318744
25.9731494013 -31.1782724803 -2.4760317895
25.9902817228 -31.4035725571 -2.4760320118
25.9939273314 -31.3679225873 -2.4760319767
25.9966226272 -31.3321882034 -2.4760319414
25.9975149737 -31.3162857818 -2.4760319257
25.9978905684 -31.3083308897 -2.4760319179
25.9987348860 -31.2844548302 -2.4760318943
25.9990622811 -31.2685307570 -2.4760318786
25.9992012323 -31.2526039247 -2.4760318629
25.9976894931 -31.1849359336 -2.4760317961
25.9960783738 -31.1571098543 -2.4760317687
25.9927781336 -31.1174294827 -2.4760317295
25.9919773106 -31.1095060957 -2.4760317217
25.9888055796 -31.0818144631 -2.4760316944
25.9867359349 -31.0660220641 -2.4760316788
25.9861893371 -31.0620778772 -2.4760316749
26.0186989440 -31.3619843368 -2.4760319708
26.0216576238 -31.3174972786 -2.4760319269
26.0233274222 -31.2607784322 -2.4760318709
26.0164340803 -31.1110363941 -2.4760317232
26.0132887921 -31.0828380360 -2.4760316954
26.0127918229 -31.0788152273 -2.4760316914
26.0122829556 -31.0747939064 -2.4760316874
26.0083881271 -31.0466892707 -2.4760316597
26.0071685080 -31.0386747678 -2.4760316518
25.9948929153 -30.9708767344 -2.4760315849
26.0458002740 -31.3187087754 -2.4760319281
26.0474031559 -31.2692385418 -2.4760318793
26.0469363077 -31.2073718878 -2.4760318182
26.0382589346 -31.0881017224 -2.4760317006
26.0357302737 -31.0676330145 -2.4760316804
26.0328991493 -31.0472039455 -2.4760316602
26.0142305601 -30.9458092469 -2.4760315601
26.0015742293 -30.8937039369 -2.4760315087
26.0690025024 -31.3366794406 -2.4760319458
26.0703198221 -31.1856858867 -2.4760317968
26.0602374877 -31.0686535499 -2.4760316814
26.0270636137 -30.8956699994 -2.4760315107
26.0160170700 -30.8551875435 -2.4760314707
26.0942726301 -31.1803465821 -2.4760317916
26.0716611968 -30.9854813681 -2.4760315993
26.0331679355 -30.8280228086 -2.4760314439
26.1098402324 -31.4217776089 -2.4760320298
26.1112695214 -31.0883668760 -2.4760317008
26.1107884787 -31.0840541985 -2.4760316966
26.1033758511 -31.0281343207 -2.4760316414
26.0770724688 -30.8962568639 -2.4760315113
26.0224046735 -30.7225159402 -2.4760313398
26.1348588547 -31.4158642991 -2.4760320240
26.1391512157 -31.3719659347 -2.4760319807
26.1440849053 -31.2706541115 -2.4760318807
26.1410735138 -31.1516286738 -2.4760317632
26.1158720161 -30.9593289512 -2.4760315735
26.0819599723 -30.8223677215 -2.4760314383
26.0601827711 -30.7552436327 -2.4760313721
26.1660377418 -31.3337184940 -2.4760319429
26.1497967272 -31.0120021163 -2.4760316255
26.1063988998 -30.8197512664 -2.4760314358
26.0610000822 -30.6884725658 -2.4760313062
26.0525582640 -30.6677112205 -2.4760312857
26.1806955259 -31.0578205772 -2.4760316707
26.1667289292 -30.9678322668 -2.4760315819
26.0965302654 -30.7135384811 -2.4760313310
26.0567988653 -30.6166476862 -2.4760312353
26.1720353524 -30.8775088754 -2.4760314928
26.1640213272 -30.8461387315 -2.4760314618
26.0930639066 -30.5797096326 -2.4760311989
26.2057154855 -30.8152868895 -2.4760314314
26.1991334707 -30.7923712760 -2.4760314087
26.1026990396 -30.5436848735 -2.4760311634
26.0812085512 -30.5011193054 -2.4760311213
26.0767598826 -30.4926835208 -2.4760311130
26.2254770531 -30.6444597649 -2.4760312628
26.1427653725 -30.4118434678 -2.4760310333
26.0768514465 -30.3040677505 -2.4760309269
26.0921293496 -30.1991063229 -2.4760308233
26.2902451009 -30.3792922081 -2.4760310011
25.7310771712 -29.6233821628 -2.4760302552
25.8496265981 -29.6477756166 -2.4760302793
25.8484313344 -29.5572668962 -2.4760301900
26.0995284016 -29.2019151068 -2.4760298394
26.0163096518 -28.5066120212 -2.4760291533
25.9181276415 -28.4599600413 -2.4760291072
26.0188879388 -28.4809137641 -2.4760291279
25.6732761206 -28.3101653887 -2.4760289594
26.0152773278 -28.4253589004 -2.4760290731
25.5646829721 -28.2241594894 -2.4760288745
25.4838417744 -28.2009659289 -2.4760288517
25.3751476022 -28.1734041983 -2.4760288245
25.3898364299 -28.1520366781 -2.4760288034
25.9804445186 -28.2759408764 -2.4760289256
25.4813580456 -28.1002027950 -2.4760287522
25.7182090578 -28.1211197564 -2.4760287729
26.1698336675 -28.2862441925 -2.4760289358
24.9083836858 -27.9303812271 -2.4760285847
25.3321930118 -27.9658985378 -2.4760286197
25.8441149511 -28.0634210719 -2.4760287159
24.6733165576 -27.7514272047 -2.4760284081
25.9350954124 -27.9688116297 -2.4760286226
25.0683579322 -27.7517586072 -2.4760284084
24.2494318460 -27.5801314659 -2.4760282391
26.2878179827 -27.8858834897 -2.4760285408
23.5955552970 -26.1434761823 -2.4760268214
24.1110201008 -26.0390421759 -2.4760267184
23.8957856162 -26.0659550589 -2.4760267449
23.3942423957 -26.1644476902 -2.4760268421
23.2742819136 -26.1956612759 -2.4760268729
24.5745307635 -25.9873253776 -2.4760266673
23.6009956680 -26.0930002030 -2.4760267716
23.1631026587 -26.2021115737 -2.4760268793
24.5116326312 -25.9644596161 -2.4760266448
22.9249728452 -26.2274605920 -2.4760269043
23.3959905613 -26.0395964656 -2.4760267189
24.0960084728 -25.8947829607 -2.4760265760
23.6933928678 -25.9029981289 -2.4760265841
22.5460522897 -26.2166979633 -2.4760268937
22.2232528929 -26.3643841081 -2.4760270394
22.4525251697 -26.2040998473 -2.4760268812
22.1617134451 -26.3141094918 -2.4760269898
22.0024848894 -26.3977789819 -2.4760270724
21.9908939463 -26.3765661244 -2.4760270514
21.8215128490 -26.4449355185 -2.4760271189
21.7381895961 -26.4667013068 -2.4760271404
22.7129748469 -25.9693581756 -2.4760266496
21.6972444561 -26.4634649928 -2.4760271372
21.6689843953 -26.4810368777 -2.4760271545
22.3945336546 -26.0711598069 -2.4760267501
21.5444102650 -26.5034077632 -2.4760271766
22.5776563858 -25.9431272810 -2.4760266237
21.9672295471 -26.0062275845 -2.4760266860
21.3740102688 -26.0097581609 -2.4760266895
26.0229425498 -31.0264624179 -2.4760316397
26.0414654782 -31.2021684879 -2.4760318131
26.0924710484 -31.1229576542 -2.4760317350
26.1078943668 -30.9812572120 -2.4760315951
26.0572067058 -31.3919388730 -2.4760320004
26.1316117418 -30.9884879032 -2.4760316023
26.1524445812 -31.0294978600 -2.4760316427
26.1099367793 -31.3839811073 -2.4760319925
26.1866624528 -30.5565464788 -2.4760311760
26.1791388666 -30.5110081526 -2.4760311311
26.0764405701 -31.6229279908 -2.4760322283
26.1394304437 -31.4532308576 -2.4760320608
26.2281738590 -30.7095691017 -2.4760313270
26.2218896265 -30.6397618914 -2.4760312582
26.2206066162 -30.1874921738 -2.4760308119
23.9278927316 -26.4480567445 -2.4760271220
23.9148674758 -26.4490547167 -2.4760271230
23.8627976838 -26.4534317801 -2.4760271273
23.8497886131 -26.4546222917 -2.4760271285
23.7847992156 -26.4611517992 -2.4760271349
23.6810377458 -26.4735961869 -2.4760271472
23.6422074889 -26.4788953684 -2.4760271524
24.2147392103 -26.4116908587 -2.4760270861
24.0965600731 -26.4144356501 -2.4760270888
23.5090597828 -26.4752180150 -2.4760271488
23.4444122742 -26.4867847809 -2.4760271602
24.4389596539 -26.3909389070 -2.4760270656
24.4257631971 -26.3904253008 -2.4760270651
24.3465578052 -26.3881636314 -2.4760270629
24.2541183020 -26.3873022065 -2.4760270620
23.8847763483 -26.4029900908 -2.4760270775
23.4789580640 -26.4559285396 -2.4760271297
24.4001274574 -26.3653541793 -2.4760270404
24.3470333106 -26.3639952807 -2.4760270390
24.0284690701 -26.3690373142 -2.4760270440
23.8827514696 -26.3789020201 -2.4760270537
24.3214786635 -26.2910392236 -2.4760269670
24.1865587973 -26.2911788820 -2.4760269672
24.0921454477 -26.2936511596 -2.4760269696
24.8491650134 -26.3046070847 -2.4760269804
23.5477717361 -26.2974224274 -2.4760269733
23.7314671063 -26.2238562210 -2.4760269007
25.2165842907 -26.2687692703 -2.4760269451
23.5229051055 -26.2279276782 -2.4760269048
23.6845195736 -26.1807328833 -2.4760268582
24.1838809648 -26.1219888763 -2.4760268002
23.5983344265 -26.1677236841 -2.4760268454
24.4787722523 -26.1023176901 -2.4760267808
25.1670760982 -26.1601744512 -2.4760268379
23.6476205845 -26.1122882888 -2.4760267907
23.6195914684 -26.1159868206 -2.4760267943
24.9828812234 -26.0548830069 -2.4760267340
25.7302778317 -26.2037412613 -2.4760268809
23.8194505563 -25.9719183956 -2.4760266521
25.2853062218 -26.0115056259 -2.4760266912
24.0171878574 -25.8613357907 -2.4760265430
23.4589237198 -25.9199280951 -2.4760266008
23.6253977666 -25.8226982593 -2.4760265049
26.7218837923 -26.3940650425 -2.4760270687
23.9974661107 -25.7655073913 -2.4760264485
25.8982035235 -29.8596022170 -2.4760304883
25.8914890877 -29.8438819223 -2.4760304728
26.0430038213 -29.8970682747 -2.4760305253
26.2183078394 -30.5590152688 -2.4760311785
26.1043908308 -29.8542619986 -2.4760304831
26.2593270749 -30.7922875653 -2.4760314087
26.2375839775 -31.2734886187 -2.4760318835
26.3567609100 -30.7873749346 -2.4760314038
25.9805838075 -32.0667444614 -2.4760326662
24.3665284513 -26.5137578356 -2.4760271868
24.2938189460 -26.5100889039 -2.4760271832
24.2574426370 -26.5087385215 -2.4760271819
24.6626532551 -26.4933784489 -2.4760271667
24.6261141260 -26.4887555268 -2.4760271621
24.5651290288 -26.4817718169 -2.4760271552
24.5407071882 -26.4792310259 -2.4760271527
24.4551213482 -26.4714769873 -2.4760271451
24.2467508682 -26.4600354186 -2.4760271338
24.7269507345 -26.4778842334 -2.4760271514
24.7147294850 -26.4761170959 -2.4760271497
24.7025030615 -26.4743861189 -2.4760271480
24.6780351203 -26.4710327063 -2.4760271446
24.6412970795 -26.4662741588 -2.4760271399
24.8163348614 -26.4674237597 -2.4760271411
24.8040822768 -26.4653922536 -2.4760271391
24.7427321610 -26.4557788815 -2.4760271296
24.8326411242 -26.4456618195 -2.4760271196
24.8985427882 -26.4328390555 -2.4760271070
24.5254224836 -26.3805767278 -2.4760270554
25.0514983906 -26.4393821008 -2.4760271134
25.0144647620 -26.4313105226 -2.4760271054
24.8905289573 -26.4067845371 -2.4760270812
24.8158383347 -26.3938324001 -2.4760270685
24.3008464345 -26.3410236999 -2.4760270164
25.1680278455 -26.4421168763 -2.4760271161
25.1366843255 -26.4095125137 -2.4760270839
25.1242590274 -26.4065336094 -2.4760270810
24.9206015261 -26.3140039002 -2.4760269897
24.5544409734 -26.2133808238 -2.4760268904
24.9983174584 -26.2551659973 -2.4760269316
24.2824846421 -26.1467874458 -2.4760268247
24.6143447216 -26.1467038503 -2.4760268246
24.7793714799 -26.1190980799 -2.4760267974
24.6140068606 -26.0250925044 -2.4760267046
25.4092352407 -26.1064084294 -2.4760267849
25.7291892673 -26.0306386390 -2.4760267101
25.6988383596 -29.9565881494 -2.4760305840
25.9466058446 -29.8507331434 -2.4760304796
26.2713748593 -30.7016859203 -2.4760313193
26.2624496318 -30.8715114066 -2.4760314868
26.3082242723 -30.6116003356 -2.4760312304
26.3235805957 -30.3752297519 -2.4760309971
26.3131626547 -30.1250554716 -2.4760307503
26.2823790209 -31.0698079754 -2.4760316825
26.4383167488 -30.8607667364 -2.4760314762
24.8998692352 -26.5337309842 -2.4760272065
24.9957252070 -26.5318239917 -2.4760272046
24.9844402599 -26.5289985986 -2.4760272018
24.9278928724 -26.5153730466 -2.4760271884
25.0808686237 -26.5292214646 -2.4760272021
25.0356426240 -26.5171130871 -2.4760271901
25.1552335548 -26.5251891146 -2.4760271981
25.2187557036 -26.5190830431 -2.4760271921
25.2074320907 -26.5155979413 -2.4760271886
25.2372820516 -26.4995298574 -2.4760271728
24.9498475470 -26.4212064029 -2.4760270955
25.3697226001 -26.5178570843 -2.4760271908
24.9426635731 -26.3451412106 -2.4760270204
25.5968181349 -26.5002073012 -2.4760271734
25.7066158239 -26.4938936094 -2.4760271672
25.6838007704 -26.4840710147 -2.4760271575
25.8061658666 -26.4853913791 -2.4760271588
26.1794666448 -25.7792222185 -2.4760264620
25.7047206161 -30.1095609523 -2.4760307350
25.9128879472 -29.8756012197 -2.4760305041
26.2337388272 -29.9495839277 -2.4760305771
26.3319979780 -30.1586260385 -2.4760307834
26.3504274887 -30.2571600438 -2.4760308806
26.3529366120 -30.2223244526 -2.4760308462
26.3447848673 -30.4899473058 -2.4760311103
26.3551290654 -30.4272866116 -2.4760310485
26.3307784045 -29.5783212610 -2.4760302108
26.3325209115 -30.6613994043 -2.4760312795
26.3698247424 -30.4871828725 -2.4760311076
26.3934320586 -30.3177778356 -2.4760309404
26.3775293821 -29.6995348722 -2.4760303304
26.2937382727 -30.8740949977 -2.4760314894
26.3694265003 -30.6113320022 -2.4760312301
26.3189461133 -30.8752136325 -2.4760314905
26.3897184437 -30.6308762345 -2.4760312494
26.4300010717 -30.4165628093 -2.4760310379
26.3577240602 -29.3870414362 -2.4760300220
26.4197853544 -30.6077555502 -2.4760312266
26.4623754588 -30.3544285243 -2.4760309766
26.3445359044 -30.9468562123 -2.4760315612
26.3496819591 -30.9329492456 -2.4760315475
26.4199731518 -29.4307741157 -2.4760300652
26.3076535131 -31.1007796451 -2.4760317131
26.4551047228 -30.6692628103 -2.4760312873
26.4732963442 -30.5889574652 -2.4760312080
26.4938737604 -30.4785815833 -2.4760310991
26.3790406948 -29.2173327504 -2.4760298546
26.3635302497 -29.1751817532 -2.4760298130
26.4803688884 -30.6676412338 -2.4760312857
26.4855738684 -30.6455749809 -2.4760312639
26.3514227553 -31.1793141822 -2.4760317906
26.4071196217 -31.0524093064 -2.4760316653
26.5326773864 -30.6564653307 -2.4760312746
26.5796971746 -30.3912098864 -2.4760310129
26.5741280315 -30.5783190408 -2.4760311975
26.5689070603 -29.5360943125 -2.4760301691
26.5016624891 -30.9385554361 -2.4760315530
26.3036313863 -28.7635155562 -2.4760294068
26.5493168014 -30.8713184001 -2.4760314866
26.6289287764 -30.5487892337 -2.4760311684
26.4609662155 -29.0283685431 -2.4760296681
26.5257022426 -31.0145039467 -2.4760316279
26.4609337107 -28.9676928024 -2.4760296082
26.5472560538 -29.1143327080 -2.4760297529
26.3863279067 -28.7629818118 -2.4760294062
26.2273666947 -31.6748962832 -2.4760322796
26.2601169216 -31.6283608323 -2.4760322337
26.4721441072 -31.2631342846 -2.4760318733
26.6105180715 -29.0104438163 -2.4760296504
26.5324280950 -28.8351812031 -2.4760294775
26.5293073653 -31.3654078336 -2.4760319742
26.7617200642 -29.3055093425 -2.4760299416
26.2857613462 -28.1469754558 -2.4760287984
27.0309386787 -30.2210924047 -2.4760308450
26.9971564231 -29.5940026702 -2.4760302262
27.0426471685 -30.3848610810 -2.4760310066
27.0541279139 -30.2403865075 -2.4760308641
27.0303189193 -29.6529423274 -2.4760302844
27.0808241595 -30.1870083575 -2.4760308114
27.0358405828 -29.5323994714 -2.4760301655
27.0761570354 -30.5085567836 -2.4760311287
27.1001350946 -30.2798128147 -2.4760309030
27.0612336508 -29.5372518815 -2.4760301702
27.0305736609 -29.3838688908 -2.4760300189
27.1062845089 -30.4660127256 -2.4760310867
26.9779727873 -29.1014391019 -2.4760297402
27.0884422153 -30.7178225423 -2.4760313352
26.9861967789 -29.0496396474 -2.4760296891
26.9903493310 -28.9885257095 -2.4760296288
27.1376927792 -30.7184459343 -2.4760313358
27.1184811046 -29.3348034381 -2.4760299705
26.9544888770 -28.8300537548 -2.4760294724
27.0590847529 -31.1014429581 -2.4760317137
27.1292756533 -30.8630760454 -2.4760314785
27.1060516616 -29.1904627785 -2.4760298281
27.1280902276 -28.6245424833 -2.4760292696
25.6930289796 -33.4022799880 -2.4760339841
25.7028787301 -33.3972468421 -2.4760339791
25.7127135485 -33.3921845810 -2.4760339741
25.7225333488 -33.3870932488 -2.4760339691
25.7534124960 -33.3982007645 -2.4760339801
25.7844830959 -33.4090582548 -2.4760339908
25.8140440170 -33.3930596447 -2.4760339750
25.8238659625 -33.3876685548 -2.4760339697
25.4775306819 -26.5841313871 -2.4760272562
25.8453970752 -33.4033874012 -2.4760339852
25.8552494349 -33.3979035181 -2.4760339798
25.8847085773 -33.3812773357 -2.4760339634
25.5283894356 -26.5797643658 -2.4760272519
25.5180576713 -26.5752481049 -2.4760272475
25.5077125923 -26.5707624270 -2.4760272431
25.9163640220 -33.3909757933 -2.4760339729
25.9261793554 -33.3852820314 -2.4760339673
25.6002014458 -26.5855428376 -2.4760272576
25.5898864611 -26.5808141185 -2.4760272530
25.5795575331 -26.5761159337 -2.4760272483
25.5692147522 -26.5714483243 -2.4760272437
25.9580430111 -33.3946268725 -2.4760339765
25.6619938318 -26.5878357601 -2.4760272599
25.6516853596 -26.5829242380 -2.4760272551
25.6413624033 -26.5780432316 -2.4760272502
25.6310250533 -26.5731927838 -2.4760272455
25.7137681473 -26.5861038504 -2.4760272582
25.6827819603 -26.5710014743 -2.4760272433
25.7658151379 -26.5851126519 -2.4760272572
25.7554981560 -26.5798940195 -2.4760272521
25.8181244879 -26.5848683572 -2.4760272570
25.8078065544 -26.5794949853 -2.4760272517
25.7871232271 -26.5688399257 -2.4760272412
25.8603691147 -26.5798481578 -2.4760272520
26.2088730121 -33.3796690652 -2.4760339618
25.9131753242 -26.5809594772 -2.4760272531
25.9662145658 -26.5828347399 -2.4760272550
25.9558899685 -26.5770232996 -2.4760272492
25.9248136623 -26.5597725858 -2.4760272322
26.0194761192 -26.5854795966 -2.4760272576
26.0091591129 -26.5795105875 -2.4760272517
25.9988244943 -26.5735721240 -2.4760272458
25.9884723539 -26.5676642583 -2.4760272400
25.9677158701 -26.5559405262 -2.4760272284
26.0563128748 -33.5611816441 -2.4760341409
26.0626420400 -26.5827723439 -2.4760272549
26.0419736426 -26.5706095347 -2.4760272429
26.0956824204 -26.5743334531 -2.4760272466
26.1495877173 -26.5788413155 -2.4760272510
26.4590036781 -33.3806491096 -2.4760339627
26.3131065207 -33.5135062053 -2.4760340938
26.2373158112 -26.5769109160 -2.4760272491
26.5371233280 -33.3822264074 -2.4760339643
26.2814595870 -26.5767042354 -2.4760272489
26.3361054930 -26.5839131854 -2.4760272560
26.3050753583 -26.5632880007 -2.4760272357
26.4149431449 -26.5791566362 -2.4760272513
27.2475859839 -27.1533836746 -2.4760278180
26.3087259828 -29.5481929205 -2.4760301810
27.0414480330 -29.9821764792 -2.4760306093
27.1197023748 -29.7935091410 -2.4760304231
25.1296973026 -33.4640927647 -2.4760340451
25.1730264705 -33.4505755248 -2.4760340317
25.1838335341 -33.4471161792 -2.4760340283
25.3590597311 -33.4633998091 -2.4760340444
25.4218451130 -33.4655900838 -2.4760340466
25.4849887307 -33.4667205843 -2.4760340477
25.4958421893 -33.4623383273 -2.4760340433
25.5066826368 -33.4579239829 -2.4760340390
25.7299396306 -33.4655543352 -2.4760340465
25.8161034577 -33.4778343472 -2.4760340586
25.9141537641 -33.4825787020 -2.4760340633
25.9689968365 -33.4811208139 -2.4760340619
26.1130778893 -33.4845299024 -2.4760340652
25.8860264564 -30.0084709670 -2.4760306352
26.2884641124 -29.4866351090 -2.4760301203
26.2861623702 -29.4145570381 -2.4760300492
26.2558671209 -29.1410472016 -2.4760297793
26.3088735546 -29.3869207097 -2.4760300219
26.2071276532 -28.8410269491 -2.4760294832
26.3369454057 -29.5461692078 -2.4760301790
26.2132834080 -28.7828210862 -2.4760294258
26.3610326886 -29.5532045722 -2.4760301860
26.1471501250 -28.3937311512 -2.4760290419
26.2525944860 -28.5530462093 -2.4760291991
24.6191899789 -33.4889210806 -2.4760340696
24.6778124465 -33.4804006039 -2.4760340612
24.7285518761 -33.4968109243 -2.4760340774
24.7520606999 -33.4928596314 -2.4760340735
24.7872790751 -33.4866720799 -2.4760340674
24.8622542277 -33.4970703043 -2.4760340776
24.9092417959 -33.4874466551 -2.4760340681
24.8551297070 -33.5231128347 -2.4760341033
24.8240144600 -33.5536648740 -2.4760341335
25.2454773403 -33.5274197579 -2.4760341076
25.2691582092 -33.5204096247 -2.4760341006
24.9756058517 -33.6215070572 -2.4760342004
25.2998641154 -33.5363764701 -2.4760341164
25.3117359918 -33.5327279915 -2.4760341128
25.3235970234 -33.5290444097 -2.4760341092
24.6736276024 -33.7009580633 -2.4760342788
25.4573539136 -33.5359883307 -2.4760341160
24.8594479901 -33.7437751657 -2.4760343211
25.5688090774 -33.5474101266 -2.4760341273
24.7379383869 -33.7890896350 -2.4760343658
25.6369484053 -33.5473696351 -2.4760341272
25.1377556311 -33.7571008979 -2.4760343342
25.1310473555 -33.7836940428 -2.4760343604
25.5215089910 -33.8460888286 -2.4760344220
25.8248552413 -33.9150285257 -2.4760344900
26.1352631587 -28.8338502385 -2.4760294762
26.1909212654 -29.0112326522 -2.4760296512
26.2522654093 -29.3902824339 -2.4760300252
26.2320435603 -28.9565263641 -2.4760295972
26.1758192598 -28.6993105726 -2.4760293434
26.7075642560 -30.9619258950 -2.4760315761
26.6440710268 -31.0938040635 -2.4760317062
23.9889908655 -33.4632466670 -2.4760340442
24.0377887514 -33.4894254741 -2.4760340701
24.0502731979 -33.4898411650 -2.4760340705
24.1252007288 -33.4915596113 -2.4760340722
24.1376911060 -33.4917167124 -2.4760340723
24.2501098376 -33.4914678376 -2.4760340721
24.2379234904 -33.5158144116 -2.4760340961
24.3258389658 -33.5137989382 -2.4760340941
24.2255936711 -33.5401256225 -2.4760341201
24.4276130925 -33.5334009927 -2.4760341135
24.1114770627 -33.5638741495 -2.4760341435
24.4416729816 -33.5567929969 -2.4760341365
24.5430563789 -33.5495081488 -2.4760341294
24.6063226473 -33.5437375655 -2.4760341237
24.4431200423 -33.5809226736 -2.4760341604
24.4702141392 -33.6034381381 -2.4760341826
24.7896685461 -33.5704845984 -2.4760341501
24.2523615588 -33.6364885255 -2.4760342152
24.8569394228 -33.5849491001 -2.4760341643
23.9670062361 -33.6557966396 -2.4760342342
23.9527624221 -33.6792736100 -2.4760342574
24.9288439295 -33.6221866210 -2.4760342011
24.9931429417 -33.6107021409 -2.4760341897
25.0444554623 -33.6008306084 -2.4760341800
25.0877785074 -33.6166964982 -2.4760341957
24.7541538673 -33.6972208385 -2.4760342751
25.1958744476 -33.6176505280 -2.4760341966
24.3604194520 -33.7544334200 -2.4760343316
24.7704049734 -33.7194827223 -2.4760342971
24.3613665778 -33.7785878862 -2.4760343554
25.2976177205 -33.6426304478 -2.4760342212
24.0939456908 -33.8053212547 -2.4760343818
25.4724980954 -33.6699712519 -2.4760342482
23.9781984426 -33.9951071672 -2.4760345691
24.4956508532 -33.9893692276 -2.4760345634
24.6933938010 -33.9964758619 -2.4760345704
24.7521632569 -34.0141259884 -2.4760345878
24.8917893597 -34.1907836984 -2.4760347621
26.0982715408 -29.0428315915 -2.4760296824
26.0477325815 -28.6206933089 -2.4760292658
26.0274937132 -28.5454098573 -2.4760291915
26.1132985219 -28.8587763852 -2.4760295008
26.0851737831 -28.6766008226 -2.4760293210
26.1415759623 -28.9042063842 -2.4760295456
26.1407464564 -28.8935575780 -2.4760295351
26.0181884112 -28.3703290139 -2.4760290188
26.1675035152 -28.9293989571 -2.4760295704
26.1656814308 -28.9024003750 -2.4760295438
26.0219984679 -28.3163767673 -2.4760289655
25.8334298241 -30.1389268269 -2.4760307640
26.1454896320 -28.6136626486 -2.4760292589
26.0527506964 -28.3270288387 -2.4760289761
26.1611544168 -29.5920692345 -2.4760302243
26.4016094170 -29.2514500157 -2.4760298882
23.6498433367 -33.5229846578 -2.4760341032
23.6896626430 -33.5289441835 -2.4760341091
23.7694520736 -33.5398019675 -2.4760341198
23.7827685052 -33.5414738397 -2.4760341214
23.5529708876 -33.5315158891 -2.4760341116
23.8468009828 -33.5732724761 -2.4760341528
24.0214920945 -33.5889312222 -2.4760341683
24.1022939190 -33.5938901890 -2.4760341732
23.3095521335 -33.5067464719 -2.4760340872
23.8981500555 -33.6028658168 -2.4760341820
23.9656985830 -33.6089206483 -2.4760341880
23.9927418282 -33.6110627230 -2.4760341901
24.1687779565 -33.6210825512 -2.4760342000
24.2365663143 -33.6231326988 -2.4760342020
23.4461104417 -33.5853831291 -2.4760341648
23.5674524591 -33.6076018015 -2.4760341867
24.0984941709 -33.6663096577 -2.4760342446
23.5498338834 -33.6291141988 -2.4760342079
23.6586705690 -33.6465570845 -2.4760342251
23.5593784961 -33.6552688997 -2.4760342337
24.6910735530 -33.7079354001 -2.4760342857
23.5690709589 -33.6814070892 -2.4760342595
23.7481248559 -33.7076637518 -2.4760342854
24.6234304974 -33.7367278576 -2.4760343141
24.9283402563 -33.7084335952 -2.4760342862
24.1353585171 -33.7648824652 -2.4760343419
23.4273643092 -33.7541307350 -2.4760343313
23.6445283154 -33.8399354297 -2.4760344159
24.8921694639 -33.8831805784 -2.4760344586
25.3616769015 -33.8064248517 -2.4760343829
23.7640748885 -33.9288009505 -2.4760345036
23.4341312893 -33.9522254037 -2.4760345267
23.7996291095 -34.0058224106 -2.4760345796
23.3914905603 -34.0180069820 -2.4760345917
25.5482871332 -33.9619794095 -2.4760345364
23.4610566882 -34.0553193413 -2.4760346285
23.3340301448 -34.1546063978 -2.4760347264
26.0268417950 -28.9166010871 -2.4760295578
25.9965356420 -28.5351100389 -2.4760291814
26.0527992886 -28.8326590547 -2.4760294750
26.0503657882 -28.7565044600 -2.4760293998
26.0246527481 -28.5520820227 -2.4760291981
26.0123698302 -28.4951232115 -2.4760291419
25.9866263509 -28.3999470423 -2.4760290480
26.0603984530 -29.0684854049 -2.4760297077
26.0710690470 -28.9780470267 -2.4760296185
26.0500981506 -28.5563852502 -2.4760292024
26.0149656837 -28.4103306167 -2.4760290583
26.0914659295 -29.0169872609 -2.4760296569
26.0720996441 -28.5428012260 -2.4760291890
26.0674923013 -28.5201377298 -2.4760291666
26.0780739221 -29.2275446931 -2.4760298646
26.1248274051 -28.8838280066 -2.4760295255
26.0881741712 -28.5013727412 -2.4760291481
26.0714956142 -28.4329268063 -2.4760290806
26.1103282596 -29.1962819820 -2.4760298338
26.1344315666 -28.6228782370 -2.4760292680
26.1337735328 -28.6181553862 -2.4760292633
26.1204550016 -28.5382015645 -2.4760291844
26.0832152861 -28.3853761645 -2.4760290336
26.1587701678 -29.0634831388 -2.4760297028
26.1266115207 -28.4532606824 -2.4760291006
26.2159776529 -28.9858096544 -2.4760296261
26.2902477466 -28.9660500920 -2.4760296066
26.2941086337 -28.8829871544 -2.4760295247
26.0289074550 -30.7048145969 -2.4760313223
26.7098798003 -30.9669961274 -2.4760315811
26.7161535734 -30.9605607401 -2.4760315747
26.0989628452 -31.5054064869 -2.4760321123
26.1146874355 -31.4961221483 -2.4760321032
25.8198869461 -31.7300270046 -2.4760323340
26.0461466144 -31.6185117573 -2.4760322239
26.2601821923 -31.5197879274 -2.4760321265
26.2635270572 -31.6887080833 -2.4760322932
23.7196058537 -33.6736917276 -2.4760342519
23.9922682592 -33.7120131885 -2.4760342897
23.4441586013 -33.6436831497 -2.4760342223
23.1835884953 -33.6019358095 -2.4760341811
23.2399936742 -33.6176235568 -2.4760341966
23.2541236649 -33.6214411226 -2.4760342003
23.6394715349 -33.7086083204 -2.4760342864
24.4102202212 -33.7891597869 -2.4760343658
22.9941176526 -33.5693397182 -2.4760341489
23.2052905898 -33.6331521647 -2.4760342119
22.7774672923 -33.5188461545 -2.4760340991
24.7340629742 -33.8352794289 -2.4760344113
22.5664915045 -33.4864664745 -2.4760340672
24.9593623024 -33.8698259919 -2.4760344454
25.0061911970 -33.8899543383 -2.4760344653
22.7011754583 -33.5932295744 -2.4760341725
23.0860352338 -33.7246042944 -2.4760343021
23.3186273897 -33.7878140923 -2.4760343645
22.5287104835 -33.5754718618 -2.4760341550
22.6979364699 -33.6437862645 -2.4760342224
25.2395066744 -33.9360391981 -2.4760345108
22.5806956419 -33.6494431923 -2.4760342280
22.5430457169 -33.6601158539 -2.4760342385
22.6575938421 -33.7059638850 -2.4760342837
24.7580296818 -34.0520389824 -2.4760346252
24.7734381098 -34.0513640224 -2.4760346246
24.8966199051 -34.0443241155 -2.4760346176
25.1882442900 -34.0159404463 -2.4760345896
25.4170679383 -33.9819857519 -2.4760345561
22.6488775189 -33.7285107471 -2.4760343060
22.7504417130 -33.7665702026 -2.4760343435
23.3894854645 -33.9535043771 -2.4760345280
23.6897819215 -34.0363050363 -2.4760346097
22.4720389520 -33.7089799428 -2.4760342867
23.8405719208 -34.0830702787 -2.4760346559
23.7092622752 -34.1128695024 -2.4760346853
23.6273027744 -34.1238638442 -2.4760346961
22.4413241509 -33.9057930652 -2.4760344809
22.4564641831 -34.0424530978 -2.4760346158
25.9909199380 -28.7316947878 -2.4760293754
25.9917264737 -28.6737163481 -2.4760293182
25.9916343194 -28.6664682617 -2.4760293110
25.9865374105 -28.5723965879 -2.4760292182
25.9851117223 -28.5579695797 -2.4760292039
26.0055319414 -28.8467357419 -2.4760294889
26.0158828749 -28.6993510147 -2.4760293434
26.0159419612 -28.6919595623 -2.4760293362
26.0158043789 -28.6660894426 -2.4760293106
26.0145060837 -28.6254576266 -2.4760292705
26.0132408916 -28.6033189421 -2.4760292487
26.0196534568 -28.9131284166 -2.4760295544
26.0299834063 -28.8461154835 -2.4760294883
26.0361598147 -28.7861606826 -2.4760294291
26.0356713602 -28.5791850366 -2.4760292249
26.0318997592 -28.9738562169 -2.4760296143
26.0553640355 -28.8377298087 -2.4760294800
26.0641989800 -28.6691702826 -2.4760293137
26.0519054613 -28.9944544411 -2.4760296346
26.1033770393 -28.8433948412 -2.4760294856
26.0402089769 -29.1910714699 -2.4760298287
26.1363046848 -28.6479856551 -2.4760292928
26.1266105621 -28.5186884643 -2.4760291652
26.0868928016 -29.1341858951 -2.4760297725
26.1904936735 -28.9181153609 -2.4760295593
26.1958423906 -29.1106514724 -2.4760297493
25.6130227118 -30.3348267811 -2.4760309573
25.7482620324 -30.3709922472 -2.4760309929
25.7730812449 -30.3562886495 -2.4760309784
25.6481347054 -31.8699693799 -2.4760324721
25.6070454336 -31.9060490124 -2.4760325077
24.2248823122 -33.9440986377 -2.4760345187
24.2715692625 -33.9486989547 -2.4760345233
24.4558539673 -34.0112160394 -2.4760345850
23.9188684591 -33.9769697506 -2.4760345512
24.6603554337 -34.0433938357 -2.4760346167
23.1714316874 -33.8268381128 -2.4760344030
23.9465056704 -34.0057834223 -2.4760345796
24.1516540928 -34.0333798360 -2.4760346068
22.2948635506 -33.6302837016 -2.4760342091
23.3800858921 -34.0369548831 -2.4760346103
22.7251281926 -33.8748821700 -2.4760344504
21.7745425362 -33.4770346883 -2.4760340578
22.1672268140 -33.8095928583 -2.4760343860
21.6816230421 -33.5613862699 -2.4760341411
22.1053563471 -34.0489980302 -2.4760346222
25.9686486174 -28.7195240871 -2.4760293634
25.9703116828 -28.7082956444 -2.4760293523
25.9780495777 -28.6320885916 -2.4760292771
25.9876821624 -28.7518903365 -2.4760293953
25.9911713622 -28.7318270338 -2.4760293755
25.9979099115 -28.6828361135 -2.4760293272
25.9811478475 -28.8776641900 -2.4760295194
25.9880796143 -28.8548483584 -2.4760294969
25.9897280388 -28.8491192682 -2.4760294912
26.0125184125 -28.7504127889 -2.4760293938
26.0255046716 -28.6469443093 -2.4760292917
26.0261180848 -28.6380231024 -2.4760292829
26.0170460733 -28.8410254975 -2.4760294832
26.0245268763 -28.8114348244 -2.4760294540
26.0285940689 -28.7935787632 -2.4760294364
26.0498315474 -28.6456650487 -2.4760292905
25.9913620534 -28.9888619128 -2.4760296291
26.0131700452 -28.9336701537 -2.4760295747
26.3633084541 -28.6676853048 -2.4760293122
26.3765915724 -28.7701102901 -2.4760294133
26.4005141134 -28.7735812137 -2.4760294167
26.4090832853 -28.8638145448 -2.4760295057
26.4105435641 -28.9599786908 -2.4760296006
26.4213705501 -28.9186972876 -2.4760295599
26.4095184479 -29.0452274579 -2.4760296847
26.4703553445 -28.7968688957 -2.4760294397
26.4129222069 -29.1069296826 -2.4760297456
26.4176024762 -29.0945522488 -2.4760297334
26.4917816012 -28.9360553240 -2.4760295770
26.5219985984 -28.7776194609 -2.4760294207
25.6379284262 -30.3979561420 -2.4760310196
25.7845088419 -30.3941466087 -2.4760310158
25.8265273281 -30.5598558256 -2.4760311793
25.8311155127 -31.5014119048 -2.4760321084
25.4551175936 -31.7267685287 -2.4760323308
25.6076461946 -31.7757187536 -2.4760323791
25.2497113811 -31.8937101129 -2.4760324955
26.1977869991 -31.7122873007 -2.4760323165
23.1002473013 -33.9628456481 -2.4760345372
22.6742310067 -33.9237369091 -2.4760344986
23.0922741976 -34.0882044150 -2.4760346609
22.5773202079 -34.0129580602 -2.4760345867
23.0276927056 -34.2192440963 -2.4760347902
21.8900614641 -33.7901305126 -2.4760343668
21.5683186144 -33.7872192426 -2.4760343639
21.2434203982 -33.8272819141 -2.4760344035
25.9512842419 -28.7209272685 -2.4760293647
25.9615970360 -28.6854804889 -2.4760293298
25.9586356794 -28.7722775271 -2.4760294154
25.9682421863 -28.7464108069 -2.4760293899
25.9979952937 -28.7335731916 -2.4760293772
26.0036251400 -28.7899775147 -2.4760294329
26.3696870969 -28.8408157145 -2.4760294830
26.3647844986 -28.9284024963 -2.4760295695
26.3672436430 -28.9220416892 -2.4760295632
26.4124662232 -28.7755338774 -2.4760294186
26.3658456412 -28.9885816931 -2.4760296288
26.3834673057 -28.9468990745 -2.4760295877
26.4098261221 -28.9459693196 -2.4760295868
26.3750737253 -29.1777474643 -2.4760298155
25.5685758724 -30.4400861983 -2.4760310611
25.4559610610 -30.4772157759 -2.4760310978
25.4203299201 -31.5691769005 -2.4760321753
25.5649449298 -31.5596265665 -2.4760321658
25.7179184494 -31.5419947781 -2.4760321484
22.7550287888 -33.0650592602 -2.4760336513
19.2870292789 -33.0614967795 -2.4760336478
19.4640307166 -34.3292740600 -2.4760348988
19.6399166256 -34.5333960193 -2.4760351002
19.7477186190 -34.6327418173 -2.4760351982
19.7679255633 -34.6834461775 -2.4760352483
19.7862131638 -34.6997571137 -2.4760352644
19.5178449737 -34.4839234354 -2.4760350514
19.7518087665 -34.7014623964 -2.4760352661
19.7356919696 -34.7194786152 -2.4760352838
19.9477266441 -34.9657129485 -2.4760355268
20.0480737234 -35.0784207295 -2.4760356380
20.0374818774 -35.1317765481 -2.4760356907
20.1665139706 -35.2928109729 -2.4760358496
25.4069723121 -30.3917281475 -2.4760310134
25.6453615704 -30.6147389371 -2.4760312335
19.1215309104 -31.8535436336 -2.4760324559
19.0901354542 -32.6652615356 -2.4760332568
33.4626787687 -31.9029924546 -2.4760325047
33.4457467390 -32.1191443472 -2.4760327179
33.4771068691 -32.6570611700 -2.4760332487
33.5079710183 -32.8549334517 -2.4760334440
33.5132889994 -33.0431872168 -2.4760336297
33.5071595956 -33.1022431640 -2.4760336880
26.3318996886 -29.3725879897 -2.4760300078
25.4379915711 -30.6094382532 -2.4760312282
25.4733447672 -30.6108385817 -2.4760312296
24.9994624516 -32.0427270582 -2.4760326425
24.3474921785 -31.8870049431 -2.4760324889
19.0638835455 -31.9060865485 -2.4760325077
19.0621033053 -32.3363603758 -2.4760329323
18.7994911358 -31.9088791980 -2.4760325105
19.0526249701 -32.6673240598 -2.4760332589
19.0306712635 -33.0490922439 -2.4760336356
33.4280099945 -32.8596348360 -2.4760334486
33.4141044410 -32.9406404212 -2.4760335286
33.4236123038 -32.9750402641 -2.4760335625
33.4299385387 -33.0675214356 -2.4760336538
33.4139554178 -33.1489791647 -2.4760337341
33.4991024466 -33.1947978073 -2.4760337793
33.4594315055 -33.7028916000 -2.4760342807
33.3649850621 -34.0344730935 -2.4760346079
33.2371554806 -34.3513858834 -2.4760349206
33.3050713076 -34.2964853021 -2.4760348664
25.9641036295 -29.2113503270 -2.4760298487
25.9716812427 -29.1892658681 -2.4760298269
25.9729815880 -29.1852245918 -2.4760298229
25.9560881463 -29.2922855514 -2.4760299285
25.9626710032 -29.2784088274 -2.4760299148
25.9782660534 -29.2421280681 -2.4760298790
25.9838056040 -29.2278028856 -2.4760298649
25.9973339530 -29.1883753961 -2.4760298260
25.9911165301 -29.2740760839 -2.4760299106
25.9755462083 -29.3589181449 -2.4760299943
25.9766634788 -29.4039069704 -2.4760300387
26.3675387515 -29.3003823791 -2.4760299365
26.3697937728 -29.3688472469 -2.4760300041
26.3745407678 -29.4225884956 -2.4760300571
26.3824475590 -29.4032551669 -2.4760300380
26.3684181590 -29.6437185737 -2.4760302753
26.3783022699 -29.6276835329 -2.4760302595
26.3793625500 -29.7151649016 -2.4760303458
25.4827710492 -30.2995327828 -2.4760309224
26.3924964015 -29.7386589899 -2.4760303690
25.2056190139 -32.0286565298 -2.4760326287
24.9354516246 -32.0822876405 -2.4760326816
25.3056358973 -32.1022755019 -2.4760327013
25.2023175933 -32.1494765724 -2.4760327479
25.5162634343 -32.1910279204 -2.4760327889
25.5734401727 -32.1864913909 -2.4760327844
24.5331213339 -32.1341585026 -2.4760327328
24.8455292950 -32.3391474747 -2.4760329350
25.1360548311 -32.3647685341 -2.4760329603
24.2187844081 -32.3984878818 -2.4760329936
24.2146758807 -32.4478338474 -2.4760330423
19.2230843537 -33.6369088517 -2.4760342156
19.5278187535 -34.4386000902 -2.4760350067
19.5102899291 -34.4552456780 -2.4760350231
19.7255512296 -34.6733721525 -2.4760352383
19.6071872039 -34.6584591850 -2.4760352236
19.8665595515 -34.9388189584 -2.4760355003
19.9935569203 -35.0837406716 -2.4760356433
19.0388497182 -34.1421524958 -2.4760347142
20.1615028680 -35.2564335780 -2.4760358137
19.7292922291 -34.9109206422 -2.4760354727
19.9619109119 -35.1202902446 -2.4760356793
33.5572168846 -31.9555693117 -2.4760325565
33.5660200819 -31.9310981451 -2.4760325324
33.5573369149 -32.0946317790 -2.4760326938
33.5665514836 -32.0701596489 -2.4760326696
33.5756936190 -32.0456603675 -2.4760326454
33.5776231462 -32.2432327986 -2.4760328404
33.5872772148 -32.2187000080 -2.4760328162
33.6063674243 -32.1695492882 -2.4760327677
33.5805254531 -32.3012300588 -2.4760328976
33.5903510754 -32.2766884289 -2.4760328734
33.6001040562 -32.2521178404 -2.4760328492
33.6097843100 -32.2275185083 -2.4760328249
33.5830308325 -32.3593760085 -2.4760329550
25.9539014417 -29.3054848333 -2.4760299416
25.9645659130 -29.2541234608 -2.4760298909
25.9650191914 -29.2515396953 -2.4760298883
25.9654648247 -29.2489546002 -2.4760298858
25.9671708285 -29.2386013765 -2.4760298756
25.9745303759 -29.4069402661 -2.4760300417
25.9789794071 -29.3938442750 -2.4760300287
25.9856935706 -29.3727579958 -2.4760300079
26.0111921839 -29.2679927725 -2.4760299046
25.9876388832 -29.4415442457 -2.4760300758
25.9954793594 -29.4202396983 -2.4760300548
26.0028135048 -29.3987555852 -2.4760300336
25.9768084239 -29.5276015750 -2.4760301607
25.9842651496 -29.5118191325 -2.4760301452
26.0132988810 -29.4419926265 -2.4760300763
26.0368815194 -29.3701416858 -2.4760300054
25.9965894145 -29.5947714447 -2.4760302270
26.3759009223 -29.2840365791 -2.4760299204
26.3794443779 -29.2573996511 -2.4760298941
26.3771264588 -29.4065057041 -2.4760300412
26.3879752839 -29.3568451720 -2.4760299922
26.3821505981 -29.4813575119 -2.4760301151
26.3843865944 -29.4737141030 -2.4760301076
26.4201510492 -29.3145250345 -2.4760299505
26.3970028888 -29.5153366641 -2.4760301486
26.4396234444 -29.4553463620 -2.4760300894
26.4476639616 -29.4233425159 -2.4760300578
25.5114633467 -32.1817923091 -2.4760327798
25.6024431149 -32.1680183102 -2.4760327662
25.8244722415 -32.1475367955 -2.4760327460
25.3321662071 -32.2494450569 -2.4760328465
25.8905905761 -32.1808427783 -2.4760327788
25.6466289803 -32.6261310157 -2.4760332182
23.2387778514 -33.9989564003 -2.4760345729
22.5414253872 -33.8951018774 -2.4760344704
22.0154980841 -34.2081902642 -2.4760347793
25.9654292062 -29.2044932438 -2.4760298419
25.9660474174 -29.1556653151 -2.4760297937
25.9658408321 -29.1434580341 -2.4760297817
25.9655911100 -29.1343046449 -2.4760297726
25.9812367343 -29.3049454518 -2.4760299410
25.9820344230 -29.2987490280 -2.4760299349
25.9851698072 -29.2708111955 -2.4760299073
25.9890586252 -29.2178550698 -2.4760298551
25.9902805307 -29.1647704101 -2.4760298027
25.9892819206 -29.1210519724 -2.4760297596
25.9856247129 -29.4149175124 -2.4760300495
26.0029988769 -29.3239263593 -2.4760299597
26.0060186298 -29.3017645058 -2.4760299379
26.0078943210 -29.2858986827 -2.4760299222
26.0109407440 -29.2540924929 -2.4760298908
26.0125128270 -29.2317811681 -2.4760298688
26.0113593749 -29.4109166076 -2.4760300456
26.0278454653 -29.3209707348 -2.4760299568
26.0374351119 -29.1156839120 -2.4760297543
26.0437040518 -29.3737551506 -2.4760300089
26.0482854276 -29.3474452092 -2.4760299830
26.0582778672 -29.2679683379 -2.4760299045
26.0591294642 -29.2579897188 -2.4760298947
26.0617953129 -29.2146763475 -2.4760298519
26.0037051743 -29.5971734587 -2.4760302294
26.0761897884 -29.3243332836 -2.4760299602
26.0840031772 -29.2497386475 -2.4760298865
26.0869746447 -29.1679742141 -2.4760298059
26.0797359362 -29.4371085502 -2.4760300714
26.0912319314 -29.3826118876 -2.4760300177
26.0435059509 -29.6873682576 -2.4760303184
26.1139154440 -29.7635851697 -2.4760303936
26.4009712976 -29.1942692658 -2.4760298318
26.4011553618 -29.1812523369 -2.4760298190
26.4004868395 -29.1205084168 -2.4760297590
26.4102158237 -29.3792558176 -2.4760300143
26.4972701566 -29.1220659303 -2.4760297606
26.4350929589 -29.7552745396 -2.4760303854
26.2037738845 -31.9272573565 -2.4760325286
26.2119336106 -31.9234899557 -2.4760325249
26.1236405467 -32.0151855512 -2.4760326154
25.5671998749 -32.2373279734 -2.4760328346
26.0035103321 -32.1396094163 -2.4760327381
26.1343166578 -32.0892553475 -2.4760326884
25.3510839743 -32.3715831396 -2.4760329670
25.3700359501 -32.3690612398 -2.4760329645
25.7449947422 -32.2952320099 -2.4760328917
25.3637503754 -32.3942980178 -2.4760329895
25.8439185448 -32.2930955321 -2.4760328896
25.2827854519 -32.4526628143 -2.4760330470
25.6110271456 -32.4997723134 -2.4760330935
24.5336391178 -32.6901121842 -2.4760332813
25.2410059379 -33.0391164553 -2.4760336257
24.2331233852 -33.9427930304 -2.4760345174
23.6679290956 -33.8499578652 -2.4760344258
23.6817876129 -33.8536835393 -2.4760344295
24.0597112350 -33.9386758372 -2.4760345134
24.3861395002 -33.9870954322 -2.4760345611
24.4432112437 -33.9932441263 -2.4760345672
24.6291278226 -34.0085568071 -2.4760345823
23.4541096700 -33.8122062767 -2.4760343886
24.0082621358 -33.9782010706 -2.4760345524
24.8288014015 -34.0653753260 -2.4760346384
23.7476873487 -33.9455567544 -2.4760345202
24.2912063138 -34.0485051461 -2.4760346217
25.1777360420 -34.0846628759 -2.4760346574
24.0566796996 -34.0364010550 -2.4760346098
24.0668707461 -34.0627782220 -2.4760346358
23.1490986301 -33.8851045999 -2.4760344605
24.0204887749 -34.1526682588 -2.4760347245
23.8389208346 -34.1407026296 -2.4760347127
23.8978484384 -34.1533155157 -2.4760347252
22.4128468689 -33.6474683159 -2.4760342260
23.6363019975 -34.1416910930 -2.4760347137
23.3148820091 -34.0974446702 -2.4760346700
22.1392141535 -33.5968300141 -2.4760341761
22.0607135352 -33.6040262234 -2.4760341832
21.7732201341 -33.4941511454 -2.4760340747
21.8505167346 -33.5495730432 -2.4760341294
21.7825597419 -33.5903117354 -2.4760341696
21.8483266822 -33.6364434046 -2.4760342151
25.9931109353 -29.2661317330 -2.4760299027
25.9850423279 -29.1492128675 -2.4760297873
25.9746155045 -29.0789358591 -2.4760297180
26.0174314123 -29.3055118102 -2.4760299416
26.0174492807 -29.2765177613 -2.4760299130
26.0172009134 -29.2620226081 -2.4760298987
26.0166492944 -29.2439094639 -2.4760298808
26.0114101441 -29.1679910959 -2.4760298059
25.9977684006 -29.0711156702 -2.4760297103
26.0192302438 -29.5261398051 -2.4760301593
26.0250746952 -29.4933956343 -2.4760301270
26.0290165040 -29.4678272131 -2.4760301017
26.0394676504 -29.3649022532 -2.4760300002
26.0368507569 -29.1802967180 -2.4760298180
26.0470389854 -29.5084693437 -2.4760301418
26.0524031848 -29.4749911519 -2.4760301088
26.0520825315 -29.1033542758 -2.4760297421
26.0364609268 -29.0181418404 -2.4760296580
26.0461163688 -29.6250501681 -2.4760302569
26.0572084600 -29.5803416071 -2.4760302128
26.0896628853 -29.3217673643 -2.4760299576
26.0697990634 -29.0619224927 -2.4760297012
26.0616940068 -29.0204819943 -2.4760296603
26.1068160732 -29.1505622929 -2.4760297887
26.1243949362 -29.0966509307 -2.4760297355
26.1064486659 -28.9987579533 -2.4760296389
26.1621605916 -29.3235280823 -2.4760299594
26.1273620022 -28.9816632801 -2.4760296220
