18.4932846821 1.5051618900 -3.5006579806
18.5002390857 1.6453058978 -3.5006578423
18.4980235738 1.7420660666 -3.5006577468
18.4887152430 1.3136420117 -3.5006581695
18.4963675599 1.3521806337 -3.5006581315
18.5089261420 1.4297470619 -3.5006580550
18.5190528416 1.5225019376 -3.5006579635
18.5240136621 1.6942557115 -3.5006577940
18.5236110172 1.7089846326 -3.5006577794
18.5230776772 1.7237094004 -3.5006577649
18.4989931937 1.2503760799 -3.5006582320
18.5201317435 1.3477535736 -3.5006581359
18.5335456607 1.4313867315 -3.5006580534
18.5423151058 1.5106234751 -3.5006579752
18.5435413733 1.5255220424 -3.5006579605
18.5484879189 1.6350169982 -3.5006578524
18.5486177197 1.6599314276 -3.5006578278
18.5484562330 1.6798626529 -3.5006578082
18.5161834625 1.2200695861 -3.5006582619
18.5174665339 1.2249585279 -3.5006582571
18.5248607508 1.2543699368 -3.5006582280
18.5260423177 1.2592843976 -3.5006582232
18.5410527625 1.3284319744 -3.5006581550
18.5420151696 1.3333940100 -3.5006581501
18.5448142610 1.3482968946 -3.5006581354
18.5581696622 1.4331701052 -3.5006580516
18.5720076651 1.6043926489 -3.5006578827
18.5725485569 1.6852554071 -3.5006578029
18.5136381345 1.1253566213 -3.5006583553
18.5271862241 1.1694551746 -3.5006583118
18.5369091663 1.2039941977 -3.5006582777
18.5382397010 1.2089445202 -3.5006582729
18.5800604157 1.4147767911 -3.5006580698
18.5864518588 1.4656350389 -3.5006580196
18.5942118699 1.3498137138 -3.5006581339
18.5951107934 1.3549329101 -3.5006581288
18.6188508185 1.5665734834 -3.5006579200
18.6207355179 1.6185126430 -3.5006578687
18.6211285998 1.6496948991 -3.5006578379
18.6206804376 1.6964690850 -3.5006577918
17.8166678794 0.1511699093 -3.5006593166
18.5205804743 1.0014334364 -3.5006584776
18.5337838599 1.0358717040 -3.5006584436
18.5514026289 1.0855269804 -3.5006583946
18.5690774901 1.1407228996 -3.5006583402
18.5793863765 1.1761354754 -3.5006583052
18.5940985403 1.2321938598 -3.5006582499
18.6001812620 1.2578269503 -3.5006582246
18.6307482143 1.4289270351 -3.5006580558
17.5450831919 -0.0157508858 -3.5006594813
17.5549633917 -0.0116929543 -3.5006594773
17.7886430890 0.1055836223 -3.5006593616
17.9987832844 0.2520213363 -3.5006592171
18.5601338255 1.0374755070 -3.5006584421
18.5922158817 1.1337264637 -3.5006583471
18.6694743194 1.6495145337 -3.5006578381
18.6688836785 1.7029147242 -3.5006577854
17.5542007794 -0.0381384913 -3.5006595034
17.9842642632 0.2097159859 -3.5006592589
18.5554069399 0.9585690937 -3.5006585199
18.6330440795 1.1892154413 -3.5006582923
18.6864810285 1.3167641532 -3.5006581665
18.6981858504 1.3870784408 -3.5006580971
17.6539282868 -0.0474543572 -3.5006595126
18.6063863591 0.9555663069 -3.5006585229
18.6282602919 1.0126198817 -3.5006584666
17.6589866534 -0.0717443587 -3.5006595366
18.0899299613 0.2018815973 -3.5006592666
18.2179635462 0.3202443518 -3.5006591498
18.5589687402 0.7929384114 -3.5006586834
18.5740239905 0.8231544570 -3.5006586535
18.5789229363 0.8332852655 -3.5006586435
18.6509691140 1.0043346732 -3.5006584748
17.7761762639 -0.0403573766 -3.5006595056
17.9840379498 0.0890497389 -3.5006593779
18.1862870807 0.2554586319 -3.5006592137
18.2861737190 0.3569770931 -3.5006591135
17.5622295425 -0.1649214010 -3.5006596285
18.5639057295 0.6997997486 -3.5006587753
18.6758129766 0.9338634787 -3.5006585443
18.6963867583 0.9877642564 -3.5006584911
17.8952917329 -0.0276740368 -3.5006594931
17.9151445149 -0.0153551255 -3.5006594809
18.2858933398 0.2860332357 -3.5006591835
17.9677531469 -0.0101709636 -3.5006594758
18.2742714631 0.2397571448 -3.5006592292
17.3717312778 -0.3019335870 -3.5006597637
18.7153993703 0.8407874815 -3.5006586361
17.9434723625 -0.0831639461 -3.5006595479
18.0836815514 0.0120971700 -3.5006594539
18.1029982967 -0.0036604379 -3.5006594694
18.7638639187 0.7720290967 -3.5006587040
18.9621798930 0.3755929709 -3.5006590952
18.9991406529 0.4382080262 -3.5006590334
13.6720944843 -3.6080806984 -3.5006630261
13.7346079507 -3.6454819687 -3.5006630630
13.5249005742 -3.6020763665 -3.5006630202
18.0012765615 0.2632762495 -3.4989769245
17.7066968255 -0.0854852490 -3.4989772687
18.4646317257 1.6984496942 -3.4989755083
18.4525050857 1.7705783506 -3.4989754372
18.4376142864 1.8421874461 -3.4989753665
18.5019297163 1.5888425520 -3.4989756165
18.5003488384 1.6058634845 -3.4989755997
18.4980061527 1.6285349633 -3.4989755773
18.4932615664 1.6681376245 -3.4989755383
18.4917554462 1.6794338084 -3.4989755271
18.4661189439 1.8253118831 -3.4989753832
18.5316165315 1.3315919708 -3.4989758703
18.5333887367 1.4469533335 -3.4989757565
18.5329240367 1.4700268805 -3.4989757337
18.5302388682 1.5334327408 -3.4989756712
18.5157068811 1.6826993942 -3.4989755239
18.5098369812 1.7226569512 -3.4989754845
18.5535053969 1.2896814672 -3.4989759117
18.5577466866 1.4122514531 -3.4989757908
18.5505937186 1.5872808085 -3.4989756180
18.5616551132 1.1352378639 -3.4989760641
18.5717162347 1.2173946809 -3.4989759830
18.5768156808 1.2762982681 -3.4989759249
18.5790382325 1.3117037520 -3.4989758900
18.5813450450 1.3707826446 -3.4989758317
18.5619776064 1.7009425842 -3.4989755059
18.5475330871 1.7884401386 -3.4989754195
18.6021310493 1.2924816169 -3.4989759089
18.5757588544 0.9499236725 -3.4989762470
18.5798451159 0.9676249568 -3.4989762295
18.6269796087 1.3030567831 -3.4989758985
18.5776654399 1.8803426155 -3.4989753289
18.6296991963 0.9690594831 -3.4989762281
18.6750281339 1.5419261917 -3.4989756628
18.6366107100 1.8367182694 -3.4989753719
18.6261563082 1.8851916794 -3.4989753241
18.6847105905 1.1429119356 -3.4989760565
18.6870798990 1.1615725059 -3.4989760381
18.6297563688 0.7809731214 -3.4989764137
18.6371651098 0.8052335576 -3.4989763897
18.6718724311 1.9021235088 -3.4989753074
18.6359428574 0.6500503607 -3.4989765429
18.6346700156 0.5805242905 -3.4989766115
18.7682693076 1.7899066236 -3.4989754181
15.0321959156 -3.6596662630 -3.4989807955
14.7075952972 -3.6779463079 -3.4989808135
17.8374994746 -0.0040013746 -3.5006763975
17.8533029254 -0.0231283761 -3.5006764163
17.3282627399 -0.5492758072 -3.5006769355
18.5796423903 1.2854572813 -3.5006751251
18.5742049965 1.3515083334 -3.5006750599
18.5700055853 1.3910515903 -3.5006750209
18.5574829284 1.4829836390 -3.5006749302
18.5385253175 1.5873083010 -3.5006748272
18.5358090592 1.6002823717 -3.5006748144
18.5315908683 1.6197127785 -3.5006747953
18.5146529938 1.6906191827 -3.5006747253
18.5044443627 1.7290520863 -3.5006746874
18.6088632301 1.1465160269 -3.5006752622
18.6054056667 1.2603378890 -3.5006751499
18.5872580194 1.4469816298 -3.5006749657
18.5803108482 1.4933577191 -3.5006749199
18.5747613938 1.5263904973 -3.5006748873
18.5580524937 1.6118567001 -3.5006748030
18.4926819281 1.8508233813 -3.5006745672
18.6271881027 0.9707444880 -3.5006754356
18.6324632501 1.1872619511 -3.5006752220
18.6299071226 1.2549182756 -3.5006751552
18.6112001002 1.4503151035 -3.5006749624
18.6102564987 1.4570197322 -3.5006749558
18.5712175188 1.6631742873 -3.5006747524
18.5580882191 1.7157233332 -3.5006747005
18.5301354268 1.8133527518 -3.5006746042
18.5219521233 1.8391694982 -3.5006745787
18.5993882607 1.6487631295 -3.5006747666
18.5797226129 1.7284753871 -3.5006746879
18.5669484991 1.7746351007 -3.5006746424
18.5511828672 1.8270519169 -3.5006745907
18.5112058651 1.9435276972 -3.5006744757
18.4837436920 2.0135994685 -3.5006744066
18.6546216047 0.7818220965 -3.5006756220
18.6793415383 1.0363043660 -3.5006753709
18.6117125558 1.7012066019 -3.5006747148
18.5901778847 1.7813232190 -3.5006746358
18.6992521945 1.3075267180 -3.5006751033
18.6830263428 1.4603155246 -3.5006749525
18.7266597273 1.0131219956 -3.5006753938
18.7276447400 1.0342692165 -3.5006753729
18.7088733174 1.4496646826 -3.5006749630
18.7007578081 1.5055309009 -3.5006749079
18.5481319653 2.0476795431 -3.5006743730
18.5890830345 2.0106381567 -3.5006744095
18.5621924457 2.0766511652 -3.5006743444
18.7316475667 0.5496797863 -3.5006758511
18.7552475518 0.6561557368 -3.5006757460
18.7695154491 0.5022338177 -3.5006758979
18.8266788279 1.4803163667 -3.5006749328
18.7811731594 1.7206197980 -3.5006746957
18.7834716876 1.9718768297 -3.5006744478
18.8950106809 1.7639774960 -3.5006746529
15.5390544573 -3.5756099922 -3.5006799218
15.6647303971 -3.5953757884 -3.5006799413
15.5489891902 -3.6018106653 -3.5006799476
15.8728437513 -3.6449190968 -3.5006799901
15.2232005174 -3.5602965159 -3.5006799066
15.2509972416 -3.5668469284 -3.5006799131
14.9680545467 -3.5171568301 -3.5006798641
15.0231936761 -3.5331151114 -3.5006798798
15.1340190862 -3.5630688844 -3.5006799094
15.6828394053 -3.6711552180 -3.5006800160
15.2260048355 -3.6106493804 -3.5006799563
14.9682436017 -3.5676077657 -3.5006799139
17.6806048914 -0.1699010355 -3.4996492155
17.7038316036 -0.1784893045 -3.4996492240
17.8605538307 0.1237608274 -3.4996489257
17.5374712184 -0.4349339537 -3.4996494770
17.8411298083 -0.1381375742 -3.4996491842
18.6744044433 1.1380662579 -3.4996479249
18.6574326101 1.2490537448 -3.4996478153
18.6547981435 1.2637916921 -3.4996478008
18.6478309114 1.3005661144 -3.4996477645
18.6448918484 1.3152463533 -3.4996477500
18.7169962727 0.9304665685 -3.4996481297
18.7432719624 0.8706037828 -3.4996481888
18.7385992848 0.9772971593 -3.4996480835
18.7375712009 0.9925200722 -3.4996480685
18.7023644560 1.2724396426 -3.4996477923
18.6594184886 1.4660334427 -3.4996476012
18.5475195854 1.7983542640 -3.4996472733
18.5416371961 1.8124323153 -3.4996472594
18.7427929357 0.4488293656 -3.4996486050
18.7882438441 0.9571387151 -3.4996481034
18.7791855810 1.0733540037 -3.4996479887
18.5891973076 1.8240369095 -3.4996472480
18.6994844850 1.5900486256 -3.4996474789
18.5736810655 1.9195380292 -3.4996471537
18.4852009108 2.0944734143 -3.4996469811
18.8202257523 1.1411011511 -3.4996479219
18.4986508383 2.1200027857 -3.4996469559
18.4790369931 2.1543740734 -3.4996469220
18.5428029308 2.0898290926 -3.4996469857
18.8745788125 1.0910209242 -3.4996479713
18.6689956266 1.8835785512 -3.4996471892
18.5902917017 2.0513280792 -3.4996470237
18.7191232917 1.8254651839 -3.4996472466
18.5210894747 2.2257823513 -3.4996468516
18.4782170489 2.2948484706 -3.4996467834
18.6161107616 2.1574302575 -3.4996469190
18.6950998795 2.0580679590 -3.4996470170
18.6839344624 2.0804713886 -3.4996469949
18.7387009733 2.0232680964 -3.4996470514
18.6206464928 2.3862064607 -3.4996466933
15.7287761309 -3.4861065429 -3.4996524878
15.6624687446 -3.5031940776 -3.4996525046
15.6752335235 -3.5046620073 -3.4996525061
15.7391194809 -3.5114349062 -3.4996525128
15.7774966798 -3.5150448251 -3.4996525163
15.8543396271 -3.5212422507 -3.4996525225
16.2270332064 -3.5561052719 -3.4996525569
16.2793330115 -3.5792312926 -3.4996525797
16.2923200232 -3.5788740936 -3.4996525793
15.6281349453 -3.5721259971 -3.4996525727
16.4886994518 -3.5930167241 -3.4996525933
15.8343223322 -3.6167275481 -3.4996526167
15.9643455611 -3.6487218026 -3.4996526482
16.7156404649 -3.6191580239 -3.4996526191
16.7287436780 -3.6175099738 -3.4996526174
15.6456856851 -3.6472579491 -3.4996526468
16.6922588296 -3.6463435241 -3.4996526459
16.0689063832 -3.7005580210 -3.4996526994
16.6950979597 -3.6703492447 -3.4996526696
18.7374540816 1.4558397003 -3.5001635491
18.5836490565 2.3426946683 -3.5001626740
16.2539636034 -3.4669665847 -3.5001684067
16.3370060597 -3.4859435446 -3.5001684254
16.3603473611 -3.4841576528 -3.5001684237
16.6114279484 -3.5049482778 -3.5001684442
16.7443150631 -3.5082882549 -3.5001684475
16.7721067384 -3.5278751097 -3.5001684668
16.9826900854 -3.5334455719 -3.5001684723
17.0000847032 -3.5541786349 -3.5001684928
17.2733400609 -3.5298978290 -3.5001684688
17.6565485296 -0.6143813174 -3.4999257428
17.7715899244 -0.2315743379 -3.4999253651
17.7779383899 -0.1947342203 -3.4999253287
17.7923895430 -0.0835359978 -3.4999252190
17.8238636713 0.0220653680 -3.4999251148
17.8227161201 0.1897761703 -3.4999249493
17.6623358577 -0.7181381245 -3.4999258452
17.8027020933 -0.4177125442 -3.4999255487
17.5770300242 -0.9635884709 -3.4999260874
17.6424238645 -0.8585129261 -3.4999259837
17.7082582058 -0.7342419343 -3.4999258611
17.8690608153 0.4226647420 -3.4999247195
17.9657990960 0.2265678200 -3.4999249130
17.9645398688 0.2440457550 -3.4999248958
17.9922803435 0.1868779203 -3.4999249522
17.9919951301 0.1927836418 -3.4999249463
17.9866987991 0.2694600922 -3.4999248707
18.0166979091 0.1820302956 -3.4999249569
18.0059974758 0.3192217310 -3.4999248216
17.6908498361 -1.0542384010 -3.4999261768
17.9826095172 -0.3993889572 -3.4999255307
18.0426557560 0.0680617194 -3.4999250694
18.0178810315 0.4119321763 -3.4999247301
18.0669798121 0.0983973205 -3.4999250395
18.0560121287 0.3063429656 -3.4999248343
18.0006075990 0.6135747014 -3.4999245311
18.0903850624 0.0364760733 -3.4999251006
18.0909121625 0.0612648849 -3.4999250761
18.0885676744 0.1975907401 -3.4999249416
18.0527628771 0.4927115358 -3.4999246504
18.1151970224 0.1173235380 -3.4999250208
18.1153319075 0.4144424687 -3.4999247276
18.0212328333 0.7956315759 -3.4999243515
17.9351170499 1.0069501850 -3.4999241430
18.1392323618 0.4180623533 -3.4999247240
18.4247773415 -0.5243379224 -3.4999256540
18.7482813313 1.5425136403 -3.4999236145
18.7566840939 1.8187936779 -3.4999233419
16.8163082926 -3.4554467626 -3.4999285462
16.8323181483 -3.4765392857 -3.4999285671
16.8534245603 -3.4715273223 -3.4999285621
16.8639665543 -3.4689745351 -3.4999285596
16.8802943153 -3.4898591104 -3.4999285802
16.9542993105 -3.4707754576 -3.4999285614
16.9648386389 -3.4679242679 -3.4999285586
17.0135328584 -3.4794562557 -3.4999285699
17.0240976070 -3.4764298045 -3.4999285669
17.0346533566 -3.4733721141 -3.4999285639
17.0767845186 -3.4608294998 -3.4999285516
17.0943964725 -3.4807220496 -3.4999285712
17.1155230443 -3.4741594695 -3.4999285647
17.1471391785 -3.4640815280 -3.4999285548
16.8976744097 -3.5602647200 -3.4999286497
17.2074128909 -3.4695485849 -3.4999285602
17.2469701754 -3.4814712274 -3.4999285719
17.2680985093 -3.4740059569 -3.4999285646
17.3291792787 -3.4774426813 -3.4999285679
17.3482600396 -3.4961030167 -3.4999285864
17.3694731674 -3.4880382254 -3.4999285784
17.3906382099 -3.4798480712 -3.4999285703
17.3994286196 -3.5023661523 -3.4999285925
17.5146214603 -3.4815235056 -3.4999285720
17.8558219222 -3.3164649161 -3.4999284091
17.5559368918 -3.4900669676 -3.4999285804
17.0572264506 -3.7182844879 -3.4999288056
17.1247099949 -3.6988446322 -3.4999287864
16.9154783264 -3.7797962411 -3.4999288663
17.2964530995 -3.6945758443 -3.4999287822
18.4238788637 3.2785179132 -3.4999219015
18.3098839961 -3.2050210151 -3.4999282991
19.3532977476 2.9245307467 -3.4999222508
20.6584936722 -0.7029927189 -3.4999258302
20.7725431329 -0.4056033562 -3.4999255368
20.8109217086 -0.4961801896 -3.4999256262
17.8466750886 -0.6798663515 -3.5000159297
17.8331003485 0.1843549966 -3.5000150769
17.9125097482 -0.3675196726 -3.5000156214
17.7906652055 -1.0781234865 -3.5000163226
17.8513584991 -1.0600913463 -3.5000163048
17.9347081428 -0.9072026505 -3.5000161540
17.9926016582 0.2434694070 -3.5000150185
17.9797440868 0.2901758312 -3.5000149725
18.0128345631 0.2614521435 -3.5000150008
17.9906747669 0.3379551889 -3.5000149253
18.0227343218 0.3154607457 -3.5000149475
18.0846048113 0.1704200520 -3.5000150906
18.1218297650 0.1070990298 -3.5000151531
18.0908734000 0.2496054610 -3.5000150125
18.1988662797 -0.1157204299 -3.5000153730
18.1693957182 0.1157489557 -3.5000151446
18.2203288932 -0.0812742480 -3.5000153390
18.3718981714 -0.3755524054 -3.5000156294
17.3612237622 -3.4247186772 -3.5000186381
17.3891097147 -3.4126269140 -3.5000186262
17.3707418906 -3.4469389498 -3.5000186601
17.4453855874 -3.4139143950 -3.5000186275
17.5019984715 -3.4142184738 -3.5000186278
17.5112740213 -3.4097989982 -3.5000186234
17.6068856247 -3.4165678528 -3.5000186301
17.6736896471 -3.4091351791 -3.5000186228
17.7617255187 -3.4163056295 -3.5000186298
18.7164609949 3.4267682206 -3.5000118774
17.9473905507 -0.9638071543 -3.5000162098
18.0141256069 0.3225433629 -3.5000149405
18.1454984286 0.0736423604 -3.5000151861
18.0254361814 -0.6648636622 -3.5000159148
17.9444779200 -0.3607635413 -3.5000156148
17.9056900855 -0.1478640667 -3.5000154047
18.0069194194 -0.3204264815 -3.5000155750
18.0334682711 -0.3225518826 -3.5000155771
17.9756775129 -0.1820994545 -3.5000154385
18.1904929281 -0.8115115441 -3.5000160596
18.2283537283 -0.0375906732 -3.5000152959
18.0756851460 0.2333615357 -3.5000150285
18.0087555426 0.3289739229 -3.5000149342
18.2397922829 0.0484699348 -3.5000152110
18.0709887952 0.3255760969 -3.5000149375
18.1324782704 0.2789356582 -3.5000149835
18.2377384058 0.1539554652 -3.5000151069
17.9540092411 0.5492377104 -3.5000147168
17.9854524509 0.5865937867 -3.5000146800
18.7611190656 -1.2634061235 -3.5000165055
18.7222417977 -1.6077828851 -3.5000168453
18.7295500743 -1.5784506101 -3.5000168163
18.7709244847 -1.3709922849 -3.5000166116
18.8238274423 -1.0787957069 -3.5000163233
18.7627089902 -1.9552469277 -3.5000171881
18.7667044084 -2.3473841928 -3.5000175751
18.5024016323 -3.1527811573 -3.5000183698
16.6103845023 3.4740721027 -3.5000118307
16.8298167497 3.5238151753 -3.5000117817
17.1886211961 3.5367229911 -3.5000117689
17.5988610240 3.4817775292 -3.5000118231
17.6065118759 3.5552165194 -3.5000117507
18.3356828456 -0.1073219844 -3.5000153647
18.1631194243 0.1317073510 -3.5000151288
18.6603730044 -1.6851016073 -3.5000169216
18.5932407127 -2.0322939113 -3.5000172642
18.0145336475 0.3943840002 -3.5000148696
17.9744236944 0.4307841704 -3.5000148337
18.5609133781 -2.2987980251 -3.5000175271
18.7421459165 -1.9649467971 -3.5000171977
17.9523090155 0.5760063257 -3.5000146904
17.9302170351 0.5935760794 -3.5000146731
18.5870257930 -2.5557290247 -3.5000177807
16.2593190027 3.5165436978 -3.5000117888
16.2451242885 3.5159395874 -3.5000117894
16.7320684609 3.5853118806 -3.5000117210
16.6610553415 3.6130080712 -3.5000116936
18.5162775870 -1.8807289653 -3.5000171146
18.5445442118 -1.6498919569 -3.5000168868
18.5139509309 -2.0029486661 -3.5000172352
18.5325684138 -1.9228369085 -3.5000171562
18.5626218113 -1.7278243040 -3.5000169637
18.5646749779 -1.7059865099 -3.5000169422
18.5717965282 -1.5526560953 -3.5000167909
18.5718057496 -1.5362054809 -3.5000167746
18.5595684795 -1.9114578228 -3.5000171449
18.5830645488 -1.7633632347 -3.5000169988
18.5905728662 -1.6859611947 -3.5000169224
18.5593847418 -2.0203832170 -3.5000172524
18.5843672931 -1.9106767412 -3.5000171442
18.5895954447 -1.8830341969 -3.5000171169
18.5798947604 -2.0374687885 -3.5000172693
18.6218646668 -1.8367762892 -3.5000170712
18.6358813696 -1.7236966757 -3.5000169597
18.6419917146 -1.6384511718 -3.5000168755
18.6326182817 -1.3312247560 -3.5000165724
18.6313295241 -1.3199017143 -3.5000165612
18.6472112418 -1.9647137771 -3.5000171975
18.6920325080 -1.5941422971 -3.5000168318
18.6842211317 -1.3607653316 -3.5000166015
18.6087531294 -2.1918183924 -3.5000174216
18.6469206288 -2.0674906503 -3.5000172989
18.6929750367 -1.2353331381 -3.5000164778
18.6807976578 -1.1654384522 -3.5000164088
18.6737805333 -1.1306642090 -3.5000163745
18.7368684631 -1.6730950891 -3.5000169097
18.7410056108 -1.5535017806 -3.5000167917
18.7409338730 -1.5235815641 -3.5000167622
18.7306202518 -1.3384260172 -3.5000165795
18.6974325754 -1.1256725969 -3.5000163696
18.7440069337 -1.8372185436 -3.5000170717
18.7607069768 -1.1999632048 -3.5000164429
18.7284190084 -2.1345963160 -3.5000173651
18.7979230783 -1.2879596176 -3.5000165297
18.8376965151 -1.5539850293 -3.5000167922
17.6881597245 0.3412081189 -3.5000149221
17.6432923031 0.3636344787 -3.5000149000
18.2702766680 -0.0646850718 -3.5000153226
18.1795798163 0.0904747502 -3.5000151695
18.1256494608 0.1371570488 -3.5000151235
18.8338992152 -0.8063888460 -3.5000160545
18.2167447733 0.1220830634 -3.5000151383
17.9747055864 0.4558244183 -3.5000148090
15.7473770995 3.5791787555 -3.5000117270
15.6113556267 3.5515214221 -3.5000117543
15.3802695287 3.5207831258 -3.5000117846
15.5858861667 3.5954387163 -3.5000117110
15.3075408215 3.5511914741 -3.5000117546
15.1130726288 3.5440248626 -3.5000117617
15.4723817341 3.6685771467 -3.5000116388
18.4773846184 -1.9490114402 -3.5000171820
18.4801249599 -1.9274882660 -3.5000171607
18.4867503125 -1.8583808186 -3.5000170926
18.4873482835 -1.8497226073 -3.5000170840
18.4901987877 -1.7846990328 -3.5000170198
18.4904225119 -1.7716827252 -3.5000170070
18.4904952722 -1.7413073849 -3.5000169770
18.5144550144 -1.7808116633 -3.5000170160
18.5147116446 -1.7499367533 -3.5000169855
18.5134921383 -1.6926111329 -3.5000169290
18.5331958206 -1.8841960730 -3.5000171180
18.5387646389 -1.7722990732 -3.5000170076
18.5376453458 -1.6916324336 -3.5000169280
18.5250681681 -1.5488005521 -3.5000167871
18.5361420594 -2.0396083484 -3.5000172714
18.5417526368 -2.0082289074 -3.5000172404
18.5504436777 -1.9496726739 -3.5000171826
18.5564625090 -1.8953606371 -3.5000171290
18.5587480407 -1.8681330580 -3.5000171022
18.5594024491 -1.8590487132 -3.5000170932
18.5626624758 -1.7179634093 -3.5000169540
18.5616074465 -1.6861037984 -3.5000169226
18.5609533812 -1.6724576615 -3.5000169091
18.5414643608 -1.4960252550 -3.5000167350
18.5295241746 -1.4334026725 -3.5000166732
18.5276070835 -1.4244988344 -3.5000166644
18.5699495088 -1.9848289219 -3.5000172173
18.5750027848 -1.9481727991 -3.5000171812
18.5755734082 -1.9435826760 -3.5000171766
18.5772037737 -1.9298024599 -3.5000171630
18.5871067659 -1.7729154213 -3.5000170082
18.5872221010 -1.7590395737 -3.5000169945
18.5871843222 -1.7405378903 -3.5000169763
18.5837128387 -1.6481074000 -3.5000168851
18.5637271785 -1.4828738909 -3.5000167220
18.6103542665 -1.8107870926 -3.5000170456
18.6078314330 -1.6464860766 -3.5000168835
18.5582843350 -1.3457070199 -3.5000165867
18.5482171617 -1.3095058966 -3.5000165510
18.6198195016 -1.9778410030 -3.5000172104
18.6334670796 -1.8354864232 -3.5000170700
18.6316231616 -1.6401074968 -3.5000168772
18.6061541946 -1.4463869336 -3.5000166860
18.5714281670 -1.3027542660 -3.5000165443
18.5659925141 -1.2844714065 -3.5000165262
18.6423775362 -1.9907942810 -3.5000172232
18.6582082728 -1.6819032200 -3.5000169184
18.6575131258 -1.6673999704 -3.5000169041
18.6732756376 -1.9407368768 -3.5000171738
18.6838463708 -1.7692369404 -3.5000170046
18.6791337312 -1.6269253920 -3.5000168642
18.7070918343 -1.6947405002 -3.5000169311
18.7020358827 -1.6101894764 -3.5000168477
18.6294751310 -1.2443571786 -3.5000164867
18.5893494949 -1.1317242918 -3.5000163755
18.5799895964 -1.1086345117 -3.5000163527
18.7314774276 -1.8050840210 -3.5000170400
18.6431066031 -1.2082294580 -3.5000164510
18.7552962836 -1.8160674178 -3.5000170508
18.6930934519 -1.2887175896 -3.5000165304
18.6831225745 -1.2542493241 -3.5000164964
18.6126424077 -1.0618300634 -3.5000163066
18.6044130863 -0.9860817009 -3.5000162318
18.6887601525 -1.1206218938 -3.5000163646
18.5850550122 -0.8959569914 -3.5000161429
18.1697846623 -0.3895753085 -3.5000156432
18.7918211997 -1.3886575979 -3.5000166291
18.2177149485 -0.3989489709 -3.5000156525
18.6717951253 -0.9046384754 -3.5000161514
18.4376537179 -0.5543674910 -3.5000158058
18.3680875451 -0.4768256141 -3.5000157293
18.1910788497 -0.3131181494 -3.5000155678
17.6074336315 0.0063728183 -3.5000152525
17.9544086655 -0.1220303204 -3.5000153792
17.7751339970 -0.0057072263 -3.5000152644
18.6234129028 -0.6801606719 -3.5000159299
18.4796507764 -0.4192489082 -3.5000156725
17.3394862537 0.1961453472 -3.5000150652
17.8572326969 0.1694844933 -3.5000150916
18.5479349430 -0.2801814558 -3.5000155353
18.1944402530 0.0428230163 -3.5000152165
18.1731094961 0.0565509811 -3.5000152030
18.1203928981 0.1170586114 -3.5000151433
17.5896961886 0.3897919105 -3.5000148742
18.1168217624 0.2026676585 -3.5000150588
18.1051494926 0.2367042329 -3.5000150252
18.0158260229 0.2827204590 -3.5000149798
17.9533992405 0.3912625899 -3.5000148727
14.9433513476 3.6286679354 -3.5000116782
14.4368129808 3.5392223479 -3.5000117664
14.3899495059 3.5160574817 -3.5000117893
14.1081474404 3.4488095545 -3.5000118557
14.2835369174 3.5704978379 -3.5000117356
14.2251488118 3.5673654887 -3.5000117387
18.4663936591 -1.8793856035 -3.5000171133
18.4653888298 -1.8500024489 -3.5000170843
18.4652289020 -1.8467395672 -3.5000170811
18.4554943946 -1.7459733599 -3.5000169816
18.4891978776 -1.8421866486 -3.5000170766
18.4881835362 -1.8255261091 -3.5000170601
18.4847447284 -1.7856163919 -3.5000170208
18.4724505369 -1.6997171036 -3.5000169360
18.4949854792 -1.6886697691 -3.5000169251
18.4795297255 -1.6187633235 -3.5000168561
18.4769683150 -1.6088597824 -3.5000168463
18.5224305247 -1.7047457753 -3.5000169410
18.4693008109 -1.5030195938 -3.5000167419
18.5501836021 -1.7252430934 -3.5000169612
18.5450457245 -1.6936840332 -3.5000169300
18.5397748395 -1.6657550530 -3.5000169025
18.5805368849 -1.7720029272 -3.5000170073
18.5059202309 -1.4628375694 -3.5000167023
18.4895981545 -1.4225268555 -3.5000166625
18.4999374806 -1.3859936522 -3.5000166264
18.8719818684 -1.7723532396 -3.5000170077
18.9239319716 -1.8235764309 -3.5000170582
18.9739166748 -1.8687908880 -3.5000171028
17.9908642980 -0.1585637429 -3.5000154153
17.5137516567 -0.0064367934 -3.5000152651
17.4725015426 0.4321172092 -3.5000148324
18.4460927167 -1.8231697824 -3.5000170578
18.4403699348 -1.7997232151 -3.5000170347
18.4398119091 -1.7976011854 -3.5000170326
18.4286994344 -1.7597064365 -3.5000169952
18.4725568009 -1.8311038806 -3.5000170656
18.4589663866 -1.7761296540 -3.5000170114
18.4557625665 -1.7652638234 -3.5000170007
18.4436745673 -1.7286974723 -3.5000169646
18.4802393905 -1.7627336726 -3.5000169982
18.4782166621 -1.7560202197 -3.5000169916
18.4747133101 -1.7448718697 -3.5000169806
18.4493532651 -1.6770292498 -3.5000169136
18.4556165997 -1.6324645401 -3.5000168696
18.4524387754 -1.6259747304 -3.5000168632
18.4612550190 -1.4539854927 -3.5000166935
18.4852232407 -1.4051773549 -3.5000166454
18.4676718981 -1.3828799505 -3.5000166234
18.4531607546 -1.3654219002 -3.5000166061
18.8734218368 -1.7404856162 -3.5000169762
18.8656182456 -1.7065595522 -3.5000169427
18.8899358191 -1.7042445024 -3.5000169405
18.8829109726 -1.6767043191 -3.5000169133
18.8791546428 -1.6629984956 -3.5000168998
18.8591106129 -1.5985484819 -3.5000168362
18.8735223301 -1.5668062000 -3.5000168048
18.8710144076 -1.5600052020 -3.5000167981
18.9360436580 -1.6892598753 -3.5000169257
18.8802697116 -1.5171323780 -3.5000167558
18.8879740306 -1.4733461235 -3.5000167126
18.8673525691 -1.4289268217 -3.5000166688
18.9265011287 -1.5024973151 -3.5000167414
18.8857895174 -1.3590380787 -3.5000165998
18.9290169463 -1.3899842144 -3.5000166304
18.8815857326 -1.3024891654 -3.5000165440
18.2448892079 -0.2843793031 -3.5000155394
18.2247029071 -0.2783203208 -3.5000155334
18.2263888223 -0.2536295851 -3.5000155091
18.1541782435 -0.2342640944 -3.5000154900
17.9548094759 -0.1969330720 -3.5000154531
17.8718109567 -0.1638659334 -3.5000154205
18.2029067586 -0.1968770057 -3.5000154531
18.0098762804 -0.1559825429 -3.5000154127
17.9806483391 -0.1272310463 -3.5000153843
17.7372269950 -0.0853193966 -3.5000153430
17.6584673483 -0.0863508725 -3.5000153440
18.3416288467 -0.1632197754 -3.5000154198
17.6918278021 -0.0613394857 -3.5000153193
17.3646154770 -0.0700809558 -3.5000153279
25.0988157703 -0.3365615576 -3.5000155909
18.8420586173 -1.6860292291 -3.5000169225
18.8643070981 -1.6765772247 -3.5000169132
18.8583670713 -1.6629331075 -3.5000168997
18.8479319350 -1.6404340723 -3.5000168775
18.8413530124 -1.6270862774 -3.5000168643
18.8579281451 -1.5103047828 -3.5000167491
18.8549914438 -1.5057857059 -3.5000167446
18.8429788308 -1.4878855066 -3.5000167270
18.8435865006 -1.4471759215 -3.5000166868
18.1989858153 -0.2264198382 -3.5000154822
18.1516170334 -0.2242188543 -3.5000154800
18.0251871772 -0.2245195798 -3.5000154803
18.2377204428 -0.2049082340 -3.5000154610
18.1684277594 -0.2006606621 -3.5000154568
18.2935363262 -0.1859599319 -3.5000154423
18.1315778852 -0.1753104861 -3.5000154318
18.0279209652 -0.1518529647 -3.5000154086
17.9676835052 -0.1549391347 -3.5000154117
17.6804776020 -0.1723390398 -3.5000154288
17.6103447343 -0.1895398241 -3.5000154458
17.8412801252 -0.1190585413 -3.5000153763
17.6806632345 -0.1475286229 -3.5000154044
17.7424300866 -0.1103070707 -3.5000153676
17.5267210935 -0.1632118497 -3.5000154198
17.7607531824 -0.0824753826 -3.5000153402
17.6140584417 -0.1136581588 -3.5000153709
17.3141081112 -0.2161500118 -3.5000154721
18.3824866239 -0.0268131727 -3.5000152852
17.2785781706 -0.1789749894 -3.5000154354
18.1297111841 0.0181484495 -3.5000152409
18.2148623073 0.0390090716 -3.5000152203
17.6980005699 0.0288917160 -3.5000152303
17.1761883400 -0.0130616546 -3.5000152717
17.2684587722 0.0529281908 -3.5000152066
17.8804604380 0.3958972765 -3.5000148681
17.5637552066 0.3465002022 -3.5000149169
17.1691312779 0.4034419002 -3.5000148607
11.4846753532 1.4093283087 -3.5000138681
11.4631989156 1.4204232584 -3.5000138572
11.4505657977 1.6031059557 -3.5000136769
11.4399231675 1.5834417260 -3.5000136963
18.8414228281 -1.1918389154 -3.5000164348
18.8304030351 -1.1702352554 -3.5000164135
18.8291432079 -1.1678531515 -3.5000164112
18.8439205859 -1.1443517025 -3.5000163880
18.8276897842 -1.0273791965 -3.5000162726
17.1348768875 0.5139086091 -3.5000147517
11.4678413669 1.4283042149 -3.5000138494
11.4789933674 1.5652166971 -3.5000137143
11.4616162215 1.6941737636 -3.5000135871
18.4471292260 -1.3031781818 -3.5000165447
18.4341745315 -1.2631582237 -3.5000165052
18.4285641175 -1.2477902515 -3.5000164901
18.4441762666 -1.2213162382 -3.5000164639
18.4432704600 -1.2190843448 -3.5000164617
18.4395813299 -1.2101838596 -3.5000164529
18.4376973358 -1.2057501423 -3.5000164486
18.4518882957 -1.1780865345 -3.5000164213
18.4466531314 -1.1668448207 -3.5000164102
18.4368130730 -1.1468096001 -3.5000163904
18.4427830252 -1.1065836289 -3.5000163507
18.8645156689 -1.1802424720 -3.5000164234
18.8603374540 -1.1663603369 -3.5000164097
18.8581868213 -1.1594380520 -3.5000164029
18.8877038046 -1.1734127103 -3.5000164167
18.8708661032 -1.1205985915 -3.5000163645
18.8634776851 -1.0996908575 -3.5000163439
18.8949468594 -1.1163118628 -3.5000163603
18.8712546481 -0.9907728390 -3.5000162364
18.9118780247 -1.0238710547 -3.5000162691
18.8821437591 -0.9028209692 -3.5000161497
18.8850501296 -0.6767544238 -3.5000159266
18.1230675388 0.2011278785 -3.5000150603
16.4550208724 0.5992808134 -3.5000146674
16.4424662108 0.5919415359 -3.5000146747
11.5125662855 2.9548331147 -3.5000123431
18.4572366688 -1.2647762712 -3.5000165068
18.4560877519 -1.2520469232 -3.5000164943
18.4499886174 -1.2012921785 -3.5000164442
18.4773388427 -1.2237493711 -3.5000164663
18.4578499424 -1.1111363790 -3.5000163552
18.4571223381 -1.1079516395 -3.5000163521
18.4814237022 -1.1057872547 -3.5000163499
18.4589824820 -1.0219646652 -3.5000162672
18.4559800284 -1.0124104342 -3.5000162578
18.5100378760 -1.1237681421 -3.5000163677
18.4790087715 -1.0050611300 -3.5000162505
18.4670259491 -0.9695204982 -3.5000162155
18.4647233149 -0.9631013756 -3.5000162091
18.4611982566 -0.9534985159 -3.5000161997
18.4563658793 -0.9407440839 -3.5000161871
18.5149647172 -1.0410806070 -3.5000162861
18.5082111340 -1.0176663082 -3.5000162630
18.4814058914 -0.9385496245 -3.5000161849
18.4712311607 -0.9126248395 -3.5000161593
18.4659144447 -0.8997545549 -3.5000161466
18.5089671971 -0.9433040393 -3.5000161896
18.5077428907 -0.9399688201 -3.5000161863
18.4679947430 -0.8449467081 -3.5000160925
18.5014016156 -0.7502174246 -3.5000159991
18.8806456846 -1.1391703471 -3.5000163829
18.3714312067 0.2113420358 -3.5000150502
18.6775572328 0.0360472666 -3.5000152232
18.4488088502 -1.3215335663 -3.5000165628
18.4507585784 -1.2639883170 -3.5000165060
18.4662556189 -1.4007974055 -3.5000166410
18.4691207436 -1.3735756364 -3.5000166142
18.4705046839 -1.3579955747 -3.5000165988
18.4722347019 -1.3345975057 -3.5000165757
18.4724826507 -1.3306950015 -3.5000165719
18.4748784923 -1.2681807418 -3.5000165102
18.4749698545 -1.2603605377 -3.5000165025
18.4749663251 -1.2368985987 -3.5000164793
18.4748084029 -1.2251685765 -3.5000164677
18.4747326299 -1.2212589376 -3.5000164639
18.4746452919 -1.2173495400 -3.5000164600
18.4991383686 -1.2366804404 -3.5000164791
18.4983379754 -1.2008534927 -3.5000164437
18.4965841338 -1.1650605486 -3.5000164084
18.4923702303 -1.1134710741 -3.5000163575
18.4877807643 -1.0739190795 -3.5000163185
18.5172510366 -1.3781380949 -3.5000166187
18.5225102764 -1.2972528956 -3.5000165389
18.5214131972 -1.1756960127 -3.5000164189
18.5201818735 -1.1554666814 -3.5000163990
18.5175898371 -1.1231440736 -3.5000163671
18.5117488433 -1.0707779856 -3.5000163154
18.5052368759 -1.0266707707 -3.5000162719
18.5038988527 -1.0186751831 -3.5000162640
18.4948795639 -0.9708806115 -3.5000162168
18.5387620301 -1.4050362463 -3.5000166452
18.5392180584 -1.4009366340 -3.5000166412
18.5440413444 -1.3475336195 -3.5000165885
18.5474861788 -1.2609931951 -3.5000165031
18.5404712274 -1.1086094683 -3.5000163527
18.5346207349 -1.0594602569 -3.5000163042
18.5255958024 -1.0024254094 -3.5000162479
18.5233550684 -0.9902553123 -3.5000162359
18.5124006472 -0.9377658210 -3.5000161841
18.5705047162 -1.3073481123 -3.5000165488
18.5710853005 -1.2066571515 -3.5000164495
18.5681234579 -1.1479863548 -3.5000163916
18.5671728210 -1.1354331166 -3.5000163792
18.5471088452 -0.9857727494 -3.5000162315
18.5913031281 -1.3637233205 -3.5000166045
18.5958587478 -1.2400756000 -3.5000164824
18.5760982756 -1.0107027057 -3.5000162561
18.5739290093 -0.9980841015 -3.5000162437
18.5380370960 -0.8443851511 -3.5000160920
18.6033624997 -1.0281381979 -3.5000162733
18.5780958460 -0.9004745022 -3.5000161473
18.5373591705 -0.7632492481 -3.5000160119
18.5344620949 -0.7550682245 -3.5000160039
18.6362231744 -1.0944983449 -3.5000163388
18.6347951797 -1.0813428663 -3.5000163258
18.6342932443 -1.0769605868 -3.5000163215
18.6215393166 -0.9896817347 -3.5000162354
18.5700877639 -0.7844870785 -3.5000160329
18.6680842296 -1.2799753615 -3.5000165218
18.6593121288 -1.0830824695 -3.5000163275
18.6256425211 -0.7998248062 -3.5000160480
18.6937519265 -0.9816344325 -3.5000162274
18.5730718215 -0.5940979139 -3.5000158450
18.6785698585 -0.8082374115 -3.5000160563
18.6436660287 -0.6350397078 -3.5000158854
18.5561131517 -0.4550581434 -3.5000157078
18.6566382853 -0.6035273518 -3.5000158543
18.7482410613 -0.7881142648 -3.5000160365
18.5656896173 -0.3762978867 -3.5000156301
18.5768380951 -0.3040716276 -3.5000155588
18.1840478087 0.1137841263 -3.5000151465
18.1573022261 0.1633801787 -3.5000150976
18.0720425215 0.2202847600 -3.5000150414
18.0414263312 0.2389964839 -3.5000150230
18.0582767418 0.2570807730 -3.5000150051
18.3577671216 0.0958395605 -3.5000151642
18.1509048935 0.2557395760 -3.5000150064
18.1419859014 0.2616163723 -3.5000150006
18.3122494301 0.1666537021 -3.5000150943
18.2869446266 0.1870028790 -3.5000150743
18.2784299230 0.1936857350 -3.5000150677
18.2309030348 0.2295327013 -3.5000150323
18.1732677366 0.2698764517 -3.5000149925
18.0582664117 0.3410998515 -3.5000149222
17.7971694619 0.4893854581 -3.5000147759
17.6722436647 0.5306921664 -3.5000147351
18.4267060505 0.1311680812 -3.5000151294
17.8470534786 0.4961209072 -3.5000147692
17.7846867242 0.5196492174 -3.5000147460
17.6260950848 0.5934664475 -3.5000146732
17.5439086309 0.6126326264 -3.5000146543
18.1159905785 0.4194620739 -3.5000148449
17.4402758133 0.6803009529 -3.5000145875
18.5533506587 0.2774303041 -3.5000149850
14.8702567409 3.6260690497 -3.5000116808
14.8745007124 3.6547226509 -3.5000116525
14.5958339116 3.7065445964 -3.5000116013
14.1561460818 3.5394496241 -3.5000117662
18.4886171099 -1.2439996799 -3.5000164863
18.4469151756 -1.5492566650 -3.5000167875
18.4632372425 -1.4953112228 -3.5000167343
18.4910383308 -1.3812531416 -3.5000166217
18.4919743578 -1.3766503898 -3.5000166172
18.5021421085 -1.3212145038 -3.5000165625
18.5120747807 -1.2514695234 -3.5000164937
18.5228327303 -1.0217714210 -3.5000162670
18.4684559893 -1.5612034625 -3.5000167993
18.4890673015 -1.4927165147 -3.5000167317
18.4952599595 -1.4696926305 -3.5000167090
18.4999684776 -1.4512091478 -3.5000166908
18.5392282979 -1.2259096807 -3.5000164685
18.5474335804 -1.0449890272 -3.5000162899
18.5453251140 -0.9782684681 -3.5000162241
18.5029847054 -1.5317227697 -3.5000167702
18.5344020682 -1.4099002159 -3.5000166500
18.5430825651 -1.3672153631 -3.5000166079
18.5617411287 -1.2427981484 -3.5000164851
18.5714994083 -1.0882843681 -3.5000163327
18.5715453429 -1.0398863311 -3.5000162849
18.5703627141 -0.9963438337 -3.5000162419
18.5699425071 -0.9866730080 -3.5000162324
18.5645230013 -0.9094304071 -3.5000161562
18.5356599664 -1.5056186349 -3.5000167445
18.5395290965 -1.4914012838 -3.5000167304
18.5432719032 -1.4771501562 -3.5000167164
18.5954467381 -1.0248197808 -3.5000162700
18.5807400519 -0.8388620279 -3.5000160865
18.5786903160 -0.8242708723 -3.5000160721
18.5757560633 -0.8048453864 -3.5000160530
18.2178599449 -0.0078546478 -3.5000152665
18.5602790077 -1.5072654570 -3.5000167461
18.5691392444 -1.4735291802 -3.5000167128
18.6021512877 -1.3074273507 -3.5000165489
18.6195378666 -1.1039912097 -3.5000163482
18.6106744092 -0.8850733505 -3.5000161321
18.5873850004 -0.7324208584 -3.5000159815
18.1777359391 0.0752241506 -3.5000151846
18.6094433900 -1.4055147162 -3.5000166457
18.6308485766 -1.2758853089 -3.5000165178
18.6433686274 -1.0085637457 -3.5000162540
18.6286453937 -0.8323490131 -3.5000160801
18.2742544838 -0.0007356882 -3.5000152595
18.1068454424 0.1814942173 -3.5000150797
18.6604799427 -1.2279574804 -3.5000164705
18.6655646953 -1.1615176731 -3.5000164049
18.6678692774 -1.1051811074 -3.5000163493
18.6630003987 -0.9259167964 -3.5000161724
18.2373476099 0.0811696259 -3.5000151787
18.1853336613 0.1377884133 -3.5000151228
18.1084046751 0.2130608288 -3.5000150486
18.0817410282 0.2370718607 -3.5000150249
18.6479777219 -1.4558506569 -3.5000166954
18.6598675303 -1.3999304569 -3.5000166402
18.6760983016 -1.3025336363 -3.5000165441
18.6870981829 -0.9240109950 -3.5000161706
18.6853365125 -0.9032957944 -3.5000161501
18.6687881324 -0.7744456258 -3.5000160230
18.6595089249 -0.7233073358 -3.5000159725
18.6089993774 -0.5271137794 -3.5000157789
18.1323971138 0.2237971321 -3.5000150380
18.6970423505 -1.3266966598 -3.5000165679
18.7167266502 -1.0694921898 -3.5000163141
18.7143049575 -0.9694230550 -3.5000162154
18.6443917109 -0.5600430230 -3.5000158114
18.6116900434 -0.4598809454 -3.5000157126
18.3244983421 0.0525662947 -3.5000152069
18.2055133099 0.1863915420 -3.5000150749
18.0117957502 0.3567297882 -3.5000149068
18.7103206491 -1.3934775069 -3.5000166338
18.7400719244 -1.1176429594 -3.5000163616
18.7278575673 -0.8458079069 -3.5000160934
17.9305392583 0.4438872276 -3.5000148208
18.6608168732 -0.4537197419 -3.5000157065
18.6361343131 -0.3878394183 -3.5000156415
18.3553964942 0.0912536315 -3.5000151687
18.0323635041 0.4017672540 -3.5000148623
17.9257276987 0.4758814617 -3.5000147892
18.4180383997 0.0503248058 -3.5000152091
18.0247899401 0.4373888040 -3.5000148272
18.8048556846 -1.2418036102 -3.5000164841
18.8124953950 -1.0032190945 -3.5000162487
18.4373705233 0.0648370171 -3.5000151948
17.8421875899 0.5819769999 -3.5000146845
18.8253973943 -1.2776861869 -3.5000165196
18.8374500157 -1.0868435208 -3.5000163312
18.8372341343 -1.0249543185 -3.5000162702
18.7926057751 -0.6512459502 -3.5000159014
18.5723330419 -0.0936438794 -3.5000153512
18.8524285735 -1.2520902312 -3.5000164943
18.8548505971 -0.8993124185 -3.5000161462
18.1052421292 0.5282950576 -3.5000147375
17.8216830763 0.7020266235 -3.5000145661
16.0641129702 3.6605427213 -3.5000116467
16.0222326424 3.6526230430 -3.5000116546
15.9386910752 3.6356702817 -3.5000116713
15.8831695428 3.6235458472 -3.5000116832
15.4782280514 3.5391859168 -3.5000117665
15.5394920680 3.5833876135 -3.5000117229
15.3540613913 3.5491435487 -3.5000117567
15.1469183904 3.5247535304 -3.5000117807
15.1062792334 3.5086996119 -3.5000117966
15.3999354887 3.6409681400 -3.5000116661
18.2622627160 -0.0399347798 -3.5000152982
18.2426332433 -0.0045839344 -3.5000152633
18.2247753712 0.0259595723 -3.5000152332
18.2169291130 0.0389352076 -3.5000152204
18.1954460123 0.0731912268 -3.5000151866
18.1674621291 0.1152806592 -3.5000151450
18.1471384786 0.1442419891 -3.5000151165
18.1262195173 0.1727762921 -3.5000150883
18.1170742239 0.1848715181 -3.5000150764
18.1015946985 0.2048483480 -3.5000150567
18.0794305971 0.2324266366 -3.5000150294
18.1756884867 0.1457963799 -3.5000151149
18.1667806770 0.1583316777 -3.5000151026
18.0199127045 0.3716372379 -3.5000148921
18.0090068181 0.3827812197 -3.5000148811
18.2896967626 0.0586836126 -3.5000152009
18.2760647230 0.0812273996 -3.5000151786
18.1967947479 0.1993143245 -3.5000150621
18.1715221904 0.2330489903 -3.5000150288
18.0075601555 0.4183744489 -3.5000148460
18.3498765742 0.0012983398 -3.5000152575
18.3396723905 0.0200656321 -3.5000152390
18.2380556094 0.1831693009 -3.5000150780
18.0168701812 0.4430770053 -3.5000148216
17.9780241164 0.4797227753 -3.5000147854
18.5402076295 -1.2682366754 -3.5000165102
18.5626321503 -1.1568365096 -3.5000164003
18.5763167715 -1.0603972180 -3.5000163051
18.5175107728 -1.4372605512 -3.5000166770
18.5476292081 -1.3375355547 -3.5000165786
18.5573057999 -1.3003910882 -3.5000165420
18.5686134256 -1.2523534476 -3.5000164946
18.5775879636 -1.2094138472 -3.5000164522
18.5899970917 -1.1392204327 -3.5000163829
18.5916662481 -1.1283810990 -3.5000163722
18.5983827012 -1.0794897237 -3.5000163240
18.5109964632 -0.2468786267 -3.5000155024
18.3924861531 0.0241405138 -3.5000152350
18.5572124278 -1.3919389951 -3.5000166323
18.6002264583 -1.2195279627 -3.5000164622
18.6064650973 -1.1867870826 -3.5000164299
18.6179829453 -1.1155001603 -3.5000163595
18.6249727616 -1.0603930602 -3.5000163051
18.6340487356 -0.9496793451 -3.5000161959
18.3642244963 0.1223892486 -3.5000151380
18.5703643968 -1.4311378071 -3.5000166710
18.5787366914 -1.4042798751 -3.5000166445
18.6228208232 -1.2297791049 -3.5000164723
18.6600533265 -0.7990752351 -3.5000160473
18.6582762141 -0.7540987918 -3.5000160029
18.6458742918 -0.6140144165 -3.5000158647
18.5585248044 -0.2364262813 -3.5000154921
18.4946207117 -0.0741961749 -3.5000153320
18.4992701754 -1.6768144284 -3.5000169134
18.6176130028 -1.3565430801 -3.5000165974
18.6625139387 -1.1448391670 -3.5000163885
18.6776983843 -0.6846483255 -3.5000159344
18.4876304540 -0.0024206619 -3.5000152612
18.2583765154 0.3572013274 -3.5000149063
18.6482959337 -1.3349846021 -3.5000165761
17.6868510914 0.8637266726 -3.5000144065
18.6998087467 -0.4895459225 -3.5000157419
17.9626311003 0.7134193216 -3.5000145548
18.6335756881 -1.5444414054 -3.5000167828
18.7370637589 -0.5667761695 -3.5000158181
18.7816448731 -0.8495825803 -3.5000160971
18.8057945975 -0.8616687649 -3.5000161090
18.8063560665 -0.4066214190 -3.5000156600
18.8065761295 -1.6992068230 -3.5000169355
16.3649707622 3.5224924286 -3.5000117830
16.5843947258 3.5609108765 -3.5000117450
16.2848049377 3.5388480787 -3.5000117668
16.2199192229 3.5313580671 -3.5000117742
15.9745490453 3.4941677041 -3.5000118109
15.9616966833 3.4918288951 -3.5000118132
16.7541490461 3.5885246565 -3.5000117178
16.9125710007 3.6100491437 -3.5000116966
16.4901572617 3.6046132821 -3.5000117019
16.2927485617 3.5883128287 -3.5000117180
16.0701485103 3.5592749517 -3.5000117467
16.9797349597 3.6314296728 -3.5000116755
16.6346131813 3.6351563113 -3.5000116718
16.4754502443 3.6279240854 -3.5000116789
16.3563013367 3.6187951055 -3.5000116879
17.1274476765 3.6459588696 -3.5000116611
17.0608855803 3.6509201536 -3.5000116562
16.9142368259 3.6583664921 -3.5000116489
16.9008946226 3.6588067311 -3.5000116484
16.8608610163 3.6598906110 -3.5000116474
16.5939170199 3.6580349222 -3.5000116492
16.0626914929 3.6070424513 -3.5000116995
16.3787074342 3.6692739992 -3.5000116381
18.1427556537 0.1191256350 -3.5000151412
18.2073960672 0.0324672650 -3.5000152268
18.1774119625 0.1020971445 -3.5000151580
18.1667343616 0.1250030013 -3.5000151354
18.1579490810 0.1432124156 -3.5000151175
18.1466654982 0.1658259117 -3.5000150952
18.1182301816 0.2193979632 -3.5000150423
18.1133068514 0.2282270456 -3.5000150336
18.0930937847 0.2632474739 -3.5000149990
18.0826778865 0.2805758607 -3.5000149819
18.0584973811 0.3191060105 -3.5000149439
18.2570507274 -0.0303612885 -3.5000152887
18.2429164565 0.0081329988 -3.5000152508
18.2139768134 0.0793624519 -3.5000151805
18.2036314678 0.1028116039 -3.5000151573
18.1929404318 0.1261051793 -3.5000151344
18.1907609462 0.1307447761 -3.5000151298
18.1841402751 0.1446245988 -3.5000151161
18.1006488398 0.2975254797 -3.5000149652
18.2636517490 0.0215875704 -3.5000152375
18.2422892499 0.0746166185 -3.5000151852
18.2192127971 0.1269225802 -3.5000151335
18.2013672703 0.1644774565 -3.5000150965
18.1990742358 0.1691418135 -3.5000150919
18.1921124851 0.1830939000 -3.5000150781
18.1293479506 0.2968340778 -3.5000149659
18.0462528762 0.4225331876 -3.5000148419
18.3078343902 -0.0291607090 -3.5000152876
18.3061137065 -0.0241805557 -3.5000152827
18.2411674131 0.1370384151 -3.5000151236
18.3834203099 -0.2060940732 -3.5000154622
18.2847502852 0.0983265147 -3.5000151618
18.2494551360 0.1761362869 -3.5000150850
18.2471274021 0.1809428456 -3.5000150802
18.2352760170 0.2048711963 -3.5000150566
18.2328633421 0.2096356848 -3.5000150519
18.2002248077 0.2709075700 -3.5000149915
18.1816812515 0.3033672959 -3.5000149594
18.1680263203 0.3263142815 -3.5000149368
18.1454768663 0.3626020857 -3.5000149010
18.0336496290 0.5188821099 -3.5000147468
18.1858988897 0.3434551622 -3.5000149199
18.1687601762 0.3710357093 -3.5000148927
18.0389152402 0.5508047580 -3.5000147153
18.3597455502 0.0408710469 -3.5000152185
18.3313776710 0.1122014259 -3.5000151481
18.4816630301 -0.3373311504 -3.5000155917
18.2847444780 0.2671598365 -3.5000149952
18.2442736942 0.3399897433 -3.5000149233
18.1209885136 0.5246981162 -3.5000147410
18.0331781984 0.6322494003 -3.5000146349
18.4712109920 -0.1571719868 -3.5000154139
18.1436538941 0.5347912708 -3.5000147311
18.5738405257 -0.6085889880 -3.5000158593
18.4697180740 0.0204024011 -3.5000152387
18.1176986536 0.6451506898 -3.5000146222
17.9884129545 0.7848190355 -3.5000144844
18.6604115235 -1.0998754587 -3.5000163441
18.6509055260 -1.2265087616 -3.5000164691
18.7015027406 -1.0259602520 -3.5000162712
18.7170115721 -0.9395654169 -3.5000161859
18.7281983329 -0.8588298498 -3.5000161062
18.7381660757 -0.4645078886 -3.5000157171
18.6378458281 -1.3418083227 -3.5000165828
18.6442756341 -1.3239028854 -3.5000165652
18.6830506108 -1.2031616239 -3.5000164460
18.7408876234 -0.9433429103 -3.5000161896
18.7666179578 -0.6593422243 -3.5000159094
18.7662949572 -0.5452063490 -3.5000157968
18.7645283471 -0.5008507132 -3.5000157530
18.7631066092 -0.4755241092 -3.5000157280
18.5701772687 -1.5624073714 -3.5000168005
18.7215494077 -1.1542100101 -3.5000163977
18.7423509432 -1.0668752185 -3.5000163115
18.7804136759 -0.8262956392 -3.5000160741
18.7864006940 -0.4612272294 -3.5000157139
18.7770180761 -0.3590560797 -3.5000156131
18.5440357511 -1.6650977407 -3.5000169018
18.6876754038 -1.3461497876 -3.5000165871
18.7105868052 -1.2786013759 -3.5000165205
18.7700073437 -1.0529561010 -3.5000162978
18.8100285195 -0.7641207184 -3.5000160128
18.7615846180 -1.1917233299 -3.5000164347
18.8126045250 -0.2625638064 -3.5000155179
18.5778066972 -1.7524884937 -3.5000169881
18.6816797662 -1.6095135996 -3.5000168470
18.9121753893 -0.5883205194 -3.5000158393
18.8501143095 -0.0785940556 -3.5000153363
18.7296136671 -1.5643592930 -3.5000168024
18.8437095894 -1.2566827631 -3.5000164988
18.6711081628 -1.7350167821 -3.5000169708
18.7656800873 -1.5427686367 -3.5000167811
18.9531342414 -0.7951097320 -3.5000160434
18.9133214109 -1.2770103761 -3.5000165189
18.9785350797 -0.9880862466 -3.5000162338
18.6920869281 -1.8441720695 -3.5000170785
18.6711223603 -1.9238852631 -3.5000171572
18.5788622597 -2.0977134649 -3.5000173287
17.0139732710 3.4990929714 -3.5000118060
17.0018210360 3.5002302119 -3.5000118049
16.8070073747 3.5135305819 -3.5000117918
17.1017229993 3.5141384432 -3.5000117912
16.9918110114 3.5254091238 -3.5000117801
16.9428727975 3.5294782501 -3.5000117761
17.2147199483 3.5238751526 -3.5000117816
17.0185491413 3.5472219911 -3.5000117586
16.8091581128 3.5618287749 -3.5000117441
17.2672796799 3.5404769181 -3.5000117652
17.3695450163 3.5478729988 -3.5000117579
17.2339306305 3.5699461690 -3.5000117361
