1.9277918627 -3.6857063435 -2.9996522079
1.2577333020 -3.7973442202 -2.9996523181
1.8011237078 -3.7541815968 -2.9996522755
1.5183156332 -3.8089647743 -2.9996523295
2.2086854105 -3.7033957500 -2.9996522254
2.3808059330 -3.7102010580 -2.9996522321
0.7035647919 -3.8722830210 -2.9996523920
1.2735951585 -3.8937163791 -2.9996524132
1.2041965443 -3.9189789066 -2.9996524381
2.7539090384 -3.6443264335 -2.9996521671
2.7802412626 -3.6348484175 -2.9996521577
2.8719527957 -3.6004520454 -2.9996521238
2.9068791874 -3.6127688522 -2.9996521359
2.9572611173 -0.5124600120 -3.0001657297
3.2382498475 -0.1109969635 -3.0001653336
3.3318883333 -0.3046972078 -3.0001655247
3.1055337954 -0.8380463379 -3.0001660510
3.5351272394 -0.4554220828 -3.0001656735
3.0376832626 -1.4690856827 -3.0001666737
3.7865860440 0.8834038758 -3.0001643524
3.7758031512 0.9481171185 -3.0001642885
3.7651142026 1.0045182665 -3.0001642329
3.7478236626 1.0846804594 -3.0001641538
3.8426288012 0.4007049249 -3.0001648287
3.8257828840 0.7723056019 -3.0001644620
3.8010428125 0.9442266866 -3.0001642924
3.7428196952 1.3681061413 -3.0001638741
3.7318875264 1.3999428650 -3.0001638427
3.9294490293 0.7064494646 -3.0001645270
3.8147492852 1.3020365203 -3.0001639393
3.6673081938 1.7422172610 -3.0001635049
3.6037143908 1.8647652533 -3.0001633840
3.9721403224 0.9475769723 -3.0001642891
3.8155646299 1.5884629276 -3.0001636567
3.9948158174 1.4529738242 -3.0001637903
4.1814834067 0.4955143836 -3.0001647351
1.2655811122 -3.4663370424 -3.0001686445
1.2888076626 -3.4649740754 -3.0001686432
1.2902951134 -3.4891012960 -3.0001686670
1.3019766292 -3.4883637815 -3.0001686662
1.3486793424 -3.4850682647 -3.0001686630
1.3603486724 -3.4841580567 -3.0001686621
1.3836789993 -3.4822341012 -3.0001686602
1.4443654137 -3.5008728313 -3.0001686786
1.4560810778 -3.4996794975 -3.0001686774
1.4912061718 -3.4958916285 -3.0001686737
1.5029068956 -3.4945597531 -3.0001686723
1.5379847108 -3.4903565328 -3.0001686682
1.5613486010 -3.4873815142 -3.0001686653
1.5292077387 -3.5157892474 -3.0001686933
1.5644729181 -3.5113517859 -3.0001686889
1.6348781966 -3.5015388852 -3.0001686792
1.6855454305 -3.5181707749 -3.0001686956
1.4516073195 -3.5730294134 -3.0001687498
1.4635364040 -3.5718143410 -3.0001687486
1.3234369292 -3.6322997025 -3.0001688083
1.3980847422 -3.6508309677 -3.0001688265
1.5005201452 -3.6894274794 -3.0001688646
1.5127933423 -3.6880672048 -3.0001688633
1.8665075189 -3.6328868764 -3.0001688088
1.9390222501 -3.6176942683 -3.0001687939
2.1904613441 -3.5544388804 -3.0001687314
2.2685670242 -3.5566359517 -3.0001687336
1.3066570721 -3.7545007222 -3.0001689288
2.2994812471 -3.5724222944 -3.0001687492
1.4709190680 -3.7654469657 -3.0001689396
1.3744972885 -3.8225044053 -3.0001689959
2.5016894877 -3.5811195368 -3.0001687578
1.3253588836 -3.8502045043 -3.0001690233
1.3890801333 -3.8456133675 -3.0001690188
1.5189114079 -3.8576362494 -3.0001690306
2.8238215529 -3.5561590428 -3.0001687331
2.8593986605 -0.4817130250 -2.9999253735
2.9735532142 -0.4345751922 -2.9999253270
3.0093742742 -0.2750901096 -2.9999251696
3.0154592615 -0.5495591831 -2.9999254404
3.0631232522 -0.3741408734 -2.9999252673
3.3551179051 -0.3963306727 -2.9999252892
3.4185601014 -0.1379730899 -2.9999250343
3.3289484637 -0.6798806984 -2.9999255690
3.3587313513 -0.6665452981 -2.9999255559
3.4748608916 0.2168186101 -2.9999246842
3.4712465773 0.2754481206 -2.9999246263
3.2359950856 -1.0304677964 -2.9999259150
3.3906562929 -0.6456602489 -2.9999255353
3.3880375857 -0.8029393548 -2.9999256905
3.5466743727 0.4720554059 -2.9999244323
3.5407951091 0.5097432644 -2.9999243952
3.2087088065 -1.3669603941 -2.9999262470
3.5897743250 0.9245163056 -2.9999239859
3.3748987746 -1.2819466552 -2.9999261631
2.9758077043 -2.0159778860 -2.9999268874
3.8833189767 0.6539323994 -2.9999242529
3.8782309934 0.6795359527 -2.9999242276
3.8618927923 0.8551586655 -2.9999240543
4.0335559378 0.4802212535 -2.9999244243
3.9813926313 0.7744605948 -2.9999241339
3.9098772481 1.1816201177 -2.9999237322
4.0766400438 0.6725655109 -2.9999242345
3.9983858283 1.0750569072 -2.9999238373
4.1308933433 0.6444392181 -2.9999242622
4.1206748460 0.8159634437 -2.9999240930
3.8159659113 1.6210337891 -2.9999232986
3.7503000655 1.7364889524 -2.9999231847
3.9922273939 1.3665303908 -2.9999235497
4.0002635661 1.6865385964 -2.9999232340
1.8323211882 -3.4765398089 -2.9999283286
1.9060606711 -3.4584523974 -2.9999283108
1.9165637552 -3.4557439692 -2.9999283081
1.9543023504 -3.4707759808 -2.9999283230
1.9753725267 -3.4650424366 -2.9999283173
1.9858948021 -3.4621289427 -2.9999283144
1.9923797738 -3.4854158580 -2.9999283374
2.0135358982 -3.4794567788 -2.9999283315
2.0241006468 -3.4764303276 -2.9999283285
2.0452030546 -3.4702837344 -2.9999283225
2.0838217588 -3.4839569619 -2.9999283360
2.0943995123 -3.4807225728 -2.9999283328
2.1366134598 -3.4674725356 -2.9999283197
2.1757489060 -3.4801617297 -2.9999283322
2.1863150302 -3.4766554200 -2.9999283288
2.1968707359 -3.4731178692 -2.9999283253
2.2074159307 -3.4695491081 -2.9999283217
2.2045858967 -3.4960266355 -2.9999283479
2.2258010841 -3.4888118880 -2.9999283407
2.2575429031 -3.4777547407 -2.9999283298
2.3080325828 -3.4852697891 -2.9999283373
2.3694762072 -3.4880387485 -2.9999283400
2.3800647855 -3.4839593240 -2.9999283360
1.9319328057 -3.6513863527 -2.9999285012
2.3567864294 -3.5187240569 -2.9999283703
2.4312869323 -3.4897681205 -2.9999283417
1.9711996040 -3.6663290634 -2.9999285159
2.1992470928 -3.6250712151 -2.9999284752
2.6081433764 -3.4934033759 -2.9999283453
3.3759128011 3.2542067341 -2.9999216870
2.3108587178 -3.6639987365 -2.9999285136
3.4279148337 3.2449590638 -2.9999216962
3.4185813556 3.2521400815 -2.9999216891
3.5474618663 3.2428695865 -2.9999216982
2.5773345732 -3.6911815735 -2.9999285404
3.7648322231 3.2170225592 -2.9999217237
2.5456096722 -3.8085185646 -2.9999286562
2.8402353893 -3.7050825350 -2.9999285542
3.5221352581 -3.2900856728 -2.9999281447
2.8953754421 -3.7318648705 -2.9999285806
3.4220406513 -0.3134558166 -3.0000158065
3.4054265371 -0.7216930491 -3.0000162093
3.4228211686 -0.6151157402 -3.0000161042
3.4340595706 -0.5222018822 -3.0000160125
3.3798290747 -0.9385210604 -3.0000164233
3.4576506557 -0.0237961026 -3.0000155207
3.4912508955 -0.4099623750 -3.0000159017
3.4243808029 -0.9586803213 -3.0000164432
3.4903344680 -0.6545499665 -3.0000161431
3.4873311053 0.1208179733 -3.0000153780
3.4179230846 0.5098580262 -3.0000149941
3.3773820945 -1.2432034315 -3.0000167239
3.4777336764 0.3943028960 -3.0000151081
3.3820611666 -1.2945639285 -3.0000167746
3.5235219872 0.3119078209 -3.0000151894
3.4746184903 0.5688978046 -3.0000149358
3.5644698597 -0.9014072630 -3.0000163867
3.3679640873 1.1857233885 -3.0000143272
3.9456765915 -0.7151604641 -3.0000162029
3.9758017070 -0.6749538476 -3.0000161632
3.9818085667 -0.9203474975 -3.0000164054
3.9955059643 -0.9696639132 -3.0000164540
4.0464530672 -0.6935958534 -3.0000161816
3.9090117653 0.7180538286 -3.0000147887
3.9452971936 -1.2388405344 -3.0000167196
4.0294997472 0.6606342609 -3.0000148453
3.9067430523 -1.6019981615 -3.0000170780
4.0963332463 -1.1586208949 -3.0000166405
4.1015769499 0.6730127979 -3.0000148331
3.8813975800 1.5044640354 -3.0000140127
2.3891099531 -3.4126274074 -3.0000188646
3.8600167237 -2.1798026800 -3.0000176481
2.4453858258 -3.4139148884 -3.0000188659
2.4647669942 -3.4316219057 -3.0000188834
2.4927101272 -3.4186109848 -3.0000188705
2.5123641023 -3.4360568683 -3.0000188878
2.5882800105 -3.4259453912 -3.0000188778
2.5975898716 -3.4212706286 -3.0000188732
2.6068858632 -3.4165683461 -3.0000188685
2.6736898855 -3.4091356724 -3.0000188612
2.7036448261 -3.4205428539 -3.0000188724
2.7431187459 -3.4265992574 -3.0000188784
2.7524298638 -3.4214664509 -3.0000188734
2.7617257571 -3.4163061229 -3.0000188683
2.7921599361 -3.4269506826 -3.0000188788
2.8507606938 -3.4211559745 -3.0000188730
2.8600552385 -3.4157047675 -3.0000188677
2.9188507117 -3.4086873053 -3.0000188607
3.0408931250 -3.4177568338 -3.0000188697
3.0726746464 -3.4259320120 -3.0000188778
2.8954782966 3.3948470590 -3.0000121473
2.8846096759 3.4004007258 -3.0000121419
2.9174250521 3.4107378776 -3.0000121316
3.0157425068 3.3858403927 -3.0000121562
3.0164369266 3.4129921475 -3.0000121294
3.1152166433 3.3855063581 -3.0000121565
3.1043746927 3.3917100916 -3.0000121504
3.0935144377 3.3978817255 -3.0000121443
3.1706830678 3.3811909666 -3.0000121608
2.8638969006 -0.4065768897 -3.0000158984
3.4778030566 -0.4752853663 -3.0000159662
3.5003606022 -0.4523025656 -3.0000159435
3.5271242804 -0.7885391575 -3.0000162753
3.5233054930 -0.4360805668 -3.0000159275
3.5556330864 -0.6010727889 -3.0000160903
3.5737547208 -0.4613405236 -3.0000159524
3.5812597657 -0.9774208586 -3.0000164617
3.3075309880 0.5443523043 -3.0000149601
3.6155367384 -1.4701419276 -3.0000169479
3.6520597971 -1.3500932193 -3.0000168294
3.7450451772 -0.4883919001 -3.0000159791
3.6233644909 -1.6592872549 -3.0000171345
3.6967492793 -1.4545367181 -3.0000169325
3.6131415126 0.4684545879 -3.0000150350
3.2332530626 1.0912156983 -3.0000144204
3.8923258914 -0.7447804139 -3.0000162321
3.6959300408 -1.7975125976 -3.0000172709
3.9165757635 -1.0231690491 -3.0000165068
3.9414027641 -0.5531006661 -3.0000160430
3.9637131504 -0.7729714555 -3.0000162599
3.8503914267 -1.5296844223 -3.0000170066
3.9891618696 -0.5345400108 -3.0000160247
3.9810000977 -0.3978616487 -3.0000158898
4.0106789198 -0.8010912932 -3.0000162877
4.0100197048 -0.4647116098 -3.0000159558
3.8699028529 -1.6926953824 -3.0000171675
4.1115478985 -0.5925824392 -3.0000160819
4.1357181077 -0.5922132936 -3.0000160816
4.1306699228 -0.4575069613 -3.0000159487
4.1601827527 -0.6190193787 -3.0000161080
3.9456569079 -1.8289344656 -3.0000173019
4.1832847644 -0.5549614931 -3.0000160448
3.9387687482 -1.9058358699 -3.0000173778
3.8888186610 -2.0662453597 -3.0000175361
3.7617663762 -2.3366460554 -3.0000178029
3.7609809178 -2.4261505699 -3.0000178912
2.9468258225 -3.3183919459 -3.0000187716
3.8118102875 -2.4370699662 -3.0000179020
3.8532072538 -2.4179456757 -3.0000178831
3.0617676586 -3.2956992239 -3.0000187493
3.1843083602 -3.2934689473 -3.0000187471
3.1921527869 -3.2872853711 -3.0000187410
3.2773110936 -3.2806491751 -3.0000187344
3.3474620194 -3.2849615880 -3.0000187387
3.2723318810 -3.4394257002 -3.0000188911
3.4733329018 -3.2711075251 -3.0000187250
3.3921012244 -3.4366271512 -3.0000188883
4.3631045157 -2.8303150499 -3.0000182900
2.2683165921 3.4688854441 -3.0000120743
2.2561607594 3.4723297629 -3.0000120709
2.3480686642 3.4705922117 -3.0000120726
2.3359074336 3.4742724441 -3.0000120690
2.3237353695 3.4779166852 -3.0000120654
2.2749409087 3.4921331044 -3.0000120513
2.4160857481 3.4746721558 -3.0000120686
2.4039121507 3.4785535771 -3.0000120647
2.4723127428 3.4817178022 -3.0000120616
2.4601180570 3.4857655223 -3.0000120576
2.4356930308 3.4937526521 -3.0000120497
2.5532793558 3.4794671258 -3.0000120638
2.5288899626 3.4880055393 -3.0000120554
2.6430545490 3.4982782645 -3.0000120453
2.3206205331 3.6047729575 -3.0000119402
2.7373060253 3.4878628027 -3.0000120555
2.9461378845 3.5047537544 -3.0000120389
2.9338729811 3.5102030342 -3.0000120335
3.1116426299 3.5076618953 -3.0000120360
2.4916204738 3.7550522764 -3.0000117919
2.8304294316 3.6849418959 -3.0000118611
3.3511553283 3.5205264595 -3.0000120233
3.3265090501 3.5337846566 -3.0000120102
3.4973045098 3.5218905842 -3.0000120220
4.7106041826 3.0532332767 -3.0000124844
3.6391280377 -0.4101320638 -3.0000159019
3.4839993111 0.0432019612 -3.0000154546
3.2418794581 0.5015900138 -3.0000150023
3.7317347212 -0.6468389858 -3.0000161355
3.1648279969 0.6381489227 -3.0000148675
3.7868081054 -1.2511354195 -3.0000167318
3.7978787546 -1.1155714180 -3.0000165980
3.7383444569 -0.4099790931 -3.0000159018
3.1573440175 0.7207300897 -3.0000147860
3.7512264117 -1.5915669347 -3.0000170677
3.8054977360 -1.2992029978 -3.0000167792
3.8248671203 -1.0482988894 -3.0000165316
3.8264782011 -1.3251423444 -3.0000168048
3.3158761355 0.6042856291 -3.0000149009
3.7034964005 -1.9071665174 -3.0000173791
3.8642740840 -0.7468621277 -3.0000162342
3.8483964190 -0.6078899270 -3.0000160970
3.8896742784 -0.7603896030 -3.0000162475
3.8518390345 -0.4807107004 -3.0000159716
3.8710529796 -0.4528922853 -3.0000159441
3.6479756857 -2.2100014599 -3.0000176779
3.7231781707 -2.0512436086 -3.0000175213
3.9233550942 -1.3302147638 -3.0000168098
3.6657782537 -2.2282156478 -3.0000176959
3.7939044459 -1.9414557263 -3.0000174129
3.9533274459 -0.6662946056 -3.0000161547
3.8388476594 -1.8889525597 -3.0000173611
3.8572059343 -1.8350907059 -3.0000173080
3.7889100775 -2.1980359661 -3.0000176661
3.8988181322 -1.9366288692 -3.0000174082
3.9464018586 -1.8733250278 -3.0000173457
4.0074083265 -1.6632579040 -3.0000171384
3.8061769396 -2.2722582571 -3.0000177394
4.0330857468 -0.2908608973 -3.0000157842
4.1337127529 -1.1682979242 -3.0000166500
3.7797283860 -2.4232552734 -3.0000178884
4.1934953266 -0.6388552678 -3.0000161276
4.1914520987 -0.6214287903 -3.0000161104
3.5827710592 -2.9183529778 -3.0000183769
1.6235432634 3.4729772931 -3.0000120702
1.6103822374 3.4740716689 -3.0000120692
1.5972180316 3.4751271072 -3.0000120681
1.6784769013 3.4922717007 -3.0000120512
1.6388110089 3.4959247519 -3.0000120476
1.6255820333 3.4970641920 -3.0000120465
1.8564236981 3.5202879565 -3.0000120236
2.0196935652 3.5196508726 -3.0000120242
2.0063927369 3.5219169284 -3.0000120219
1.7552266807 3.5814978649 -3.0000119632
2.1752668626 3.5394882503 -3.0000120046
2.3273029532 3.5304049563 -3.0000120136
1.8558261686 3.6179248800 -3.0000119272
2.3195351753 3.5571043772 -3.0000119872
2.5528049879 3.5709850846 -3.0000119735
2.6403752643 3.5702052180 -3.0000119743
1.9168981248 3.7559471357 -3.0000117910
3.0832968234 3.5407883751 -3.0000120033
2.0236445201 3.8865351928 -3.0000116622
3.2106670390 3.6186249148 -3.0000119265
3.5544667262 3.6458669460 -3.0000118996
3.5978434752 -1.8534308668 -3.0000173261
3.6238503895 -1.7450645515 -3.0000172192
3.6377616802 -1.6743042355 -3.0000171493
3.6578960549 -1.5381269924 -3.0000170150
3.6012668301 -1.9297845480 -3.0000174014
3.6087790930 -1.9043605823 -3.0000173763
3.6638598791 -1.6655276683 -3.0000171407
3.6920986545 -1.4287213427 -3.0000169070
3.6968819537 -1.2896444705 -3.0000167698
3.6957343710 -1.2101246503 -3.0000166913
3.5451482944 -2.1573295465 -3.0000176260
3.5553569040 -2.1325536718 -3.0000176015
3.5628205829 -2.1138934433 -3.0000175831
3.5652716394 -2.1076587386 -3.0000175769
3.7081508027 -1.5237363957 -3.0000170008
3.7095403507 -1.5104102692 -3.0000169876
3.7108510326 -1.4970761549 -3.0000169745
3.7126690819 -1.4770610275 -3.0000169547
3.7181631107 -1.3968628383 -3.0000168756
3.7190915350 -1.3767867665 -3.0000168558
3.7210227073 -1.2964238120 -3.0000167765
3.7194241930 -1.1959568022 -3.0000166773
3.5777611130 -2.1416303840 -3.0000176105
3.6182806161 -2.0339092166 -3.0000175042
3.7442632283 -1.2153366795 -3.0000166964
3.7241941332 -0.9725344236 -3.0000164569
3.5116247749 -2.3433703552 -3.0000178095
3.5949894770 -2.1633749170 -3.0000176319
3.6563733488 -1.9964498718 -3.0000174672
3.7488392502 -1.5900266469 -3.0000170662
3.7625112230 -1.4607626983 -3.0000169386
3.7689000838 -1.3309348365 -3.0000168105
3.4903434661 -2.4335093067 -3.0000178985
3.5425374973 -2.3359891181 -3.0000178023
3.7628571586 -0.9044612178 -3.0000163897
3.5672542307 -2.3406487629 -3.0000178069
3.6798069657 -2.0774887713 -3.0000175472
3.6913262595 -2.0445172687 -3.0000175146
3.8154727665 -1.1783154511 -3.0000166599
3.8013481709 -1.0042967512 -3.0000164882
3.4744931723 -2.5542304442 -3.0000180176
3.6620398249 -2.1910022293 -3.0000176592
3.7735743215 -1.8491864129 -3.0000173219
3.8234375249 -1.5786835599 -3.0000170550
3.8418854663 -1.2971824646 -3.0000167772
3.8343959781 -1.0927369043 -3.0000165755
3.4866058882 -0.0296104048 -3.0000155264
3.5211109188 -2.5246358488 -3.0000179884
3.8652282448 -1.3472241378 -3.0000168266
3.8660027320 -1.3044622258 -3.0000167844
3.8659469189 -1.2545654144 -3.0000167352
3.8540147329 -1.0411214141 -3.0000165245
3.8103240358 -0.7667305203 -3.0000162538
3.7832989278 -0.6559376245 -3.0000161445
3.7039873518 -2.2160731862 -3.0000176839
3.8937743486 -0.9640547322 -3.0000164485
3.6414179488 -2.4599670236 -3.0000179246
3.9382493201 -1.2390494831 -3.0000167198
3.7260186351 -2.3456200796 -3.0000178118
3.7983874640 -2.1750201905 -3.0000176434
3.8514928526 -2.0208233553 -3.0000174913
3.9626326681 -1.2534561657 -3.0000167341
3.9509525697 -1.0388255242 -3.0000165223
3.8915618656 -1.9705167423 -3.0000174416
3.9512352225 -0.8584375151 -3.0000163443
3.6907535525 -2.5209003451 -3.0000179847
4.0051700221 -1.4568117131 -3.0000169347
3.0347553019 0.7266311159 -3.0000147802
4.0536777507 -1.6780064979 -3.0000171530
4.0719897537 -1.0348249525 -3.0000165183
3.6994392476 -2.6960184280 -3.0000181575
4.1070705457 -1.3459054649 -3.0000168253
3.9676012405 -2.2056476478 -3.0000176736
4.0374887159 -1.9870896228 -3.0000174580
1.2025499494 3.5138747392 -3.0000120299
1.1599973938 3.5114327773 -3.0000120323
0.8911782156 3.4872103387 -3.0000120562
1.2725929836 3.5412606915 -3.0000120029
1.1727585185 3.5364199701 -3.0000120076
1.3577379370 3.5679318485 -3.0000119765
1.1570133733 3.5596866554 -3.0000119847
1.8491083107 3.6015212425 -3.0000119434
1.7334333162 3.6094456329 -3.0000119356
1.8945843291 3.6219213098 -3.0000119233
1.4582113686 3.6414547435 -3.0000119040
0.9058909160 3.6105783058 -3.0000119345
1.0468658706 3.6729031796 -3.0000118730
1.7093831263 3.7075669403 -3.0000118388
1.4434578930 3.7139572907 -3.0000118324
2.1686898346 3.6873655293 -3.0000118587
1.9179790348 3.7168863594 -3.0000118296
0.9689279377 3.7144210394 -3.0000118320
2.3782504501 3.6773810560 -3.0000118685
2.3047953636 3.6904725454 -3.0000118556
2.4121347163 3.6955799482 -3.0000118506
1.0538458429 3.7704797154 -3.0000117767
2.2087920766 3.7547880383 -3.0000117922
1.5637241138 3.8095360572 -3.0000117381
2.7167022573 3.6772176656 -3.0000118687
2.7020258619 3.6809240607 -3.0000118650
2.5694632472 3.7123234258 -3.0000118341
2.3915022554 3.7486790727 -3.0000117982
1.5793666727 3.8333624532 -3.0000117146
1.3220619479 3.8330746398 -3.0000117149
2.9132950673 3.6482797285 -3.0000118973
2.8987034153 3.6525678073 -3.0000118930
2.8840991423 3.6568127026 -3.0000118888
2.8548532445 3.6651727944 -3.0000118806
1.4734984565 3.8589840031 -3.0000116893
3.1528802127 3.5966614356 -3.0000119482
3.0950323891 3.6163929978 -3.0000119287
2.8761262454 3.6842564572 -3.0000118618
1.6424877716 3.9040222273 -3.0000116449
0.9372195383 3.8813192011 -3.0000116673
3.5210689360 -1.8540971440 -3.0000173267
3.5664682945 -1.6841263248 -3.0000171590
3.5707808838 -1.4813818384 -3.0000169590
3.5925345742 -1.8664129914 -3.0000173389
3.6133186209 -1.7046219084 -3.0000171793
3.6717134982 -1.2563849029 -3.0000167370
0.8955171615 3.6295227421 -3.0000119158
0.5910861695 3.5718315293 -3.0000119727
1.0892566362 3.7053277376 -3.0000118410
3.4773872410 -1.9490120528 -3.0000174204
3.4870583237 -1.8540527678 -3.0000173267
3.4901011670 -1.7890379101 -3.0000172625
3.4904251345 -1.7716833378 -3.0000172454
3.4869436284 -1.6502640906 -3.0000171256
3.4962145216 -1.9871542831 -3.0000174580
3.4982346803 -1.9740766401 -3.0000174451
3.5079118425 -1.8952812533 -3.0000173674
3.5094916837 -1.8777084990 -3.0000173500
3.5140239693 -1.7984505729 -3.0000172718
3.5142668919 -1.7896320658 -3.0000172631
3.5089699350 -1.6221886262 -3.0000170979
3.5378228253 -1.6961120736 -3.0000171709
3.5618011758 -1.6906543468 -3.0000171655
3.5558709008 -1.6043441924 -3.0000170803
3.5524647367 -1.5726496196 -3.0000170490
3.5429606576 -1.5050104381 -3.0000169823
3.5624181175 -2.0304646997 -3.0000175008
3.5712967557 -1.9756768757 -3.0000174467
3.5844152960 -1.8468673882 -3.0000173196
3.5871093885 -1.7729160339 -3.0000172466
3.6108073986 -1.7967040578 -3.0000172701
3.6340606888 -1.6829539772 -3.0000171579
3.6319526500 -1.6448653657 -3.0000171203
3.5791777047 -1.3302965603 -3.0000168099
3.5659951367 -1.2844720190 -3.0000167647
3.6503264942 -1.9283828322 -3.0000174000
3.5833882733 -1.2589557681 -3.0000167395
3.5615967860 -1.1948008073 -3.0000166762
3.6640901515 -2.0088767588 -3.0000174795
3.6652972466 -1.5049492792 -3.0000169822
3.6217793500 -1.2206622172 -3.0000167017
3.7291917775 -1.8555760373 -3.0000173282
2.6468659278 0.7245365429 -3.0000147823
0.4809804722 3.7313914667 -3.0000118152
0.3445400180 3.7164603943 -3.0000118300
0.0231781923 3.6588466443 -3.0000118868
-0.1381420728 3.6485607578 -3.0000118970
-0.4640416255 3.5331585442 -3.0000120109
-0.8920963365 3.5592408735 -3.0000119851
3.4413921934 -1.8543427785 -3.0000173270
3.4665912287 -1.8924519973 -3.0000173646
3.4530628539 -1.7298225640 -3.0000172041
3.5060736375 -1.7594016241 -3.0000172333
3.5043011359 -1.7458781022 -3.0000172200
3.4820052927 -1.6286899374 -3.0000171043
3.4687603454 -1.5792917281 -3.0000170556
3.5071202693 -1.6297174628 -3.0000171053
3.5424950478 -1.6797046825 -3.0000171547
3.5363187349 -1.5520095953 -3.0000170287
3.5573468379 -1.5380190952 -3.0000170149
3.5510493192 -1.4454918265 -3.0000169236
3.9290065919 -1.3528185741 -3.0000168321
2.6462675724 0.7580272706 -3.0000147492
2.5121726161 0.7689377613 -3.0000147385
1.8638436548 0.8737815164 -3.0000146350
-2.0404765864 3.6357953463 -3.0000119096
3.4319912716 -1.7701730942 -3.0000172439
3.4466868636 -1.7372463872 -3.0000172114
3.4451947899 -1.7329677252 -3.0000172072
3.4710483139 -1.7337770484 -3.0000172080
3.4607478616 -1.7051948192 -3.0000171798
3.4502707837 -1.6791805255 -3.0000171541
3.4493561261 -1.6770297432 -3.0000171520
3.4545665869 -1.6302986332 -3.0000171059
3.4604265201 -1.5888167248 -3.0000170650
3.4492606454 -1.4788279013 -3.0000169564
3.8748647954 -1.7472981919 -3.0000172214
3.8669192673 -1.6221615993 -3.0000170979
3.8591134739 -1.5985489753 -3.0000170746
3.8854588842 -1.6010276843 -3.0000170770
3.8784201071 -1.5804526067 -3.0000170567
3.8772115212 -1.5770357133 -3.0000170534
3.8735251911 -1.5668066933 -3.0000170433
3.8818139787 -1.4595951213 -3.0000169375
3.9414887021 -1.4753855980 -3.0000169531
2.8836234076 -0.2134095328 -3.0000157078
2.9918335933 -0.2021223862 -3.0000156967
3.5673575677 0.3210499590 -3.0000151804
-3.3798420043 3.2130499552 -3.0000123267
-2.9425785759 4.3186677462 -3.0000112357
-2.9023884167 4.3868206203 -3.0000111685
11.0690271821 -0.2486464668 -3.0000157426
11.0638474108 -0.2239642844 -3.0000157182
11.0585946478 -0.1992975326 -3.0000156939
-2.8232224484 4.4876805509 -3.0000110690
11.0604283933 -0.0954401379 -3.0000155914
11.0724883148 0.0637735546 -3.0000154343
3.8490046291 -1.6426704599 -3.0000171181
3.1804240588 0.4278454271 -3.0000150750
-3.4408674182 1.3953851247 -3.0000141203
-3.4970248460 2.1240031640 -3.0000134013
10.9516480353 1.3618747959 -3.0000141534
11.0060686985 1.3575156950 -3.0000141577
10.9960888806 1.3809103521 -3.0000141346
11.0082320709 1.4138588531 -3.0000141021
10.9788566702 1.5404703355 -3.0000139771
3.8414204440 -1.1918396472 -3.0000166733
3.8353693283 -1.1798013577 -3.0000166614
3.8330267814 -1.1250887866 -3.0000166074
3.8316333891 -1.1226991116 -3.0000166050
3.8270996070 -1.0694832862 -3.0000165525
3.8404909739 -1.0037335482 -3.0000164876
3.8254511928 -0.9067438131 -3.0000163919
3.0429501162 -0.0555932487 -3.0000155521
2.3222079879 0.7606251027 -3.0000147467
1.7538549151 0.7321669638 -3.0000147747
2.0431665655 0.8941828114 -3.0000146149
2.0211157914 0.8853758968 -3.0000146236
1.6393656658 0.6941937796 -3.0000148122
-3.4485281622 1.3203645976 -3.0000141943
-3.4663054392 1.3979380361 -3.0000141178
-3.4735533656 1.6616810949 -3.0000138575
-3.4874248769 1.7412635542 -3.0000137790
-3.4688757340 1.8293580680 -3.0000136921
-3.4800662723 1.8598907012 -3.0000136620
-3.5023707400 1.9713864772 -3.0000135519
-3.5229384779 2.0838889340 -3.0000134409
-3.5110016404 2.1538765814 -3.0000133719
10.9517118376 2.3165621680 -3.0000132113
10.9617522532 2.3507555689 -3.0000131776
10.9500454934 2.3742180948 -3.0000131544
11.0384227083 2.3593475559 -3.0000131691
10.9669793238 2.5009570227 -3.0000130294
11.0557218272 2.4867513355 -3.0000130434
11.0406345925 2.5690059886 -3.0000129622
11.0420249568 2.7214889645 -3.0000128118
11.0375635656 2.7804324073 -3.0000127536
3.4264520577 -1.3187169905 -3.0000167985
3.4232996457 -1.3078361340 -3.0000167877
3.4444367705 -1.2942267634 -3.0000167743
3.4423465879 -1.2875340049 -3.0000167677
3.4387312289 -1.2764214731 -3.0000167567
3.4333944522 -1.2609563469 -3.0000167415
3.4639182776 -1.2756379634 -3.0000167559
3.4553496796 -1.2505672726 -3.0000167312
3.4450773742 -1.2235514138 -3.0000167046
3.4414409670 -1.2146292582 -3.0000166957
3.4386445192 -1.2079662202 -3.0000166892
3.4318903391 -1.1925175654 -3.0000166739
3.4579520706 -1.1916775707 -3.0000166731
3.4401542254 -1.1534594228 -3.0000166354
3.4759848928 -1.1726930487 -3.0000166544
3.4572099369 -1.1335924286 -3.0000166158
3.4476996846 -1.1155298633 -3.0000165980
3.4464809255 -1.1132880156 -3.0000165958
3.4364932087 -1.0954850194 -3.0000165782
3.4810529057 -1.0760099265 -3.0000165590
3.4793709466 -0.9824060823 -3.0000164666
3.4719871971 -0.9309970107 -3.0000164159
3.4466645297 -0.8990998757 -3.0000163844
3.8570399046 -1.0823707652 -3.0000165652
3.9119529168 -1.1701989932 -3.0000166519
3.8985406215 -1.1270285668 -3.0000166093
3.8937303659 -1.1127475806 -3.0000165952
3.8568864280 -1.0179651362 -3.0000165017
3.9226927387 -1.1230950073 -3.0000166054
3.8895218382 -1.0330613856 -3.0000165166
3.8759634316 -1.0012842315 -3.0000164852
3.9234291400 -1.0529439218 -3.0000165362
3.9058481422 -1.0094400657 -3.0000164933
3.8964813421 -0.9879290069 -3.0000164721
3.8714072491 -0.9349081908 -3.0000164197
3.9086324943 -0.9563503181 -3.0000164409
3.8708903158 -0.8817479924 -3.0000163673
3.8670556326 -0.8747682657 -3.0000163604
3.8786681074 -0.7533398601 -3.0000162406
3.2206035123 -0.1331991787 -3.0000156286
2.3392203889 0.9309809006 -3.0000145786
2.2688955646 1.0424853545 -3.0000144685
1.9246219790 0.9870934369 -3.0000145232
1.9175867046 1.0102200492 -3.0000145004
2.1404842662 1.0922882053 -3.0000144194
1.6897955517 1.0334997052 -3.0000144774
1.8358941204 1.1366496251 -3.0000143756
-3.3624152419 3.0022483171 -3.0000125347
-3.3683031667 3.0346707479 -3.0000125027
3.4560846524 -1.2520472974 -3.0000164943
3.4540790722 -1.2329809924 -3.0000164754
3.4533353831 -1.2266338386 -3.0000164692
3.4517354156 -1.2139532860 -3.0000164567
3.4508791932 -1.2076203311 -3.0000164504
3.4490544211 -1.1949701723 -3.0000164379
3.4788180023 -1.2367325270 -3.0000164791
3.4670410135 -1.1559349304 -3.0000163994
3.4620143431 -1.1302891211 -3.0000163741
3.4606629556 -1.1238968168 -3.0000163678
3.4578468430 -1.1111367532 -3.0000163552
3.4987699781 -1.2010011275 -3.0000164439
3.4883252042 -1.1384476255 -3.0000163822
3.4814206028 -1.1057876289 -3.0000163499
3.4806770716 -1.1025331773 -3.0000163467
3.4776067734 -1.0895377929 -3.0000163339
3.4656545187 -1.0443590972 -3.0000162893
3.4579879872 -1.0187773397 -3.0000162641
3.4569871664 -1.0155925868 -3.0000162609
3.5133387732 -1.1404942307 -3.0000163842
3.5107153612 -1.1271097204 -3.0000163710
3.5086439704 -1.1170922211 -3.0000163611
3.5042349046 -1.0971143409 -3.0000163414
3.5026865050 -1.0904728263 -3.0000163348
3.4840687854 -1.0213412707 -3.0000162666
3.4830754350 -1.0180793548 -3.0000162634
3.5337142404 -1.1189086527 -3.0000163629
3.5194880560 -1.0578886101 -3.0000163027
3.5111617884 -1.0276842281 -3.0000162729
3.4921124055 -0.9679937688 -3.0000162140
3.4826314119 -0.9418073146 -3.0000161881
3.4725334158 -0.9158525443 -3.0000161625
3.5634045181 -1.1454532821 -3.0000163891
3.5250631583 -0.9903628957 -3.0000162360
3.5014705642 -0.9233482252 -3.0000161699
3.5001872566 -0.9200352604 -3.0000161666
3.4949561924 -0.9068217985 -3.0000161536
3.4739567258 -0.8578458187 -3.0000161053
3.5545191398 -1.0037878256 -3.0000162493
3.5534735550 -1.0003175817 -3.0000162459
3.5173789691 -0.8977910526 -3.0000161447
3.5033436275 -0.8643770071 -3.0000161117
3.5593650888 -0.9406266248 -3.0000161870
3.5398017457 -0.8887603068 -3.0000161358
3.5269659956 -0.8580751011 -3.0000161055
3.5225064335 -0.8479239808 -3.0000160955
3.4955480015 -0.7911793762 -3.0000160395
3.4938737405 -0.7878845098 -3.0000160362
3.4853566389 -0.7714852606 -3.0000160201
3.5204980116 -0.7869929134 -3.0000160354
3.5136913067 -0.7735484389 -3.0000160221
3.4867616302 -0.7238725852 -3.0000159731
3.5763711990 -0.7368707917 -3.0000159859
3.5058094208 -0.5731375650 -3.0000158243
3.6294391200 -0.6325496549 -3.0000158830
3.9032409728 -1.1267088131 -3.0000163706
3.8907108911 -1.0549379972 -3.0000162998
3.9250222978 -1.1094031840 -3.0000163535
3.6066691319 -0.3847487815 -3.0000156384
3.9589620365 -1.1800653999 -3.0000164232
2.6123829956 1.1158635069 -3.0000141577
2.5904418507 1.1178204851 -3.0000141558
2.5318561469 1.1220864052 -3.0000141516
2.6662573117 1.1345564356 -3.0000141393
2.4666751030 1.1493858193 -3.0000141246
2.6690095058 1.1585722785 -3.0000141156
2.6019812938 1.1653509889 -3.0000141089
2.4001470190 1.1749538666 -3.0000140994
2.9251388833 1.1405560083 -3.0000141333
2.3776591896 1.1991980512 -3.0000140755
2.7728021166 1.1934210304 -3.0000140812
2.5096366479 1.2685630961 -3.0000140070
2.9431516862 1.2603213444 -3.0000140152
2.8463328191 1.3038153213 -3.0000139722
2.6326720236 1.3324726323 -3.0000139440
2.2577228640 1.3414268823 -3.0000139351
2.1223092248 1.3318255559 -3.0000139446
2.0799198288 1.3517319837 -3.0000139250
2.6533639880 1.3790438538 -3.0000138980
2.3352163868 1.4889096347 -3.0000137896
2.0035991906 1.6347787908 -3.0000136457
1.5756270058 1.5489209940 -3.0000137304
-0.5919205687 3.8137249263 -3.0000114956
-0.9285714295 3.7495975220 -3.0000115589
-1.0878331478 3.7600063961 -3.0000115486
-1.2659244244 3.6943660480 -3.0000116134
-1.2957373454 3.6727018392 -3.0000116347
-1.4724071144 3.6915633716 -3.0000116161
-1.9236109543 3.7001949314 -3.0000116076
-2.0915645481 3.6822910123 -3.0000116253
3.4494056685 -1.3100328377 -3.0000167899
3.4731598394 -1.3189838204 -3.0000167987
3.4735329800 -1.1860876420 -3.0000166676
3.4968526249 -1.3282179758 -3.0000168078
3.5561945084 -1.0395616634 -3.0000165230
3.5463272024 -0.9816507735 -3.0000164659
3.5183113774 -0.8632619793 -3.0000163490
3.5472223778 -0.8772701578 -3.0000163629
0.2834309092 3.7473902065 -3.0000117995
3.4735269835 -1.3446171185 -3.0000168240
3.4851509438 -1.2715353527 -3.0000167519
3.4566683439 -1.5178591698 -3.0000169950
3.4742158105 -1.4544910394 -3.0000169324
3.4809299948 -1.4271211211 -3.0000169054
3.4871573554 -1.3996363494 -3.0000168783
3.4989707608 -1.3397332997 -3.0000168192
3.5028996473 -1.3165796610 -3.0000167963
3.5115081389 -1.2561327771 -3.0000167367
3.5120739462 -1.2514700168 -3.0000167321
3.5136885743 -1.2374719790 -3.0000167183
3.5221225953 -1.1250844917 -3.0000166074
3.5227516633 -1.1063072727 -3.0000165889
3.5230776330 -1.0922201925 -3.0000165750
3.4728202155 -1.5475808136 -3.0000170243
3.4890664671 -1.4927170081 -3.0000169702
3.5414684584 -1.2021735737 -3.0000166835
3.5442145338 -0.9592274873 -3.0000164437
3.5174188815 -1.4804801435 -3.0000169581
3.5457223171 -1.3529380841 -3.0000168322
3.5570192716 -1.2812287009 -3.0000167615
3.5576591180 -1.2764312007 -3.0000167567
3.5692989648 -1.1511622929 -3.0000166331
3.5699416726 -0.9866735014 -3.0000164708
3.5630993243 -0.8949808833 -3.0000163803
3.5610028309 -0.8757349172 -3.0000163613
3.5468872573 -1.4628668679 -3.0000169407
3.5941693703 -1.1377555572 -3.0000166199
3.5933402354 -0.9708373120 -3.0000164552
3.5734038106 -0.7903002938 -3.0000162770
3.5655763992 -0.7467967515 -3.0000162341
3.5975415130 -1.3369680578 -3.0000168165
3.6113731118 -1.2332602055 -3.0000167141
3.6163765961 -1.1736770721 -3.0000166553
3.6200076017 -1.0740978053 -3.0000165571
3.6423827663 -0.9833111370 -3.0000164675
3.6336173721 -0.8724776712 -3.0000163581
3.6258023937 -0.8123323633 -3.0000162988
3.5993073981 -0.6733495139 -3.0000161616
3.6673592732 -1.0026775065 -3.0000164866
3.6587505963 -0.8799806007 -3.0000163655
3.6414598784 -0.7582034637 -3.0000162454
3.6911280774 -0.9914547943 -3.0000164755
3.6074073550 -0.5221663080 -3.0000160125
3.7090996074 -1.2273276469 -3.0000167083
3.6582699098 -0.5225641572 -3.0000160129
3.7650846442 -1.0642695537 -3.0000165474
3.7795127750 -0.8727013814 -3.0000163584
3.7889193899 -0.7601096236 -3.0000162473
3.7677945941 -0.6510516435 -3.0000161396
3.7665693405 -0.6456333890 -3.0000161343
3.8718357325 -0.6755743032 -3.0000161638
3.3264305506 0.9641249271 -3.0000145459
3.3096853202 1.0046056536 -3.0000145059
1.4295954251 3.7135393767 -3.0000118329
1.2041903470 3.6842513761 -3.0000118618
1.1200587652 3.6705230656 -3.0000118753
1.0222318079 3.6526225496 -3.0000118930
0.8831687083 3.6235453539 -3.0000119217
0.8001651124 3.6041290558 -3.0000119408
1.7545646520 3.7610439605 -3.0000117860
1.4980999253 3.7445740425 -3.0000118022
0.9197091369 3.6563319227 -3.0000118893
0.5807761454 3.5955935766 -3.0000119492
1.3359899499 3.7757755624 -3.0000117714
0.3950488739 3.5629964535 -3.0000119814
1.9257254396 3.8369480458 -3.0000117111
0.3599358164 3.5766901883 -3.0000119679
0.2642147070 3.5430708228 -3.0000120011
1.2289994693 3.8101691688 -3.0000117375
1.7500323889 3.8818240940 -3.0000116668
1.3270713691 3.8477441420 -3.0000117004
0.8119723434 3.8056674666 -3.0000117420
0.7400926775 3.7885165367 -3.0000117589
0.4694682421 3.7136991840 -3.0000118327
1.0306138625 3.9247305419 -3.0000116245
2.8989040401 -0.1827935608 -3.0000156776
3.5402044108 -1.2682371092 -3.0000167486
3.5192321223 -1.4320556761 -3.0000169103
3.5308719087 -1.3954788639 -3.0000168742
3.5720947198 -1.2362765380 -3.0000167171
3.6053057839 -1.0140564897 -3.0000164978
3.6123867543 -0.8387911576 -3.0000163249
3.5351080679 -1.4606855245 -3.0000169385
3.5572092092 -1.3919394288 -3.0000168707
3.6054624764 -1.1922519398 -3.0000166737
3.6155652257 -1.1319898971 -3.0000166142
3.6365821988 -0.8608432399 -3.0000163466
3.4774241729 -1.6664597630 -3.0000171416
3.5052586772 -1.6049491035 -3.0000170809
3.5913002524 -1.3610586173 -3.0000168402
3.6368737194 -1.1522774643 -3.0000166342
3.6477089823 -1.0742598832 -3.0000165572
3.6548699921 -1.0014703344 -3.0000164854
3.6803573552 -0.7187329931 -3.0000162064
3.6781808690 -0.6903261007 -3.0000161784
3.6771926698 -0.6789728795 -3.0000161672
3.6725687322 -0.6336244176 -3.0000161224
3.6705582743 -0.6166488654 -3.0000161057
3.6698546537 -0.6109943953 -3.0000161001
3.6683972472 -0.5996918233 -3.0000160890
3.5519288626 -1.6187946056 -3.0000170946
3.6249941262 -1.4183264141 -3.0000168967
3.7061561478 -0.9592257145 -3.0000164437
3.7036422744 -0.7055553670 -3.0000161934
3.6866649562 -0.5565470346 -3.0000160464
3.4869989908 -1.8066607196 -3.0000172799
3.5009345265 -1.7809946705 -3.0000172546
3.5328191511 -1.7185774541 -3.0000171930
3.5764430735 -1.6229285466 -3.0000170986
3.6657882814 -1.3635760494 -3.0000168427
3.7251860326 -1.0304619156 -3.0000165140
3.7096672228 -0.5471166724 -3.0000160371
3.5138453322 -1.8079848428 -3.0000172812
3.6551185878 -1.4830788153 -3.0000169606
3.7076294924 -1.2952420678 -3.0000167753
3.7151949935 -1.2605829965 -3.0000167411
3.7253869402 -1.2083562852 -3.0000166896
3.7307373172 -0.5258749816 -3.0000160161
3.6799357528 -1.4850346529 -3.0000169626
3.6384378773 -1.6623892536 -3.0000171376
3.7326535988 -1.3940642837 -3.0000168728
3.7404598031 -1.3648100394 -3.0000168439
3.7974072383 -1.0370281156 -3.0000165205
3.8034218955 -0.7527066153 -3.0000162399
3.5804486996 -1.8372975753 -3.0000173102
3.7526808924 -1.4122757297 -3.0000168908
3.8164655694 -1.0879754900 -3.0000165708
3.6191162439 -1.8159341442 -3.0000172891
3.7601392023 -1.4723165299 -3.0000169500
3.8481326051 -1.0105200620 -3.0000164943
3.6463155026 -1.8159072936 -3.0000172891
3.7403474525 -1.6039493106 -3.0000170799
3.6792481414 -1.8042462825 -3.0000172776
3.8795059264 -1.3014763290 -3.0000167814
3.8994352810 -1.1943012137 -3.0000166757
3.7225592597 -1.8257285580 -3.0000172988
3.8907391361 -0.3418309582 -3.0000158345
3.9627139346 -1.0849723650 -3.0000165678
3.9732989489 -0.7641752280 -3.0000162513
3.9734010551 -0.5126529555 -3.0000160031
4.0798338763 -1.1251785183 -3.0000166075
4.0719621394 -0.3774834207 -3.0000158697
3.3913567075 1.0180363506 -3.0000144927
3.2337627368 1.2931309414 -3.0000142212
0.9788384590 3.4703784370 -3.0000120728
1.6496744517 3.5630064882 -3.0000119814
1.6366154968 3.5626645306 -3.0000119817
1.5974455016 3.5614068960 -3.0000119830
1.4018477326 3.5499082286 -3.0000119943
1.2718158269 3.5374264335 -3.0000120066
1.2458569392 3.5344687983 -3.0000120096
1.1939939300 3.5280930475 -3.0000120158
1.0905123766 3.5135028618 -3.0000120302
1.0389083211 3.5052904697 -3.0000120383
1.0260227731 3.5031420080 -3.0000120405
0.9874050511 3.4964680494 -3.0000120471
0.9616934647 3.4918284613 -3.0000120516
0.9360097776 3.4870368361 -3.0000120564
1.7935503031 3.5883901620 -3.0000119564
1.7804156292 3.5884737041 -3.0000119563
1.7410109294 3.5884911987 -3.0000119563
1.6753410654 3.5877432674 -3.0000119570
1.4391836703 3.5770124801 -3.0000119676
1.3214028960 3.5669361932 -3.0000119775
1.0090622862 3.5247814291 -3.0000120191
0.9573304794 3.5156044922 -3.0000120282
1.7277081493 3.6125917633 -3.0000119325
1.1354602904 3.5689766426 -3.0000119755
1.0270873709 3.5768396324 -3.0000119677
1.0139902192 3.5746558891 -3.0000119699
0.9486045090 3.5631565538 -3.0000119813
2.1806367579 3.6412809150 -3.0000119042
2.0742005350 3.6500062331 -3.0000118956
1.6606322064 3.6599790717 -3.0000118857
1.4339645232 3.6493435111 -3.0000118962
1.9418896439 3.6815205079 -3.0000118645
1.5662098886 3.6811316337 -3.0000118648
0.9530826650 3.6131114368 -3.0000119320
0.9266815779 3.6082667445 -3.0000119367
0.9134918984 3.6057858452 -3.0000119392
2.3326721302 3.6731381606 -3.0000118727
2.2790922370 3.6796124044 -3.0000118663
1.7944978077 3.7092515879 -3.0000118371
1.0419033330 3.6527086874 -3.0000118929
2.3387556298 3.7210999388 -3.0000118254
2.2303863520 3.7335445164 -3.0000118131
2.6846506954 3.7131263037 -3.0000118333
1.1084614828 3.7604669099 -3.0000117866
2.1550715307 3.8134519105 -3.0000117343
1.9892528421 3.8245789392 -3.0000117233
2.6942613295 3.7605074902 -3.0000117865
2.5848599933 3.7813534614 -3.0000117659
2.2264295261 3.8311331173 -3.0000117168
2.1293678536 3.8398130297 -3.0000117083
1.0053631958 3.7937360767 -3.0000117537
2.9985661783 3.7132309089 -3.0000118332
2.9309138097 3.7310690614 -3.0000118156
2.8493937820 3.7511511427 -3.0000117957
1.8378001446 3.8779422332 -3.0000116706
1.1815725831 3.8432589715 -3.0000117049
2.9505246438 3.7509827808 -3.0000117959
1.6272563372 3.9009574827 -3.0000116479
1.0989796854 3.9299935117 -3.0000116193
3.6184084996 -1.1653586408 -3.0000166471
3.7409610759 -0.7026324517 -3.0000161905
3.7430509987 -0.6023412174 -3.0000160916
3.7412532520 -0.5208541416 -3.0000160112
3.7762133443 -0.8645440012 -3.0000163503
3.8278537476 -0.8376788284 -3.0000163238
3.6770602838 -1.5041102668 -3.0000169814
3.8745778360 -0.3612525098 -3.0000158537
3.4881267759 1.1024048814 -3.0000144094
1.7204788766 3.4681143792 -3.0000120750
1.6601759354 3.4691033303 -3.0000120741
1.8180607539 3.4888230953 -3.0000120546
1.7938171579 3.4899026724 -3.0000120535
1.6725267142 3.4931481958 -3.0000120503
2.0018287846 3.5002295397 -3.0000120433
1.9896732386 3.5013308267 -3.0000120423
1.9775144880 3.5023961506 -3.0000120412
1.9531877985 3.5044188720 -3.0000120392
1.9288495677 3.5062976331 -3.0000120374
1.8923224452 3.5088457069 -3.0000120348
1.8801418902 3.5096230166 -3.0000120341
1.8070151233 3.5135299097 -3.0000120302
1.7338305345 3.5161383204 -3.0000120276
1.6606111785 3.5174474270 -3.0000120264
2.0040455226 3.5243007124 -3.0000120196
1.8816456923 3.5337492236 -3.0000120103
1.7721506500 3.5633118640 -3.0000119811
1.6739723438 3.6140046900 -3.0000119311
2.3614553288 3.5738664462 -3.0000119707
1.9395845838 3.6509379788 -3.0000118946
1.7882204030 3.6594739215 -3.0000118862
2.6062918800 3.5728684219 -3.0000119717
2.4821920470 3.6001086484 -3.0000119448
1.8145427065 3.6825735854 -3.0000118634
2.8229333412 3.5914160517 -3.0000119534
2.5472666084 3.6605316255 -3.0000118852
2.8613112552 3.6306539819 -3.0000119146
1.9259053367 3.8215519083 -3.0000117263
2.2688855427 3.8091362658 -3.0000117385
1.7032735303 3.8553236356 -3.0000116930
3.1342018553 3.6183324913 -3.0000119268
1.6904294858 3.8797105263 -3.0000116689
3.2424681275 3.6039638127 -3.0000119410
3.1251714670 3.6728173883 -3.0000118730
2.7980055365 3.7989051516 -3.0000117486
3.7598494930 -0.7676722646 -3.0000162547
3.7703067971 -0.7082950838 -3.0000161961
3.7878637778 -0.5754861307 -3.0000160651
3.7608792341 -0.8780934246 -3.0000163637
3.7676984161 -1.0360151304 -3.0000165195
3.7757158660 -1.0095480830 -3.0000164934
3.8297959147 -0.7879905322 -3.0000162748
3.8592938865 -0.5897365161 -3.0000160791
3.7253142803 -1.2274014856 -3.0000167084
3.7330568524 -1.2079286640 -3.0000166891
3.7866227220 -1.0564939285 -3.0000165397
3.6850937159 -1.3784511886 -3.0000168574
3.7370369009 -1.2625524961 -3.0000167430
3.7657157856 -1.1904241656 -3.0000166719
3.8772664701 -0.7971495442 -3.0000162838
3.9209580763 -0.6822163142 -3.0000161704
3.6763367484 -1.5020018669 -3.0000169793
3.8968101069 -0.9328436941 -3.0000164177
3.9428376149 -0.6998488707 -3.0000161878
3.7728808988 0.6115093429 -3.0000148938
3.9074686555 -0.9879422792 -3.0000164721
3.7835167549 0.6476870341 -3.0000148581
3.8291076282 -1.2929525239 -3.0000167730
3.8811320506 -1.1556437725 -3.0000166375
4.0161917001 -0.4144653633 -3.0000159062
3.7749531941 0.8831898491 -3.0000146257
4.1004845242 -0.6074381509 -3.0000160966
3.9408160538 -1.3391002183 -3.0000168186
3.8239559170 -1.6347436248 -3.0000171103
3.9179247870 -1.5077402221 -3.0000169850
3.7732982880 1.1642486414 -3.0000143484
4.0482783965 -1.5713327268 -3.0000170477
3.8749302869 -3.2617452754 -3.0000187157
3.9486199119 -3.2640750770 -3.0000187180
3.9744280262 -3.2425403418 -3.0000186968
4.0157767730 -3.2391299593 -3.0000186934
2.3271519710 3.4573590012 -3.0000120856
2.3998654205 3.4662739734 -3.0000120768
2.3773001778 3.4713242816 -3.0000120719
2.3547054506 3.4762409978 -3.0000120670
2.5182659656 3.4624300931 -3.0000120806
2.4844364452 3.4710063590 -3.0000120722
2.4731431895 3.4737983568 -3.0000120694
2.4618417239 3.4765569349 -3.0000120667
2.4392145591 3.4819737357 -3.0000120614
2.5808648090 3.4707834930 -3.0000120724
2.5582697186 3.4769045754 -3.0000120664
2.5469586918 3.4799149595 -3.0000120634
2.5356388093 3.4828918705 -3.0000120605
2.5243101701 3.4858352821 -3.0000120575
2.5129728732 3.4887451688 -3.0000120547
2.4902727038 3.4944642653 -3.0000120490
2.3419421480 3.5283538475 -3.0000120156
2.6552297401 3.4748158430 -3.0000120684
2.5986073268 3.4909670772 -3.0000120525
2.7413679385 3.4738512953 -3.0000120694
2.7187518889 3.4809219145 -3.0000120624
2.7713593193 3.4896538448 -3.0000120538
2.7600096455 3.4932945308 -3.0000120502
2.7486492516 3.4969016264 -3.0000120466
2.7372782369 3.5004751002 -3.0000120431
2.6344776205 3.5311183170 -3.0000120129
2.8662832297 3.5089278871 -3.0000120348
2.9769087580 3.4947518825 -3.0000120487
2.5488225208 3.6292829677 -3.0000119160
3.0310091567 3.4999493642 -3.0000120436
3.1081817577 3.4951606128 -3.0000120483
3.0968143202 3.4997976564 -3.0000120438
2.6082831138 3.6637096030 -3.0000118820
2.6327790149 3.7071810714 -3.0000118391
3.3506224649 3.5206232264 -3.0000120232
3.4977268415 3.4752503242 -3.0000120680
2.7070375298 3.7869300226 -3.0000117604
3.4860081987 3.5083622576 -3.0000120353
3.0533887960 3.6984230922 -3.0000118478
2.9331233292 3.7415650602 -3.0000118052
2.9120431860 3.7996921932 -3.0000117478
3.3003604331 3.7552695798 -3.0000117917
3.8750729573 0.5498448078 -3.0000149546
3.9273889168 0.6330957586 -3.0000148725
3.8865169043 0.7614748463 -3.0000147458
3.7785143381 -1.2714363073 -3.0000167518
3.9920304470 0.5803296837 -3.0000149246
3.8005714520 1.3828451016 -3.0000141327
4.0116627307 1.0371724708 -3.0000144738
3.7559291350 1.8508615016 -3.0000136709
3.2225354946 -3.3871085791 -3.0000188395
3.2435618483 -3.4033987245 -3.0000188555
3.3140461628 -3.3930749750 -3.0000188453
2.9775328277 3.4158532826 -3.0000121266
3.0387099405 3.4156734996 -3.0000121268
3.0180598170 3.4247365648 -3.0000121178
3.0077147380 3.4292222427 -3.0000121134
3.3868197104 -3.4078978484 -3.0000188600
3.1002035916 3.4144418321 -3.0000121280
3.0898886068 3.4191705512 -3.0000121233
3.0795596788 3.4238687360 -3.0000121187
3.4678711085 -3.3888251310 -3.0000188411
3.1310271991 3.4267918859 -3.0000121158
3.2451679273 3.4252787403 -3.0000121173
3.2140793537 3.4406593040 -3.0000121021
3.6465482670 -3.3917509540 -3.0000188440
3.3706879192 3.4146076520 -3.0000121278
3.3396891027 3.4311025554 -3.0000121116
3.3189424281 3.4419460444 -3.0000121009
3.4558921143 3.4229613700 -3.0000121196
3.4781049280 3.4381976278 -3.0000121046
3.5956845662 3.4256512166 -3.0000121169
3.6907494010 3.3954229039 -3.0000121468
4.8693605055 2.7803733109 -3.0000127537
2.9622573602 -0.3726197933 -3.0000158649
3.0857770303 -0.1306037488 -3.0000156261
3.0974921793 -0.0697345283 -3.0000155660
2.9723294290 -0.5274539160 -3.0000160177
3.8166522542 0.7051021653 -3.0000148014
3.8136497092 0.7187461373 -3.0000147880
3.7956966998 0.7934534092 -3.0000147143
3.8697797087 0.6874532353 -3.0000148189
3.8345592168 0.9223761020 -3.0000145871
3.9200174305 0.6828884430 -3.0000148234
3.8489126965 0.9572462095 -3.0000145526
3.9819371792 0.4187484290 -3.0000150840
3.9832048626 0.6047405920 -3.0000149005
3.9266374657 0.8654626032 -3.0000146432
3.8453718393 1.1117874416 -3.0000144001
4.0159321524 0.5493762929 -3.0000149551
4.0447533624 0.5152009253 -3.0000149888
3.9339187984 1.0084114700 -3.0000145022
3.9862569231 0.9213067146 -3.0000145881
3.9731434352 0.9651602644 -3.0000145448
3.9662953279 0.9869980319 -3.0000145233
4.0735563845 0.6505601622 -3.0000148553
4.0478880529 0.7789102049 -3.0000147286
4.0094772116 0.9280263490 -3.0000145815
3.9298874454 1.1611315937 -3.0000143515
4.0377638942 1.0015272015 -3.0000145089
3.8212720767 1.5505975816 -3.0000139672
4.0393207764 1.2130428266 -3.0000143002
3.7819318592 -1.3401994965 -3.0000168197
3.6244783662 -1.7691553563 -3.0000172429
3.5739724695 3.3217145273 -3.0000122195
3.7162922356 3.3120052874 -3.0000122291
2.6622119627 -3.4540014003 -3.0000189055
2.7454585262 -3.4522386307 -3.0000189037
2.7749493288 -3.4677125906 -3.0000189190
2.7858066453 -3.4639516719 -3.0000189153
2.8074876645 -3.4563335633 -3.0000189078
2.8183111774 -3.4524764401 -3.0000189040
2.8590624729 -3.4633983234 -3.0000189147
2.8699066590 -3.4593886017 -3.0000189108
2.8892228825 -3.4779821435 -3.0000189291
2.9109851007 -3.4697519442 -3.0000189210
2.9218478548 -3.4655885981 -3.0000189169
2.9326982454 -3.4613931363 -3.0000189128
2.9435361776 -3.4571655954 -3.0000189086
2.9741250979 -3.4710692300 -3.0000189223
2.9849914725 -3.4667190986 -3.0000189180
3.0066853786 -3.4579224973 -3.0000189093
2.9940086690 -3.4891473275 -3.0000189401
3.0267285997 -3.4758234274 -3.0000189270
3.0484756397 -3.4667797359 -3.0000189181
3.0593289999 -3.4622096809 -3.0000189136
3.0796484516 -3.4798442519 -3.0000189310
3.0905403226 -3.4751819250 -3.0000189264
3.1122824504 -3.4657607131 -3.0000189171
2.8334823141 -3.6009301401 -3.0000190504
2.8640537836 -3.6158099032 -3.0000190651
3.2190783760 -3.4706275951 -3.0000189219
3.0076676312 -3.5877931230 -3.0000190375
3.3269910858 -3.4724710587 -3.0000189237
3.3486379741 -3.4887143606 -3.0000189397
3.3595549075 -3.4832562752 -3.0000189343
3.0798832318 -3.6369183977 -3.0000190860
3.4471603407 -3.4926507297 -3.0000189436
3.6535271352 -3.4050405227 -3.0000188571
3.2222360556 -3.6550576798 -3.0000191039
3.2450400839 -3.6448541636 -3.0000190938
3.5684707872 -3.4819524087 -3.0000189330
3.4348612605 -3.6618126071 -3.0000191105
3.4788154844 -3.7209146097 -3.0000191688
2.9037139628 -0.4724427529 -3.0000159634
3.8610223174 0.4468034848 -3.0000150563
2.0808606488 -3.4696337154 -3.0000189209
2.1543682627 -3.4839047802 -3.0000189350
2.1778020753 -3.4803925469 -3.0000189315
2.2012146981 -3.4767417327 -3.0000189279
2.2246053118 -3.4729524655 -3.0000189242
2.0752112070 -3.5190886441 -3.0000189697
2.2285415049 -3.4968028673 -3.0000189477
2.2872687039 -3.4866640228 -3.0000189377
2.3107165151 -3.4823654576 -3.0000189334
2.3269302506 -3.5039147518 -3.0000189547
2.3387081924 -3.5016654084 -3.0000189525
