10.8034621461 0.5173239300 -3.0000147483
10.2475412533 0.5268787399 -3.0000147389
10.1685738416 0.5883631793 -3.0000146782
4.0606443685 1.3456398558 -3.0000139310
18.4615743596 1.3386116862 -3.0000139379
18.4516506579 1.3618747959 -3.0000139150
18.4788592928 1.5404703355 -3.0000137387
18.4912634893 1.6874298400 -3.0000135937
18.4803077905 1.7107792493 -3.0000135707
18.4896375526 1.8589027144 -3.0000134245
11.3353745736 -1.1798013577 -3.0000164230
11.3330320266 -1.1250887866 -3.0000163690
11.3316386343 -1.1226991116 -3.0000163666
10.5077017468 0.3312122056 -3.0000149320
10.4450451974 0.3296454422 -3.0000149335
10.4037152445 0.3517139033 -3.0000149117
10.4547241104 0.3783977920 -3.0000148854
10.6311824637 0.4009565299 -3.0000148631
10.6503947625 0.4240575307 -3.0000148404
10.5906232166 0.4268973286 -3.0000148375
10.3276460366 0.4183749821 -3.0000148460
10.7062423749 0.4440687123 -3.0000148206
10.5005912595 0.4520109160 -3.0000148128
10.3132432810 0.4412189240 -3.0000148234
10.3107484271 0.4652628626 -3.0000147997
10.7043592150 0.4927650309 -3.0000147726
10.3082535733 0.4893068013 -3.0000147760
10.6063152757 0.5230909278 -3.0000147426
10.2497128979 0.5067801047 -3.0000147587
10.2310722829 0.5042586013 -3.0000147612
10.1691120450 0.4946607840 -3.0000147707
10.7653009459 0.5352778496 -3.0000147306
10.7836139617 0.5818231864 -3.0000146847
10.7642863572 0.5840368004 -3.0000146825
10.5702235225 0.5967123885 -3.0000146700
10.8254891261 0.6008309391 -3.0000146659
10.5838361570 0.6205679903 -3.0000146464
10.4453253181 0.6441349401 -3.0000146232
10.3196692077 0.6361504881 -3.0000146311
10.2669320676 0.6306783623 -3.0000146365
10.2077766834 0.6230325617 -3.0000146440
10.1052283335 0.6305544210 -3.0000146366
10.7613978556 0.6815900875 -3.0000145862
10.3219920993 0.6849031231 -3.0000145830
10.8453973440 0.6956881272 -3.0000145723
10.7843063643 0.7034183352 -3.0000145647
10.7230312524 0.7095195300 -3.0000145587
10.1569370859 0.6886590861 -3.0000145793
10.0782209134 0.6992194183 -3.0000145688
9.9170396001 0.8616139704 -3.0000144086
9.7800006265 0.8236091526 -3.0000144461
9.7443110385 0.8123329045 -3.0000144572
9.8096406935 0.8828934535 -3.0000143876
9.4592318641 0.7536487767 -3.0000145151
9.8192789152 1.0861381311 -3.0000141870
8.9074617102 0.8910781764 -3.0000143795
7.4911520709 0.5498404886 -3.0000147162
15.0180226286 2.0626190135 -3.0000132235
15.0071832967 2.0758956095 -3.0000132104
4.0361139354 1.6808893007 -3.0000136002
4.0188474348 1.9597956662 -3.0000133250
3.9981410641 2.0720479333 -3.0000132142
3.9890036048 2.1538765814 -3.0000131334
18.4517170828 2.3165621680 -3.0000129729
18.4733948005 2.3272585150 -3.0000129624
18.4617574984 2.3507555689 -3.0000129392
18.4500507386 2.3742180948 -3.0000129160
18.5601056712 2.3700439029 -3.0000129201
18.5365069590 2.4175157446 -3.0000128733
18.5246023835 2.4411991008 -3.0000128499
18.5420302020 2.7214889645 -3.0000125734
18.5633146413 2.7329479317 -3.0000125620
18.5245906576 2.8041173167 -3.0000124918
10.9484414064 -1.3076666088 -3.0000165491
10.9444396315 -1.2942267634 -3.0000165359
10.9437495045 -1.2919937861 -3.0000165337
10.9333973132 -1.2609563469 -3.0000165030
10.9511890070 -1.2392664637 -3.0000164816
10.9450802352 -1.2235514138 -3.0000164661
10.9367502786 -1.2035380955 -3.0000164464
10.9498189561 -1.1735811794 -3.0000164168
10.9440263998 -1.1088151851 -3.0000163529
10.9453716508 -1.0631165266 -3.0000163078
10.9426174521 -1.0586511540 -3.0000163034
10.9398368830 -1.0542021543 -3.0000162990
10.9729373704 -1.0620277241 -3.0000163068
10.9673877897 -1.0527872576 -3.0000162976
10.9530389232 -1.0299790140 -3.0000162751
11.3675461420 -1.1906865987 -3.0000164337
11.3823566099 -1.1557262405 -3.0000163992
11.4065536214 -1.1521536368 -3.0000163957
11.3937332269 -1.1127475806 -3.0000163568
11.4102270611 -1.0867891194 -3.0000163312
11.3850992936 -1.0224290312 -3.0000162677
11.3759662926 -1.0012842315 -3.0000162468
11.3696697522 -0.9872791919 -3.0000162330
11.3664594484 -0.9803048565 -3.0000162261
11.4234320010 -1.0529439218 -3.0000162978
11.3800292549 -0.9524575242 -3.0000161986
11.4086353553 -0.9563503181 -3.0000162025
11.3858169737 -0.9098900952 -3.0000161566
11.3721776181 -0.8348802993 -3.0000160826
11.3966311441 -0.7817019670 -3.0000160301
11.3899747848 -0.7710164450 -3.0000160196
11.3854846427 -0.7639257631 -3.0000160126
10.5228566536 0.2970185356 -3.0000149657
10.4669307827 0.3308142542 -3.0000149324
10.5149401228 0.3475393291 -3.0000149159
10.4871881487 0.3521514613 -3.0000149113
10.6804705826 0.3361156971 -3.0000149271
10.6307152489 0.3485322398 -3.0000149149
10.5750661005 0.3607694459 -3.0000149028
10.5415114345 0.3673197619 -3.0000148963
10.6698793634 0.3638292279 -3.0000148998
10.5516028961 0.3900215957 -3.0000148739
10.4833591937 0.4016745059 -3.0000148624
10.4376521876 0.4080942474 -3.0000148561
10.7322247973 0.3720274488 -3.0000148917
10.4407309077 0.4320704181 -3.0000148324
10.6473358753 0.4191209947 -3.0000148452
10.5256702730 0.4438071643 -3.0000148209
10.4964932868 0.4485674694 -3.0000148162
10.4528225944 0.4792518342 -3.0000147859
10.4739734888 0.5007718418 -3.0000147647
10.8174652630 0.4472742725 -3.0000148174
10.4834019965 0.5238487155 -3.0000147419
10.9136541224 0.5169252538 -3.0000147487
10.5983218625 0.6025904019 -3.0000146642
10.7473196281 0.6683873801 -3.0000145993
10.1905057824 0.9557838142 -3.0000143157
9.8974710342 0.9385755303 -3.0000143326
9.8358144996 0.9549123799 -3.0000143165
9.5636675882 0.9754497895 -3.0000142963
9.7537073693 1.0399534649 -3.0000142326
9.4993024406 1.0086094266 -3.0000142635
9.9790424245 1.1166495340 -3.0000141569
7.6700037237 2.0415189801 -3.0000132443
4.1447055919 2.7239431555 -3.0000125709
4.1365971126 2.8375795583 -3.0000124588
10.9577555777 -1.2711463138 -3.0000165131
10.9560887055 -1.2520474166 -3.0000164943
10.9521535257 -1.2171217546 -3.0000164598
10.9769452364 -1.2205069805 -3.0000164631
10.9729630295 -1.1913775884 -3.0000164344
10.9724727257 -1.1881477934 -3.0000164312
10.9682067944 -1.1623645279 -3.0000164058
10.9646075974 -1.1430972749 -3.0000163867
10.9613474299 -1.1270920887 -3.0000163710
10.9609379153 -1.0283492862 -3.0000162735
11.0279427446 -1.2417076894 -3.0000164841
11.0265159139 -1.2281433405 -3.0000164707
11.0253405167 -1.2179816777 -3.0000164606
10.9986478907 -1.0739102538 -3.0000163185
10.9769171516 -0.9985709844 -3.0000162441
11.0293375172 -1.0984856540 -3.0000163427
11.0186067175 -1.0545218769 -3.0000162993
11.0168060744 -1.0477961032 -3.0000162927
11.0030919854 -1.0010304082 -3.0000162466
10.9783342020 -0.8675658161 -3.0000161149
11.0625173953 -1.0316581425 -3.0000162768
11.0401329359 -0.9589258713 -3.0000162050
11.0253276431 -0.9180337310 -3.0000161647
10.9905000678 -0.7813098265 -3.0000160298
11.0491444758 -0.8484507689 -3.0000160960
11.0205020647 -0.7869930326 -3.0000160354
10.9886293343 -0.7271468120 -3.0000159763
10.5362049130 0.3267065246 -3.0000149364
10.6799113966 0.3438902570 -3.0000149195
10.4947499506 0.4191922927 -3.0000148452
10.8378348558 0.4267405024 -3.0000148377
6.9080834844 3.8137248071 -3.0000114956
10.9426756959 -1.3942048097 -3.0000166345
10.9470227927 -1.3483464117 -3.0000165893
10.9675496887 -1.3891387253 -3.0000166295
10.9724797897 -1.3306954949 -3.0000165719
10.9744448259 -1.2877281828 -3.0000165295
10.9748126005 -1.2720911002 -3.0000165140
10.9945922772 -1.3599923877 -3.0000166008
10.9960896943 -1.3401395469 -3.0000165812
10.9978563917 -1.1889179730 -3.0000164320
10.9887893671 -1.0818188336 -3.0000163263
11.0071522956 -1.0386791384 -3.0000162837
10.9988408935 -0.9907563960 -3.0000162364
11.0450842313 -1.1661696441 -3.0000164095
11.0420303803 -1.1250353585 -3.0000163689
11.0346178739 -1.0594607503 -3.0000163042
11.0159832666 -0.9538715271 -3.0000162000
11.0160008575 -0.8551919140 -3.0000161027
11.0933709338 -1.3339207822 -3.0000165750
11.0753847696 -1.0064948648 -3.0000162520
11.0449942291 -0.8690288002 -3.0000161163
11.0280759919 -0.8117276311 -3.0000160598
11.1197455273 -1.2789820816 -3.0000165208
11.1332476328 -1.0682010716 -3.0000163128
11.1104873889 -0.9334182781 -3.0000161798
11.1281914321 -0.9020707701 -3.0000161489
11.0713489841 -0.6500439877 -3.0000159002
11.0553951483 -0.5040270226 -3.0000157561
10.6330294353 0.2674398045 -3.0000149949
10.6777530157 0.2668515828 -3.0000149955
7.4862491463 3.6787239371 -3.0000116288
7.6238700564 3.7630653217 -3.0000115456
7.3541241603 3.6985656729 -3.0000116092
6.9881300046 3.5943542738 -3.0000117120
6.4806376013 3.6569863259 -3.0000116502
10.9632353352 -1.4953117162 -3.0000167343
10.9742147376 -1.4544910394 -3.0000166940
11.0013681191 -1.3258480697 -3.0000165671
11.0078227971 -1.2840723343 -3.0000165259
11.0471112484 -1.0259184272 -3.0000162711
11.0600754300 -1.2572229018 -3.0000164994
11.0653983889 -0.9190710145 -3.0000161657
11.0757541560 -0.8048458797 -3.0000160530
11.0654256459 -1.4880105018 -3.0000167271
11.0863993353 -0.7275364279 -3.0000159767
11.1041800304 -0.5122846078 -3.0000157643
8.8167185264 3.7002290186 -3.0000116076
8.3001640395 3.6041290558 -3.0000117024
8.2667208930 3.6207835668 -3.0000116860
9.2966852022 3.7866234459 -3.0000115223
8.8532059746 3.7535298399 -3.0000115550
8.0670014190 3.5915654732 -3.0000117148
9.5123023189 3.8121809923 -3.0000114971
9.1038705783 3.8741731690 -3.0000114359
8.3210106087 3.8325397566 -3.0000114770
11.0490529178 -1.3322420202 -3.0000165734
11.0754339146 -1.2201689046 -3.0000164628
11.1502079443 -1.0518931659 -3.0000162968
11.1636216741 -0.5658386099 -3.0000158171
11.2280468994 -0.9955329535 -3.0000162411
11.1994475441 -1.3297614060 -3.0000165709
11.4982846563 -0.9156260261 -3.0000161623
11.0659922179 0.9539717601 -3.0000143175
8.5813283143 3.4876232685 -3.0000118174
8.5300311210 3.4793040476 -3.0000118256
8.9278927316 3.5519426997 -3.0000117539
8.8497886131 3.5453771525 -3.0000117604
8.4745433233 3.4941672703 -3.0000118109
8.4616909613 3.4918284613 -3.0000118132
9.2016051226 3.5881589979 -3.0000117182
9.1753385620 3.5877432674 -3.0000117186
8.8737140925 3.5718016626 -3.0000117343
8.4831803058 3.5202694770 -3.0000117852
8.4444122742 3.5132146633 -3.0000117921
8.5440581695 3.5551233497 -3.0000117508
9.4797292376 3.6314292390 -3.0000116755
9.6540450230 3.6436983520 -3.0000116634
9.4942516636 3.6548959820 -3.0000116523
9.7096110064 3.6627595730 -3.0000116445
8.8746519548 3.7174497067 -3.0000115906
8.7127321175 3.7009396158 -3.0000116069
9.4856799258 3.7521478016 -3.0000115563
10.1125773094 3.7025624618 -3.0000116053
10.1034854049 3.7288404892 -3.0000115793
10.0848574900 3.7813534614 -3.0000115275
9.7818034661 3.8252713959 -3.0000114842
10.3901958476 3.7412909668 -3.0000115671
11.1241432060 -1.2313069195 -3.0000164738
11.1859221971 -0.9785726202 -3.0000162244
9.1601786772 3.4691034495 -3.0000118356
9.3180634957 3.4888232145 -3.0000118162
9.5139837614 3.4990924184 -3.0000118060
9.4653553810 3.5034256212 -3.0000118018
9.4410228144 3.5053763710 -3.0000117998
9.4288523096 3.5062977524 -3.0000117989
9.3557768902 3.5110696418 -3.0000117942
9.3192102974 3.5129690242 -3.0000117924
9.6139264306 3.5127050608 -3.0000117926
9.7058571571 3.5495449109 -3.0000117563
9.5084817404 3.5724431770 -3.0000117337
9.3846560384 3.5820017567 -3.0000117242
9.9848345475 3.5502089150 -3.0000117556
9.8985437419 3.5671526400 -3.0000117389
9.1998192611 3.6619704328 -3.0000116453
10.1310148514 3.5669806387 -3.0000117391
10.1862967206 3.5781963975 -3.0000117280
9.3048630958 3.7555766838 -3.0000115530
9.7523938239 3.7870970124 -3.0000115219
9.5985727095 3.8306846714 -3.0000114788
10.7941954434 0.0602075725 -3.0000151994
10.8236328061 0.0392231640 -3.0000152201
11.2734370047 -0.6884434205 -3.0000159381
11.2878599631 -0.5754861307 -3.0000158267
11.2950471194 -0.4886990122 -3.0000157410
11.2962947619 -0.6987979600 -3.0000159483
11.3455332352 -0.4507702038 -3.0000157036
11.3365476815 -0.1159156626 -3.0000153732
11.2645961891 -1.1227811029 -3.0000163667
11.2736405111 -1.0963446433 -3.0000163406
11.3962675131 -0.3552204912 -3.0000156093
11.3663590707 -1.0439320831 -3.0000162889
11.2905476407 0.6909259627 -3.0000145770
11.1845994491 0.9435426439 -3.0000143277
11.1691996688 0.9688878897 -3.0000143027
11.5635027978 -0.4457398432 -3.0000156986
11.3819907681 0.8882224807 -3.0000143823
9.8383934202 3.4549989437 -3.0000118496
9.8271481563 3.4573590012 -3.0000118472
9.9223965744 3.4610902501 -3.0000118435
9.8547016359 3.4762409978 -3.0000118286
9.9957175776 3.4681809659 -3.0000118365
9.9844326305 3.4710063590 -3.0000118338
9.8825060916 3.4949292389 -3.0000118102
10.0469548772 3.4799149595 -3.0000118250
10.0356349946 3.4828918705 -3.0000118220
10.1212810950 3.4846070978 -3.0000118203
10.2713555046 3.4896538448 -3.0000118154
10.3470475894 3.4899777139 -3.0000118150
10.3393435679 3.6200471987 -3.0000116867
10.1872446489 3.7171631938 -3.0000115909
10.1752223294 3.7205540692 -3.0000115875
10.9067684871 3.5206258018 -3.0000117848
10.6786852735 3.7013607488 -3.0000116065
10.3874925504 3.8077668816 -3.0000115015
13.4729665099 0.9867975166 -3.0000142851
11.3268835057 -0.4512830368 -3.0000157041
11.3768551836 -0.4450107338 -3.0000156979
11.3775312894 0.3004498198 -3.0000149623
11.4038002267 -0.5669847493 -3.0000158183
11.4383634439 -0.3516749299 -3.0000156058
11.3577259676 0.6129432559 -3.0000146540
11.3452309002 0.6547426527 -3.0000146127
11.3549638028 0.7038511050 -3.0000145643
11.4732982516 -0.5889727731 -3.0000158400
11.3360269114 0.8944215917 -3.0000143762
11.2880027277 -1.1995757887 -3.0000164425
11.4994288974 0.4417483085 -3.0000148229
11.2890852349 -1.2511376210 -3.0000164934
11.3423955685 -1.1413465073 -3.0000163850
11.3750420417 -1.2954184508 -3.0000165370
11.5286572654 0.7941721881 -3.0000144751
11.7350355493 -0.5014222939 -3.0000157536
10.6930308870 -3.4022952960 -3.0000186160
10.7127154558 -3.3921998890 -3.0000186061
10.7730737814 -3.3877634877 -3.0000186017
10.8238678699 -3.3876838628 -3.0000186016
10.4775325892 3.4158533049 -3.0000118882
10.8650874365 -3.3924058219 -3.0000186063
10.8749071793 -3.3868637450 -3.0000186008
10.5490145658 3.4110962139 -3.0000118929
10.5387097021 3.4156735219 -3.0000118884
10.5077144996 3.4292222650 -3.0000118750
10.5898883684 3.4191705735 -3.0000118849
10.5692166595 3.4285363677 -3.0000118757
10.6103094414 3.4364009588 -3.0000118679
10.7034562326 3.4189455140 -3.0000118851
10.7555000633 3.4200906725 -3.0000118840
10.8078084618 3.4204897067 -3.0000118836
10.8500380531 3.4256348514 -3.0000118785
11.2517700133 -3.3798971087 -3.0000185939
11.0194780265 3.4145050955 -3.0000118895
11.0419755499 3.4293751573 -3.0000118748
10.7956014478 -0.0551575660 -3.0000153132
10.7978347694 -0.0392924175 -3.0000152976
10.8179352396 -0.0693402931 -3.0000153272
10.8187371804 -0.0639879907 -3.0000153219
10.8210479561 -0.0479171778 -3.0000153061
10.8356996685 -0.1108480632 -3.0000153682
10.8449899382 -0.0512513609 -3.0000153094
10.8498903735 -0.0131812472 -3.0000152718
10.8566132480 -0.1313690118 -3.0000153884
10.8796006286 0.0392359790 -3.0000152201
10.9061847309 -0.1287957441 -3.0000153859
10.9126776666 -0.0894419177 -3.0000153470
10.9523376158 0.0386045843 -3.0000152207
10.9577804102 0.1249700030 -3.0000151355
10.9218058983 -0.2855808766 -3.0000155406
10.9910104192 -0.0536775516 -3.0000153118
11.1285969173 0.2121047034 -3.0000150495
11.1420922143 -0.0094095041 -3.0000152681
11.1769563982 0.2058666583 -3.0000150557
11.2726132329 0.2729123685 -3.0000149895
11.3217642366 0.1717529320 -3.0000150893
11.3064419656 0.4722074593 -3.0000147928
11.3396645895 0.3786602428 -3.0000148851
11.3288109872 0.4887356869 -3.0000147765
11.3233996468 0.5298630076 -3.0000147359
11.3560392694 0.4639233885 -3.0000148010
11.3944056145 0.2271809209 -3.0000150346
11.3759292046 0.5016199029 -3.0000147638
11.3293020311 0.7583897423 -3.0000145104
11.3119020520 0.8267756673 -3.0000144430
11.4141377937 0.0564270987 -3.0000152031
11.3176784528 0.8947845267 -3.0000143759
11.4411222742 0.1124682002 -3.0000151478
11.3066900181 -0.6688087298 -3.0000159187
11.3476810410 -0.5522054820 -3.0000158037
11.3971940886 -0.3773399536 -3.0000156311
11.4612346298 0.3731654444 -3.0000148906
11.4537011165 0.4600901919 -3.0000148048
11.2406404688 1.2348160911 -3.0000140403
11.3077696149 -0.7320546756 -3.0000159811
11.3105298416 -0.7252504549 -3.0000159744
11.4907854820 0.2501292737 -3.0000150120
11.4332009261 0.7379028595 -3.0000145307
11.2765394451 -0.8633705211 -3.0000161107
11.5025452109 0.4577435514 -3.0000148071
11.4881908533 0.7116810142 -3.0000145565
11.5366885773 0.5751176826 -3.0000146913
11.5087996969 0.7313253399 -3.0000145372
11.3315846921 1.2684830457 -3.0000140071
11.5457177382 0.6689472732 -3.0000145987
11.4148407073 -0.8511931790 -3.0000160987
11.4564834242 -0.7506803350 -3.0000159995
11.5618832789 -0.5965508734 -3.0000158474
11.7121612866 0.6994263484 -3.0000145686
11.8026142975 0.7416557186 -3.0000145270
11.7908916409 0.7993842363 -3.0000144700
11.2124817506 -1.7441684038 -3.0000169799
11.0330560385 3.3196468180 -3.0000119831
11.1426775925 3.3044868331 -3.0000119981
11.1242992598 3.3170560239 -3.0000119857
11.2070889672 3.3185212045 -3.0000119842
10.1405464495 -3.4607600499 -3.0000186737
10.1513837872 -3.4573967471 -3.0000186704
10.1622111283 -3.4540014003 -3.0000186670
10.1585827759 -3.4804729220 -3.0000186932
10.1803637670 -3.4736072184 -3.0000186864
10.2021037571 -3.4666127714 -3.0000186795
10.2346352010 -3.4558802437 -3.0000186689
11.3089693626 3.3044627285 -3.0000119981
10.2640800998 -3.4714413749 -3.0000186842
10.2966519544 -3.4601586517 -3.0000186731
10.3074868300 -3.4563335633 -3.0000186693
10.3183103429 -3.4524764401 -3.0000186655
11.3601212304 3.2962733643 -3.0000120062
10.3264585760 -3.4752347700 -3.0000186880
10.3482056383 -3.4673759486 -3.0000186802
10.3590616385 -3.4633983234 -3.0000186763
10.3699058246 -3.4593886017 -3.0000186724
10.3807381017 -3.4553468185 -3.0000186684
10.4109842662 -3.4697519442 -3.0000186826
10.4435353432 -3.4571655954 -3.0000186702
11.4354232839 3.2992079116 -3.0000120033
10.4849906380 -3.4667190986 -3.0000186796
10.2730114830 -3.5704910767 -3.0000187820
10.5484748052 -3.4667797359 -3.0000186796
10.5593281654 -3.4622096809 -3.0000186751
10.6122816159 -3.4657607131 -3.0000186786
10.6655348088 -3.4685688778 -3.0000186814
10.6763929494 -3.4636525304 -3.0000186766
10.7081985807 -3.4756701807 -3.0000186884
10.7620164479 -3.4771322179 -3.0000186899
10.8595540731 -3.4832562752 -3.0000186959
10.9032405079 -3.4881968261 -3.0000187008
10.9250541635 -3.4769253422 -3.0000186897
10.9798926832 -3.4753052247 -3.0000186881
11.3664002272 -3.2989263646 -3.0000185140
11.2982165644 -3.4012545532 -3.0000186150
9.6495227470 -3.5334623525 -3.0000187454
9.6929993196 -3.7469862199 -3.0000189561
10.6815566437 -3.5557719065 -3.0000187675
10.7750119069 -0.1735199221 -3.0000154300
10.7829735453 -0.1593699036 -3.0000154160
10.7908092967 -0.1451497872 -3.0000154020
10.8275258309 -0.1276974136 -3.0000153848
10.8375675351 -0.1081969284 -3.0000153656
10.8142880564 -0.2022390703 -3.0000154584
10.9073630131 -0.1308374108 -3.0000153879
10.8508311732 -0.2829828085 -3.0000155380
10.8597612477 -0.2681556260 -3.0000155234
10.9292113780 -0.1940039077 -3.0000154502
11.1313236072 1.1834546602 -3.0000140910
11.1675601165 1.1304531076 -3.0000141433
11.2244857200 0.9015426184 -3.0000143692
11.1638246328 1.2531770763 -3.0000140222
11.1076602610 1.4322337586 -3.0000138455
10.9729171252 -0.3142239091 -3.0000155689
11.0738521911 -0.1182130807 -3.0000153754
11.1902897108 1.2474894666 -3.0000140278
11.1734575706 1.3902641945 -3.0000138869
10.8212743747 -0.6161026192 -3.0000158667
11.1883664212 1.4216316372 -3.0000138560
11.3230769913 0.3747544076 -3.0000148890
11.1221405283 1.7031624038 -3.0000135782
11.4099585497 0.1957003756 -3.0000150657
9.1376930133 -3.4917061222 -3.0000187042
9.2126400625 -3.4918727644 -3.0000187044
8.9867408435 -3.5115296575 -3.0000187238
9.0369504889 -3.5135733067 -3.0000187258
9.1751124205 -3.5161286930 -3.0000187283
9.2128008384 -3.5160452577 -3.0000187283
9.2379253977 -3.5158038213 -3.0000187280
9.0108595590 -3.5367787764 -3.0000187487
9.5557182574 -3.5484183136 -3.0000187602
9.6442409113 -3.5398156874 -3.0000187517
9.8023913977 -3.5686651480 -3.0000187802
9.8349768709 -3.6127475098 -3.0000188237
9.0963614255 -3.6844696305 -3.0000188945
9.1090113535 -3.7088807342 -3.0000189185
8.9887456414 -3.7535964216 -3.0000189627
10.2530110562 -3.6288472862 -3.0000188396
10.3943798123 -3.6419330770 -3.0000188525
10.4202284867 -3.6346988194 -3.0000188453
10.6430888111 -3.6673665837 -3.0000188776
10.1455221364 -3.8268716149 -3.0000190350
11.0727685148 1.0289741297 -3.0000142434
11.0542064303 1.2227732689 -3.0000140522
11.0205295955 1.3884770900 -3.0000138887
11.0981719806 0.9415837154 -3.0000143297
11.0979752626 0.9935566862 -3.0000142784
11.0907621384 1.1232647648 -3.0000141504
11.0796422886 1.2161458683 -3.0000140588
11.0615094881 1.3184872162 -3.0000139578
11.0387064206 1.4145580168 -3.0000138630
11.0072694989 1.5190624434 -3.0000137598
11.1184298230 0.8412957806 -3.0000144286
11.1219172103 1.0045413020 -3.0000142676
11.0761107246 1.3645714462 -3.0000139123
11.0673808797 1.4004059752 -3.0000138769
11.0550698427 1.4461999070 -3.0000138317
10.9898173933 1.6353803994 -3.0000136451
10.9670016210 1.6886573246 -3.0000135925
10.7422085363 -0.1777921635 -3.0000154342
11.1335422230 0.7439767801 -3.0000145247
11.1365548636 0.7705087474 -3.0000144985
11.1435533526 0.8556623109 -3.0000144145
11.1274755480 1.2231687178 -3.0000140518
10.7711513939 -0.1803948453 -3.0000154368
11.1413627647 0.6340626848 -3.0000146331
11.1357445941 1.3173347490 -3.0000139589
11.0777438832 1.5369651783 -3.0000137422
11.0690340224 1.5625851266 -3.0000137169
11.0426419770 1.6336029595 -3.0000136468
10.8268995468 -0.1477281579 -3.0000154046
11.1187448415 1.4870263113 -3.0000137915
11.0100504303 1.7679977976 -3.0000135142
10.9929814760 1.8023780044 -3.0000134803
10.7518665730 -0.2786824680 -3.0000155338
10.7808046569 -0.2449562890 -3.0000155005
11.1963525429 0.6692406579 -3.0000145984
11.1996739707 0.6912111463 -3.0000145767
11.2068382486 0.7462958369 -3.0000145224
11.1831643569 1.3267532001 -3.0000139496
11.1465827189 1.4778863048 -3.0000138005
11.1236309430 1.5521874933 -3.0000137272
11.0793093723 1.6719939243 -3.0000136089
11.0293859985 1.7835198007 -3.0000134989
10.7360945214 -0.3322283624 -3.0000155866
10.8243126019 -0.2300270402 -3.0000154858
10.8690043974 -0.1721284920 -3.0000154286
10.8888733242 -0.1448357142 -3.0000154017
11.1737330612 0.4511573290 -3.0000148136
11.2243962585 0.6933086998 -3.0000145747
11.2382330885 0.8219529351 -3.0000144477
11.2417500987 0.8837425022 -3.0000143868
11.2239511598 1.2316463225 -3.0000140435
11.2131568266 1.2982931770 -3.0000139777
10.7460485901 -0.3569971761 -3.0000156111
10.9184176873 -0.1449361494 -3.0000154018
10.7154207620 -0.4231776891 -3.0000156764
10.9009348572 -0.2101763378 -3.0000154662
10.9448068030 -0.1493465759 -3.0000154062
11.1916588141 0.3444060046 -3.0000149189
10.8321839305 -0.3337122505 -3.0000155881
11.2089795940 0.3201649119 -3.0000149429
11.1505969047 1.7516431995 -3.0000135303
10.9324672316 -0.2486406508 -3.0000155041
11.3392556710 1.0157798539 -3.0000142565
10.7537180928 -0.4872328449 -3.0000157396
11.0506803211 -0.1207822062 -3.0000153780
11.2836250263 0.3957420534 -3.0000148683
10.9854996980 -0.2585282320 -3.0000155139
11.0311681020 -0.1944114624 -3.0000154506
11.3883081881 0.9747243980 -3.0000142970
11.2537323206 1.6910171722 -3.0000135902
10.8005761980 -0.5089502592 -3.0000157610
11.2059046399 1.8627199516 -3.0000134207
11.4034746428 1.3325945896 -3.0000139438
11.4472987613 1.2004262248 -3.0000140743
11.3039829656 1.8816595418 -3.0000134021
10.8114170151 -1.0390689301 -3.0000162841
11.5614613087 -0.1490602824 -3.0000154059
10.6598382778 -1.1989428390 -3.0000164419
11.5595241521 -0.2568646120 -3.0000155123
10.5457871101 -1.3193838612 -3.0000165607
10.6246235689 -1.3037909228 -3.0000165453
8.3204333479 -3.4596326911 -3.0000186726
8.3728108552 -3.4714023685 -3.0000186842
8.4121833733 -3.4798224585 -3.0000186925
8.5968390394 -3.5144818899 -3.0000187267
8.6100813470 -3.5166645019 -3.0000187289
8.3676507510 -3.4950182235 -3.0000187075
8.4468889116 -3.5115965256 -3.0000187239
8.5131370026 -3.5243357086 -3.0000187364
8.7530258371 -3.5620543566 -3.0000187737
8.3757462627 -3.5215099172 -3.0000187337
8.6290756636 -3.5686714551 -3.0000187802
9.1145765908 -3.6187131914 -3.0000188296
9.2908170669 -3.6240432952 -3.0000188348
9.2632827192 -3.6478340564 -3.0000188583
9.2769165907 -3.6480446240 -3.0000188585
9.5780280503 -3.6666149605 -3.0000188768
9.6892704048 -3.6838224408 -3.0000188938
9.5943290992 -3.7141697633 -3.0000189238
9.6219840759 -3.7125908235 -3.0000189222
9.7876737446 -3.6996841614 -3.0000189095
9.8014587036 -3.6983432586 -3.0000189081
9.8176867051 -3.7210104322 -3.0000189305
10.0319227457 -3.7431027084 -3.0000189523
8.5292994053 -3.7482142215 -3.0000189574
8.2883076277 -3.7250290416 -3.0000189345
9.9826705785 -3.7988584015 -3.0000190073
10.1791885789 -3.7682217754 -3.0000189771
9.0170973213 -3.8551527494 -3.0000190629
9.7446152160 -3.8491707697 -3.0000190570
10.1130158565 -3.8039595403 -3.0000190124
8.7381344544 -3.9013037908 -3.0000191084
11.0007079893 1.2623936759 -3.0000140131
10.9989897702 1.2840224582 -3.0000139918
10.9876380170 1.3787955206 -3.0000138983
10.9869756885 1.3830840996 -3.0000138940
10.9772134815 1.4386419892 -3.0000138392
10.9719888542 1.4641485999 -3.0000138140
10.9653224619 1.4937834748 -3.0000137848
11.0285247050 1.1363056141 -3.0000141375
11.0286657048 1.1539486781 -3.0000141201
11.0285483711 1.1760028279 -3.0000140984
11.0275152682 1.2156866036 -3.0000140592
11.0101738702 1.3911662122 -3.0000138861
10.9965432714 1.4648947697 -3.0000138133
10.9685756729 1.5760874296 -3.0000137036
11.0528069180 1.1673457539 -3.0000141069
11.0506225547 1.2390248383 -3.0000140362
11.0503734176 1.2435003486 -3.0000140318
10.9905084252 1.5871807333 -3.0000136926
11.0706703599 1.0174219969 -3.0000142548
11.0710766764 1.0219577819 -3.0000142504
11.0738438339 1.0582832812 -3.0000142145
11.0881401659 0.9554660846 -3.0000143160
11.0976635030 1.0521170238 -3.0000142206
11.1010942632 1.1399221499 -3.0000141340
11.1011380689 1.1445473982 -3.0000141294
11.0625578900 1.5024599517 -3.0000137762
11.0825242710 0.7907150306 -3.0000144785
11.1244742564 1.2101017243 -3.0000140647
11.1049222939 1.4109858669 -3.0000138665
11.1666993904 1.3083107850 -3.0000139678
11.1494366914 1.4378100537 -3.0000138400
11.1463937343 0.6578748535 -3.0000146096
11.2218902258 1.1336161134 -3.0000141402
11.1916738451 1.4755138435 -3.0000138028
11.2397065105 0.7213969043 -3.0000145469
10.6964456165 -0.2897407223 -3.0000155447
10.8331067253 -0.2355575311 -3.0000154912
10.8578925216 -0.2454692373 -3.0000155010
10.6505820477 -0.4445821860 -3.0000156975
10.7159393844 -0.3971272864 -3.0000156507
8.4778166643 -3.6264625120 -3.0000188372
8.3167560150 -3.6128699135 -3.0000188238
8.6725286781 -3.6900347670 -3.0000188999
8.2400013036 -3.6176187482 -3.0000188285
9.2055508213 -3.7796412899 -3.0000189884
9.2639872079 -3.7832243537 -3.0000189919
9.3517110524 -3.7873018866 -3.0000189959
7.8607405917 -3.5493434085 -3.0000187611
8.3274327013 -3.6903688906 -3.0000189003
9.0403031467 -3.8143317368 -3.0000190226
8.9761335692 -3.8561454524 -3.0000190639
8.1470025974 -3.8427488311 -3.0000190506
7.5168974589 -3.8061586668 -3.0000190145
10.9648948612 1.2337277470 -3.0000140414
10.9675638363 1.3047238956 -3.0000139713
10.9675996167 1.3118294614 -3.0000139643
10.9673937919 1.3366979969 -3.0000139398
10.9627816113 1.4218232289 -3.0000138558
10.9606852875 1.4430366191 -3.0000138349
10.9590787099 1.4571567649 -3.0000138209
10.9820130305 1.1599681829 -3.0000141142
10.9913692965 1.2827879968 -3.0000139930
10.9895672786 1.3878462161 -3.0000138893
11.0156571432 1.3412937317 -3.0000139353
11.0091435542 1.4445426880 -3.0000138334
11.0309010169 1.1613547295 -3.0000141128
11.0330252012 1.1800711934 -3.0000140944
11.0358474487 1.2100769201 -3.0000140647
11.0385671428 1.2514266848 -3.0000140239
11.0400806033 1.3041442066 -3.0000139719
11.0198747742 0.9777025017 -3.0000142940
11.0599393548 1.2080981975 -3.0000140667
11.0873815810 1.2607581856 -3.0000140147
11.0872851623 1.3702173341 -3.0000139067
11.0969874155 0.9863680509 -3.0000142855
11.1147813064 1.0695946610 -3.0000142034
11.1268930880 1.1497406517 -3.0000141243
11.1352212458 1.3803600139 -3.0000138967
11.1309448587 1.4410053058 -3.0000138369
11.1542454374 1.0197873560 -3.0000142525
11.3771020773 1.3824825875 -3.0000138946
11.3952547355 1.4704072865 -3.0000138079
11.4350129361 1.0823467913 -3.0000141908
11.2971733638 0.5548594041 -3.0000147113
7.8639081615 -3.6952995298 -3.0000189051
6.8861268997 -3.6849390530 -3.0000188949
10.9463970986 1.2951020337 -3.0000139808
10.9612501118 1.2385618496 -3.0000140366
10.9686667372 1.2804734498 -3.0000139953
10.9740425998 1.1855892520 -3.0000140889
10.9656927484 1.0772256167 -3.0000141958
10.9746592391 1.1025088549 -3.0000141709
11.0204358000 1.0869574048 -3.0000141862
11.0185627181 1.0134038941 -3.0000142588
11.0540867697 1.1126398929 -3.0000141609
11.3845899542 1.1370961213 -3.0000141368
11.4082361236 1.1320767634 -3.0000141417
10.9350958658 1.3091923061 -3.0000139669
10.9361568527 1.3130067953 -3.0000139632
10.9364723362 1.1771942899 -3.0000140972
10.9729970883 1.2676671319 -3.0000140079
11.3849703622 1.2138337922 -3.0000140610
11.3778385294 1.1067595704 -3.0000141667
11.3672541191 1.0146024801 -3.0000142576
11.3741740518 1.0305743167 -3.0000142419
11.3805715918 0.9854093836 -3.0000142864
11.3843555652 0.7476542889 -3.0000145210
7.7204149641 -2.0407609267 -3.0000172725
18.0746938463 -0.6250735209 -3.0000158756
4.2992556071 -4.0175949059 -3.0000192232
4.4982337508 -4.2951070877 -3.0000194970
4.5153737605 -4.3122175089 -3.0000195139
4.6210153702 -4.4823236651 -3.0000196817
18.5627733356 -0.4711091994 -3.0000157237
18.5742336870 -0.4221356505 -3.0000156753
18.5624375307 -0.5747040799 -3.0000158259
18.5685103785 -0.5502263210 -3.0000158017
18.5858906475 -0.5805595556 -3.0000158317
11.3340884169 1.1063737124 -3.0000141671
11.3562273045 1.1523477686 -3.0000141217
11.3444024753 1.0744344660 -3.0000141986
11.3506628709 1.0859599630 -3.0000141872
11.3602877716 1.0533372241 -3.0000142194
11.3488647834 0.9457916872 -3.0000143255
11.8738989886 -0.3172967054 -3.0000155719
9.9457057808 -0.8993852705 -3.0000161463
10.0888727799 -0.9319957612 -3.0000161784
9.8824057970 -0.9072295650 -3.0000161540
10.0116794855 -0.9403187097 -3.0000161867
10.0551395845 -0.9498131321 -3.0000161960
9.7543173015 -0.8925906970 -3.0000161396
9.8757903874 -0.9304797615 -3.0000161769
9.8546497198 -0.9495505805 -3.0000161958
9.5060667956 -0.8994533867 -3.0000161463
9.4576395617 -0.9306997660 -3.0000161772
9.9509714153 -1.0999279235 -3.0000163441
9.1846679048 -0.9821705630 -3.0000162280
9.4722237387 -1.1216929791 -3.0000163656
4.0765032328 -2.1755812745 -3.0000174056
4.0595587972 -2.3393789158 -3.0000175672
4.0497196329 -2.5562161004 -3.0000177811
3.9859220440 -2.8154179585 -3.0000180369
18.4827076298 -1.8562312076 -3.0000170904
18.4848870126 -1.9125737487 -3.0000171460
18.4763690127 -1.9924680798 -3.0000172249
18.4866759657 -1.9690593425 -3.0000172018
18.5221804340 -2.2978030590 -3.0000175262
18.5315670636 -2.3894725264 -3.0000176166
18.5430481861 -2.3658987662 -3.0000175934
18.5281262736 -2.5051703876 -3.0000177308
18.5399496663 -2.4816062996 -3.0000177075
18.5517033005 -2.4580073390 -3.0000176842
18.5377907367 -2.5396359869 -3.0000177648
18.5593482477 -2.5505725771 -3.0000177756
11.3305014575 0.6749066457 -3.0000145928
11.3366727143 0.5885002351 -3.0000146781
11.3358621931 0.5012022131 -3.0000147642
11.3349963624 0.2786551638 -3.0000149838
9.7794384605 -1.2710697410 -3.0000165130
9.5726950718 -1.2742265855 -3.0000165161
9.8104550636 -1.4316321800 -3.0000166715
9.6688050412 -1.4384176694 -3.0000166782
9.9622769947 -1.6178646397 -3.0000168552
9.8245897996 -1.6606053111 -3.0000168974
7.5205181466 -1.5166006780 -3.0000167553
4.0557792939 -1.7714079020 -3.0000170067
4.0336821126 -1.7812084050 -3.0000170164
4.0422249002 -1.8003932020 -3.0000170353
4.0201568072 -1.8102590295 -3.0000170451
4.0252887237 -1.9944858137 -3.0000172269
4.0219263502 -2.0433902090 -3.0000172751
4.0283794952 -2.1116693521 -3.0000173425
4.0139576029 -2.1909793408 -3.0000174207
4.0183350571 -2.5091339292 -3.0000177347
4.0094855135 -2.6410454512 -3.0000178649
3.9580916108 -2.9332451095 -3.0000181532
3.9700426620 -2.9526484762 -3.0000181723
18.4512656595 -2.8128367193 -3.0000180344
10.9292703346 0.8370125530 -3.0000144329
10.9427488677 0.8007338458 -3.0000144687
10.9434317554 0.8026679902 -3.0000144668
10.9493194395 0.8201637764 -3.0000144495
10.9511782345 0.8260297724 -3.0000144437
10.9352793425 0.7202160186 -3.0000145481
10.9484979329 0.7491795935 -3.0000145195
10.9420638101 0.6803904885 -3.0000145874
10.9482111335 0.6920319870 -3.0000145759
10.9665391322 0.6749100355 -3.0000145928
10.9486313037 0.5972847154 -3.0000146694
11.3614562985 0.6805384550 -3.0000145873
11.3685150689 0.7028145640 -3.0000145653
11.3574451156 0.5993747942 -3.0000146674
11.3624958379 0.6120443486 -3.0000146549
11.3822768582 0.6665251927 -3.0000146011
11.3865312874 0.6794838669 -3.0000145883
11.3906320858 0.6924919744 -3.0000145755
11.3837281275 0.5999863292 -3.0000146668
11.3796465959 0.5290528862 -3.0000147367
11.3760457214 0.4668662019 -3.0000147981
11.3826630447 0.4797651238 -3.0000147854
11.3842934911 0.4830020182 -3.0000147822
11.4046122120 0.5255088967 -3.0000147402
11.3835276654 0.4296425921 -3.0000148348
11.3853063795 0.4328822636 -3.0000148316
11.3802467562 0.3755466827 -3.0000148882
11.3917354833 0.3950131470 -3.0000148690
11.4076405659 0.2408666762 -3.0000150211
10.1752567180 -1.4954173637 -3.0000167344
9.7622878739 -1.4672178659 -3.0000167066
4.4515051207 -4.2855677564 -3.0000194876
4.8640352768 -4.8710285603 -3.0000200653
10.9321303191 0.7075722400 -3.0000145606
10.9359424740 0.7250223917 -3.0000145434
10.9432937472 0.7651787121 -3.0000145037
10.9645630519 0.7458675791 -3.0000145228
10.9679749998 0.7665736640 -3.0000145024
10.9593624489 0.6240042463 -3.0000146431
10.9664123164 0.6472088435 -3.0000146202
10.9600252770 0.5541775983 -3.0000147120
10.9872911333 0.6325289794 -3.0000146346
10.9635007950 0.5008821949 -3.0000147645
10.9771301154 0.5320867905 -3.0000147338
11.0237731592 0.6749101646 -3.0000145928
10.9830389722 0.4855323477 -3.0000147797
11.3789690903 0.7387817043 -3.0000145298
11.3840258852 0.6239966225 -3.0000146431
11.4024621271 0.5956246456 -3.0000146711
11.4175121091 0.6697582245 -3.0000145979
11.4823985986 0.4346926384 -3.0000148299
11.4878115405 0.4511846424 -3.0000148136
10.8849159156 -1.6547948443 -3.0000168917
10.8992549955 -1.7009655268 -3.0000169372
7.6346928718 -3.8892832550 -3.0000190966
10.9417368148 0.8530161661 -3.0000144171
10.9572698342 0.6982181706 -3.0000145698
10.9660083595 0.8473930196 -3.0000144226
10.9761942559 0.6610726204 -3.0000146065
10.9827944839 0.7074583055 -3.0000145607
10.9898578890 0.6037868739 -3.0000146630
11.0143684372 0.8193113003 -3.0000144503
10.9793320906 0.4759873665 -3.0000147891
10.9922849436 0.5164295009 -3.0000147492
10.9932167460 0.5195605899 -3.0000147461
11.0011850273 0.5478605183 -3.0000147182
11.0385922755 0.8418723996 -3.0000144281
11.0609661780 0.7686591210 -3.0000145003
11.0618716952 0.8787758310 -3.0000143917
11.0867068193 0.8081652876 -3.0000144613
11.0390177541 0.2494503433 -3.0000150126
11.3755768518 0.7677954804 -3.0000145012
11.3754906862 0.9000544939 -3.0000143707
11.4253625694 0.8229302169 -3.0000144468
11.4278688396 0.5774597273 -3.0000146890
11.4472621052 0.4382214784 -3.0000148264
10.8143255037 -1.5910979898 -3.0000168288
8.5782905543 -3.8499573015 -3.0000190578
8.2494201993 -3.8705252935 -3.0000190780
6.7942327782 -3.6577220377 -3.0000188681
10.9691618573 0.7159875110 -3.0000145523
10.9654842570 0.8029230471 -3.0000144665
10.9593175110 0.8617771377 -3.0000144084
10.9885592186 0.6025677853 -3.0000146642
10.9929973696 0.6805901943 -3.0000145872
10.9931090280 0.7338782015 -3.0000145346
10.9930323989 0.7374302069 -3.0000145311
10.9752335586 0.9175757528 -3.0000143534
11.0088679004 0.5643648165 -3.0000147019
11.0097067575 0.5715647864 -3.0000146948
11.0155470777 0.6401700663 -3.0000146271
11.0172459092 0.6836266861 -3.0000145842
11.0170105083 0.7452335474 -3.0000145234
11.0160132392 0.7705838753 -3.0000144984
10.9860480985 0.9856818440 -3.0000142862
11.0148486457 0.4521321358 -3.0000148126
11.0238493930 0.4993245565 -3.0000147661
11.0268269611 0.5175621683 -3.0000147481
11.0290145966 0.5321827215 -3.0000147337
11.0416548681 0.7200676303 -3.0000145483
11.0377757027 0.8086645117 -3.0000144608
11.0344818926 0.4287450823 -3.0000148357
11.0647457527 0.6562380487 -3.0000146112
11.0420652938 0.3601478862 -3.0000149034
11.0613586185 0.4384080176 -3.0000148262
11.0695147467 0.4798384946 -3.0000147853
11.0745975799 0.5101251586 -3.0000147554
11.0779385889 0.5329144525 -3.0000147329
11.0736485121 0.9153788242 -3.0000143555
11.0632659796 0.9720132676 -3.0000142997
11.0458340818 0.2900942402 -3.0000149725
11.0554135158 0.3198736733 -3.0000149432
11.1138268800 0.6776556643 -3.0000145901
11.1333681563 0.5935906661 -3.0000146731
11.1122008113 0.9739797009 -3.0000142977
11.0916791426 0.2747459007 -3.0000149877
11.1074430408 0.3250233698 -3.0000149381
11.1622511043 0.6805341882 -3.0000145873
11.1745129221 0.8939711277 -3.0000143767
11.1550165920 0.3154783176 -3.0000149475
10.7513337288 -0.3681370437 -3.0000156221
11.1696372444 0.2801494863 -3.0000149824
11.1348776667 0.1186215672 -3.0000151417
11.1657389380 0.1291301917 -3.0000151314
11.1486814938 0.0342096221 -3.0000152250
11.1528725099 -0.0608471586 -3.0000153188
10.8764368125 -1.5231804219 -3.0000167618
11.2595820035 -1.2923589483 -3.0000165340
10.9989485074 -1.4870492333 -3.0000167261
10.8569756718 -1.5859286913 -3.0000168237
10.9244104062 -1.5534348157 -3.0000167916
10.5716525209 -1.7231887704 -3.0000169592
10.4176399172 -1.7921723388 -3.0000170272
11.1782116582 -1.4937083084 -3.0000167327
9.0232593333 -3.7124215331 -3.0000189220
9.1543927606 -3.7332341071 -3.0000189426
8.8879544298 -3.7114220865 -3.0000189211
9.0717786097 -3.7450748898 -3.0000189543
9.1906237320 -3.7626776990 -3.0000189716
9.3896049299 -3.7849662202 -3.0000189936
8.8174683292 -3.7211707485 -3.0000189307
9.5748853074 -3.8219314968 -3.0000190301
8.5635844505 -3.6826891699 -3.0000188927
9.1307332318 -3.8030796281 -3.0000190115
9.4929035226 -3.8414792755 -3.0000190494
9.6681057035 -3.8496264615 -3.0000190574
9.4507247712 -3.8627486286 -3.0000190704
9.7081285831 -3.8747183240 -3.0000190822
9.4081450721 -3.8836258999 -3.0000190910
8.3734099233 -3.7012351499 -3.0000189110
8.5443669257 -3.8027972044 -3.0000190112
9.0174289133 -3.9076113449 -3.0000191146
9.1269077810 -3.9246551978 -3.0000191315
7.7819180495 -3.5453257753 -3.0000187572
8.5916816709 -3.8406209076 -3.0000190485
8.9722706624 -3.9243558691 -3.0000191312
8.4910701156 -3.8380252624 -3.0000190460
7.9929344734 -3.6910435684 -3.0000189009
7.9837858024 -3.7134184896 -3.0000189230
8.1763664109 -3.8899646487 -3.0000190972
7.7683214683 -3.7786619542 -3.0000189874
11.0058987254 0.7537650324 -3.0000145150
10.9998219803 0.7931159745 -3.0000144762
10.9546131831 0.9786574762 -3.0000142931
10.9370202407 1.0963024895 -3.0000141770
11.0601585011 0.7071959634 -3.0000145610
11.0284545429 0.8941254810 -3.0000143765
10.9874923517 1.0324967578 -3.0000142400
10.9790418933 1.0557584496 -3.0000142170
11.0860017417 0.4456232579 -3.0000148191
11.0236755864 1.0007799080 -3.0000142713
10.9987291950 1.0720674738 -3.0000142009
10.9895746584 1.0955223662 -3.0000141778
10.8226148840 -0.3033207850 -3.0000155581
11.0844629146 0.2705471386 -3.0000149918
11.0933940929 0.3166347458 -3.0000149463
11.1085108750 0.4265384601 -3.0000148379
11.1147308101 0.6140911229 -3.0000146528
11.1124690040 0.6609816093 -3.0000146066
11.0198025704 1.0846435635 -3.0000141885
10.8599749851 -0.2935217888 -3.0000155484
11.1241256903 0.3552585597 -3.0000149082
11.0454564437 1.0851867474 -3.0000141880
11.1638026955 0.5627113888 -3.0000147035
10.9474247548 -0.2950991256 -3.0000155500
11.1251356593 0.0577800157 -3.0000152018
11.2121579638 0.5670927472 -3.0000146992
11.1768710759 0.0595177457 -3.0000152001
11.1582184298 1.1938945885 -3.0000140807
11.2525140262 -1.2834066203 -3.0000165252
11.2688823137 -1.2693139100 -3.0000165113
11.2075560737 -1.4134096532 -3.0000166535
8.6256326440 -3.4977733377 -3.0000187102
8.6738144686 -3.5098783075 -3.0000187222
8.6979582504 -3.5157167863 -3.0000187279
8.7463473270 -3.5269647098 -3.0000187390
9.0637334357 -3.5860380837 -3.0000187973
9.1252403820 -3.5945908136 -3.0000188058
9.2609582712 -3.6101990017 -3.0000188212
8.4392501997 -3.4704432109 -3.0000186833
8.4631647755 -3.4776701408 -3.0000186904
8.5351591773 -3.4985002647 -3.0000187109
8.5471936987 -3.5018475768 -3.0000187143
8.5954292228 -3.5148803874 -3.0000187271
8.6680632056 -3.5333571971 -3.0000187453
8.6923459970 -3.5392292914 -3.0000187511
8.9369204894 -3.5900115801 -3.0000188012
9.5702150729 -3.6533679262 -3.0000188638
8.5407505041 -3.5251460859 -3.0000187372
8.7234308891 -3.5713291898 -3.0000187828
8.8093433013 -3.5900975240 -3.0000188013
8.6197864235 -3.5711337934 -3.0000187826
8.7920622243 -3.6111788853 -3.0000188221
9.4922622235 -3.7233388184 -3.0000189328
8.6202552950 -3.6211193495 -3.0000188319
10.0147083825 -3.7377442365 -3.0000189470
8.7645403125 -3.6794716368 -3.0000188895
9.1573227854 -3.7447909031 -3.0000189540
9.7863182357 -3.7981728082 -3.0000190067
9.9798835744 -3.7888360045 -3.0000189974
8.5397026797 -3.6751591073 -3.0000188853
9.9572161352 -3.8388226693 -3.0000190468
10.3853765181 -3.7901127138 -3.0000189987
9.3550359226 -3.8607903274 -3.0000190684
10.0242780679 -3.8582299335 -3.0000190659
10.5490920333 -3.8094796971 -3.0000190178
8.3860140776 -3.7825768131 -3.0000189913
8.6585904240 -3.8540658071 -3.0000190618
8.6400404427 -3.8745917831 -3.0000190821
10.9415414926 -0.2646899676 -3.0000155200
11.0839345481 0.6159136856 -3.0000146510
11.0799862786 0.6425165826 -3.0000146248
11.0907068703 0.8217645661 -3.0000144479
11.0055032950 1.0562751244 -3.0000142165
11.1608331930 0.2277641359 -3.0000150340
11.1477971380 0.6769700597 -3.0000145908
11.1008789990 0.8732744312 -3.0000143971
11.0673274903 0.9709897728 -3.0000143007
11.2109398067 0.2415625360 -3.0000150204
11.2167707161 0.4977526035 -3.0000147676
11.1550749133 0.9413079710 -3.0000143300
11.5597428920 -1.0543912580 -3.0000162992
9.1195666546 -3.4740317547 -3.0000186868
9.1655185839 -3.4792456443 -3.0000186920
9.1885168796 -3.4816485982 -3.0000186943
9.2230399731 -3.4849978021 -3.0000186976
9.3152328266 -3.4924299038 -3.0000187050
9.3383065045 -3.4939468672 -3.0000187065
9.3019709583 -3.5157313873 -3.0000187280
9.4413607711 -3.5232401943 -3.0000187354
9.4762430100 -3.5243439127 -3.0000187365
9.5111336701 -3.5251380273 -3.0000187372
9.5227652866 -3.5253339199 -3.0000187374
9.5343974317 -3.5254954031 -3.0000187376
9.5223939866 -3.5495040961 -3.0000187613
9.6044541879 -3.5740870145 -3.0000187855
9.1316337803 -3.5727823138 -3.0000187842
9.2259294977 -3.5823528042 -3.0000187937
9.4378740365 -3.6198694197 -3.0000188307
9.1977376262 -3.6282964281 -3.0000188390
9.1327911276 -3.6702081013 -3.0000188804
9.5808328501 -3.6950083879 -3.0000189049
10.2093340286 -3.6469332624 -3.0000188574
10.2811812899 -3.6351814854 -3.0000188458
9.2881429917 -3.7086205923 -3.0000189183
9.3856092624 -3.7144495259 -3.0000189240
10.4410922864 -3.6290013272 -3.0000188397
9.3844517993 -3.7385948269 -3.0000189479
10.0585564646 -3.7160380469 -3.0000189256
9.1071062445 -3.7889525196 -3.0000189976
9.1692147074 -3.7955347415 -3.0000190040
9.2022118192 -3.8471962313 -3.0000190550
10.7964508236 -3.7134700188 -3.0000189231
10.7541667104 -3.7508054188 -3.0000189599
9.0807150046 -3.9075796029 -3.0000191146
9.1445808947 -3.9145391856 -3.0000191215
9.7348512063 -3.9340900686 -3.0000191408
11.0905394939 -3.6667925064 -3.0000188770
9.3998493400 -3.9570634967 -3.0000191634
11.5822699421 -3.5308572272 -3.0000187429
9.1718105478 -4.0386122078 -3.0000192439
10.8918512517 -0.2269526275 -3.0000154827
10.9010400324 -0.1985259734 -3.0000154547
11.0956075575 0.7655492891 -3.0000145034
11.1782656904 0.5470821368 -3.0000147190
11.0836348871 0.8666814615 -3.0000144036
11.0495289982 0.9999946236 -3.0000142720
11.2131403543 0.6163561913 -3.0000146506
11.2047988568 0.6512546030 -3.0000146162
11.2475157349 0.5708948561 -3.0000146955
11.1848475567 0.8737903388 -3.0000143966
11.3200304421 0.4112655744 -3.0000148530
11.4237135874 -0.3064601519 -3.0000155612
11.6799708864 -0.9985613964 -3.0000162441
9.7522859791 -3.4769833181 -3.0000186897
9.7632538373 -3.4762909258 -3.0000186890
9.8618587206 -3.4686003312 -3.0000186814
9.7427320493 -3.5017747860 -3.0000187142
9.7648125113 -3.5004136499 -3.0000187128
9.7979171391 -3.4981270650 -3.0000187106
9.8420225989 -3.4946214609 -3.0000187071
9.8640590017 -3.4926730137 -3.0000187052
9.8750727838 -3.4916499079 -3.0000187042
9.8860834911 -3.4905942259 -3.0000187031
9.8970910274 -3.4895059768 -3.0000187021
9.9190962015 -3.4872318158 -3.0000186998
9.9520777724 -3.4835765689 -3.0000186962
9.7219170544 -3.5271447412 -3.0000187392
9.8218903421 -3.5205365313 -3.0000187327
10.0100949795 -3.5008048245 -3.0000187132
10.0542172701 -3.4947884461 -3.0000187073
10.0021067777 -3.5262067375 -3.0000187383
10.0798000591 -3.5154956473 -3.0000187277
10.1351512159 -3.5068610593 -3.0000187192
10.1793364120 -3.4993645335 -3.0000187118
9.7582352104 -3.5734922356 -3.0000187849
10.1390535936 -3.5307170173 -3.0000187427
10.1835207913 -3.5231726466 -3.0000187353
10.2057201357 -3.5192032818 -3.0000187314
10.2168109042 -3.5171693645 -3.0000187294
10.2278956075 -3.5151026476 -3.0000187273
10.2500464304 -3.5108708876 -3.0000187232
9.8615584819 -3.5899798785 -3.0000188012
10.3435542531 -3.5162500752 -3.0000187285
10.0565405195 -3.5921079639 -3.0000188033
10.3932815232 -3.5298386386 -3.0000187419
10.4266225329 -3.5219735851 -3.0000187341
9.7397561170 -3.6472199988 -3.0000188577
9.8429195487 -3.6400943504 -3.0000188507
10.1053597295 -3.6094360912 -3.0000188204
10.1734286990 -3.5985079613 -3.0000188096
9.8564273428 -3.6632184128 -3.0000188735
9.8860618131 -3.7333998392 -3.0000189427
9.7835165996 -3.7898863389 -3.0000189985
10.5586395821 -3.6630910694 -3.0000188734
10.1259385148 -3.8263395078 -3.0000190344
10.4531827743 -3.7889069872 -3.0000189975
10.0600817806 -3.8843294677 -3.0000190917
11.1239356050 -3.5982172365 -3.0000188093
11.1465624796 -3.5886827483 -3.0000187999
10.9071149097 -0.1162102808 -3.0000153735
11.1834803563 0.3286909510 -3.0000149345
11.1759760848 0.5690751692 -3.0000146973
11.2343358443 0.5424691136 -3.0000147235
11.1930460660 0.6694056667 -3.0000145983
11.3226536419 0.1820309840 -3.0000150792
11.1342474656 0.8664321714 -3.0000144038
11.3212011353 0.4979152647 -3.0000147675
11.3201463836 -0.7736564995 -3.0000160222
11.7876027707 -0.7034588019 -3.0000159529
11.8215418196 -0.6767100831 -3.0000159265
11.8290991477 -0.8730512009 -3.0000161203
10.3077069754 -3.4538874032 -3.0000186669
10.3284104348 -3.4490359857 -3.0000186621
10.3444055031 -3.4700668196 -3.0000186829
10.3859722302 -3.4598062141 -3.0000186728
10.3963447142 -3.4571642679 -3.0000186702
10.3185977733 -3.5009908176 -3.0000187134
10.3709971852 -3.4884665896 -3.0000187010
10.4127797654 -3.4778900509 -3.0000186906
10.4855875993 -3.4581941914 -3.0000186712
10.3346074289 -3.5220834927 -3.0000187342
10.5025772897 -3.4785057753 -3.0000186912
10.5442327974 -3.4663730169 -3.0000186792
10.5650059863 -3.4601220147 -3.0000186731
10.5720399673 -3.4832490204 -3.0000186959
10.5824809852 -3.4800565495 -3.0000186928
10.6137467365 -3.4702940153 -3.0000186831
10.6241492487 -3.4669782250 -3.0000186798
10.6628765683 -3.4798005061 -3.0000186925
10.6733069875 -3.4763393393 -3.0000186891
10.7045361740 -3.4657709216 -3.0000186787
10.7727477260 -3.4930307359 -3.0000187056
10.8041211234 -3.4815791802 -3.0000186943
10.8249797286 -3.4737903252 -3.0000186866
10.8649038662 -3.4844200664 -3.0000186971
10.4770846746 -3.6359511076 -3.0000188466
