40.0391599175 -18.9366590890 -2.2600198684
40.0268153386 -18.9339685551 -2.2600198657
39.6282072675 -18.8672725055 -2.2600197999
39.3891645838 -18.8456153459 -2.2600197785
40.1433589339 -18.9360138553 -2.2600198677
40.1310119903 -18.9330150847 -2.2600198648
40.0939186910 -18.9242381019 -2.2600198561
39.8448184411 -18.8741767989 -2.2600198067
40.1986737395 -18.9249616793 -2.2600198568
39.8110623614 -18.8440771680 -2.2600197770
40.1797834201 -18.8952263122 -2.2600198275
39.5473617290 -18.7855577610 -2.2600197193
40.3105043371 -18.9050496887 -2.2600198372
39.1757069801 -18.7409631210 -2.2600196753
40.3794557463 -18.8999027624 -2.2600198321
40.4238720891 -18.8881135001 -2.2600198205
40.3613111360 -18.8693416223 -2.2600198020
39.4893889105 -18.7074913368 -2.2600196422
40.5434865093 -18.9013230705 -2.2600198335
40.4560724534 -18.8728223313 -2.2600198054
39.4652061097 -18.6813021129 -2.2600196164
39.7688854235 -18.6908593384 -2.2600196258
39.9208053252 -18.6666106798 -2.2600196019
39.8945126366 -18.6619710931 -2.2600195973
39.6062874009 -18.5972037921 -2.2600195334
39.2045697902 -18.5721644728 -2.2600195087
40.7598128229 -18.8509042109 -2.2600197838
39.4898911479 -18.5377581084 -2.2600194748
40.5587861733 -18.7280883955 -2.2600196626
40.0583754493 -18.5947280056 -2.2600195310
39.7898537216 -18.5473448770 -2.2600194842
40.3034301573 -18.6275069541 -2.2600195633
39.9823640847 -18.4812694932 -2.2600194190
40.2602653226 -18.5166866302 -2.2600194540
40.1976903865 -18.4768272481 -2.2600194146
39.9773554718 -18.4311890085 -2.2600193696
40.8575152719 -18.4743123743 -2.2600194122
40.8280641826 -22.4819732628 -2.2600236052
41.1502529591 -22.7100807386 -2.2600238302
41.3452185319 -22.9576099899 -2.2600240745
41.2406301240 -23.6883930689 -2.2600247956
41.4314188224 -23.0973286105 -2.2600242124
41.3858895155 -23.6417540730 -2.2600247496
39.8998692352 -19.0337311973 -2.2600202026
39.8660102651 -19.0262058212 -2.2600201952
40.0070017467 -19.0346829685 -2.2600202035
39.9957252070 -19.0318242048 -2.2600202007
39.9505359622 -19.0207231016 -2.2600201898
40.0356426240 -19.0171133003 -2.2600201862
39.8534011775 -18.9740554434 -2.2600201437
40.1552335548 -19.0251893278 -2.2600201942
40.5423811456 -19.0044981872 -2.2600201737
40.5196317055 -18.9956470745 -2.2600201650
40.0784365278 -18.8534028527 -2.2600200246
40.2733475225 -18.8841712223 -2.2600200550
40.7505494584 -18.9867923015 -2.2600201563
40.3021998992 -18.7918841437 -2.2600199639
40.9517367626 -18.9744802865 -2.2600201441
41.3541984882 -22.7014068387 -2.2600235833
41.3829971042 -23.0479725305 -2.2600239252
41.3655498036 -22.0121396051 -2.2600229031
41.3062265145 -23.5433187728 -2.2600244140
41.4789024743 -22.9160355937 -2.2600237950
41.3167129695 -23.5802293009 -2.2600244504
41.3623518807 -23.5341653716 -2.2600244050
41.4285396846 -21.7878964922 -2.2600226819
41.4321795175 -21.7226223274 -2.2600226174
41.3368344980 -21.4304327177 -2.2600223291
40.7127173632 -25.8921847941 -2.2600267318
40.8042099813 -25.8984218690 -2.2600267379
40.8847123920 -25.8812775488 -2.2600267210
40.5490164732 -19.0888886913 -2.2600200186
40.9065357030 -25.8966407078 -2.2600267362
40.9776814781 -25.8829639005 -2.2600267227
40.6516891743 -19.0829244511 -2.2600200127
40.7240707568 -19.0911992239 -2.2600200209
40.7034581400 -19.0810393912 -2.2600200108
40.7658189526 -19.0851128651 -2.2600200149
40.7555019707 -19.0798942326 -2.2600200097
40.8706895881 -19.0853772308 -2.2600200151
40.8396907716 -19.0688823274 -2.2600199989
41.1060181778 -19.0805586496 -2.2600200104
41.0956862351 -19.0743336662 -2.2600200042
41.3806030941 -19.0848614589 -2.2600200146
41.5641799891 -19.0667851600 -2.2600199968
40.8887838025 -22.5857556870 -2.2600234691
41.3133532644 -22.0958635411 -2.2600229857
42.1550344239 -23.7094027317 -2.2600245779
41.0831802831 -19.1844093174 -2.2600201128
40.1730245632 -25.9505757379 -2.2600267894
40.2858019961 -25.9639533706 -2.2600268026
40.2966481397 -25.9601603505 -2.2600267988
40.3807342870 -25.9553485173 -2.2600267941
40.4849868233 -25.9667207974 -2.2600268053
40.5593243507 -25.9622113797 -2.2600268009
40.8052008504 -25.9831641403 -2.2600268215
40.8161015503 -25.9778345603 -2.2600268163
40.9689949292 -25.9811210270 -2.2600268195
41.1469646666 -25.9929436462 -2.2600268312
41.1578928007 -25.9866030243 -2.2600268249
40.8222589705 -22.6331553627 -2.2600235159
41.1239590571 -22.3065995641 -2.2600231937
41.2849719534 -22.1504595303 -2.2600230396
41.3230086339 -22.2734133630 -2.2600231609
41.3355867395 -21.9389951725 -2.2600228309
39.5575044643 -25.9725751472 -2.2600268111
39.6426559451 -25.9856114386 -2.2600268240
39.6661000450 -25.9821685421 -2.2600268206
39.6895233652 -25.9785870027 -2.2600268170
39.8224430597 -25.9801667198 -2.2600268186
39.6969721235 -26.0263557909 -2.2600268642
39.8740136515 -25.9947110180 -2.2600268329
39.8857641535 -25.9923224700 -2.2600268306
39.6887754793 -26.0520810160 -2.2600268896
39.9496078362 -26.0034660195 -2.2600268416
40.0787980428 -26.0226656424 -2.2600268605
40.1024537345 -26.0166417342 -2.2600268546
40.1142681120 -26.0135773232 -2.2600268516
40.1378694134 -26.0073437213 -2.2600268454
40.1084882774 -26.0400494162 -2.2600268777
40.1796502192 -26.0210286730 -2.2600268589
40.1914772363 -26.0177358816 -2.2600268557
39.6859909883 -26.1991558765 -2.2600270347
39.8584388153 -26.1701713609 -2.2600270061
40.3315304289 -26.2288294070 -2.2600270640
40.6655015345 -26.3466985392 -2.2600271803
40.9531296875 -26.4668472414 -2.2600272988
40.7888718864 -22.7453035998 -2.2600236266
41.1512063658 -21.5928826324 -2.2600224894
41.1464803363 -21.5463945443 -2.2600224435
41.1201637279 -21.3791120181 -2.2600222785
41.2049687516 -21.8695333171 -2.2600227624
41.1107438070 -22.4623626162 -2.2600233474
41.1013548223 -21.0507381911 -2.2600219545
41.2324990911 -22.0791257197 -2.2600229692
41.2529429062 -21.8780472500 -2.2600227708
41.2531024646 -21.6636934753 -2.2600225593
41.2939002517 -21.5611944031 -2.2600224582
41.3304459033 -21.4609553979 -2.2600223592
41.0644469493 -20.6895383940 -2.2600215980
41.0383691328 -20.6453562670 -2.2600215544
41.2797729690 -21.0468591703 -2.2600219506
41.8098215160 -23.9689090758 -2.2600248340
38.9753860608 -25.9867933753 -2.2600268251
39.1501799859 -25.9918370772 -2.2600268301
39.0871769861 -26.0150335124 -2.2600268530
39.1751086058 -26.0161394964 -2.2600268541
39.1876714757 -26.0161488478 -2.2600268541
39.2504832171 -26.0156381654 -2.2600268536
39.2630442742 -26.0154245473 -2.2600268534
39.3007228846 -26.0145607604 -2.2600268525
39.3509462867 -26.0128889717 -2.2600268509
39.3634987717 -26.0123781776 -2.2600268504
39.1245192819 -26.0399011045 -2.2600268775
39.2129577996 -26.0402285544 -2.2600268779
39.2761229233 -26.0393412435 -2.2600268770
39.2887539862 -26.0390516748 -2.2600268767
39.3518934125 -26.0370434378 -2.2600268747
39.4276111852 -26.0334012058 -2.2600268711
39.4402240136 -26.0326635334 -2.2600268704
39.4528346046 -26.0318885532 -2.2600268696
39.4906518501 -26.0293398352 -2.2600268671
39.3147459971 -26.0625223693 -2.2600268999
39.4289868596 -26.0575350576 -2.2600268949
39.4670326426 -26.0551969650 -2.2600268926
39.4797097743 -26.0543425815 -2.2600268918
39.5303913632 -26.0505501518 -2.2600268880
39.5430544715 -26.0495083620 -2.2600268870
39.5705312898 -26.0713887454 -2.2600269086
39.5832558669 -26.0702281233 -2.2600269075
39.7769403992 -26.0722560329 -2.2600269095
39.1360795956 -26.1367461617 -2.2600269731
39.2911130594 -26.1357150044 -2.2600269721
39.7289979665 -26.1029487126 -2.2600269397
39.7418152103 -26.1013191793 -2.2600269381
39.9206936356 -26.0745324018 -2.2600269117
38.9799812409 -26.1564212032 -2.2600269925
39.4733918211 -26.1516797374 -2.2600269878
39.8863209766 -26.1047581538 -2.2600269415
39.8991428847 -26.1026632227 -2.2600269395
39.9503668630 -26.0939044828 -2.2600269308
39.9159622297 -26.1243695353 -2.2600269609
39.9931410343 -26.1107023540 -2.2600269474
39.4896766205 -26.1990378894 -2.2600270346
39.6858702007 -26.1811428654 -2.2600270169
40.1134812697 -26.1112768406 -2.2600269480
39.2010377355 -26.2336768044 -2.2600270687
40.0538676397 -26.1482514515 -2.2600269844
38.9489540984 -26.2516929417 -2.2600270865
39.5632308975 -26.2903951405 -2.2600271247
39.1339334581 -26.3301184766 -2.2600271639
39.7129203588 -26.2996919856 -2.2600271339
39.9000367410 -26.2739314375 -2.2600271085
40.0594577258 -26.2457004289 -2.2600270806
39.6483016235 -26.3310602954 -2.2600271648
39.4060206214 -26.3734218501 -2.2600272066
39.7485411102 -26.3684665743 -2.2600272017
39.6029331498 -26.4325335335 -2.2600272650
40.7973833127 -26.1904407624 -2.2600270261
39.1600407077 -26.4995470513 -2.2600273311
39.4816848563 -26.4902690718 -2.2600273219
39.6094135218 -26.5047624911 -2.2600273362
39.1456544549 -26.5477983023 -2.2600273787
40.2532865821 -26.4269127297 -2.2600272594
40.2808236972 -26.4205082171 -2.2600272531
39.5712652404 -26.5565355128 -2.2600273873
41.1364907211 -26.2368420999 -2.2600270719
40.0103258877 -26.5987311579 -2.2600274290
40.1093982078 -26.6545679371 -2.2600274841
41.1706518294 -21.5159267486 -2.2600224135
41.0111292789 -20.7915975289 -2.2600216987
41.2152694579 -21.6596627826 -2.2600225553
41.0920429604 -20.6795380373 -2.2600215882
38.5968399930 -26.0144895938 -2.2600268525
38.6365859958 -26.0209198629 -2.2600268588
38.8494254571 -26.0492421373 -2.2600268868
38.9028261413 -26.0547462730 -2.2600268922
38.6061863971 -26.0405292219 -2.2600268782
38.6595010141 -26.0489120851 -2.2600268864
38.7530267908 -26.0620620605 -2.2600268994
38.9676824228 -26.0848290623 -2.2600269219
39.1022977337 -26.0938904021 -2.2600269308
39.2636927168 -26.1236721934 -2.2600269602
39.3043813942 -26.1241802192 -2.2600269607
38.5177723625 -26.0743418135 -2.2600269115
38.9872332772 -26.1833722119 -2.2600270191
38.9378266557 -26.2763906891 -2.2600271109
38.3021750755 -26.2281311280 -2.2600270633
38.8890067748 -26.3448237536 -2.2600271784
39.0598509914 -26.3578477508 -2.2600271913
40.1439350251 -26.4948638709 -2.2600273265
39.8489780136 -26.6794706137 -2.2600275086
41.0094634043 -21.1044798047 -2.2600220075
41.0087515021 -21.1001267015 -2.2600220032
41.0034080735 -21.0697166095 -2.2600219732
40.9825349098 -20.9749650935 -2.2600218797
40.9746055285 -20.9451246706 -2.2600218502
41.0487869348 -21.4535827702 -2.2600223520
41.0515860175 -21.4043576134 -2.2600223034
41.0527396614 -21.3595496875 -2.2600222592
41.0482474787 -21.2251956628 -2.2600221266
41.0380225311 -21.1316366165 -2.2600220343
41.0201840471 -21.0301156677 -2.2600219341
41.0755479338 -21.4098870477 -2.2600223088
41.0719867584 -21.2187773551 -2.2600221203
41.0638045767 -21.1418020223 -2.2600220443
41.0316071762 -20.9718663492 -2.2600218766
41.0247856440 -20.9454082424 -2.2600218505
41.0991297780 -21.2629797080 -2.2600221639
41.0852442775 -21.1203149062 -2.2600220231
41.0845788868 -21.1157375602 -2.2600220186
41.0481387217 -20.9391657236 -2.2600218444
41.0998199388 -21.6265414056 -2.2600225226
41.1203989674 -21.4682439285 -2.2600223664
41.1249795343 -21.3086801292 -2.2600222090
41.1491042901 -21.3796794990 -2.2600222790
41.1360034248 -21.6921259925 -2.2600225873
41.1693295402 -21.4624067341 -2.2600223607
41.1671282954 -21.1965103292 -2.2600220983
41.1051025888 -21.9596331128 -2.2600228513
41.1847135842 -20.9903061682 -2.2600218948
41.1498900476 -20.8552390277 -2.2600217615
41.2416551034 -21.4677011125 -2.2600223659
41.3098894617 -21.5202385630 -2.2600224177
41.2484233526 -20.8474520695 -2.2600217539
41.1615798115 -24.3308941829 -2.2600251912
41.2142364832 -24.3847434659 -2.2600252443
41.1437698408 -24.4497724759 -2.2600253085
40.6014874484 -24.7507116073 -2.2600256054
40.8395042256 -24.9768187147 -2.2600258285
38.4636593824 -26.1233078330 -2.2600269598
38.6055201998 -26.1529798112 -2.2600269891
38.6339942158 -26.1584099079 -2.2600269945
38.7196020390 -26.1736881260 -2.2600270095
38.7338957909 -26.1760866669 -2.2600270119
38.4441547866 -26.1436795482 -2.2600269799
38.9606345778 -26.2327047069 -2.2600270678
38.1976685109 -26.1059166991 -2.2600269427
38.5963232020 -26.2004430217 -2.2600270359
39.1033924792 -26.2717093022 -2.2600271063
39.3224504559 -26.2861169272 -2.2600271205
37.8827044560 -26.0314895969 -2.2600268692
38.0361185701 -26.0828472468 -2.2600269199
38.3047572033 -26.1597074755 -2.2600269958
38.5340340962 -26.2126413103 -2.2600270480
37.7774634776 -26.0188425530 -2.2600268568
38.0006661038 -26.0968821450 -2.2600269338
38.1419478792 -26.1402598858 -2.2600269766
37.7411805923 -26.0309199233 -2.2600268687
37.9574233528 -26.1336191621 -2.2600269700
39.8998487662 -26.3744613557 -2.2600272077
37.6680040666 -26.0542733461 -2.2600268917
37.9498514336 -26.1565756715 -2.2600269927
38.1938293751 -26.2303011665 -2.2600270654
39.9314891508 -26.3963298088 -2.2600272292
38.1004785518 -26.2288732274 -2.2600270640
39.4064834292 -26.4341463059 -2.2600272666
38.1810126356 -26.2769173903 -2.2600271114
38.2541361850 -26.2964416044 -2.2600271307
37.6412558543 -26.1216792115 -2.2600269582
38.7392852526 -26.4218270310 -2.2600272544
37.9411783581 -26.2808893899 -2.2600271153
38.3402459271 -26.3925166392 -2.2600272255
37.6719838930 -26.2115003068 -2.2600270469
38.2149599857 -26.3861525491 -2.2600272192
37.7650106420 -26.2718316984 -2.2600271064
37.9558212432 -26.3363367109 -2.2600271700
40.2833909418 -26.5275004267 -2.2600273587
40.3446846424 -26.5183124985 -2.2600273496
38.5671240013 -26.5147858511 -2.2600273461
37.4720351373 -26.2089763412 -2.2600270444
38.1210819881 -26.4359062493 -2.2600272683
37.4625898821 -26.2312276881 -2.2600270663
38.1752420076 -26.4756742420 -2.2600273075
38.2360700599 -26.4914345395 -2.2600273231
40.3092627936 -26.5970207470 -2.2600274273
38.0625732825 -26.4695965256 -2.2600273015
37.6794299897 -26.3692737637 -2.2600272025
38.7368394994 -26.6415758453 -2.2600274712
38.8152956899 -26.6528392775 -2.2600274824
37.8974231873 -26.5206926849 -2.2600273520
37.6889748019 -26.6807744279 -2.2600275099
37.3176097095 -26.6160906806 -2.2600274461
37.4786929510 -26.8620203013 -2.2600276888
40.9639793835 -21.0923312394 -2.2600219955
40.9614354304 -21.0640233171 -2.2600219676
40.9912801840 -21.2208279820 -2.2600221223
40.9911005940 -21.1447292629 -2.2600220472
40.9877922919 -21.0868396688 -2.2600219901
40.9851117223 -21.0579697928 -2.2600219616
41.0158043789 -21.1660896558 -2.2600220683
41.0157409950 -21.1623943510 -2.2600220646
41.0394196522 -21.1431137949 -2.2600220456
41.0343225564 -21.0641763905 -2.2600219677
41.0460909148 -21.4023216167 -2.2600223014
41.0639670256 -21.2152338881 -2.2600221168
41.0563319339 -21.4754106237 -2.2600223735
41.0679148704 -21.4179149486 -2.2600223168
41.0485996348 -21.5959466761 -2.2600224924
41.0833162483 -21.4651485770 -2.2600223634
41.0992703972 -21.3749835515 -2.2600222744
41.1078008909 -21.2998202616 -2.2600222002
41.0475447708 -21.6721791413 -2.2600225677
41.0586985170 -21.6417314227 -2.2600225376
41.0989139676 -21.5057480799 -2.2600224034
41.1147908432 -21.4303983206 -2.2600223291
41.1362586187 -21.2249901492 -2.2600221264
41.1345908581 -21.1074896838 -2.2600220105
41.0686725100 -21.6846159309 -2.2600225799
41.1513900431 -21.3490600869 -2.2600222488
40.6598945131 -22.6986306619 -2.2600235805
40.6614304334 -22.8090701903 -2.2600236895
41.6396077713 -21.0508091056 -2.2600219545
40.8977318237 -22.7148077873 -2.2600235965
40.9277107507 -23.5154100078 -2.2600243865
41.0905472605 -24.2392497234 -2.2600251007
40.9429963305 -24.3507025342 -2.2600252107
40.2332383374 -24.8956218673 -2.2600257484
38.6026063365 -26.3669644986 -2.2600272003
38.8138069103 -26.4344983755 -2.2600272669
39.7081711595 -26.5199542979 -2.2600273512
39.6445067777 -26.5430563338 -2.2600273740
38.1258695056 -26.3124797037 -2.2600271465
40.0101089639 -26.5631093650 -2.2600273938
37.8617135249 -26.2461456709 -2.2600270810
37.9518278183 -26.2791567471 -2.2600271136
38.6860939859 -26.5084042611 -2.2600273398
37.5461470239 -26.1688178774 -2.2600270047
38.8717174968 -26.5672443338 -2.2600273979
39.4459974409 -26.6801401340 -2.2600275093
37.8344467917 -26.3650005191 -2.2600271983
38.9729275324 -26.6563875073 -2.2600274859
39.1160096720 -26.6995830607 -2.2600275285
37.0977944197 -26.0818948204 -2.2600269190
37.1886198369 -26.1575645953 -2.2600269936
37.2033388841 -26.1651689548 -2.2600270011
36.7928703280 -26.2425214167 -2.2600270775
40.9758899142 -21.1603832597 -2.2600220627
40.9772838730 -21.1434141407 -2.2600220459
40.9800995004 -21.2889413852 -2.2600221895
40.9916320638 -21.2289553132 -2.2600221303
40.9938271006 -21.2145757245 -2.2600221161
40.9999632798 -21.1625760544 -2.2600220648
40.9838067022 -21.3691277528 -2.2600222686
40.9974563729 -21.3203332673 -2.2600222205
41.0109043247 -21.2592090938 -2.2600221602
41.0448920557 -21.1973131694 -2.2600220991
41.0045683269 -21.5188437855 -2.2600224164
41.0058818314 -21.5159309540 -2.2600224135
41.0291875054 -21.4598805738 -2.2600223582
41.3847634671 -21.2016968986 -2.2600221034
41.3932658440 -21.3183712298 -2.2600222185
41.3988948017 -21.4088355851 -2.2600223078
41.4313392985 -21.7475899972 -2.2600226421
41.4411570460 -21.7266502383 -2.2600226214
40.7878675955 -22.7873076321 -2.2600236680
40.9174533931 -24.4288472849 -2.2600252878
39.7899226186 -24.6601040208 -2.2600255160
40.9160251384 -24.6788399183 -2.2600255345
39.7790644146 -24.8289664743 -2.2600256826
39.3642277532 -26.6352818952 -2.2600274650
38.9015060460 -26.5856022206 -2.2600274160
39.2129282692 -26.6397615168 -2.2600274694
38.6198377777 -26.5457991251 -2.2600273767
38.1083568877 -26.4400750904 -2.2600272724
38.1560587384 -26.4568334636 -2.2600272889
37.9890615565 -26.4219287515 -2.2600272545
38.2604912489 -26.5172860601 -2.2600273486
37.9645984630 -26.4384682222 -2.2600272708
37.3710487312 -26.3344568144 -2.2600271682
37.1705716292 -26.3388241425 -2.2600271725
37.4228895913 -26.4677695601 -2.2600272997
36.7446046328 -26.5693022202 -2.2600273999
40.9429531775 -21.1601277925 -2.2600220624
40.9827766471 -21.1998132310 -2.2600221016
40.9778689234 -21.2892758815 -2.2600221898
40.9695556569 -21.4141014541 -2.2600223130
40.9671398377 -21.4631122401 -2.2600223614
41.3623344939 -21.2770754440 -2.2600221778
41.3706622542 -21.3376232232 -2.2600222375
41.3927953323 -21.3479113302 -2.2600222477
41.4023204645 -21.3151718750 -2.2600222154
41.4092407274 -21.2887863953 -2.2600221894
41.3728127912 -21.4726306100 -2.2600223708
41.4006369959 -21.4012888919 -2.2600223004
41.4063092429 -21.3848325664 -2.2600222841
41.4111121672 -21.4426576297 -2.2600223412
41.3994400234 -21.5313252623 -2.2600224287
41.3770888187 -21.6269041831 -2.2600225230
40.5718699445 -22.7439585660 -2.2600236252
40.6008936005 -22.9596415381 -2.2600238381
40.3337675264 -24.3858908340 -2.2600252454
39.8968184181 -24.4360953194 -2.2600252950
40.5710079016 -24.4715416109 -2.2600253299
39.4765464727 -24.6342315608 -2.2600254905
37.1577817759 -26.5604326437 -2.2600273912
36.8541866311 -26.5492003644 -2.2600273801
34.3448172697 -25.5176841444 -2.2600263622
34.4985640057 -26.8636461186 -2.2600276904
34.4820044491 -26.9152222817 -2.2600277413
34.8841942089 -27.3491943039 -2.2600281695
34.7591076028 -27.3048506963 -2.2600281257
34.8717086447 -27.4020383144 -2.2600282216
35.0052316760 -27.5128765706 -2.2600283310
33.7623175103 -26.3024558598 -2.2600271366
34.8057644027 -27.4411570548 -2.2600282602
34.1012741194 -26.8017894629 -2.2600276293
34.8667826558 -27.5241863126 -2.2600283422
35.3080650704 -27.8974614801 -2.2600287105
48.5627771503 -22.9711115986 -2.2600238494
48.5685435443 -22.9466332996 -2.2600238252
48.5742375017 -22.9221380496 -2.2600238011
48.5685141932 -23.0502287202 -2.2600239275
48.5745146048 -23.0257331038 -2.2600239033
48.5804425277 -23.0012198443 -2.2600238791
48.5797318071 -23.1050909949 -2.2600239816
35.4732229143 -28.1018156716 -2.2600289121
35.4401289886 -28.1961803129 -2.2600290053
35.9243545674 -28.6398488132 -2.2600294430
41.3379589466 -21.4369951651 -2.2600223356
41.3555346714 -21.4047517463 -2.2600223038
40.5024431455 -22.8974442310 -2.2600237767
40.5073010411 -22.9217916495 -2.2600238007
40.7762774440 -24.2940687558 -2.2600251548
39.9722376026 -24.5164101933 -2.2600253742
39.3519522369 -24.3786167643 -2.2600252383
34.1215309104 -24.3535457541 -2.2600252135
34.1184104531 -24.5020653894 -2.2600253601
34.0683535455 -25.8943732160 -2.2600267339
34.0610820404 -26.0834019980 -2.2600269205
48.4504979824 -24.3701152244 -2.2600252299
48.4604431126 -24.3467835141 -2.2600252068
48.4866626143 -24.4690573309 -2.2600253275
48.4564285695 -24.5958277228 -2.2600254526
48.4775850542 -24.5490959470 -2.2600254065
48.4996358690 -24.5590003324 -2.2600254162
48.4460130355 -24.7328200870 -2.2600255878
48.4534489621 -24.9383688590 -2.2600257906
48.4633436150 -24.9725500622 -2.2600258243
48.4612071470 -25.0301904830 -2.2600258812
48.4731048524 -25.0068242049 -2.2600258581
48.4586642381 -25.0879444118 -2.2600259382
48.4647647118 -25.1804407499 -2.2600260295
48.4655904492 -25.3316712543 -2.2600261787
48.5075752518 -25.6971476152 -2.2600265393
48.5214457341 -25.6736412537 -2.2600265161
48.5143993946 -25.7329897327 -2.2600265747
48.5069284637 -25.7924181153 -2.2600266333
48.5133601264 -25.8284416850 -2.2600266689
48.5276189750 -25.8049176362 -2.2600266457
48.5052127468 -25.8880453728 -2.2600267277
48.5376442302 -25.9733296925 -2.2600268118
40.9350172987 -21.7650842686 -2.2600226593
41.3366739092 -21.8130681925 -2.2600227067
41.3293984237 -22.0469794479 -2.2600229375
39.8740558794 -24.6918658487 -2.2600255474
39.8497870790 -24.7116544632 -2.2600255669
39.4381921206 -24.7532028374 -2.2600256079
40.7543071814 -25.2802636541 -2.2600261280
34.0557964601 -24.2713681011 -2.2600251324
34.0562772662 -24.5032049104 -2.2600253612
34.0623412120 -24.5711167837 -2.2600254282
34.0550534816 -24.7183669473 -2.2600255735
34.0494063161 -25.3508383746 -2.2600261976
34.0375172480 -25.7363540326 -2.2600265780
48.3862431817 -25.2807210356 -2.2600261284
48.3847794126 -25.3379930633 -2.2600261849
48.3963856859 -25.3147201457 -2.2600261620
48.3925869767 -25.4296272818 -2.2600262753
48.3962320447 -25.5795622934 -2.2600264233
48.4226149604 -25.6838184863 -2.2600265262
48.4054630148 -25.7654576990 -2.2600266067
48.4183337154 -25.7421217252 -2.2600265837
48.4816486617 -25.6248763756 -2.2600264680
48.4136383484 -25.8005237439 -2.2600266413
48.4778175967 -25.6833414524 -2.2600265257
48.4115202496 -26.0473267627 -2.2600268849
48.5133349244 -26.3002882761 -2.2600271345
40.9611724490 -21.7193165443 -2.2600226142
41.3822825802 -21.8334788754 -2.2600227268
41.3916389348 -21.8042525562 -2.2600226980
41.3824494664 -21.9032534727 -2.2600227957
41.3793791839 -22.0266981929 -2.2600229175
41.3726605627 -22.0896877209 -2.2600229796
40.6198718980 -23.0945137228 -2.2600239712
40.3066475999 -24.7956553951 -2.2600256498
39.5071441697 -25.1239290600 -2.2600259737
37.7503760185 -25.1689565524 -2.2600260181
34.2805521722 -26.0926727072 -2.2600269296
34.4602983858 -26.9374991618 -2.2600277632
35.1992270996 -27.9414645626 -2.2600287539
48.5582635468 -23.9937986940 -2.2600248585
48.5662480887 -24.0498763336 -2.2600249139
48.5738577169 -24.1061366302 -2.2600249694
48.5730816167 -24.1870940224 -2.2600250493
48.5810905512 -24.1625771054 -2.2600250251
48.6074592116 -24.9269489197 -2.2600257793
40.9459116735 -21.7171474063 -2.2600226120
40.9663312327 -21.7437845395 -2.2600226383
40.9625729373 -21.8657008771 -2.2600227586
40.9728429208 -21.8294021793 -2.2600227228
40.9792540344 -21.8032296064 -2.2600226970
40.9798525015 -21.8006021703 -2.2600226944
40.9781031975 -21.8964727426 -2.2600227890
40.9789774997 -21.8938483028 -2.2600227864
40.9848797087 -21.8754064174 -2.2600227682
41.0028154152 -21.8086329958 -2.2600227023
41.0140340029 -21.7516450001 -2.2600226461
40.9855982510 -21.9468449528 -2.2600228387
40.9906362175 -21.9335808708 -2.2600228256
41.0045655320 -21.8933619354 -2.2600227859
41.0306162721 -21.7946301693 -2.2600226885
41.0311890759 -21.7918508319 -2.2600226858
41.0112551469 -21.9474451388 -2.2600228393
41.0384636609 -21.8645469790 -2.2600227575
41.0392432569 -21.8617441218 -2.2600227547
40.9959600531 -22.0434852912 -2.2600229341
41.0183021226 -21.9947115050 -2.2600228859
41.0365937599 -22.0703830229 -2.2600229606
41.0465657458 -22.1039042771 -2.2600229937
41.0473978864 -22.1523554006 -2.2600230415
41.3736267872 -21.7992269342 -2.2600226930
41.3753478070 -21.7878396927 -2.2600226818
41.3758990150 -21.7840406069 -2.2600226780
41.3769677037 -21.7764376266 -2.2600226705
41.3779913920 -21.7688284567 -2.2600226630
41.3714750672 -21.9292813354 -2.2600228214
41.3902051967 -21.8453323714 -2.2600227385
41.3956561649 -21.8145286844 -2.2600227081
41.3854857175 -21.9698914990 -2.2600228614
41.3968475742 -21.9275920753 -2.2600228197
41.4188543357 -21.8223868518 -2.2600227159
40.6158871235 -22.8654669032 -2.2600237451
41.3907093059 -22.0346061227 -2.2600229253
41.4260083743 -21.9098434867 -2.2600228022
41.4493567644 -21.7823029353 -2.2600226763
41.4443353876 -22.0260086251 -2.2600229168
41.4100593640 -22.1848928159 -2.2600230736
41.4709901673 -22.0980885286 -2.2600229879
40.6991682713 -23.0664529930 -2.2600239435
40.9869791832 -24.7799776681 -2.2600256343
40.4879206426 -24.9528299983 -2.2600258049
40.5805216521 -24.9650067136 -2.2600258169
40.6897536020 -24.9473106731 -2.2600257994
40.7338579986 -24.9637397441 -2.2600258156
40.6076608698 -25.0098551171 -2.2600258611
39.9762359465 -25.0709810687 -2.2600259214
40.9832954772 -24.9564130074 -2.2600258084
40.0788747004 -25.0970403233 -2.2600259472
39.1566979493 -25.3198708573 -2.2600261670
40.0129188110 -26.6918783152 -2.2600275209
38.9866626581 -26.6207421343 -2.2600274507
39.5115207771 -26.7080258214 -2.2600275368
38.4950662420 -26.5121562982 -2.2600273435
38.7292828115 -26.5821807384 -2.2600274126
38.1233599633 -26.4537502899 -2.2600272859
39.0720496413 -26.7373829286 -2.2600275658
38.4131626006 -26.6124094274 -2.2600274425
38.6522141997 -26.6861967249 -2.2600275153
38.1456676317 -26.5667280729 -2.2600273974
37.8021493685 -26.4448123926 -2.2600272771
38.3601058703 -26.6710231777 -2.2600275003
36.2751000152 -26.3378377140 -2.2600271715
40.9654292062 -21.7044934570 -2.2600225996
40.9831621837 -21.7894460277 -2.2600226834
40.9838681376 -21.7832384836 -2.2600226773
40.9875603605 -21.7428000115 -2.2600226374
40.9887394094 -21.7240946801 -2.2600226189
40.9899661963 -21.6928820855 -2.2600225881
40.9891413221 -21.6179315691 -2.2600225141
40.9967568854 -21.8617565488 -2.2600227547
41.0078943210 -21.7858988958 -2.2600226799
41.0141319739 -21.6934740982 -2.2600225887
41.0143242128 -21.6838901826 -2.2600225792
40.9994804104 -21.9584530397 -2.2600228501
41.0060783936 -21.9331658578 -2.2600228252
41.0205338212 -21.8661145999 -2.2600227590
41.0249408795 -21.8403550815 -2.2600227336
41.0375010658 -21.7169194195 -2.2600226118
41.0386146849 -21.6614008405 -2.2600225570
41.0624635289 -21.6946581238 -2.2600225898
41.0614218880 -21.6112259384 -2.2600225075
41.0283471030 -22.0299533860 -2.2600229207
41.0478928272 -21.9646284471 -2.2600228562
41.0710372686 -21.8580388614 -2.2600227511
41.0742484487 -21.8378338154 -2.2600227311
41.0761897884 -21.8243334967 -2.2600227178
41.0867077729 -21.6918412242 -2.2600225871
41.0869724232 -21.6645646127 -2.2600225602
41.0299863536 -22.0964878838 -2.2600229864
41.0576911715 -22.0176817055 -2.2600229086
41.1099460815 -21.7201961935 -2.2600226150
41.0661597492 -22.0686978648 -2.2600229589
41.1343686173 -22.0145161858 -2.2600229055
41.0496585867 -22.2817389249 -2.2600231692
41.3892182473 -21.8543170845 -2.2600227474
41.3960943034 -21.7895952917 -2.2600226835
41.4141073556 -21.9929261700 -2.2600228842
41.4178600280 -21.9753936253 -2.2600228669
40.8509748399 -23.0513351400 -2.2600239286
40.9468411381 -24.8628722966 -2.2600257161
40.7813801069 -24.9356322778 -2.2600257879
41.1964582648 -24.9028597372 -2.2600257556
40.7797144219 -25.1851910293 -2.2600260341
40.8602150637 -25.2398323966 -2.2600260881
39.0781181775 -26.4174526502 -2.2600272501
39.3576319106 -26.4837681650 -2.2600273155
39.6148070171 -26.5076330723 -2.2600273391
39.6563994039 -26.5344115297 -2.2600273655
39.8725817400 -26.5419478280 -2.2600273729
38.5021111657 -26.3525128417 -2.2600271860
38.3564056553 -26.3310002629 -2.2600271648
38.9180288378 -26.4846604199 -2.2600273164
40.2359068322 -26.5814384148 -2.2600274119
39.9741178745 -26.6146974312 -2.2600274447
39.5481663620 -26.6240138671 -2.2600274539
39.7971689467 -26.6613213072 -2.2600274907
39.8119435918 -26.6617051232 -2.2600274911
38.0745969050 -26.3302241916 -2.2600271640
39.5148061227 -26.6698195764 -2.2600274991
40.1380085009 -26.6832422506 -2.2600275124
37.8868748960 -26.2773688863 -2.2600271119
38.9369258993 -26.6119687891 -2.2600274420
37.5289921058 -26.1561024683 -2.2600269922
37.5422821465 -26.1631981722 -2.2600269992
39.2840445433 -26.7182126685 -2.2600275469
39.6891325172 -26.7539911158 -2.2600275822
37.5175754402 -26.1774096274 -2.2600270132
37.8851463366 -26.3558518414 -2.2600271893
38.0247269509 -26.4144094421 -2.2600272471
37.4261118770 -26.1549078493 -2.2600269910
38.5775302491 -26.6259844948 -2.2600274559
37.4410396409 -26.1908391867 -2.2600270265
37.4678477079 -26.2055109973 -2.2600270410
37.6578686083 -26.3037374706 -2.2600271379
38.3079151835 -26.5696892458 -2.2600274003
37.5512493631 -26.2770816592 -2.2600271116
38.9185936033 -26.7808667191 -2.2600276087
37.2050384895 -26.1376861268 -2.2600269740
37.0214507543 -26.0783502164 -2.2600269155
37.1546561420 -26.2202148102 -2.2600270555
36.7589607372 -26.0136707049 -2.2600268517
37.0752975545 -26.2279693619 -2.2600270631
36.8620614105 -26.1165515962 -2.2600269532
37.2963885402 -26.3870208068 -2.2600272201
36.6901761774 -26.0531121624 -2.2600268906
36.9147573632 -26.2106427531 -2.2600270460
36.8475897000 -26.1945689345 -2.2600270302
36.6000904893 -26.3758096075 -2.2600272090
40.9866277637 -21.6633337086 -2.2600225589
40.9850423279 -21.6492111733 -2.2600225450
40.9832898986 -21.6351083863 -2.2600225311
40.9764443292 -21.5894345583 -2.2600224860
41.0175229902 -21.7873888057 -2.2600226814
41.0174032690 -21.7728920191 -2.2600226670
41.0171120234 -21.7583976640 -2.2600226527
41.0156338174 -21.7221857301 -2.2600226170
41.0110431172 -21.6643836934 -2.2600225600
41.0086171157 -21.6427736791 -2.2600225387
40.9964507734 -21.5639860656 -2.2600224609
41.0402635480 -21.8501386867 -2.2600227433
41.0414886864 -21.8132018500 -2.2600227068
41.0412768768 -21.7577690576 -2.2600226521
41.0411753037 -21.7540746053 -2.2600226485
41.0326143644 -21.6398638103 -2.2600225358
41.0415240979 -22.0380969378 -2.2600229287
41.0429685329 -22.0307019810 -2.2600229214
41.0443691916 -22.0232986079 -2.2600229141
41.0654969832 -21.8211787641 -2.2600227147
41.0461163688 -22.1250484739 -2.2600230145
41.0613605258 -22.0616002228 -2.2600229519
41.0715066975 -22.0088264260 -2.2600228999
41.0852043613 -21.9022454944 -2.2600227947
41.0877273462 -21.8677889643 -2.2600227607
41.1080040476 -21.6622313774 -2.2600225579
41.0853566784 -22.1643743221 -2.2600230533
41.1184856368 -22.0208931691 -2.2600229118
41.1211217798 -22.0051853989 -2.2600228963
41.1247270493 -21.9815680087 -2.2600228730
41.1281181873 -21.6242721218 -2.2600225204
41.0696444281 -22.2862514940 -2.2600231736
41.1619397909 -21.8316301511 -2.2600227250
41.1351038834 -21.5173100504 -2.2600224148
41.0906793873 -22.2988445711 -2.2600231860
41.1867179609 -21.7828676615 -2.2600226769
41.0872279003 -22.3695757088 -2.2600232558
41.1952925503 -22.0001789150 -2.2600228913
41.1144701966 -22.3677370256 -2.2600232540
41.1328924548 -22.4431507524 -2.2600233284
40.9891618969 -25.0250629252 -2.2600258761
41.2536089381 -24.9411898353 -2.2600257934
41.2955020888 -25.1346466212 -2.2600259843
41.0725888471 -25.3805289855 -2.2600262269
40.2002683042 -25.6286931453 -2.2600264718
38.9971116479 -26.2078022765 -2.2600270432
38.6668564011 -26.1603796458 -2.2600269964
38.7445953771 -26.1796665070 -2.2600270154
38.7835901731 -26.1887917641 -2.2600270245
38.9665665440 -26.2267850257 -2.2600270619
39.0586054916 -26.2429321064 -2.2600270779
39.3896068372 -26.2849744606 -2.2600271194
38.5442705303 -26.1521104626 -2.2600269883
38.8568305628 -26.2296558878 -2.2600270648
39.0811727023 -26.2710693752 -2.2600271056
38.3571416673 -26.1196421450 -2.2600269562
38.4470927877 -26.1484308355 -2.2600269846
38.7202515060 -26.2235394424 -2.2600270587
38.7333706449 -26.2266914633 -2.2600270619
39.4525276130 -26.3386510208 -2.2600271723
39.7895246188 -26.3513259210 -2.2600271848
38.6094094689 -26.2202837852 -2.2600270555
38.6619104030 -26.2339705870 -2.2600270690
38.9266414026 -26.2930367200 -2.2600271273
39.0468145102 -26.3144862139 -2.2600271485
38.3160688052 -26.1568747419 -2.2600269930
38.3213183365 -26.1841452304 -2.2600270199
38.1836527569 -26.1613993091 -2.2600269974
38.2484795891 -26.1847142170 -2.2600270204
38.5375375613 -26.2758146735 -2.2600271103
38.8994229398 -26.3616301923 -2.2600271950
39.7205752735 -26.4474660758 -2.2600272797
37.9692284567 -26.1026570894 -2.2600269395
38.0203823937 -26.1239270450 -2.2600269604
38.2143603767 -26.1982620527 -2.2600270338
38.5176929289 -26.2953430777 -2.2600271296
38.8764954333 -26.4063905383 -2.2600272392
39.2615487187 -26.4663362767 -2.2600272983
40.4002790854 -26.4569321128 -2.2600272890
38.5584777165 -26.3567822401 -2.2600271902
37.9409901137 -26.1694524001 -2.2600270054
40.0564958320 -26.5373668841 -2.2600273684
40.2947893175 -26.5180866350 -2.2600273494
37.6745782820 -26.0739913086 -2.2600269112
37.8279454385 -26.1464534037 -2.2600269827
37.9968801557 -26.2187573882 -2.2600270540
38.0099883135 -26.2240492933 -2.2600270592
38.4641875072 -26.3806054456 -2.2600272137
37.8506007652 -26.2358485250 -2.2600270709
40.5610238570 -26.5801147014 -2.2600274106
40.2788709142 -26.6412383515 -2.2600274709
41.0303464773 -26.5057702619 -2.2600273372
40.9239987483 -26.5572646191 -2.2600273880
39.9931569793 -26.7098250501 -2.2600275386
40.5437391893 -26.6562483128 -2.2600274857
37.8387589785 -26.3360947734 -2.2600271698
37.8926841923 -26.3588921624 -2.2600271923
38.0013249550 -26.4025648456 -2.2600272354
40.0964634154 -26.7287394994 -2.2600275572
40.3152262933 -26.7103879300 -2.2600275391
37.6285165878 -26.2667268809 -2.2600271014
37.8157101186 -26.3524765444 -2.2600271860
38.2837863698 -26.5278909012 -2.2600273591
39.4219117271 -26.7484504402 -2.2600275767
39.8333952776 -26.7620987206 -2.2600275902
40.9407488923 -26.6278227527 -2.2600274577
41.3305003048 -26.5437721212 -2.2600273747
37.9663244916 -26.4926999224 -2.2600273243
37.4156382208 -26.4579178498 -2.2600272900
37.4432952597 -26.4718974973 -2.2600273038
37.8586752942 -26.8139147886 -2.2600276413
37.3565684882 -26.6447440338 -2.2600274744
37.2222668563 -26.8748275407 -2.2600277014
37.3991106616 -27.2256402962 -2.2600280476
41.0416390508 -21.8720245112 -2.2600230033
41.0010707866 -21.5957888457 -2.2600227307
41.0905174742 -21.9789876756 -2.2600231088
41.0437247230 -21.5676795132 -2.2600227030
41.1140104396 -21.9968474394 -2.2600231265
41.1149818760 -21.8944435737 -2.2600230254
41.0453922360 -21.4877858561 -2.2600226241
41.1090087872 -22.2301921778 -2.2600233567
41.1346877646 -21.8114973195 -2.2600229436
41.0904494841 -21.5552642877 -2.2600226907
41.1527691472 -22.3554493885 -2.2600234803
41.2292324193 -22.2455606068 -2.2600233719
41.8338800068 -24.5577229052 -2.2600256534
39.0637372504 -26.0860405425 -2.2600271615
39.0883247947 -26.0895707967 -2.2600271650
39.1622067166 -26.0992879111 -2.2600271746
39.1868709134 -26.1022353551 -2.2600271775
39.2733238567 -26.1114012388 -2.2600271865
39.4219067548 -26.1229431556 -2.2600271979
38.7776042336 -26.0586506042 -2.2600271345
38.8509863203 -26.0738873130 -2.2600271495
39.0108379400 -26.1024181664 -2.2600271776
39.5202764736 -26.1518619983 -2.2600272264
39.5327603492 -26.1522944955 -2.2600272269
39.5577316655 -26.1530486921 -2.2600272276
38.9079838747 -26.1093659177 -2.2600271845
38.9327121457 -26.1138172530 -2.2600271889
39.3062578576 -26.1629468141 -2.2600272374
39.6198748464 -26.1784588803 -2.2600272527
39.7580593963 -26.1779302123 -2.2600272522
38.4978245142 -26.0381821958 -2.2600271143
38.8663781728 -26.1261531079 -2.2600272011
39.0407203832 -26.1559416052 -2.2600272305
39.0532184253 -26.1577926982 -2.2600272323
39.3419477282 -26.1901327907 -2.2600272642
39.7964367689 -26.2011685742 -2.2600272751
38.8244146479 -26.1425289743 -2.2600272172
39.3274093493 -26.2132304504 -2.2600272870
39.6446838415 -26.2270422462 -2.2600273006
39.7463271959 -26.2265030349 -2.2600273001
39.9367526495 -26.2190108793 -2.2600272927
39.9494333414 -26.2182110709 -2.2600272919
38.6823334308 -26.1362299139 -2.2600272110
39.0209324378 -26.2018459936 -2.2600272758
39.3127314386 -26.2362791475 -2.2600273097
39.3509439582 -26.2393043628 -2.2600273127
39.5550985667 -26.2497049454 -2.2600273230
39.5806458049 -26.2503252768 -2.2600273236
38.6767907562 -26.1597589181 -2.2600272342
38.8400726680 -26.1949235663 -2.2600272689
38.9665246785 -26.2176861890 -2.2600272914
39.0299893483 -26.2276623305 -2.2600273012
39.1445707388 -26.2432498590 -2.2600273166
39.5929768822 -26.2747477133 -2.2600273477
39.7086121937 -26.2753315336 -2.2600273483
38.7090155945 -26.1920080293 -2.2600272660
39.0614071116 -26.2810724845 -2.2600273539
39.9686263099 -26.3138461503 -2.2600273863
38.4579263022 -26.1776246672 -2.2600272519
38.7877411618 -26.2584143487 -2.2600273316
39.2006416319 -26.3226933560 -2.2600273950
39.7614596036 -26.3471072422 -2.2600274191
38.3757038481 -26.1785142502 -2.2600272527
38.6546200579 -26.2538749351 -2.2600273271
38.8602438619 -26.2972045767 -2.2600273698
39.5518071931 -26.3705252621 -2.2600274422
38.8298681219 -26.3160595961 -2.2600273885
39.0513129804 -26.3528856173 -2.2600274248
38.7862207211 -26.3321039780 -2.2600274043
39.3250986436 -26.4070366086 -2.2600274782
39.5903140446 -26.4197614350 -2.2600274908
38.6900384962 -26.3363978507 -2.2600274085
38.9390131889 -26.3846459050 -2.2600274561
39.0412188492 -26.4246987502 -2.2600274957
38.3403982001 -26.2941079061 -2.2600273668
39.2635432654 -26.4989164282 -2.2600275689
38.6236251156 -26.4452301344 -2.2600275159
39.4232829338 -26.5588372852 -2.2600276280
40.2032955654 -26.5350789796 -2.2600276046
40.7029388427 -26.4495771084 -2.2600275202
41.0600969261 -26.3529780028 -2.2600274249
38.3714695535 -26.4294395369 -2.2600275003
38.3847795802 -26.4332691982 -2.2600275041
39.0728545023 -26.5996874049 -2.2600276683
38.3853849785 -26.5339277051 -2.2600276034
40.4235007250 -26.7001954882 -2.2600277675
38.3177221755 -26.6152046504 -2.2600276836
39.6117530611 -26.8310801007 -2.2600278967
39.0327984768 -26.9113734288 -2.2600279759
41.1332476047 -21.7492945141 -2.2600226438
41.0010535078 -21.3786312660 -2.2600222780
39.4180986289 -26.0223220657 -2.2600268602
39.4413474196 -26.0232298381 -2.2600268611
39.4994893325 -26.0248973710 -2.2600268627
39.5343840803 -26.0254850468 -2.2600268633
39.5926069070 -26.0499492439 -2.2600268874
39.6628302018 -26.0491582878 -2.2600268867
39.7914917666 -26.0444719659 -2.2600268820
39.5808883645 -26.0741329114 -2.2600269113
39.6986350308 -26.0724583052 -2.2600269097
39.8750333932 -26.0634190800 -2.2600269007
39.3085908226 -26.0888841808 -2.2600269259
39.7822050752 -26.0933572828 -2.2600269303
40.0183818472 -26.0745888157 -2.2600269118
40.0091580664 -26.0998964136 -2.2600269367
39.6767652156 -26.1455716147 -2.2600269818
40.1663656185 -26.1044771112 -2.2600269413
40.1900873702 -26.1009564469 -2.2600269378
39.2293785824 -26.1797135682 -2.2600270155
39.8717926364 -26.1848306564 -2.2600270205
39.4953749933 -26.2182378227 -2.2600270535
40.4171869288 -26.1339960949 -2.2600269704
40.1681259978 -26.2019115753 -2.2600270374
40.5835117586 -26.1458798794 -2.2600269821
40.2363528387 -26.2405675916 -2.2600270755
40.6254384880 -26.1602589996 -2.2600269963
39.5053639428 -26.3393243083 -2.2600271730
39.1770372298 -26.3448575474 -2.2600271785
39.7722960860 -26.4084128478 -2.2600272412
40.2299017249 -26.3638621074 -2.2600271972
39.5543569876 -26.5333276898 -2.2600273644
39.7119580473 -26.5315525593 -2.2600273627
39.0929645129 -26.5306007730 -2.2600273617
40.4661881125 -26.7157381810 -2.2600275444
40.6568160351 -26.6752146091 -2.2600275044
41.1216367914 -26.6174129988 -2.2600274474
40.9192412370 -26.7315940309 -2.2600275601
40.9919875829 -22.7316489500 -2.2600236131
41.1343006457 -21.9810186054 -2.2600228724
41.1428341558 -21.5867367945 -2.2600224834
41.3220573115 -21.8194234142 -2.2600227130
41.1930694616 -21.4089924746 -2.2600223080
39.7522878865 -25.9769748841 -2.2600268154
39.7742215066 -25.9755576576 -2.2600268140
39.7961463581 -25.9740106892 -2.2600268125
39.8071052558 -25.9731885686 -2.2600268117
39.8199769615 -25.9964310652 -2.2600268346
39.9080972037 -25.9883767361 -2.2600268267
39.9410894431 -25.9848190706 -2.2600268232
40.0100968869 -26.0007963905 -2.2600268389
40.0211340854 -25.9993412483 -2.2600268375
40.0652383854 -25.9931943745 -2.2600268314
40.0872624883 -25.9899253439 -2.2600268282
40.0908823180 -26.0138258066 -2.2600268518
40.1130280347 -26.0104046967 -2.2600268484
40.1351531233 -26.0068526253 -2.2600268449
40.1572568094 -26.0031697166 -2.2600268413
40.1167892042 -26.0342833250 -2.2600268720
40.0194694121 -26.0727072611 -2.2600269099
40.2880433405 -26.0279575637 -2.2600268657
40.3324675568 -26.0186504923 -2.2600268566
40.3821544119 -26.0323860984 -2.2600268701
40.4434462987 -26.0427633373 -2.2600268804
40.4769001074 -26.0344526072 -2.2600268722
40.5387663380 -26.0432862729 -2.2600268809
39.8237012214 -26.1901119002 -2.2600270258
39.8816631581 -26.1852460401 -2.2600270210
40.6346226879 -26.0413983834 -2.2600268790
39.9770034110 -26.1996930188 -2.2600270352
40.2012118427 -26.1918423355 -2.2600270275
40.7158791151 -26.0672147896 -2.2600269045
40.2985258524 -26.1984283915 -2.2600270340
40.8356174558 -26.0531310807 -2.2600268906
40.9079527953 -26.0787531811 -2.2600269159
39.8828509909 -26.3307623050 -2.2600271645
40.9840079110 -26.0761550650 -2.2600269133
40.0538353378 -26.3363804533 -2.2600271701
41.0378771295 -26.0810753439 -2.2600269182
40.4650721997 -26.2861314166 -2.2600271205
41.1560169291 -26.1109225666 -2.2600269476
41.0965486445 -26.3695613465 -2.2600272028
40.9796509458 -22.6202157542 -2.2600235031
41.0055857130 -22.6051138553 -2.2600234882
41.0212328421 -22.6753394268 -2.2600235575
41.0260884461 -22.6392337186 -2.2600235219
41.2274832415 -22.5606696251 -2.2600234444
41.2250261731 -22.3097267263 -2.2600231968
41.2128549361 -22.2027881156 -2.2600230912
41.2780746399 -22.5163360860 -2.2600234006
41.2623960177 -22.8347304564 -2.2600237148
40.3284104348 -25.9490350805 -2.2600267879
40.3963447142 -25.9571633627 -2.2600267959
40.4067093375 -25.9544907443 -2.2600267933
40.4544342739 -25.9668189565 -2.2600268054
40.4752116781 -25.9610992246 -2.2600267998
40.4855875993 -25.9581932862 -2.2600267969
40.5338324252 -25.9694514974 -2.2600268080
40.5753786211 -25.9569495476 -2.2600267957
40.6033344611 -25.9735781134 -2.2600268121
40.6241492487 -25.9669773198 -2.2600268056
40.6941368815 -25.9693236111 -2.2600268079
40.7228428516 -25.9850251459 -2.2600268234
40.7541471771 -25.9740167832 -2.2600268125
40.7097022378 -26.0150954454 -2.2600268531
40.7936746315 -25.9854263908 -2.2600268238
40.8249797286 -25.9737894200 -2.2600268123
40.7914716831 -26.0119634511 -2.2600268500
40.8439816732 -25.9924440348 -2.2600268307
40.4334273408 -26.1472765615 -2.2600269835
40.9875556357 -25.9869982980 -2.2600268253
40.9980059293 -25.9825766402 -2.2600268210
40.9229670216 -26.0395474047 -2.2600268772
41.0493899060 -25.9867163728 -2.2600268251
41.0906074066 -25.9948578527 -2.2600268331
41.2578914647 -25.9959614754 -2.2600268342
41.8672192823 -26.1214194525 -2.2600269580
40.8983029269 -22.5554843591 -2.2600234393
40.9890303839 -22.4794918934 -2.2600233643
41.0438317298 -22.5606319614 -2.2600234444
41.2312678217 -22.8019100612 -2.2600236824
41.2258825675 -22.4233801452 -2.2600233089
41.2489702145 -22.8610237589 -2.2600237408
41.2450091727 -22.3843423634 -2.2600232704
41.2349415386 -22.3227933031 -2.2600232097
41.2311009370 -22.3023611520 -2.2600231895
41.2120913512 -22.2160818972 -2.2600231044
41.2492061720 -23.0043346244 -2.2600238822
41.2814412074 -22.4907864772 -2.2600233754
41.2517503069 -22.2822511927 -2.2600231697
41.2380551320 -22.2205272013 -2.2600231088
41.2858626598 -22.9411236833 -2.2600238198
41.2982518298 -22.8565860190 -2.2600237364
41.3024113069 -22.8194350294 -2.2600236997
41.3071618457 -22.5100999558 -2.2600233945
41.3020750970 -22.4515772553 -2.2600233367
41.2978477173 -22.4144339310 -2.2600233001
41.2793635408 -23.0880977550 -2.2600239648
41.3194872326 -22.8809958489 -2.2600237605
41.2221044007 -22.0022253048 -2.2600228933
41.1837275908 -21.9068406885 -2.2600227992
41.3201675859 -23.0192843826 -2.2600238969
41.3316399085 -22.9600689973 -2.2600238385
41.3510558943 -22.8188602384 -2.2600236992
41.3135667225 -22.2249204293 -2.2600231131
41.2330836135 -21.9630826668 -2.2600228547
41.2628097248 -23.3012419383 -2.2600241752
41.3302539620 -23.0838453510 -2.2600239606
41.3061001918 -22.1013617083 -2.2600229912
41.1881969086 -21.8019401956 -2.2600226957
41.2524567256 -21.8830546665 -2.2600227757
41.3899460991 -23.0398080854 -2.2600239172
41.4279719017 -22.7691883835 -2.2600236501
41.4090467963 -22.3374602133 -2.2600232241
41.3006381734 -21.9367122481 -2.2600228287
41.2390328102 -21.7957815174 -2.2600226896
41.1634823244 -21.6553087668 -2.2600225510
41.4435832857 -22.8627576188 -2.2600237425
41.4262292687 -22.2938718591 -2.2600231811
41.2632903490 -21.7904165697 -2.2600226843
41.2157352849 -21.6981054917 -2.2600225932
41.3895640804 -23.2305791606 -2.2600241054
41.4805178232 -22.6733080215 -2.2600235555
41.4433539550 -23.1298059422 -2.2600240060
41.5047268916 -22.6028031629 -2.2600234860
41.4394806104 -22.1295029629 -2.2600230189
41.2990713344 -21.7534831152 -2.2600226479
41.5334536127 -22.9219914455 -2.2600238009
41.4933195126 -23.3749853440 -2.2600242479
41.7221025502 -22.9685773575 -2.2600238469
40.9119672711 -25.9187328196 -2.2600267580
40.9216686434 -25.9145602263 -2.2600267539
41.0190391105 -25.9240681806 -2.2600267632
41.1273769937 -25.9259977117 -2.2600267651
41.1564998577 -25.9114820014 -2.2600267508
41.2062616575 -25.9131830608 -2.2600267525
41.2271426260 -25.9295631678 -2.2600267687
41.2968817156 -25.9197237958 -2.2600267589
41.3668100029 -25.9084394405 -2.2600267478
41.3592494287 -25.9404723140 -2.2600267794
41.3884916158 -25.9238982959 -2.2600267631
41.4907512494 -25.9198125646 -2.2600267590
41.5744417651 -25.9249981411 -2.2600267642
41.5873126471 -25.9454597070 -2.2600267843
41.3969288053 -19.1063913803 -2.2600200359
41.3864759175 -19.1008139899 -2.2600200304
41.3655208741 -19.0897520955 -2.2600200194
41.5141979887 -19.1159746504 -2.2600200453
41.8678740265 -25.9612759064 -2.2600268000
41.5575275522 -19.1130405866 -2.2600200424
41.9310707871 -25.9454806229 -2.2600267844
41.5906250398 -19.1044186170 -2.2600200339
41.5801654687 -19.0982682467 -2.2600200278
41.8903175017 -19.0934476877 -2.2600200231
41.9353425626 -19.0948079496 -2.2600200244
42.1208640115 -19.0783063866 -2.2600200082
42.1813123355 -19.0629432517 -2.2600199930
40.7338893809 -19.0430499032 -2.2600199734
40.7115340967 -19.0361038951 -2.2600199665
40.6891381089 -19.0292902699 -2.2600199598
40.6667022013 -19.0226092662 -2.2600199532
40.7747894730 -19.0307186800 -2.2600199612
40.7635803108 -19.0271082073 -2.2600199576
40.8608674925 -19.0340793547 -2.2600199645
40.8384569132 -19.0263822585 -2.2600199569
40.8272346446 -19.0225834649 -2.2600199532
40.9249480012 -19.0311817841 -2.2600199617
41.0006010012 -19.0336353879 -2.2600199641
41.0092596450 -19.0110663124 -2.2600199418
41.2056495256 -19.0131138610 -2.2600199438
40.9645676038 -22.2822105999 -2.2600231696
41.1573260561 -23.2879490378 -2.2600241620
41.1862455242 -22.9521894855 -2.2600238307
41.0543878594 -23.7280060340 -2.2600245963
41.2987533989 -22.6529314240 -2.2600235354
40.0408255706 -19.0277413813 -2.2600199583
40.0291125123 -19.0265227368 -2.2600199571
39.9822257674 -19.0219948077 -2.2600199526
39.9704959661 -19.0209495371 -2.2600199516
39.9726059645 -18.9968687733 -2.2600199278
40.2386824740 -18.9802654088 -2.2600199114
40.4559775217 -18.9950477075 -2.2600199260
40.4205213021 -18.9878127951 -2.2600199189
40.3850022729 -18.9808928218 -2.2600199120
