3.4693266481 -23.6687937910 -2.7000386618
3.4620145816 -23.6302822645 -2.7000386237
3.4613436152 -23.6270851130 -2.7000386206
3.4585652615 -23.6143167746 -2.7000386080
3.4963627339 -23.6844774162 -2.7000386772
3.4958519363 -23.6811784195 -2.7000386740
3.4908162667 -23.6515595548 -2.7000386447
3.4718647750 -23.5668797116 -2.7000385612
3.5212701195 -23.6875578972 -2.7000386803
3.5186614466 -23.6707097299 -2.7000386636
3.5113862975 -23.6304460665 -2.7000386239
3.5079339996 -23.6137503319 -2.7000386074
3.5042351430 -23.5971074844 -2.7000385910
3.5002905369 -23.5805211648 -2.7000385746
3.4888907992 -23.5376872853 -2.7000385324
3.4769133369 -23.4985640086 -2.7000384938
3.4737025670 -23.4888515472 -2.7000384842
3.4715142232 -23.4823925682 -2.7000384778
3.4681601534 -23.4727286577 -2.7000384683
3.4647204539 -23.4630948932 -2.7000384588
3.5149618561 -23.5410741246 -2.7000385357
3.4955078509 -23.4778635744 -2.7000384733
3.4751156938 -23.4223118627 -2.7000384185
3.5272036887 -23.4971316937 -2.7000384924
3.5228830551 -23.4835931658 -2.7000384790
3.4783303873 -23.3675588403 -2.7000383645
3.4788498481 -23.3118135804 -2.7000383095
3.5133181765 -23.3277356076 -2.7000383252
2.8798145061 -22.3991491778 -2.7000374089
2.7859103600 -22.3452515274 -2.7000373557
2.7957165407 -22.1481732580 -2.7000371613
2.9419863242 -22.0634210801 -2.7000370776
2.7851154360 -21.9474654749 -2.7000369632
3.3257651505 -21.2492237344 -2.7000362742
3.4953790868 -21.2907398935 -2.7000363152
3.0972471048 -21.1523710792 -2.7000361787
3.4820110781 -21.2586955188 -2.7000362836
3.3422428621 -21.2037723742 -2.7000362294
3.5454394512 -21.2599968635 -2.7000362849
3.3028623138 -21.1642596138 -2.7000361904
3.3026636385 -21.1386526531 -2.7000361651
3.3589091440 -21.1326902879 -2.7000361592
2.6166043986 -20.9719882211 -2.7000360007
2.7330807804 -20.9351840542 -2.7000359644
2.6662034456 -20.9036070925 -2.7000359332
2.4473163592 -20.8905953950 -2.7000359204
2.7037217059 -20.8831578984 -2.7000359130
2.8159316840 -20.8486398405 -2.7000358790
0.2906453900 -18.5296236818 -2.7000335907
0.2344327870 -18.5259604543 -2.7000335870
-0.3596962268 -18.5594874010 -2.7000336201
-0.7174889877 -18.6477054918 -2.7000337072
-0.6328469321 -18.5426157646 -2.7000336035
-1.1908357043 -18.7522415526 -2.7000338103
-1.7874998168 -18.6870016175 -2.7000337459
-2.2054609223 -18.9873796622 -2.7000340423
3.4457601589 -23.8636485572 -2.7000390924
3.4488114728 -23.8215332828 -2.7000390509
3.4504909806 -23.7793410311 -2.7000390093
3.4735517969 -23.8111721340 -2.7000390407
3.4738975355 -23.8033590422 -2.7000390330
3.4748752327 -23.7290781390 -2.7000389597
3.4748110255 -23.7251682931 -2.7000389558
3.4743165180 -23.7056228532 -2.7000389365
3.4731386725 -23.6782760739 -2.7000389095
3.4976979252 -23.8123122072 -2.7000390418
3.4988140874 -23.7167736082 -2.7000389475
3.4897595622 -23.5897231633 -2.7000388221
3.4892830527 -23.5857698966 -2.7000388182
3.5204815062 -23.8377341091 -2.7000390669
3.5211934941 -23.6716484414 -2.7000389030
3.5201844961 -23.6554663979 -2.7000388870
3.5175924597 -23.6231437901 -2.7000388551
3.5168249888 -23.6150734298 -2.7000388472
3.5127810940 -23.5788188210 -2.7000388114
3.5045764000 -23.5226717038 -2.7000387560
3.5466559375 -23.6991301024 -2.7000389301
3.5015635005 -23.3937075306 -2.7000386287
3.5697156823 -23.8241146829 -2.7000390534
3.5716571219 -23.7360256819 -2.7000389665
3.5696929670 -23.6731153845 -2.7000389044
3.5579963874 -23.5520204504 -2.7000387849
3.5508496850 -23.5064186193 -2.7000387399
3.5447221037 -23.4734121083 -2.7000387074
3.5948295441 -23.8040804883 -2.7000390337
3.5957333018 -23.7699499203 -2.7000390000
3.5801030634 -23.5359948976 -2.7000387691
3.6126696605 -23.8959003712 -2.7000391243
3.5511184167 -23.3044032878 -2.7000385406
3.5402104164 -23.2714469850 -2.7000385081
3.6427762112 -23.8147463210 -2.7000390442
3.6223021170 -23.4940263841 -2.7000387277
3.6104928725 -23.4334175012 -2.7000386679
3.5916405200 -23.3563010356 -2.7000385918
3.5700903865 -23.2844867950 -2.7000385210
3.6953083951 -23.4907536194 -2.7000387245
3.6705125201 -23.2812328742 -2.7000385177
3.6266241328 -23.1572968857 -2.7000383954
3.5759175392 -22.8930726620 -2.7000381347
3.7426540358 -23.1912333206 -2.7000384289
2.9187068031 -22.0341050816 -2.7000372871
2.8402761657 -21.9752489339 -2.7000372291
2.8543192042 -21.9547748282 -2.7000372089
2.8436927106 -21.9506578145 -2.7000372048
2.8383703761 -21.9486229019 -2.7000372028
3.8192315204 -21.5330687437 -2.7000367927
3.6848448545 -21.4091821540 -2.7000366705
3.9142247817 -21.5455522882 -2.7000368051
3.5558448870 -21.3017353314 -2.7000365645
3.0068756114 -21.0605238583 -2.7000363264
3.6330660722 -21.3192988141 -2.7000365818
3.1423894791 -21.0043717637 -2.7000362710
3.0351616310 -20.9427066827 -2.7000362102
3.1587834986 -20.9588901493 -2.7000362262
2.6544444134 -20.8013328204 -2.7000360707
0.9450036455 -18.6769944859 -2.7000339745
1.1970694346 -18.5989089970 -2.7000338974
0.6929760570 -18.6933878695 -2.7000339907
0.6183638594 -18.7155372392 -2.7000340125
0.6862683414 -18.6701641352 -2.7000339678
1.2302061766 -18.5192117443 -2.7000338188
1.0710273525 -18.5251273861 -2.7000338246
0.2391658938 -18.7693983787 -2.7000340657
0.3562608413 -18.6746390914 -2.7000339722
-0.2082827975 -18.8577466566 -2.7000341528
-0.3274026220 -18.8356918164 -2.7000341311
-0.1764308926 -18.7356682771 -2.7000340324
-0.4626187147 -18.8240612268 -2.7000341196
-0.5847610761 -18.8078301539 -2.7000341036
3.4753683222 -23.9499324219 -2.7000391776
3.5204870418 -23.6579166635 -2.7000388894
3.4988107845 -23.9558304081 -2.7000391834
3.5330629239 -23.7779922780 -2.7000390079
3.5336933169 -23.7732656584 -2.7000390033
3.5470396775 -23.6022015496 -2.7000388345
3.5469967186 -23.5211460437 -2.7000387545
3.5455662665 -23.4830259708 -2.7000387169
3.5428793197 -23.4401951704 -2.7000386746
3.5174186431 -23.9804748366 -2.7000392077
3.5465741038 -23.8481683817 -2.7000390772
3.5543178146 -23.8003938378 -2.7000390300
3.5580619782 -23.3517092473 -2.7000385873
3.5559090321 -23.9246203973 -2.7000391526
3.5840775427 -23.7600940375 -2.7000389903
3.5914514448 -23.4414240262 -2.7000386758
3.5832703821 -23.3583392919 -2.7000385938
3.6194919022 -23.5192843522 -2.7000387526
3.6174761309 -23.4694969698 -2.7000387035
3.6338176358 -23.7507833291 -2.7000389811
3.6441188928 -23.5439318723 -2.7000387770
3.6497146168 -23.3087873580 -2.7000385449
3.6655830574 -23.8692693539 -2.7000390980
3.6723571361 -23.8282456605 -2.7000390575
3.6913992709 -23.6265515280 -2.7000388585
3.7161996153 -23.6063661917 -2.7000388386
3.7099677825 -23.2297019893 -2.7000384669
2.9974051851 -22.0726842285 -2.7000373252
2.9016435482 -21.9804834856 -2.7000372342
2.8875657492 -21.9719724119 -2.7000372258
3.7172184058 -22.9691542622 -2.7000382098
3.3554076493 -21.1253364414 -2.7000363904
3.3748410428 -21.1086962616 -2.7000363740
1.1901514615 -18.8179276364 -2.7000341136
1.5123218935 -18.7541475713 -2.7000340506
0.9756158187 -18.8319729946 -2.7000341274
1.0271304388 -18.7972001495 -2.7000340931
1.9834613644 -18.6874450296 -2.7000339848
0.3404250659 -18.9555502037 -2.7000342494
0.3131965566 -18.9650682389 -2.7000342587
0.3188271195 -18.9374700510 -2.7000342315
0.2505975719 -18.9618881900 -2.7000342556
0.3659600448 -18.8957519762 -2.7000341904
0.2065132737 -18.9266396072 -2.7000342208
0.1928070432 -18.9317747498 -2.7000342259
0.1381358250 -18.9527200961 -2.7000342466
2.3516280692 -18.6079562468 -2.7000339064
2.4566484606 -18.5935921019 -2.7000338922
2.4148391121 -18.5651008574 -2.7000338641
2.2371746558 -18.5512395400 -2.7000338504
0.7285242960 -18.6645364991 -2.7000339622
1.6256953834 -18.5033064271 -2.7000338031
0.2977449176 -18.7401931185 -2.7000340369
1.3663928328 -18.4772331107 -2.7000337774
0.2521207131 -18.6535958902 -2.7000339514
0.3320760328 -18.6014895687 -2.7000339000
0.5109090401 -18.4969677301 -2.7000337968
0.0675594166 -18.6431685623 -2.7000339411
3.0832296852 -22.1972183046 -2.7000374481
3.1049083832 -22.1853122039 -2.7000374363
3.0409240284 -22.1153194054 -2.7000373673
3.0224975839 -22.0964906780 -2.7000373487
2.9616953437 -22.0381039336 -2.7000372911
3.0803612488 -22.1218028901 -2.7000373737
3.5626291701 -23.6568361665 -2.7000388884
3.5825763864 -23.4957583721 -2.7000387294
3.5662082305 -23.7630538802 -2.7000389932
3.5697878013 -23.7469974338 -2.7000389773
3.6099056691 -23.4484174481 -2.7000386827
3.6283801678 -23.5272377007 -2.7000387605
3.6365126048 -23.3330674776 -2.7000385689
3.1372278555 -22.0764721762 -2.7000373289
3.5913004909 -23.8610578404 -2.7000390899
3.6561248958 -23.4846365864 -2.7000387185
3.6600028898 -23.4059657084 -2.7000386408
3.1739234122 -22.0808490176 -2.7000373333
3.6598343367 -23.6617221592 -2.7000388932
3.6834490208 -23.2756270316 -2.7000385122
3.6572975148 -23.0264569724 -2.7000382663
3.5235738072 -24.1819521262 -2.7000394065
3.6363272013 -23.8795618797 -2.7000391081
3.7091202862 -23.3554268907 -2.7000385910
3.7090767685 -23.3381182317 -2.7000385739
3.6952464341 -23.1194261081 -2.7000383581
3.6727928826 -22.9769779982 -2.7000382175
3.5144891655 -24.2551245401 -2.7000394787
3.6777813103 -22.8867512048 -2.7000381285
3.7569581630 -23.3969042521 -2.7000386319
3.7753599708 -23.5109882000 -2.7000387445
3.7587232367 -23.7882389094 -2.7000390180
3.8046622888 -23.2829582706 -2.7000385194
3.7042405862 -24.1300208489 -2.7000393553
3.8333794607 -23.6460647503 -2.7000388777
3.8517116535 -23.2503684406 -2.7000384873
3.5786170451 -21.1651606954 -2.7000364297
1.1070156694 -19.0084441078 -2.7000343016
1.3888288475 -18.9511660111 -2.7000342450
1.3237840635 -18.9571185170 -2.7000342509
1.3107860702 -18.9584244300 -2.7000342522
1.2069527912 -18.9702547121 -2.7000342639
1.1939941684 -18.9719061756 -2.7000342655
1.1551484055 -18.9770904670 -2.7000342706
1.1422102307 -18.9788951473 -2.7000342724
1.0905126150 -18.9864963613 -2.7000342799
1.7016078644 -18.9118402252 -2.7000342062
1.5965628149 -18.9144354290 -2.7000342088
1.5047208920 -18.9187447788 -2.7000342130
1.4784986269 -18.9203252379 -2.7000342146
1.2039323363 -18.9462711316 -2.7000342402
1.0090625246 -18.9752177940 -2.7000342688
0.9315064402 -18.9892125852 -2.7000342826
1.0401911636 -18.9210146008 -2.7000342153
1.4739215826 -18.8479507382 -2.7000341432
1.5247514568 -18.7966135025 -2.7000340925
1.0285819205 -18.8494307827 -2.7000341446
2.3491677552 -18.8046068636 -2.7000341004
1.2262047115 -18.7974643384 -2.7000340934
2.6441044046 -18.7788357546 -2.7000340750
2.3448393678 -18.7309375062 -2.7000340277
1.2177822261 -18.7254360157 -2.7000340223
1.6708008531 -18.6705683215 -2.7000339682
1.4079741341 -18.6829005139 -2.7000339803
2.9641351677 -18.7525620896 -2.7000340491
2.8959806419 -18.7352369302 -2.7000340320
2.9213348475 -18.6917130479 -2.7000339890
1.2291696956 -18.5781626969 -2.7000338770
1.0460343039 -18.6020524622 -2.7000339005
3.1063854216 -18.7166447310 -2.7000340136
1.1131278566 -18.5680749371 -2.7000338670
1.0989799238 -18.5700057114 -2.7000338689
1.5086299179 -18.4827779425 -2.7000337828
3.5247077820 -18.7815144154 -2.7000340776
3.3750859249 -18.7264793247 -2.7000340233
1.1609263640 -18.4887933773 -2.7000337888
3.4652985971 -18.7332204143 -2.7000340300
0.9217408779 -18.3770702458 -2.7000336785
0.9318382276 -18.2528989652 -2.7000335560
3.1059897753 -22.2112219540 -2.7000374619
3.0870965659 -22.1807174239 -2.7000374318
3.0704025770 -22.1548867606 -2.7000374063
3.0296866699 -22.0957971528 -2.7000373480
3.0206456256 -22.0833576077 -2.7000373357
3.1307460917 -22.1592915249 -2.7000374107
3.7429139428 -23.0835226865 -2.7000383227
3.7476356137 -23.5417634302 -2.7000387748
3.8262947639 -23.5172302641 -2.7000387506
1.7084192065 -19.0316078325 -2.7000343244
1.6842984568 -19.0311765718 -2.7000343240
1.8422971808 -19.0123912515 -2.7000343054
2.0284885919 -18.9780146037 -2.7000342715
2.2025009157 -18.9743858979 -2.7000342679
2.0676994005 -18.9577358425 -2.7000342515
1.9570509639 -18.9473810492 -2.7000342413
2.2427300153 -18.9557786604 -2.7000342496
2.6986735011 -18.9249574304 -2.7000342192
2.3992096537 -18.8592243604 -2.7000341543
1.8283816117 -18.7938559724 -2.7000340898
1.7262296362 -18.7902151197 -2.7000340862
2.0779318828 -18.7400505583 -2.7000340367
2.2223217817 -18.5379834016 -2.7000338373
2.3204623391 -18.5274650413 -2.7000338269
2.8627984900 -18.6184766485 -2.7000339167
3.1373343526 -22.4104433168 -2.7000376585
3.0537864209 -22.1745533574 -2.7000374257
3.1045659309 -22.2338113741 -2.7000374842
3.1655710196 -22.3347137478 -2.7000375838
3.1530339128 -22.2962713308 -2.7000375458
3.1464250896 -22.2771640709 -2.7000375270
3.1270903517 -22.2250372218 -2.7000374755
3.2032298186 -22.3766292516 -2.7000376251
3.2018363098 -22.3716962860 -2.7000376203
3.7635109855 -23.2479177098 -2.7000384849
3.8235644637 -22.8142968827 -2.7000380570
3.7582872512 -23.4829780775 -2.7000387168
3.7727558670 -23.4301885243 -2.7000386647
3.8509170090 -22.5311331523 -2.7000377776
3.9190687873 -22.7636078166 -2.7000380070
3.7701598241 -23.7454699405 -2.7000389758
3.8896919009 -23.4607555984 -2.7000386949
3.7076482886 -24.0947566598 -2.7000393205
3.9158245119 -23.6284146617 -2.7000388603
4.0147958337 -23.6366529410 -2.7000388685
4.2376067334 -22.3474771292 -2.7000375964
4.2798318087 -22.4564102000 -2.7000377038
4.2805498315 -22.3143339520 -2.7000375637
2.3383973541 -19.0450077002 -2.7000343376
2.4224005083 -19.0389163938 -2.7000343316
2.4111368576 -19.0363078665 -2.7000343290
2.3660065696 -19.0262072944 -2.7000343191
2.3547055699 -19.0237656461 -2.7000343167
2.3320821492 -19.0189826940 -2.7000343119
2.5069980512 -19.0346844416 -2.7000343274
2.4618418432 -19.0234497090 -2.7000343164
2.4392146783 -19.0180329082 -2.7000343110
2.6439245871 -19.0218935823 -2.7000343148
2.7187520081 -19.0190847294 -2.7000343121
2.6960945222 -19.0121480382 -2.7000343052
2.6847504884 -19.0087299916 -2.7000343018
2.3981392112 -18.9342625330 -2.7000342284
2.7940262284 -19.0177348143 -2.7000343107
2.7713594385 -19.0103527991 -2.7000343034
2.7486493708 -19.0031050175 -2.7000342963
2.9004343650 -19.0030451920 -2.7000342962
2.9655432232 -19.0010060453 -2.7000342942
2.7357342655 -18.9231434638 -2.7000342174
2.5666197207 -18.8503350384 -2.7000341455
3.1629404099 -19.0014709633 -2.7000342947
3.3175725208 -18.9906494622 -2.7000342840
3.3061621711 -18.9853930654 -2.7000342788
3.1423004216 -18.8882294917 -2.7000341829
3.2456329934 -18.6693126809 -2.7000339669
3.3782189625 -18.6996488342 -2.7000339968
3.0812816718 -22.2752064338 -2.7000375250
3.1319152531 -22.5207754161 -2.7000377674
3.0975134496 -22.2328051027 -2.7000374832
3.1568217154 -22.5642424548 -2.7000378102
3.1718846360 -22.3950517606 -2.7000376433
3.1672732065 -22.3554563268 -2.7000376042
3.8244504165 -23.4315154668 -2.7000386660
3.9835105043 -23.0375605244 -2.7000382773
4.2907848508 -23.1038789571 -2.7000383427
4.3429026777 -21.8281982297 -2.7000370840
3.2127154558 -25.8921824526 -2.7000410941
3.2632518225 -25.8929868828 -2.7000410949
3.2730737814 -25.8877460514 -2.7000410897
3.2828801939 -25.8824761877 -2.7000410845
3.0180595786 -19.0752459765 -2.7000343675
3.0898883684 -19.0808119901 -2.7000343730
3.4580449185 -25.8946247441 -2.7000410965
3.2240688494 -19.0911968824 -2.7000343832
3.2555000633 -19.0798918911 -2.7000343721
3.3181263952 -19.0848662288 -2.7000343770
3.4558918759 -19.0770211713 -2.7000343692
3.5091610202 -19.0795084591 -2.7000343717
3.5956843278 -19.0743313247 -2.7000343666
3.6495896247 -19.0788391871 -2.7000343710
3.8702807712 -19.0778218433 -2.7000343700
3.0470502235 -22.7781412018 -2.7000380213
3.1288381471 -22.5260377055 -2.7000377726
3.1197969203 -22.6980746469 -2.7000379423
3.1299408706 -22.6550522477 -2.7000378999
3.1556694848 -22.6505501123 -2.7000378954
3.2823288651 -22.6341529781 -2.7000378792
3.8150393698 -22.1163206883 -2.7000373683
3.8461534575 -22.2871085991 -2.7000375368
3.7915528151 -21.7932701903 -2.7000370495
4.2138267879 -23.0055569312 -2.7000382457
4.2434554875 -22.9874548387 -2.7000382279
3.7070896825 -19.1814800601 -2.7000344723
2.6296999252 -25.9640925437 -2.7000411651
2.6622118435 -25.9540026649 -2.7000411551
2.6730290931 -25.9505753037 -2.7000411517
2.6838361567 -25.9471159582 -2.7000411483
2.7129588541 -25.9630686100 -2.7000411641
2.7238027004 -25.9594910903 -2.7000411605
2.7640808150 -25.9714426395 -2.7000411723
2.8590623537 -25.9633995880 -2.7000411644
2.9109849815 -25.9697532088 -2.7000411707
2.6833313271 -26.0993455329 -2.7000412985
3.0484755205 -25.9667810004 -2.7000411677
3.0593288807 -25.9622109455 -2.7000411632
4.0540595747 -19.2030817002 -2.7000344936
3.1546628875 -25.9734543480 -2.7000411743
4.1060537759 -19.2149303870 -2.7000345053
3.2081992959 -25.9756714453 -2.7000411765
4.1399240855 -19.2119598259 -2.7000345024
3.2620171632 -25.9771334825 -2.7000411779
3.3269909666 -25.9724723233 -2.7000411733
3.4580883683 -25.9869024447 -2.7000411876
3.1280172872 -22.6016635669 -2.7000378472
3.0244465125 -22.8752238273 -2.7000381171
3.0369172040 -22.8536546943 -2.7000380958
3.0538373361 -22.8231530665 -2.7000380657
3.0585553028 -22.8143745920 -2.7000380571
3.0701222797 -22.7923076328 -2.7000380353
3.0769053556 -22.7789861869 -2.7000380221
3.0702577824 -22.8435356657 -2.7000380858
3.0726834814 -22.8391012538 -2.7000380815
3.0962149636 -22.7943699741 -2.7000380373
3.1007618981 -22.7853412830 -2.7000380284
3.1248096178 -22.7352139685 -2.7000379790
3.1643052713 -22.6421745673 -2.7000378871
3.1573075429 -22.7219495271 -2.7000379659
3.1849564317 -22.6557309060 -2.7000379005
3.1835913941 -22.7222034698 -2.7000379661
3.8088634218 -21.8869185813 -2.7000371419
3.8225585268 -21.7653494764 -2.7000370219
3.8799296052 -21.8620842278 -2.7000371174
3.8496763588 -22.5471252488 -2.7000377934
3.8013339651 -21.3182553666 -2.7000365808
3.7568310219 -20.8424693800 -2.7000361113
4.0636038663 -22.4659684387 -2.7000377133
4.3239045532 -22.5208323321 -2.7000377674
4.0624920732 -23.4462991834 -2.7000386806
4.1288944645 -23.3758502646 -2.7000386111
4.4635260537 -22.1300626389 -2.7000373818
4.1509613876 -23.4367774265 -2.7000386712
2.0691788291 -25.9711263680 -2.7000411720
2.1275436068 -25.9633473719 -2.7000411643
2.0604377698 -25.9965714479 -2.7000411971
2.0956966496 -25.9920842062 -2.7000411927
2.1543685011 -25.9839107089 -2.7000411846
2.2246055502 -25.9729583941 -2.7000411738
2.2479733359 -25.9690308065 -2.7000411699
2.1578807730 -26.0078272142 -2.7000412082
2.2402990774 -25.9948505354 -2.7000411954
2.2637961097 -25.9908297164 -2.7000411914
2.3504796671 -25.9993871622 -2.7000411999
2.3622440950 -25.9970681759 -2.7000411976
2.4378120501 -26.0060467604 -2.7000412065
2.4849005668 -25.9955283275 -2.7000411961
2.4666416622 -26.0244488124 -2.7000412246
2.5021319421 -26.0163556413 -2.7000412166
2.5257516234 -26.0107853548 -2.7000412111
2.5493379355 -26.0050754238 -2.7000412055
2.0872766780 -26.1150309823 -2.7000413140
2.5906183035 -26.0196745633 -2.7000412199
2.6024416944 -26.0166451147 -2.7000412169
2.6142560719 -26.0135807037 -2.7000412139
2.2845345949 -26.1099023719 -2.7000413089
2.3783191098 -26.1417284267 -2.7000413403
2.3461502835 -26.1724816779 -2.7000413707
2.6507530326 -26.1039676366 -2.7000413031
2.8665119409 -26.0407911494 -2.7000412407
2.7296294428 -26.1074448204 -2.7000413065
2.9771642971 -26.0547000088 -2.7000412545
3.0210556872 -26.0648317561 -2.7000412645
2.6630861570 -26.2006985298 -2.7000413985
2.7984818128 -26.1630026640 -2.7000413613
3.0891907239 -26.0655975236 -2.7000412652
2.3981146385 -26.3102544947 -2.7000415066
2.4281850099 -26.3290041804 -2.7000415251
2.4409241644 -26.3264538854 -2.7000415226
2.7441285402 -26.2540009818 -2.7000414511
3.0692693312 -26.2785724125 -2.7000414754
3.5493856153 -26.0779665591 -2.7000412774
2.9755858512 -26.3357880834 -2.7000415318
3.1061126860 -26.3424680832 -2.7000415384
2.9720553577 -26.4131092196 -2.7000416081
3.7609764363 -26.1054936042 -2.7000413046
2.9961870779 -22.9017180455 -2.7000381433
2.9995311413 -22.8978330415 -2.7000381394
3.0028636975 -22.8939381621 -2.7000381356
3.0853776948 -22.7893184439 -2.7000380323
3.1032599489 -22.7642957059 -2.7000380077
3.1264067848 -22.7304458646 -2.7000379743
2.9973569225 -22.9370595126 -2.7000381781
3.0279771914 -22.9016981715 -2.7000381432
3.0412818247 -22.8857228858 -2.7000381275
3.0705199194 -22.8492104340 -2.7000380914
3.1170571756 -22.7866684987 -2.7000380297
3.0928205258 -22.8599064209 -2.7000381020
3.1306386419 -22.8092388867 -2.7000380520
3.2158079601 -22.7705266946 -2.7000380138
3.2904718904 -22.8329607788 -2.7000380754
3.2747259359 -22.8986417994 -2.7000381402
3.6512086307 -21.5928841056 -2.7000368518
3.6556759701 -21.4382901621 -2.7000366992
3.7015875560 -21.9232838473 -2.7000371778
3.7073872522 -21.7857980199 -2.7000370421
3.7051179531 -21.6721374509 -2.7000369300
3.6998871987 -21.5945248143 -2.7000368534
3.5701874469 -21.0368622444 -2.7000363031
3.7208198742 -21.9794044418 -2.7000372332
3.7302837162 -21.6951768440 -2.7000369527
3.7300554005 -21.6891255285 -2.7000369467
3.6970188058 -21.3945061476 -2.7000366560
3.6076587113 -21.0677785180 -2.7000363336
3.5723122126 -20.9775757488 -2.7000362446
3.7245971361 -22.1275015938 -2.7000373793
3.7360236264 -22.0548732350 -2.7000373076
3.7368593326 -22.0488033660 -2.7000373016
3.7435716883 -21.9940708732 -2.7000372476
3.7557545106 -21.7555561739 -2.7000370123
3.7404000926 -21.5172246301 -2.7000367771
3.6562202860 -21.1348295777 -2.7000363998
3.5623916864 -20.8953829613 -2.7000361635
3.7756369891 -21.9040696323 -2.7000371588
3.5946361535 -20.9077239763 -2.7000361757
3.5655931799 -20.8460369029 -2.7000361148
3.8031724006 -21.7050831753 -2.7000369625
3.7759011450 -21.4244567865 -2.7000366856
3.6883648714 -21.0783806394 -2.7000363441
3.6192408503 -20.9035037226 -2.7000361715
3.5732715330 -20.8073455571 -2.7000360766
3.8163413900 -21.9956342662 -2.7000372492
3.6851386068 -20.9990130425 -2.7000362658
3.5528904364 -20.7181188512 -2.7000359886
3.5339390306 -20.6851248506 -2.7000359560
3.4840251591 -20.6041566009 -2.7000358761
3.7831143278 -22.3133924917 -2.7000375627
3.8261498708 -22.1062656706 -2.7000373583
3.7964157925 -22.3570331722 -2.7000376058
3.8739084752 -22.1137794467 -2.7000373658
3.8818792612 -21.4800594863 -2.7000367404
3.6594315391 -20.7634614158 -2.7000360333
3.9248735466 -21.7941962605 -2.7000370504
3.8969417125 -22.2529561326 -2.7000375031
3.9725905970 -21.8285802287 -2.7000370843
3.9439492367 -21.4036068224 -2.7000366650
4.0458708223 -21.7745824366 -2.7000370310
4.0858143380 -21.5682050191 -2.7000368274
4.1247298224 -22.0649308239 -2.7000373176
4.1603667472 -22.9619579056 -2.7000382027
4.0823171560 -23.1607992157 -2.7000383989
3.8491694814 -23.5397844019 -2.7000387729
3.9234126629 -23.5244116290 -2.7000387577
3.6569391018 -23.8527446772 -2.7000390817
3.9988271518 -23.4649294502 -2.7000386990
3.6964348347 -23.8819109160 -2.7000391105
3.9590285141 -23.5961925640 -2.7000388285
1.4641820289 -25.9620179406 -2.7000411630
1.5138072626 -25.9643319649 -2.7000411653
1.5003439123 -25.9879585272 -2.7000411886
1.5377891090 -25.9894271604 -2.7000411901
1.5502735555 -25.9898428513 -2.7000411905
1.5627591770 -25.9902216091 -2.7000411908
1.5752458644 -25.9905634306 -2.7000411912
1.6002219995 -25.9911362527 -2.7000411918
1.6127112286 -25.9913672483 -2.7000411920
1.6252010864 -25.9915612976 -2.7000411922
1.7251294651 -25.9917834849 -2.7000411924
1.4741909355 -26.0109382024 -2.7000412113
1.5495048544 -26.0140036539 -2.7000412143
1.5620619513 -26.0143845799 -2.7000412147
1.5997392340 -26.0153044595 -2.7000412156
1.6122999592 -26.0155367775 -2.7000412158
1.6876737407 -26.0161503210 -2.7000412164
1.7127992887 -26.0160575342 -2.7000412163
1.7253617469 -26.0159553968 -2.7000412162
1.7379238480 -26.0158160979 -2.7000412161
1.8258393234 -26.0138006245 -2.7000412141
1.4603756125 -26.0344370592 -2.7000412345
1.6624228279 -26.0402671584 -2.7000412402
1.7255940287 -26.0401273088 -2.7000412401
1.8897626447 -26.0353917865 -2.7000412354
2.0158524028 -26.0274557571 -2.7000412276
1.6877092616 -26.0644963639 -2.7000412641
1.8782319859 -26.0601286063 -2.7000412598
1.9163027709 -26.0582408528 -2.7000412580
1.9416733392 -26.0567946833 -2.7000412565
1.9670349075 -26.0551984382 -2.7000412550
2.0177274934 -26.0515559504 -2.7000412514
2.0683734308 -26.0473138994 -2.7000412472
2.0936766902 -26.0449682200 -2.7000412449
2.1189656288 -26.0424728790 -2.7000412424
1.8920855364 -26.0836820060 -2.7000412831
1.9431203999 -26.0809243600 -2.7000412803
2.0578056001 -26.0725131940 -2.7000412720
2.0705335548 -26.0713902186 -2.7000412709
2.0832581319 -26.0702295964 -2.7000412698
2.1468264562 -26.0638621526 -2.7000412635
2.1238553388 -26.0905710273 -2.7000412899
2.1621866108 -26.0865023056 -2.7000412859
1.7781983036 -26.1360126019 -2.7000413347
1.9202155991 -26.1306542999 -2.7000413294
2.0362327535 -26.1228352479 -2.7000413217
2.4206959005 -26.0745338749 -2.7000412740
1.8955698739 -26.1561173353 -2.7000413545
2.2191205098 -26.1285350918 -2.7000413273
2.4503691280 -26.0939059560 -2.7000412932
1.8053539180 -26.1837101077 -2.7000413818
1.9228241513 -26.1789299312 -2.7000413771
1.7009507319 -26.2095054144 -2.7000414072
1.9503557033 -26.2015727434 -2.7000413994
1.9896788855 -26.1990393626 -2.7000413969
2.6134835347 -26.1112783138 -2.7000413103
2.6519792914 -26.1028636011 -2.7000413020
1.6218033885 -26.2332676977 -2.7000414307
1.9386188454 -26.2264734933 -2.7000414240
2.0045138985 -26.2222282298 -2.7000414198
2.7215832273 -26.1115927950 -2.7000413106
1.7542383508 -26.2573407850 -2.7000414544
2.0194887602 -26.2453678805 -2.7000414426
2.7013507541 -26.1411968372 -2.7000413398
1.6745196453 -26.2820436202 -2.7000414788
1.9813430592 -26.2722846760 -2.7000414692
2.8363848314 -26.1325820960 -2.7000413313
1.6339357231 -26.3301199497 -2.7000415262
1.4980779119 -26.3507804346 -2.7000415466
2.5107880980 -26.2795181694 -2.7000414763
1.6061309178 -26.3780797149 -2.7000415736
1.4961117430 -26.3990864933 -2.7000415943
1.7290782556 -26.4027059881 -2.7000415979
1.8808168105 -26.4229561486 -2.7000416179
1.7849359282 -26.4501897289 -2.7000416447
3.1976847487 -26.2000136045 -2.7000413979
1.9801686870 -26.4661452545 -2.7000416605
3.2973855777 -26.1904422356 -2.7000413884
2.2741989839 -26.4627174873 -2.7000416571
2.4680124678 -26.4342801422 -2.7000416290
3.0400740726 -26.3012314992 -2.7000414977
3.2529751057 -26.2320220794 -2.7000414294
3.3581377731 -26.1936584741 -2.7000413916
1.6177261510 -26.5233153779 -2.7000417169
2.3747621688 -26.4734191419 -2.7000416676
2.8083247040 -26.4139423708 -2.7000416090
3.4411640928 -26.2133826742 -2.7000414111
2.3677205217 -26.5232947800 -2.7000417169
3.6593991480 -26.1473297014 -2.7000413459
3.6823461762 -26.1634740503 -2.7000413618
4.1235117117 -26.0742799015 -2.7000412738
3.8489026226 -26.2455446019 -2.7000414428
3.5457072848 -21.2266825390 -2.7000364904
3.5845494805 -21.3199084024 -2.7000365824
3.5072647305 -20.9809429190 -2.7000362479
3.4827276048 -20.9124449886 -2.7000361803
2.9173285752 -22.9584786956 -2.7000381993
2.9382042594 -22.9424082059 -2.7000381834
2.9792311969 -22.9093498046 -2.7000381508
3.0192623985 -22.8750923910 -2.7000381170
3.0232093968 -22.8716018490 -2.7000381135
3.0773658178 -22.8215239752 -2.7000380641
3.6130598772 -21.7217065959 -2.7000369789
3.6223628343 -21.5218051306 -2.7000367816
3.5851718757 -21.1765986942 -2.7000364410
3.5829967661 -21.1662875656 -2.7000364308
3.5807606905 -21.1559894862 -2.7000364206
3.5606871474 -21.0741177744 -2.7000363399
3.5351404793 -20.9882743291 -2.7000362552
3.5181077825 -20.9384149796 -2.7000362060
3.4996078210 -20.8890812294 -2.7000361573
3.4937741027 -20.8743900624 -2.7000361428
3.4817166972 -20.8451659300 -2.7000361139
2.9276715631 -22.9809619637 -2.7000382214
3.0272169151 -22.9002641715 -2.7000381418
3.0825565988 -22.8499957985 -2.7000380922
3.6286612129 -21.7930923052 -2.7000370493
3.5867797434 -21.0781264277 -2.7000363438
2.9975821193 -22.9568601132 -2.7000381977
3.0225629212 -22.9361144723 -2.7000381772
3.6432602938 -21.8552870684 -2.7000371107
3.6256159608 -21.1350273643 -2.7000364000
3.6857509412 -21.7236864365 -2.7000369808
3.6658558842 -21.9832431496 -2.7000372369
3.5956442496 -20.8693379893 -2.7000361378
3.6218851552 -20.8044340979 -2.7000360738
3.8495182015 -21.7821719338 -2.7000370385
4.2157943657 -23.0614209872 -2.7000383008
3.5829959044 -23.8793982820 -2.7000391080
3.7003716886 -23.8185678817 -2.7000390480
1.0571468984 -26.0077045129 -2.7000412081
1.0968342710 -26.0144872523 -2.7000412148
1.2694501663 -26.0397998391 -2.7000412398
1.4696567258 -26.0607349217 -2.7000412604
0.9072282814 -26.0034885390 -2.7000412039
0.9866104448 -26.0193629940 -2.7000412196
1.1328255845 -26.0447971694 -2.7000412447
1.1861888643 -26.0528644587 -2.7000412527
1.2262719246 -26.0585002447 -2.7000412582
0.8360004583 -26.0127701892 -2.7000412131
1.1424733643 -26.0707638306 -2.7000412703
1.2768150096 -26.0894500369 -2.7000412888
1.3846496032 -26.1015328671 -2.7000413007
1.7365644069 -26.1231305704 -2.7000413220
1.4909024656 -26.1351636865 -2.7000413339
1.0226896838 -26.1243492877 -2.7000413232
1.5009677400 -26.1843968894 -2.7000413825
0.9775709192 -26.1406623764 -2.7000413393
0.8230891198 -26.1337268379 -2.7000413325
1.2895773080 -26.2127416834 -2.7000414104
0.9411618945 -26.1829345652 -2.7000413810
1.2867434939 -26.2367480321 -2.7000414341
0.7936025926 -26.2014494913 -2.7000413993
1.1689345034 -26.2701756994 -2.7000414671
2.0582867542 -26.3369783847 -2.7000415330
2.9374825975 -26.3143693817 -2.7000415107
0.7760196455 -26.3461312222 -2.7000415420
1.9917100492 -26.4846343592 -2.7000416787
2.2255318204 -26.4719783113 -2.7000416662
2.9197491444 -26.3679549448 -2.7000415636
0.7314897519 -26.4104520715 -2.7000416055
1.0175050727 -26.4913949909 -2.7000416854
0.7644438987 -26.4673406857 -2.7000416616
0.7438034819 -26.5618041057 -2.7000417549
0.7984311527 -26.5981135500 -2.7000417907
3.5044804045 -21.3503451395 -2.7000366124
3.4982160398 -21.2073381298 -2.7000364713
3.4935655889 -21.1641953862 -2.7000364287
3.4876411165 -21.1212090670 -2.7000363863
3.4869787880 -21.1169204879 -2.7000363821
3.4737837884 -21.0443478379 -2.7000363105
3.5236683266 -21.4650143834 -2.7000367256
3.5266281691 -21.4210060877 -2.7000366822
3.5286688043 -21.3460559094 -2.7000366082
3.5115363478 -21.1175548637 -2.7000363827
3.5101769697 -21.1088383753 -2.7000363741
3.4908527598 -21.0092642737 -2.7000362759
3.4648036379 -20.9112343290 -2.7000361791
3.5469999938 -21.4759256316 -2.7000367363
3.5505268294 -21.4267472587 -2.7000366878
3.5527542049 -21.3595530680 -2.7000366215
3.5528338649 -21.3371412094 -2.7000365994
3.5471574578 -21.2117972062 -2.7000364757
3.5326163659 -21.0961933951 -2.7000363616
3.5617168036 -21.5594716554 -2.7000368188
3.5653193953 -21.5323868617 -2.7000367921
3.5641757309 -21.6811704693 -2.7000369389
3.5997126489 -21.4109413782 -2.7000366722
3.6009990368 -21.3184546660 -2.7000365810
3.5795569808 -21.0837574340 -2.7000363494
3.5846676510 -21.7001427055 -2.7000369576
3.6144263768 -21.5290098479 -2.7000367887
3.6003760500 -21.7380242694 -2.7000369950
3.6495252635 -21.3367698050 -2.7000365990
3.6736120992 -21.3608764922 -2.7000366228
3.6442028018 -21.0336311437 -2.7000362999
3.6143275901 -21.8630327975 -2.7000371183
3.6345079716 -21.7973050745 -2.7000370535
3.6521905970 -21.8230584959 -2.7000370789
3.6203799960 -22.0482401187 -2.7000373011
3.0540228717 -22.8056329834 -2.7000380484
2.9909513085 -22.9044383252 -2.7000381459
2.9034643820 -22.9819873030 -2.7000382225
2.9147559700 -23.0033610094 -2.7000382436
3.6401826911 -23.6346249564 -2.7000388665
3.4307203314 -23.9061255092 -2.7000391344
1.0061391368 -26.1326532650 -2.7000413314
0.6762109559 -26.0746787989 -2.7000412742
1.4432834210 -26.2549780568 -2.7000414521
0.5288333566 -26.1058951240 -2.7000413050
1.1016546298 -26.2506997165 -2.7000414479
1.7760752533 -26.3322964349 -2.7000415284
2.0272095108 -26.3391339557 -2.7000415351
0.2134910192 -26.0202132532 -2.7000412204
0.2273351569 -26.0255887670 -2.7000412257
0.2967910353 -26.0518507531 -2.7000412517
0.0665022333 -25.9864662535 -2.7000411871
0.1077883513 -26.0037755893 -2.7000412042
0.3788443828 -26.1325696478 -2.7000413313
0.4635008063 -26.2118900536 -2.7000414096
0.1130310676 -26.1103797646 -2.7000413094
0.1181598758 -26.1384942107 -2.7000413372
0.3683336080 -26.2567414902 -2.7000414538
0.9150763600 -26.4096764672 -2.7000416047
1.0457542574 -26.4614940605 -2.7000416559
0.0114086570 -26.2778024596 -2.7000414746
3.4635686310 -21.2839775521 -2.7000365469
3.4673630639 -21.2094766190 -2.7000364734
3.4658401301 -21.1206890918 -2.7000363858
3.4885024701 -21.2751159322 -2.7000365382
3.4900926325 -21.2497958798 -2.7000365132
3.4913087379 -21.1519722305 -2.7000364167
3.4899777549 -21.1193812882 -2.7000363845
3.4871735774 -21.0796140373 -2.7000363453
3.5007925429 -21.3796577089 -2.7000366414
3.5077660336 -21.3283916233 -2.7000365908
3.5114444657 -21.2916179914 -2.7000365545
3.5154306203 -21.2215193350 -2.7000364853
3.5159424689 -21.1882616089 -2.7000364525
3.5158857152 -21.1734784054 -2.7000364379
3.5289994000 -21.3535851834 -2.7000366156
3.5383724152 -21.2523264351 -2.7000365157
3.5384512609 -21.1205278174 -2.7000363857
3.5247133525 -21.5037146682 -2.7000367638
3.5327340985 -21.4701098241 -2.7000367306
3.5454317815 -21.4061033107 -2.7000366675
3.5592851499 -21.2995425058 -2.7000365623
3.5616178583 -21.2689210153 -2.7000365321
3.5104714691 -21.6330048300 -2.7000368913
3.5255642119 -21.5885763922 -2.7000368475
3.5347458503 -21.5586719158 -2.7000368180
3.5571707638 -21.4715917362 -2.7000367321
3.5790829831 -21.0284598512 -2.7000362948
3.5725551247 -21.5117016495 -2.7000367717
3.5909938604 -21.4260785563 -2.7000366872
3.6024078447 -21.3512988101 -2.7000366134
3.5573311111 -21.6455493647 -2.7000369037
3.5842034779 -21.6419872484 -2.7000369002
3.6233632092 -21.5073802525 -2.7000367674
3.6542423380 -21.4802032841 -2.7000367406
3.5715713407 -21.9070280090 -2.7000371617
3.5820978148 -21.8876477965 -2.7000371426
2.9504923986 -22.5378128036 -2.7000377842
3.9313962998 -21.4422951772 -2.7000367032
3.9336081792 -21.4275107723 -2.7000366886
2.9994058443 -22.8355854842 -2.7000380780
2.8969606211 -22.9288779492 -2.7000381701
2.9226744423 -22.9193637163 -2.7000381607
2.9837913584 -22.8949862453 -2.7000381366
2.8842409032 -22.9590428733 -2.7000381998
2.8188300423 -23.0310120730 -2.7000382708
2.8643295285 -23.0421914618 -2.7000382819
3.3743321851 -23.0492239484 -2.7000382888
3.4143381398 -23.7091768148 -2.7000389400
3.5904565264 -23.6214013983 -2.7000388534
3.4468905382 -23.7208060554 -2.7000389515
3.4331330112 -23.8331853027 -2.7000390624
3.4428799252 -23.8553061740 -2.7000390842
2.5116524721 -24.2139338624 -2.7000394381
2.5631111640 -24.3793085517 -2.7000396013
0.8802458146 -26.2869027856 -2.7000414836
1.2302649212 -26.3693511012 -2.7000415650
1.3532180509 -26.3924222314 -2.7000415877
0.6479606965 -26.2434090021 -2.7000414407
0.7530324021 -26.2758395417 -2.7000414727
0.8587530824 -26.3060875331 -2.7000415025
1.0260876528 -26.3491795810 -2.7000415451
0.6556296918 -26.2712195265 -2.7000414681
1.1694563019 -26.4309332054 -2.7000416257
0.4149996267 -26.2401508074 -2.7000414375
1.2536663976 -26.4970691779 -2.7000416910
-0.0126731046 -26.1421933258 -2.7000413408
0.4266622008 -26.3984744677 -2.7000415937
-0.3732037895 -26.0975963009 -2.7000412968
-0.6112528767 -26.0464926356 -2.7000412464
-0.5484166473 -26.1388355707 -2.7000413375
3.4525588907 -21.1499222881 -2.7000364147
3.4577683021 -21.2781010361 -2.7000365411
3.4595483278 -21.2697759856 -2.7000365329
3.4686710287 -21.2195238660 -2.7000364833
3.4751062729 -21.1688574390 -2.7000364333
3.4759161402 -21.1603828256 -2.7000364250
3.4773100991 -21.1434137065 -2.7000364082
3.4703774556 -21.3284837876 -2.7000365909
3.4820010700 -21.2804170641 -2.7000365434
3.4930008365 -21.2203310092 -2.7000364841
3.4976042074 -21.1857265876 -2.7000364500
3.4756181764 -21.3946647018 -2.7000366562
3.4775023875 -21.3890087734 -2.7000366506
3.4897504501 -21.3491190471 -2.7000366112
3.5245860911 -21.1588298949 -2.7000364235
3.4785026736 -21.4567901530 -2.7000367175
3.5317632834 -21.2786452586 -2.7000365417
3.5314828409 -21.4539059805 -2.7000367146
3.4901423305 -21.7403864170 -2.7000369973
3.8636040107 -21.1637125819 -2.7000364283
3.8838497059 -21.4656144619 -2.7000367262
2.9421967342 -22.5790622516 -2.7000378249
2.8229945597 -22.9756850820 -2.7000382162
3.3064262465 -23.7571136685 -2.7000389873
3.1761443765 -23.8167345576 -2.7000390462
2.6883682270 -24.0100501320 -2.7000392369
3.6760664667 -23.8046512089 -2.7000390342
2.8612715991 -24.0680416189 -2.7000392941
-0.2938793279 -26.3852684278 -2.7000415807
-0.9336624387 -26.2568681261 -2.7000414540
-2.0409256161 -25.9647769592 -2.7000411657
3.4537331372 -21.2130982471 -2.7000364770
3.4743011814 -21.2282953807 -2.7000364920
3.4610658061 -21.3274250300 -2.7000365898
3.4727907727 -21.3014238851 -2.7000365642
3.4611959422 -21.3801124118 -2.7000366418
3.8654189819 -21.2643785411 -2.7000365276
3.8561484782 -21.3820467388 -2.7000366437
3.8635351028 -21.4315771950 -2.7000366926
3.9321500530 -21.6272940869 -2.7000368857
-3.0525154408 -26.7092837666 -2.7000419004
-3.1035384909 -26.6913886012 -2.7000418827
-3.0867048598 -26.7088005312 -2.7000418999
-2.9492620043 -26.9148188684 -2.7000421032
-2.8956291581 -26.9998572714 -2.7000421871
-2.8243512316 -27.0667234711 -2.7000422531
-2.7481969556 -27.2014621753 -2.7000423860
-2.6314974744 -27.3675864199 -2.7000425500
3.8400808140 -21.3241648693 -2.7000365866
3.8398749242 -21.3822543873 -2.7000366439
3.8555454002 -21.4047513121 -2.7000366661
2.7944721478 -22.5850770698 -2.7000378308
2.8199582082 -22.9066791668 -2.7000381482
3.2899422490 -23.7356891477 -2.7000389662
2.6831585088 -23.7663352582 -2.7000389964
3.3432757065 -23.7794360416 -2.7000390093
3.1969609593 -23.8384223581 -2.7000390676
3.3599133535 -23.9478273048 -2.7000391755
2.0151723410 -23.8978340136 -2.7000391262
3.3364384159 -24.1927014833 -2.7000394171
2.1453087531 -24.1690783036 -2.7000393938
-3.4028176421 -24.5136082492 -2.7000397338
-3.4447901132 -24.9730122096 -2.7000401871
-3.4682813391 -25.3409033525 -2.7000405501
-3.4494828638 -25.4122992991 -2.7000406206
10.9505087112 -24.3701147902 -2.7000395922
10.9604538415 -24.3467830799 -2.7000395692
10.9525780750 -24.4263322188 -2.7000396477
10.9626894975 -24.4029941409 -2.7000396246
10.9827050072 -24.3562287618 -2.7000395785
10.9542573636 -24.4826918820 -2.7000397033
10.9645355008 -24.4593485899 -2.7000396803
11.0049561729 -24.3656744437 -2.7000395878
10.9670521010 -24.5724770469 -2.7000397919
10.9984754166 -24.5022393861 -2.7000397226
11.0426934696 -24.5217868902 -2.7000397419
11.0530868700 -24.4981818170 -2.7000397186
11.0648024961 -24.5315606422 -2.7000397515
10.9891188794 -24.8108250612 -2.7000400271
10.9967033673 -24.9599861393 -2.7000401743
11.0042680043 -25.0521906754 -2.7000402652
11.0399470437 -24.9816038538 -2.7000401956
10.9985109944 -25.1683170941 -2.7000403798
11.0199043910 -25.1795713319 -2.7000403909
11.0502154840 -25.2257102120 -2.7000404365
11.0162098947 -25.3900978261 -2.7000405987
11.0291720318 -25.3665672969 -2.7000405755
11.0242993007 -25.4253472321 -2.7000406335
11.0454203947 -25.4371045563 -2.7000406451
3.4196496926 -21.7818198278 -2.7000370382
3.8304988349 -21.8250531192 -2.7000370809
3.8454197335 -21.8484637106 -2.7000371040
2.6011530508 -23.1333438291 -2.7000383718
2.5954242835 -23.1568282177 -2.7000383950
2.7214008983 -24.1586954081 -2.7000393836
2.8193958301 -24.1676729420 -2.7000393924
2.6829816752 -24.2029235245 -2.7000394272
2.7659479075 -24.2117634620 -2.7000394359
3.0826529978 -24.2229007711 -2.7000394469
2.1788093031 -24.1194710810 -2.7000393449
2.0750293599 -24.1362344874 -2.7000393614
2.0438427363 -24.2533330909 -2.7000394770
1.5994565889 -24.0867952167 -2.7000393126
1.7588425686 -24.1920276922 -2.7000394165
2.0298443329 -24.3507065283 -2.7000395730
2.8112306612 -24.5305957584 -2.7000397506
2.0066846520 -24.4194280440 -2.7000396409
-3.4405220784 -24.3386463280 -2.7000395611
-3.4710011887 -24.4456912584 -2.7000396668
-3.4528854430 -24.4840603103 -2.7000397046
-3.4547457105 -24.6992177857 -2.7000399169
-3.4977223366 -25.5944193238 -2.7000408003
-3.5503472283 -25.9084565717 -2.7000411102
-5.0573175680 -24.9868043823 -2.7000402007
10.9235944224 -25.4750381357 -2.7000406825
10.9544214743 -25.5206680354 -2.7000407275
10.9602747187 -25.6135474209 -2.7000408192
10.9565110508 -25.6718863576 -2.7000408767
10.9651007298 -25.7068532133 -2.7000409112
10.9735527689 -25.7419081450 -2.7000409458
10.9688924164 -25.8005744655 -2.7000410037
10.9769635894 -25.8358280509 -2.7000410385
10.9716428009 -25.8947001382 -2.7000410966
3.4499421986 -21.6778863612 -2.7000369356
3.4640971922 -21.7113481986 -2.7000369687
3.4696795142 -21.6953110525 -2.7000369528
3.4589381111 -21.7863529644 -2.7000370427
3.4626645659 -21.7784066990 -2.7000370348
3.4662967359 -21.7704168966 -2.7000370269
3.4537327537 -21.8948864926 -2.7000371498
3.8645353379 -21.8099362012 -2.7000370659
3.8655437513 -21.8067538442 -2.7000370628
3.9116528572 -21.8212897132 -2.7000370771
3.8840692684 -21.9612543760 -2.7000372152
3.8884083393 -21.9515191141 -2.7000372056
3.8969718470 -22.1434929237 -2.7000373951
2.8852482116 -23.0281202237 -2.7000382680
2.7542464183 -23.1032136811 -2.7000383421
2.7340905904 -23.1268445485 -2.7000383654
3.0330452848 -24.2289810003 -2.7000394529
3.4188471069 -24.1920998619 -2.7000394165
3.4810568999 -24.2019143075 -2.7000394262
3.3968902311 -24.2465890313 -2.7000394703
2.1230384608 -24.3324916107 -2.7000395551
2.4545431540 -24.4141555133 -2.7000396357
1.8903314103 -24.3189402382 -2.7000395417
0.2212024122 -24.9404610805 -2.7000401550
-3.1134764002 -26.7496749917 -2.7000419402
-3.0683829969 -26.8354809867 -2.7000420249
-3.0381899756 -26.9037422722 -2.7000420923
-2.8748484426 -27.0737254612 -2.7000422600
-2.8250939292 -27.1575604166 -2.7000423427
-2.7912009805 -27.2245176476 -2.7000424088
-2.8250828857 -27.2252916551 -2.7000424096
-2.8076925384 -27.2758139730 -2.7000424594
-2.7201848002 -27.3919365126 -2.7000425740
-2.4805250716 -27.7013538602 -2.7000428793
-2.3429253002 -27.8771683082 -2.7000430528
11.0738427936 -24.0253797977 -2.7000392520
11.0813733461 -24.0008613119 -2.7000392278
11.0893156959 -24.0570756026 -2.7000392833
11.0890185804 -24.1380361696 -2.7000393632
11.0953012379 -24.8931100649 -2.7000401083
11.0971806671 -24.9515400613 -2.7000401659
11.0986586722 -25.0101118784 -2.7000402237
11.0997336428 -25.0688228070 -2.7000402817
11.1103507751 -25.0442231658 -2.7000402574
3.4556905078 -21.7978257829 -2.7000370540
3.4641009401 -21.7567094679 -2.7000370134
3.4645618598 -21.7541270545 -2.7000370109
3.4667517613 -21.7411951573 -2.7000369981
3.4708948264 -21.7126399449 -2.7000369699
3.4516961692 -21.8989990900 -2.7000371538
3.4754981076 -21.8189555663 -2.7000370748
3.4761431127 -21.8163391657 -2.7000370723
3.4934335004 -21.7264038262 -2.7000369835
3.4620571783 -21.9406716667 -2.7000371949
3.4781010517 -21.8964723084 -2.7000371513
3.4789753540 -21.8938478686 -2.7000371487
3.4596944852 -22.0613313478 -2.7000373140
3.4818066608 -22.0170982153 -2.7000372704
3.4971995695 -21.9825545950 -2.7000372363
3.5027644326 -21.9691149872 -2.7000372230
3.5182999769 -21.9947110708 -2.7000372483
3.5429142128 -21.9985668518 -2.7000372521
3.8635077171 -21.8559089929 -2.7000371113
3.8711728810 -21.8143848781 -2.7000370703
3.8789678982 -21.7612129293 -2.7000370179
3.8771224057 -21.9065092978 -2.7000371612
3.8780246533 -21.9027044368 -2.7000371575
3.8854835717 -21.9698910648 -2.7000372238
3.8999580352 -22.0811955774 -2.7000373336
3.9082992416 -22.0578944867 -2.7000373106
3.9267915824 -22.1456324921 -2.7000373972
2.9228838578 -23.0533789046 -2.7000382929
2.9614665432 -23.0440383621 -2.7000382837
2.9657378139 -23.0429371995 -2.7000382826
2.9785318199 -23.0395579688 -2.7000382793
3.9037386420 -22.3074369680 -2.7000375568
2.8844149125 -23.0862651604 -2.7000383254
2.7841797176 -23.1512854268 -2.7000383895
2.8800932330 -24.4782926796 -2.7000396989
3.4566101230 -24.3856428901 -2.7000396075
2.7298608503 -24.5620196807 -2.7000397816
2.5716828619 -24.6135373900 -2.7000398324
1.9125752795 -24.6848524862 -2.7000399028
0.6287098195 -26.4819790156 -2.7000416761
0.5041822299 -26.4563782219 -2.7000416508
0.3410501167 -26.4363538587 -2.7000416311
-0.2430057432 -26.5695657281 -2.7000417625
3.4638706723 -21.7349786082 -2.7000369920
3.4644331897 -21.7258391077 -2.7000369830
3.4650570038 -21.7136460260 -2.7000369709
3.4661085113 -21.6648255063 -2.7000369227
3.4654907727 -21.6312576458 -2.7000368896
3.4652611203 -21.6251574259 -2.7000368836
3.4781573839 -21.8265970877 -2.7000370824
3.4870945433 -21.7490334883 -2.7000370058
3.4883842385 -21.7303354599 -2.7000369874
3.4901809383 -21.6522793478 -2.7000369104
3.4924978920 -21.8837171493 -2.7000371387
3.5043502004 -21.8144397004 -2.7000370704
3.5143516098 -21.6519418230 -2.7000369100
3.5139138114 -21.6327753243 -2.7000368911
3.5068619640 -21.9299975692 -2.7000371844
3.5211189785 -21.8629038429 -2.7000371182
3.5222588493 -21.8564704537 -2.7000371119
3.5352945814 -21.7527881462 -2.7000370095
3.5535666595 -21.8111106661 -2.7000370671
3.5554216165 -21.9348820244 -2.7000371892
3.5817248106 -21.7769247406 -2.7000370334
3.5851018093 -21.7327286872 -2.7000369897
3.5098584065 -22.1446710834 -2.7000373962
3.5865208524 -21.9065244131 -2.7000371612
3.5170528200 -22.1867346317 -2.7000374377
3.5445382724 -22.1250895401 -2.7000373769
3.5366921738 -22.3047048590 -2.7000375541
3.5214415824 -22.3756728794 -2.7000376242
3.0371432915 -22.9777897120 -2.7000382183
3.0075568029 -23.0172975564 -2.7000382573
3.0511835368 -22.9979323802 -2.7000382382
3.9082751865 -21.8923489496 -2.7000371473
2.9217751130 -23.1017387257 -2.7000383406
2.9260171262 -23.1002904212 -2.7000383392
3.9187667140 -21.9710070274 -2.7000372249
2.8600331080 -23.1464261230 -2.7000383847
2.8687782977 -23.1438814760 -2.7000383822
2.8862227474 -23.1386371881 -2.7000383770
4.0620314573 -21.8326531142 -2.7000370884
3.1159243991 -24.5035797912 -2.7000397239
2.7272321486 -24.5938776748 -2.7000398130
2.9341158995 -24.5657250031 -2.7000397852
2.5934912603 -24.7010185682 -2.7000399187
1.5500289637 -26.4123074116 -2.7000416073
2.0736688593 -26.4805050190 -2.7000416746
1.2234293964 -26.3646179526 -2.7000415603
1.3769033203 -26.4015260978 -2.7000415967
1.7154176291 -26.4646076459 -2.7000416590
0.9678584005 -26.3165682261 -2.7000415129
1.1068701178 -26.4083725082 -2.7000416035
0.5607479715 -26.2464211284 -2.7000414437
0.7244546264 -26.3100300769 -2.7000415064
1.3649176245 -26.5226697944 -2.7000417162
0.7412701432 -26.3932921798 -2.7000415886
0.3732465636 -26.2712954311 -2.7000414682
-0.0090662863 -26.1630358951 -2.7000413614
0.5834219406 -26.5153065241 -2.7000417090
0.4886444135 -26.5041198245 -2.7000416979
-0.5985720361 -26.1726488203 -2.7000413709
-0.2649831792 -26.4634649052 -2.7000416578
3.4588624432 -21.6347791842 -2.7000368931
3.4924914249 -21.7448218277 -2.7000370017
3.4918697888 -21.7306241808 -2.7000369877
3.4886901800 -21.6845497793 -2.7000369422
3.4678456570 -21.5440572565 -2.7000368036
3.4632908918 -21.5232328331 -2.7000367830
3.5006266049 -21.9930384159 -2.7000372466
3.5075295432 -21.9464333241 -2.7000372006
3.5410105564 -21.8316743645 -2.7000370874
3.5414865406 -21.8132014158 -2.7000370692
3.5416969949 -21.7910276076 -2.7000370473
3.5843086648 -21.6683935073 -2.7000369263
3.6053348740 -21.9432333801 -2.7000371975
3.6139495368 -21.7637014644 -2.7000370203
3.6122005728 -21.5260281053 -2.7000367858
3.6863243479 -21.8241128599 -2.7000370799
3.0962454706 -22.9882757563 -2.7000382287
2.9435732218 -23.1316183051 -2.7000383701
3.0712085287 -23.0617588247 -2.7000383012
1.3096288844 -26.1946824244 -2.7000413926
1.9960771595 -26.2932453193 -2.7000414899
1.2128909786 -26.1968693303 -2.7000413948
1.4885441657 -26.2553831006 -2.7000414525
1.6741018774 -26.2848335136 -2.7000414816
1.9794412345 -26.3405813998 -2.7000415366
2.1815934692 -26.3499818071 -2.7000415458
0.7853183820 -26.1207711962 -2.7000413197
1.6540791639 -26.3308603971 -2.7000415270
2.0169467211 -26.3914386524 -2.7000415868
1.9000856760 -26.4799893727 -2.7000416741
0.6107233456 -26.2373927253 -2.7000414347
-0.0624269570 -26.4148348140 -2.7000416098
3.5017648120 -21.7186722164 -2.7000369759
3.4941218139 -21.6755454543 -2.7000369333
