3.6588399471 -31.8077222402 -2.9900468931
3.6413954793 -31.5085719381 -2.9900465980
3.5728246605 -31.2267769270 -2.9900463199
3.6601259292 -32.0331233619 -2.9900471156
3.6648399566 -32.0040342952 -2.9900470869
3.5843195680 -31.1865654157 -2.9900462802
3.5613882368 -31.1269802264 -2.9900462214
3.7078629615 -31.7246402892 -2.9900468112
3.7055276143 -31.6599074067 -2.9900467473
3.5722590517 -31.0902760055 -2.9900461852
3.7322532687 -31.7444501142 -2.9900468307
3.7237960435 -31.5829876047 -2.9900466714
3.6698068057 -31.2952061707 -2.9900463874
3.7163853433 -31.2822531415 -2.9900463746
3.6889323589 -31.1928278425 -2.9900462864
2.6601098142 -30.1153351404 -2.9900452232
3.7216567143 -31.2151732913 -2.9900463084
3.6961285770 -31.1403809340 -2.9900462346
3.6733328160 -31.0814083793 -2.9900461764
3.6073187172 -30.9378389759 -2.9900460348
2.6933509551 -30.1025289952 -2.9900452105
3.7989883629 -31.4253598081 -2.9900465158
3.6115633237 -30.8443808040 -2.9900459426
3.7891274581 -31.1880511732 -2.9900462817
3.6135148262 -30.7536874182 -2.9900458531
3.6701897591 -29.9936400999 -2.9900451031
3.5467690743 -29.8857676272 -2.9900449966
3.1985938542 -29.6215545266 -2.9900447359
3.6432546199 -29.8720222326 -2.9900449831
3.5292004988 -29.7795457968 -2.9900448918
3.2075470881 -29.5438825021 -2.9900446593
2.8760383835 -29.3960387885 -2.9900445134
3.8743886336 -30.0272265587 -2.9900451362
3.1466485310 -29.4314771099 -2.9900445484
3.2667738478 -29.4659727854 -2.9900445824
2.8361337581 -29.2799965625 -2.9900443989
3.8470247046 -29.8615586040 -2.9900449728
3.3310075523 -29.4463367166 -2.9900445630
3.6538052489 -29.4511787261 -2.9900445678
0.7915062648 -26.1906210484 -2.9900413504
0.7093713997 -26.2094529678 -2.9900413690
0.6929783546 -26.2133650177 -2.9900413729
0.5622652165 -26.2464036059 -2.9900414055
0.2799405802 -26.3038016464 -2.9900414621
0.2725734532 -26.2807785987 -2.9900414394
0.3303516342 -26.2373338454 -2.9900413965
-0.0088049925 -26.3530948303 -2.9900415108
-0.0012703957 -26.3244574659 -2.9900414825
0.0873503090 -26.2665792738 -2.9900414254
0.0064159186 -26.2958176233 -2.9900414542
-0.4952726702 -26.4816632867 -2.9900416376
-0.2618050617 -26.3238303891 -2.9900414819
0.0551708334 -26.1753989806 -2.9900413354
-0.5737998059 -26.4390722517 -2.9900415956
-0.6162614429 -26.3522023841 -2.9900415099
-0.4753011941 -26.2324401164 -2.9900413917
3.4379083519 -31.8033357848 -2.9900468888
3.4662401210 -31.8728486494 -2.9900469574
3.4646933617 -31.8369487417 -2.9900469220
3.4625595832 -31.8076259443 -2.9900468930
3.4581012384 -31.7653948444 -2.9900468514
3.4896903074 -31.8521843132 -2.9900469370
3.4854183604 -31.7922539272 -2.9900468779
3.4753295088 -31.7161534885 -2.9900468028
3.4652697520 -31.6637015109 -2.9900467510
3.5123025091 -31.8238734886 -2.9900469091
3.5056455160 -31.7560128416 -2.9900468421
3.4769704607 -31.6088545636 -2.9900466969
3.4752140701 -31.6022649998 -2.9900466904
3.5388990929 -31.8778668539 -2.9900469624
3.5167589790 -31.6739275617 -2.9900467611
3.4750893596 -31.5194309085 -2.9900466087
3.5568763723 -31.7781043075 -2.9900468639
3.5131555431 -31.5589175315 -2.9900466476
3.4920411771 -31.4948101921 -2.9900465844
3.4807898003 -31.4648806318 -2.9900465548
3.5507073705 -31.6044254779 -2.9900466925
3.5424526273 -31.4923371058 -2.9900465819
3.5189540491 -31.4301086074 -2.9900465205
3.5510493192 -31.4454858759 -2.9900465357
3.5235029858 -31.3794289400 -2.9900464705
3.5042097827 -31.3385468206 -2.9900464302
3.5326014885 -31.3416519382 -2.9900464332
3.6540176856 -31.3160428795 -2.9900464080
3.5205823132 -31.0834279511 -2.9900461784
3.8995554555 -31.8202425167 -2.9900469055
3.8990423111 -31.8111490986 -2.9900468965
3.9088132939 -31.6717428121 -2.9900467590
3.9029214717 -31.6352120940 -2.9900467229
3.8979362027 -31.6079111467 -2.9900466960
3.9487245724 -31.8364280342 -2.9900469215
3.9109605120 -31.4551072402 -2.9900465452
3.4392184834 -29.7198022390 -2.9900448329
3.0714472455 -29.5741859963 -2.9900446892
3.1408312242 -29.5709601664 -2.9900446860
3.0016112312 -29.5290061525 -2.9900446446
2.7644140306 -29.4040456662 -2.9900445213
2.5094646966 -29.2793264476 -2.9900443982
2.4912360825 -28.9879759555 -2.9900441107
3.4484444808 -31.8338937948 -2.9900469190
3.4475241332 -31.8296030456 -2.9900469147
3.4451952667 -31.7329747684 -2.9900468194
3.4667762912 -31.6565032268 -2.9900467439
3.4544525796 -31.5779568728 -2.9900466664
3.8734251746 -31.7404931527 -2.9900468268
3.8726900186 -31.7370903364 -2.9900468234
3.8711895242 -31.7302913023 -2.9900468167
3.8947790302 -31.7250120515 -2.9900468115
3.9199306725 -31.7268111465 -2.9900468133
3.9099312417 -31.6844865057 -2.9900467715
3.8760549947 -31.5068860885 -2.9900465963
3.8702896878 -31.4932733165 -2.9900465829
3.9393943665 -31.6109032525 -2.9900466989
3.9068757975 -31.5185329520 -2.9900466078
3.8690026675 -31.4323227437 -2.9900465227
3.8839864035 -31.4080077612 -2.9900464987
3.8857928553 -31.3590456153 -2.9900464504
3.9023999253 -31.2901985881 -2.9900463825
2.6973450731 -29.4810749246 -2.9900445973
-3.1819190203 -25.9386043539 -2.9900411018
3.8553052875 -31.6561530555 -2.9900467436
3.8511311051 -31.6471531658 -2.9900467347
3.8457641051 -31.6359737925 -2.9900467237
3.8391063276 -31.6226651543 -2.9900467105
3.8617867473 -31.6139323066 -2.9900467019
3.8437085706 -31.5801984578 -2.9900466686
3.8373520965 -31.5691361904 -2.9900466577
3.8460383830 -31.5367163864 -2.9900466257
3.8390385375 -31.5256244165 -2.9900466148
3.8519521556 -31.3794088668 -2.9900464705
3.8634797013 -31.3185404210 -2.9900464104
3.1937972751 -29.5968696855 -2.9900447116
3.1296713267 -29.5950298979 -2.9900447098
3.0940315464 -29.5947456626 -2.9900447095
3.0156339320 -29.5959758553 -2.9900447107
2.9373178432 -29.5997560080 -2.9900447144
3.3169193348 -29.5809284375 -2.9900446958
3.2451404590 -29.5753549587 -2.9900446903
3.2235779130 -29.5740972105 -2.9900446891
3.0004707696 -29.5723178806 -2.9900446873
2.8353360337 -29.5842108969 -2.9900446991
3.3191469375 -29.5568582678 -2.9900446721
2.7500602338 -29.5459797394 -2.9900446614
3.3899570340 -29.5157508436 -2.9900446315
2.6296620206 -29.5411842362 -2.9900446566
3.4744135081 -29.5028451197 -2.9900446188
2.3492956853 -29.5602425068 -2.9900446754
2.9568739008 -29.4291100014 -2.9900445460
2.3573594698 -29.5073647691 -2.9900446233
2.5008494898 -29.4447057165 -2.9900445614
2.0848467000 -29.5520111228 -2.9900446673
2.8787925375 -29.3131512979 -2.9900444316
2.3530602748 -29.4079446794 -2.9900445252
3.2008255604 -29.2342617712 -2.9900443538
3.1188439306 -29.2322737309 -2.9900443518
2.3312235340 -29.2383404461 -2.9900443578
1.8887098008 -29.3471188631 -2.9900444651
-3.4408678951 -28.6046163156 -2.9900437325
-3.4510474952 -28.2213590674 -2.9900433543
-3.4622098259 -28.2407330159 -2.9900433734
-3.4657121353 -28.0559438384 -2.9900431911
-3.4981099447 -28.0629550443 -2.9900431980
-3.4953480467 -28.0115015949 -2.9900431472
-3.4928934820 -27.8241291623 -2.9900429623
-3.5239848603 -27.6937175671 -2.9900428336
-3.5314188368 -27.6609081111 -2.9900428013
10.9615712602 -28.6613897541 -2.9900437885
11.0082315941 -28.5861425872 -2.9900437142
11.0505651831 -28.6235817365 -2.9900437512
10.9683352817 -28.4362177464 -2.9900435663
10.9797344297 -28.4028946919 -2.9900435334
10.9690459735 -28.3795789833 -2.9900435104
10.9910051532 -28.3694730589 -2.9900435004
11.0343910381 -28.4062902578 -2.9900435368
11.0129560975 -28.2451751967 -2.9900433778
10.9905765566 -28.1983817097 -2.9900433316
11.0123529158 -28.1878876417 -2.9900433213
11.0010282871 -28.1644763824 -2.9900432982
11.0227735076 -28.1539179420 -2.9900432877
11.0178483258 -27.9809507722 -2.9900431171
11.0059115164 -27.9575241619 -2.9900430939
3.8316529491 -31.1726245592 -2.9900462665
3.8344126216 -31.1274853246 -2.9900462219
3.8301937616 -31.0742436072 -2.9900461694
3.3050289331 -29.1773033104 -2.9900442976
2.6590630599 -29.1886766550 -2.9900443088
3.1774644168 -29.1416739285 -2.9900442624
3.2960085414 -29.1276300004 -2.9900442486
2.3505604550 -29.2059830007 -2.9900443259
3.3575286439 -29.1107866663 -2.9900442319
2.8396846238 -29.0953886708 -2.9900442167
2.4300369355 -29.1600857277 -2.9900442806
3.1371268361 -29.0668984837 -2.9900441886
3.1296479814 -29.0665764107 -2.9900441883
3.3189594511 -29.0572436472 -2.9900441791
3.1683931686 -29.0442733086 -2.9900441663
2.3308704218 -29.1361881575 -2.9900442570
2.3537243037 -29.1048118116 -2.9900442260
2.2660216466 -29.1048295823 -2.9900442261
2.6462573130 -28.9462258313 -2.9900440696
2.0120499116 -29.0922180675 -2.9900442136
1.9889362873 -28.9453264391 -2.9900440687
1.3343991425 -29.2766440267 -2.9900443956
-3.4398763687 -28.6605024839 -2.9900437876
-3.4571242648 -28.6987993354 -2.9900438254
-3.4681574461 -28.4365861298 -2.9900435667
-3.4675733836 -28.2202707763 -2.9900433532
-3.4890217627 -28.2091216813 -2.9900433422
-3.4800667491 -28.1401120505 -2.9900432741
-3.4916453230 -28.0594675890 -2.9900431945
-3.4909885389 -27.9086646596 -2.9900430457
10.9950667961 -27.6620478897 -2.9900428024
10.9790604492 -27.5225589028 -2.9900426647
10.9762793349 -27.4644254890 -2.9900426074
10.9908033959 -27.3364377858 -2.9900424811
10.9867197758 -27.2778591827 -2.9900424233
10.9951305455 -27.2427397294 -2.9900423886
3.4258339791 -31.3165353297 -2.9900464085
3.4497189062 -31.3121603014 -2.9900464041
3.4318104731 -31.2565565776 -2.9900463493
3.4468554476 -31.2280266928 -2.9900463211
3.4476992077 -31.1155280850 -2.9900462101
3.8665445353 -31.1872006706 -2.9900462808
3.8696619192 -31.1171037474 -2.9900462117
3.8684459749 -31.1136136508 -2.9900462082
3.8874799972 -31.0949762488 -2.9900461898
3.8769355199 -31.0667428871 -2.9900461620
3.8741952333 -31.0597241545 -2.9900461551
3.8790489711 -31.0083126671 -2.9900461043
3.9103130045 -30.9599582021 -2.9900460566
3.9182487583 -30.9205338554 -2.9900460177
3.8900574411 -30.6838429231 -2.9900457842
3.3175338278 -29.2000837175 -2.9900443200
3.2553833533 -29.1841827560 -2.9900443044
3.4416957637 -29.1863903069 -2.9900443065
2.5306326631 -29.0735099566 -2.9900441951
2.5070970015 -29.0509062860 -2.9900441728
2.9620805732 -28.9863058495 -2.9900441091
2.2126914120 -28.9919357591 -2.9900441147
2.2301571414 -28.9150506591 -2.9900440388
-3.3904389939 -26.6010484869 -2.9900417554
3.4336525728 -31.2730288986 -2.9900463655
3.4557741331 -31.2488619189 -2.9900463417
3.4544370699 -31.2361509562 -2.9900463291
3.4504372737 -31.2044505456 -2.9900462979
3.4780963140 -31.2302337083 -2.9900463233
3.4724689110 -31.1881424388 -2.9900462818
3.4563824549 -31.1047642051 -2.9900461995
3.4556360214 -31.1015838260 -2.9900461964
3.4968637702 -31.1877795307 -2.9900462814
3.4895902586 -31.1449980989 -2.9900462392
3.4876784955 -31.1351673706 -2.9900462295
3.4806773101 -31.1025279419 -2.9900461973
3.4776070118 -31.0895325576 -2.9900461845
3.4735532583 -31.0733409071 -2.9900461685
3.4683733065 -31.0539927179 -2.9900461494
3.4579882256 -31.0187721044 -2.9900461146
3.4758526589 -30.9953249814 -2.9900460915
3.4747823991 -30.9920874848 -2.9900460883
3.4726131718 -30.9856220605 -2.9900460819
3.5344093362 -31.1223146908 -2.9900462168
3.5168022597 -31.0477907486 -2.9900461433
3.5121268413 -31.0310239512 -2.9900461267
3.5009713256 -30.9943920065 -2.9900460906
3.4988152742 -30.9877715994 -2.9900460841
3.4814030304 -30.9385447634 -2.9900460355
3.5184025299 -30.9701083307 -2.9900460666
3.4936242636 -30.9035229414 -2.9900460009
3.4811980067 -30.8740617770 -2.9900459718
3.4797690050 -30.8708089985 -2.9900459686
3.4768821662 -30.8643161944 -2.9900459622
3.5213964292 -30.9078894705 -2.9900460052
3.4944504001 -30.8445277685 -2.9900459427
3.4788498481 -30.8118152016 -2.9900459104
3.5653726673 -30.9580967510 -2.9900460548
3.5622247608 -30.8797243257 -2.9900459774
3.4923237248 -30.7337061400 -2.9900458334
3.5134197085 -30.7219038202 -2.9900458217
2.6330790606 -30.0086789306 -2.9900451179
3.8825036313 -31.1524833947 -2.9900462466
3.9145089496 -31.2216549080 -2.9900463148
3.9045227781 -30.9086976178 -2.9900460060
3.3738202244 -29.1599127998 -2.9900442804
3.1076846462 -29.0580496306 -2.9900441799
3.0531158933 -29.0414948113 -2.9900441636
3.0119405967 -29.0299286585 -2.9900441521
3.6447194110 -29.2755153353 -2.9900443945
3.0666028320 -28.9950680559 -2.9900441177
3.0380154929 -28.9618738395 -2.9900440850
2.8593607627 -28.9198640175 -2.9900440435
2.6780903773 -28.8911693291 -2.9900440152
2.5111191219 -28.8525258776 -2.9900439771
3.3203197473 -29.0058016803 -2.9900441283
3.2526784337 -28.9284412944 -2.9900440520
3.2753285290 -28.9109403064 -2.9900440347
2.2544428970 -28.7555220061 -2.9900438814
2.3932234506 -28.7041311945 -2.9900438307
2.5436173296 -28.6848820963 -2.9900438117
0.3900334836 -27.7969426752 -2.9900429355
-0.7788931307 -26.1847332501 -2.9900413446
-1.6662457874 -26.2140202053 -2.9900413735
3.4450582197 -31.3712938374 -2.9900464625
3.4475944101 -31.3406885284 -2.9900464323
3.4483586483 -31.3291973528 -2.9900464210
3.4507106776 -31.2678262797 -2.9900463604
3.4671343594 -31.3930253266 -2.9900464839
3.4691233662 -31.3735750667 -2.9900464647
3.4708244786 -31.3540975162 -2.9900464455
3.4711301199 -31.3501991061 -2.9900464417
3.4737304443 -31.3072655576 -2.9900463993
3.4746573256 -31.2799091225 -2.9900463723
3.4748180841 -31.2720900372 -2.9900463646
3.4939166026 -31.3679258947 -2.9900464592
3.4989873688 -31.2725154286 -2.9900463650
3.4935213363 -31.1253607765 -2.9900462198
3.4902243752 -31.0936775362 -2.9900461886
3.4856203452 -31.0581386320 -2.9900461535
3.4832707402 -31.0423854529 -2.9900461379
3.5207385234 -31.3336885900 -2.9900464254
3.5232158923 -31.2283555240 -2.9900463215
3.5437458934 -31.3516471640 -2.9900464431
3.5459901820 -31.3145920674 -2.9900464065
3.5472472492 -31.2774903587 -2.9900463699
3.5357195449 -31.0676363220 -2.9900461629
3.5334788136 -31.0512896810 -2.9900461467
3.5322859533 -31.0431265893 -2.9900461387
3.5672094963 -31.3617977039 -2.9900464531
3.5692454693 -31.3324940176 -2.9900464242
3.5396147808 -30.9487571518 -2.9900460456
3.5321258933 -30.9160326414 -2.9900460133
3.5194459809 -30.8673010277 -2.9900459652
3.5171648274 -30.8592241790 -2.9900459572
3.5919603372 -31.3552120674 -2.9900464466
3.5901910184 -31.1207421834 -2.9900462153
3.6200339535 -31.2399283782 -2.9900463329
3.6126253456 -31.1013164900 -2.9900461961
3.6117270754 -31.0926842652 -2.9900461876
3.5904380544 -30.9555167741 -2.9900460522
3.5302228111 -30.6769850175 -2.9900457774
3.6524834169 -31.0297310156 -2.9900461255
3.6321250125 -30.8216522731 -2.9900459201
3.6295718137 -30.8129095763 -2.9900459115
3.6188431387 -30.7780944274 -2.9900458772
3.5713544677 -30.6500429247 -2.9900457508
3.5492096624 -30.6000866311 -2.9900457015
3.5863267562 -30.6236386163 -2.9900457247
3.5807221156 -30.6109445054 -2.9900457122
2.6510049831 -29.6143187767 -2.9900447288
3.5102397622 -29.2284645562 -2.9900443481
3.4689155199 -29.1726358049 -2.9900442930
3.2391777094 -28.9631931790 -2.9900440863
0.7229112946 -26.1848372427 -2.9900413447
0.4249621163 -26.2274638995 -2.9900413868
0.3066241279 -26.2697642940 -2.9900414285
0.0154456114 -26.3085412198 -2.9900414668
-0.0818906705 -26.3252482538 -2.9900414833
0.0702072103 -26.2328148348 -2.9900413921
-0.0184898016 -26.2705731749 -2.9900414293
-0.3784712489 -26.3074254469 -2.9900414657
-0.2266823858 -26.2058160418 -2.9900413654
-0.9264316500 -26.4556724187 -2.9900416120
3.4525674438 -31.5313345508 -2.9900466204
3.5091068146 -31.2747608758 -2.9900463672
3.5156478153 -31.2187810945 -2.9900463120
3.5173860645 -31.2000739255 -2.9900462935
3.5192474032 -31.1766631898 -2.9900462704
3.5473963023 -31.0831308127 -2.9900461781
3.5439016600 -30.9544636817 -2.9900460512
3.5690293971 -31.1559891810 -2.9900462500
3.5569730777 -31.4198252670 -2.9900465104
3.5813934389 -30.8437246182 -2.9900459419
3.5991358363 -31.3271248738 -2.9900464189
3.6198093535 -31.0342296428 -2.9900461299
1.8402026346 -26.2364977183 -2.9900413957
2.0843936666 -26.1894815616 -2.9900413493
1.6519142595 -26.1954682486 -2.9900413552
1.6071124765 -26.1740585331 -2.9900413341
0.5255778159 -26.3703064816 -2.9900415278
2.8329800291 -30.1236208443 -2.9900452313
3.5417520854 -31.3586678191 -2.9900464500
3.5732247391 -31.2309095668 -2.9900463240
3.6113310711 -30.9155471435 -2.9900460128
3.7309023102 -30.9488913506 -2.9900460457
3.7277685914 -30.5083863958 -2.9900456110
3.7296976862 -30.0719269121 -2.9900451803
1.1713250390 -26.4992796131 -2.9900416550
1.0172252261 -26.5228694903 -2.9900416783
1.2458571776 -26.4655301387 -2.9900416217
1.1810404876 -26.4735956797 -2.9900416297
1.7804158676 -26.4115252329 -2.9900415684
2.9037804687 -26.2620751190 -2.9900414210
2.8859429567 -30.0757143527 -2.9900451841
3.5651259471 -29.9598950271 -2.9900450698
3.6911693906 -30.9480188362 -2.9900460448
3.5904908779 -31.3979432531 -2.9900464888
3.6715749571 -31.1541554210 -2.9900462482
3.7429732326 -30.6274126137 -2.9900457285
3.7389874083 -30.4770134653 -2.9900455801
3.5595066366 -31.5289173427 -2.9900466180
3.6758755990 -31.2274817704 -2.9900463206
3.5673538349 -31.5681536834 -2.9900466567
3.5890286377 -31.5788559357 -2.9900466673
3.7943858750 -30.9124076636 -2.9900460097
3.6496249843 -31.5064397293 -2.9900465959
3.7839123706 -31.1026905455 -2.9900461975
3.8385687189 -30.6807199432 -2.9900457811
3.7149596907 -31.4767826873 -2.9900465666
3.9074440843 -30.4597730922 -2.9900455630
3.9466636243 -30.3533312406 -2.9900454580
3.9832910195 -30.6924384021 -2.9900457926
4.0275309057 -30.0961664049 -2.9900452043
4.2615003912 -30.3424450439 -2.9900454473
1.9270600408 -26.5178001603 -2.9900416733
1.8301796930 -26.5117615454 -2.9900416673
1.8180603963 -26.5111679739 -2.9900416667
1.7695672414 -26.5091522718 -2.9900416648
1.7574404912 -26.5087380143 -2.9900416643
1.9288492101 -26.4936934360 -2.9900416495
1.8435868172 -26.4882523631 -2.9900416441
1.6850197122 -26.4828356100 -2.9900416388
2.0040451649 -26.4756903567 -2.9900416317
1.9306383795 -26.4695867117 -2.9900416257
1.8080901347 -26.4623120629 -2.9900416185
1.9816627025 -26.4494271858 -2.9900416058
1.9077933190 -26.4437249255 -2.9900416002
2.2181512834 -26.4521872785 -2.9900416085
1.9713613792 -26.4242958758 -2.9900415810
1.6736828603 -26.4101576780 -2.9900415671
2.4602130040 -26.4447589291 -2.9900416012
1.8751208607 -26.3689740290 -2.9900415264
2.0151288549 -26.3553344933 -2.9900415130
2.6062915224 -26.4271226472 -2.9900415838
1.7910174735 -26.2680520392 -2.9900414269
2.9737164378 -26.4037914093 -2.9900415608
2.4467453955 -26.2451186175 -2.9900414042
2.5830557642 -26.1740764350 -2.9900413341
2.8630615565 -26.2189398832 -2.9900413784
2.8867270165 -30.1210011468 -2.9900452288
3.4532133306 -29.6304921906 -2.9900447448
3.7834223179 -30.6154409939 -2.9900457167
3.7878638970 -30.5754924885 -2.9900456772
3.7608793533 -30.8780997824 -2.9900459758
3.8314056816 -30.8949833413 -2.9900459925
4.1575793183 -33.2103859231 -2.9900482772
2.3773002970 -26.5286820762 -2.9900416840
2.3433973967 -26.5213571528 -2.9900416768
2.3320821492 -26.5189824078 -2.9900416745
2.4957215115 -26.5318253918 -2.9900416871
2.4731433087 -26.5262080009 -2.9900416816
2.5808649282 -26.5292228648 -2.9900416846
2.5582698378 -26.5231017824 -2.9900416785
2.6326096107 -26.5186295350 -2.9900416741
2.7413680577 -26.5261550624 -2.9900416815
2.6960945222 -26.5121477521 -2.9900416677
2.9655432232 -26.5010057592 -2.9900416567
3.0310092759 -26.5000569936 -2.9900416558
3.2832950733 -26.4749813618 -2.9900416310
2.7923460063 -26.2382308501 -2.9900413974
2.8862139954 -30.1846736589 -2.9900452916
2.8767822783 -29.8719833256 -2.9900449830
2.8874897886 -30.3486299421 -2.9900454534
2.9106438980 -30.1824770967 -2.9900452894
2.9203546261 -30.3029901044 -2.9900454083
2.8870949742 -29.6856013049 -2.9900447991
2.8824480167 -29.6691743727 -2.9900447829
2.9556788072 -30.2208773999 -2.9900453273
3.0589492322 -30.0090935117 -2.9900451183
3.5032304194 -30.3255791000 -2.9900454306
3.5223016337 -30.3646321601 -2.9900454692
3.5210379108 -29.5296049274 -2.9900446452
3.8712134160 -29.8432663299 -2.9900449547
3.8643333282 -29.7801313203 -2.9900448924
3.8393722300 -30.8900630918 -2.9900459876
3.9130032713 -30.7353013839 -2.9900458349
3.9394866124 -29.4101406347 -2.9900445273
4.0637213510 -29.8248773921 -2.9900449366
4.0200104698 -29.5384514993 -2.9900446539
3.9005653082 -29.1367104921 -2.9900442575
4.2686676519 -30.0439152362 -2.9900451527
3.2028806374 -33.3972444276 -2.9900484616
3.2730737814 -33.3877457652 -2.9900484522
3.3238678699 -33.3876661403 -2.9900484522
2.9878382525 -26.5885253084 -2.9900417431
3.3453989825 -33.4033849866 -2.9900484677
3.3650874365 -33.3923880994 -2.9900484568
3.0490145658 -26.5888860636 -2.9900417434
3.0387097021 -26.5843087556 -2.9900417389
3.0180595786 -26.5752456903 -2.9900417300
3.1002033531 -26.5855404230 -2.9900417401
3.0588601162 -26.5668089166 -2.9900417217
3.4580449185 -33.3946244579 -2.9900484590
3.4776795708 -33.3829612728 -2.9900484475
3.1516872669 -26.5829218234 -2.9900417376
3.5097740933 -33.3918546688 -2.9900484563
3.5195916250 -33.3858845849 -2.9900484504
3.1827838677 -26.5709990597 -2.9900417258
3.5715174614 -33.3821995852 -2.9900484468
3.2658170453 -26.5851102374 -2.9900417397
3.3181263952 -26.5848659426 -2.9900417395
3.3706876808 -26.5853746031 -2.9900417400
3.3603710220 -26.5798457432 -2.9900417345
3.3396888643 -26.5688796997 -2.9900417237
3.7088749195 -33.3796666507 -2.9900484443
3.5626439473 -26.5827699294 -2.9900417374
5.0815298788 -32.5224175770 -2.9900475984
2.8764057871 -29.8837792295 -2.9900449947
2.8792287645 -29.8027724034 -2.9900449148
2.9256329665 -29.8701345356 -2.9900449812
3.4321133688 -29.6860921396 -2.9900447996
3.4981006040 -29.5994486173 -2.9900447141
4.0094975961 -30.3191539684 -2.9900454243
4.1107497229 -29.8785368526 -2.9900449895
2.6622118435 -33.4540042861 -2.9900485176
2.7021044723 -33.4666156572 -2.9900485301
2.7238027004 -33.4594927115 -2.9900485230
2.7346359163 -33.4558831294 -2.9900485195
2.7966526696 -33.4601615375 -2.9900485237
2.8264592913 -33.4752376558 -2.9900485386
2.8807388170 -33.4553497043 -2.9900485189
2.8783234896 -33.4820518105 -2.9900485453
2.9326981262 -33.4613960221 -2.9900485249
2.9435360584 -33.4571684812 -2.9900485207
3.0066852594 -33.4579253831 -2.9900485215
3.0593288807 -33.4622125667 -2.9900485257
3.1122823312 -33.4657635989 -2.9900485292
3.2081992959 -33.4756730665 -2.9900485390
3.3595547883 -33.4832591610 -2.9900485465
3.4359366037 -33.4712441389 -2.9900485346
3.5675146896 -33.4547787907 -2.9900485184
2.9465735918 -29.7582085736 -2.9900448708
2.9209247140 -29.9617140670 -2.9900450716
2.8348319801 -30.3148763859 -2.9900454201
2.8358556149 -30.3578719678 -2.9900454625
3.4283770913 -29.8074466298 -2.9900449194
3.6975673625 -28.8922302034 -2.9900440163
3.8254299266 -29.2919896444 -2.9900444107
3.7826029173 -29.0276245387 -2.9900441499
3.8778839943 -29.3347898990 -2.9900444530
2.0925386154 -33.4681161756 -2.9900485315
2.1042116731 -33.4665603627 -2.9900485300
2.1660881241 -33.4821697291 -2.9900485454
2.2285418625 -33.4968066024 -2.9900485599
2.2324780556 -33.5206570042 -2.9900485834
2.3740017305 -33.4947122050 -2.9900485578
2.4209606246 -33.4849496001 -2.9900485482
2.3669542795 -33.5207756970 -2.9900485835
2.6024418136 -33.5166429212 -2.9900485794
2.8354370928 -33.5253214350 -2.9900485880
3.6781413566 -29.1260836865 -2.9900442470
3.5869920766 -28.5816873301 -2.9900437098
3.6756328462 -28.7938172160 -2.9900439192
3.7173373229 -28.8720242386 -2.9900439963
3.5623916864 -28.3953826751 -2.9900435260
1.4753883258 -33.4867945623 -2.9900485500
1.5253059468 -33.4889742539 -2.9900485521
1.6002219995 -33.4911359665 -2.9900485543
1.6376914636 -33.4917181126 -2.9900485548
1.7126385128 -33.4918847547 -2.9900485550
1.4741909355 -33.5109379162 -2.9900485738
1.8007251496 -33.5145619474 -2.9900485774
1.8132827998 -33.5141997159 -2.9900485770
1.8258393234 -33.5138003383 -2.9900485766
1.6245215468 -33.5399022915 -2.9900486024
1.8147482621 -33.5625235563 -2.9900486247
1.7519866296 -33.6123198110 -2.9900486738
1.6748421319 -33.6370055246 -2.9900486982
2.1134441132 -33.6159075694 -2.9900486774
2.4887171380 -33.5869391900 -2.9900486488
1.5441239465 -33.6831289857 -2.9900487437
2.4931432993 -33.6107035410 -2.9900486722
1.5285472414 -33.7551695261 -2.9900488148
1.5949115793 -33.7569862413 -2.9900488166
2.5064217834 -33.6819965940 -2.9900487426
2.8425547765 -33.6559541665 -2.9900487169
1.7283814102 -33.8301899660 -2.9900488888
2.0828723094 -33.8615041547 -2.9900489197
2.8458596852 -29.8605867117 -2.9900449718
2.8971586001 -29.7935153991 -2.9900449056
2.8864860007 -29.8483519352 -2.9900449597
2.9631891674 -29.8257493042 -2.9900449374
3.5676048215 -28.8891866883 -2.9900440133
3.5630026253 -28.8432840421 -2.9900439680
3.5447756853 -28.7216435115 -2.9900438479
3.5975472851 -29.0896018394 -2.9900442110
3.5976116923 -28.9908619059 -2.9900441136
3.5964791552 -28.9596977443 -2.9900440828
3.5959787471 -28.9493147634 -2.9900440726
3.5916872330 -28.8870955784 -2.9900440112
3.5811170936 -28.7941503117 -2.9900439195
3.5604394466 -28.6764325847 -2.9900438033
3.5439504692 -28.6055654510 -2.9900437334
3.5274918059 -28.5454093501 -2.9900436740
3.6130598772 -29.2217082171 -2.9900443414
3.6202682586 -29.1271512039 -2.9900442481
3.6078686740 -28.8116676697 -2.9900439368
3.5736874607 -28.6251787664 -2.9900437528
3.5606871474 -28.5741193956 -2.9900437024
3.5579061547 -28.5639549205 -2.9900436923
3.5015233927 -28.3939913395 -2.9900435246
3.6294047930 -29.2878054068 -2.9900444066
3.6428942973 -29.1550056794 -2.9900442756
3.6435485842 -29.1443446727 -2.9900442650
3.6463995110 -29.0108920349 -2.9900441334
3.6403061740 -28.8882345546 -2.9900440123
3.6258879711 -28.7662751283 -2.9900438920
3.5984321041 -28.6247576227 -2.9900437523
3.5661981016 -28.5062546467 -2.9900436354
3.5162008603 -28.3653708288 -2.9900434964
3.5101560577 -28.3505333417 -2.9900434817
3.6485884784 -29.3232569471 -2.9900444416
3.6605882944 -29.2320477976 -2.9900443516
3.6627441421 -29.2105073429 -2.9900443303
3.6641936813 -29.1943360861 -2.9900443144
3.6707885527 -29.0429856502 -2.9900441650
3.6705695910 -29.0105145225 -2.9900441330
3.6584559747 -28.8269817467 -2.9900439519
3.6589770455 -29.4025811427 -2.9900445199
3.6865210950 -28.8623486654 -2.9900439868
3.6605100197 -28.6833430753 -2.9900438101
3.7187676788 -29.0764166297 -2.9900441980
3.7120992903 -28.8766400287 -2.9900440009
3.6702824304 -28.6135230700 -2.9900437413
3.5619916122 -28.2870847297 -2.9900434191
3.7210931508 -29.3289614447 -2.9900444472
3.7311300986 -28.8241638556 -2.9900439491
3.7291483631 -28.8074009255 -2.9900439326
3.5535688196 -28.2109598184 -2.9900433440
3.7300881986 -29.4168016016 -2.9900445339
3.7590108779 -29.2195671501 -2.9900443393
3.7305793514 -28.6638353324 -2.9900437909
3.7906771524 -29.1009287973 -2.9900442222
3.7284753705 -28.5466759880 -2.9900436753
3.6006716638 -28.1427638859 -2.9900432767
3.7932262999 -28.6091987718 -2.9900437370
3.7809931268 -28.4649559351 -2.9900435947
3.7066710828 -28.2565076217 -2.9900433890
3.8404408798 -28.5988004751 -2.9900437267
3.7312963788 -28.2527436342 -2.9900433853
3.8927725749 -29.3244384605 -2.9900444428
3.9050520452 -29.2148489292 -2.9900443346
3.0977318384 -31.3188244691 -2.9900464107
0.8465999247 -33.4656019848 -2.9900485291
0.8413001915 -33.4891868976 -2.9900485523
0.8676459826 -33.4950252071 -2.9900485581
1.5753484475 -33.5923960546 -2.9900486542
1.6696854560 -33.5969261283 -2.9900486586
0.8757414943 -33.5215169008 -2.9900485842
1.5453099365 -33.6389893387 -2.9900487002
1.8859930482 -33.6482841018 -2.9900487093
0.8387789446 -33.5629269977 -2.9900486251
0.9461085344 -33.5853826219 -2.9900486473
1.9684543515 -33.6709283787 -2.9900487317
1.1859399502 -33.6505144741 -2.9900487115
2.1892656364 -33.6838294244 -2.9900487444
1.3336957773 -33.6934247285 -2.9900487539
2.2324912838 -33.7046468015 -2.9900487649
1.3562844084 -33.7444375579 -2.9900488042
2.5284065526 -33.7191930623 -2.9900487793
2.5736363501 -33.7367953955 -2.9900487967
0.8577250461 -33.7400973407 -2.9900487999
2.0724788421 -33.8363170565 -2.9900488949
2.5951181622 -33.7823552004 -2.9900488416
0.9788982636 -33.7883981116 -2.9900488476
2.7395811912 -33.7817339174 -2.9900488410
2.8236130583 -33.7650436182 -2.9900488245
3.4940880408 -28.6685029573 -2.9900437955
3.4788574186 -28.5698846268 -2.9900436982
3.5272621342 -28.9077882421 -2.9900440316
3.5283790205 -28.8725192849 -2.9900439968
3.5286244002 -28.8548773639 -2.9900439794
3.5286610152 -28.8372337744 -2.9900439620
3.5285514705 -28.8240014734 -2.9900439489
3.5234504819 -28.7182843160 -2.9900438446
3.4956293063 -28.5307949860 -2.9900436596
3.4746200720 -28.4451277649 -2.9900435751
3.5527542049 -28.8595527819 -2.9900439840
3.5527966562 -28.8550705436 -2.9900439796
3.5525820360 -28.8147303380 -2.9900439398
3.5495496854 -28.7430821180 -2.9900438691
3.5619738714 -28.6282685029 -2.9900437558
3.5976666024 -28.9478872776 -2.9900440712
3.5985363282 -28.9340382334 -2.9900440575
3.5995901707 -28.7722229536 -2.9900438979
3.5615325114 -28.4930346852 -2.9900436224
3.6151849888 -28.6634591976 -2.9900437905
3.5984773960 -28.5520009706 -2.9900436805
3.5992005450 -29.2426452943 -2.9900443620
3.6380968524 -28.6512538313 -2.9900437785
3.6311221306 -28.4720897680 -2.9900436017
2.7025426499 -30.3642881664 -2.9900454688
3.6261926660 -29.3255758256 -2.9900444439
3.6939414386 -28.7286215782 -2.9900438548
3.6757182877 -28.5725729873 -2.9900437008
3.7177065621 -28.7219862092 -2.9900438483
3.7100366805 -29.1927770646 -2.9900443128
3.7083654804 -28.4852485472 -2.9900436147
3.7655520791 -28.7134018896 -2.9900438398
3.7171915360 -29.3586529740 -2.9900444765
2.6550240440 -31.4959769819 -2.9900465855
0.9778197637 -33.6264668134 -2.9900486878
1.0628852018 -33.6445221337 -2.9900487056
1.2625188115 -33.6807599405 -2.9900487414
0.8308747214 -33.6164647471 -2.9900486779
1.0438066005 -33.6652933400 -2.9900487261
1.7798709367 -33.7598764668 -2.9900488194
1.0532673567 -33.6919018570 -2.9900487524
1.8078431829 -33.7854620504 -2.9900488447
1.8224649994 -33.7861200215 -2.9900488453
1.8955997588 -33.7887609228 -2.9900488479
0.5361331136 -33.5828503411 -2.9900486448
1.3820165411 -33.7715639203 -2.9900488310
1.7920295646 -33.8089043592 -2.9900488678
1.3202743889 -33.7873845805 -2.9900488466
1.9533153231 -33.8384338175 -2.9900488970
0.5356980218 -33.6334031271 -2.9900486946
0.8071771919 -33.7102079688 -2.9900487704
0.2263826856 -33.6545856077 -2.9900487155
0.1039822210 -33.6327949565 -2.9900486940
3.4661336958 -28.7449839906 -2.9900438710
3.4894755765 -28.7606529524 -2.9900438864
3.4865250128 -28.5723960807 -2.9900437007
2.8247325453 -29.8572132475 -2.9900449685
3.5592853883 -28.7995441269 -2.9900439248
3.5956880925 -28.8986055925 -2.9900440226
3.6493473775 -28.8654334790 -2.9900439898
3.4425718461 -28.7294941340 -2.9900438557
3.4443547149 -28.7185738110 -2.9900438449
3.4489263785 -28.6856969845 -2.9900438125
3.4495747353 -28.6802026310 -2.9900438071
3.4527812877 -28.6471647155 -2.9900437745
3.4529955271 -28.6444067834 -2.9900437717
3.4571585509 -28.7808722159 -2.9900439064
3.4589631958 -28.7725524675 -2.9900438982
3.4595483278 -28.7697756995 -2.9900438954
3.4601252431 -28.7669972127 -2.9900438927
3.4634139055 -28.7502915603 -2.9900438762
3.4654414001 -28.7391231684 -2.9900438652
3.4664055551 -28.7335301714 -2.9900438597
3.4770986918 -28.6462432838 -2.9900437735
3.4680760047 -28.8369023426 -2.9900439617
3.4972675422 -28.6886160134 -2.9900438154
3.5025386909 -28.6277592649 -2.9900437553
3.4697652364 -28.9115639313 -2.9900440353
3.5030531557 -28.7971467655 -2.9900439224
3.5181995022 -28.7150954198 -2.9900438415
3.5186144067 -28.7121436714 -2.9900438386
3.5205578550 -28.6973672301 -2.9900438240
3.4727268644 -28.9709159192 -2.9900440939
3.4851569154 -28.9397281540 -2.9900440631
3.5162723326 -28.8439716016 -2.9900439687
3.5201658231 -28.8292153806 -2.9900439541
3.5231232080 -28.8173699485 -2.9900439424
3.5259402252 -28.8054903526 -2.9900439307
3.5368696400 -28.7516540933 -2.9900438776
3.4760265148 -29.0230541099 -2.9900441454
3.5508810946 -28.8048370616 -2.9900439300
3.5531576884 -28.8904130648 -2.9900440145
3.5409011489 -28.9958409194 -2.9900441185
3.5695066259 -28.9896202584 -2.9900441124
3.4946431666 -29.1896912077 -2.9900443098
3.4964621143 -29.1868070667 -2.9900443069
3.5243932757 -29.1399480459 -2.9900442607
2.9026661284 -29.8640528228 -2.9900449752
3.8630459701 -28.6716564741 -2.9900437986
2.6996067571 -29.9318470215 -2.9900450421
2.7236891729 -29.9284557103 -2.9900450388
2.8469287069 -29.9041623821 -2.9900450148
2.8822396216 -29.8950032856 -2.9900450058
2.9250467955 -29.8825374128 -2.9900449935
3.8783066006 -28.7580680266 -2.9900438839
3.8855250782 -28.6936228310 -2.9900438203
3.8882427318 -28.6572447593 -2.9900437844
2.8566906972 -29.9266514605 -2.9900450370
3.8792406318 -28.8870640076 -2.9900440112
3.8918184999 -28.8264876256 -2.9900439514
3.8932920701 -28.8183705095 -2.9900439434
3.8954123170 -28.8061788441 -2.9900439314
3.8960950123 -28.8021108335 -2.9900439273
3.8993278194 -28.7817414672 -2.9900439072
2.8990459572 -29.9405213906 -2.9900450507
3.8979226111 -28.9129107683 -2.9900440367
3.9199405563 -28.8060763488 -2.9900439313
3.9256395848 -28.7687422668 -2.9900438944
3.9117035706 -28.9558646729 -2.9900440791
3.9338418226 -29.0488240827 -2.9900441708
3.3860777257 -29.8755944951 -2.9900449866
3.1879364183 -30.0406917397 -2.9900451495
2.6919349939 -30.4191161024 -2.9900455229
2.7218059093 -30.4404137019 -2.9900455439
2.5897352245 -30.4741413632 -2.9900455772
2.7355808919 -30.4632086290 -2.9900455664
2.9014966075 -30.4615329825 -2.9900455648
2.4304532084 -31.1748558042 -2.9900462687
2.4350872111 -31.2717546581 -2.9900463643
3.0935489605 -31.2116082277 -2.9900463049
3.1325069510 -31.2028452679 -2.9900462963
-1.5912818269 -33.7252360084 -2.9900487853
3.4257975760 -28.7210857373 -2.9900438474
3.4340104223 -28.6946175179 -2.9900438213
3.4377040649 -28.6812615470 -2.9900438081
3.4382091237 -28.6793474077 -2.9900438062
3.4447382381 -28.7403669087 -2.9900438664
3.4500165159 -28.7248301328 -2.9900438511
3.4506504046 -28.7228793804 -2.9900438492
3.4660363892 -28.6675632669 -2.9900437946
3.4445801339 -28.8055107380 -2.9900439307
3.4675328899 -28.7484129719 -2.9900438744
3.4755832603 -28.7242479862 -2.9900438505
3.4692897112 -28.8094717148 -2.9900439346
3.4464542161 -28.9056093060 -2.9900440295
3.4534952746 -28.9398939699 -2.9900440633
3.4520205359 -28.9848724965 -2.9900441077
3.8565602046 -28.7992023545 -2.9900439245
3.8599126430 -28.7865725932 -2.9900439120
3.8638926562 -28.7707310600 -2.9900438964
3.8654189819 -28.7643782550 -2.9900438901
3.8669076957 -28.7580165309 -2.9900438838
3.8677027478 -28.8471918923 -2.9900439718
3.8807578196 -28.8023194504 -2.9900439275
3.8696593896 -28.9156659370 -2.9900440394
3.8720430979 -28.9092764775 -2.9900440331
3.8755476772 -28.8996661250 -2.9900440236
3.8876649208 -28.8641710980 -2.9900439886
3.9246947912 -28.8249353428 -2.9900439499
3.8752521658 -29.1301139124 -2.9900442510
3.9033976735 -29.0781143002 -2.9900441997
3.8828982616 -29.1648717025 -2.9900442853
2.9699113379 -29.8680561994 -2.9900449792
2.8786610804 -29.9012089483 -2.9900450119
2.7795280337 -29.9281014880 -2.9900450384
2.8382688083 -29.9273556382 -2.9900450377
2.9387225181 -29.9204231880 -2.9900450308
2.9637392737 -29.9175772341 -2.9900450280
3.1975775248 -29.8686016701 -2.9900449797
2.7196124749 -29.9505581768 -2.9900450606
2.9523895687 -29.9675760524 -2.9900450774
3.3942423767 -29.8466678482 -2.9900449581
3.1176022854 -30.0139443336 -2.9900451231
2.5885149947 -30.4737282428 -2.9900455768
3.3248078132 -30.4607410831 -2.9900455640
3.3311879435 -30.4840569408 -2.9900455870
3.3180423442 -31.0833689463 -2.9900461784
3.3453351134 -31.1764661721 -2.9900462702
2.6898730022 -31.4251252070 -2.9900465156
9.5824220316 -30.3123128166 -2.9900454175
-3.0854136156 -34.1404774833 -2.9900491950
-3.0867048598 -34.2088002451 -2.9900492624
-3.0358959541 -34.2607361892 -2.9900493137
-2.9667056763 -34.3978123316 -2.9900494489
-2.8778839306 -34.5166525322 -2.9900495662
-2.6954567871 -34.7160133732 -2.9900497629
11.0675441541 -30.8380939396 -2.9900459364
11.0626031580 -30.9426856050 -2.9900460396
11.0768535068 -30.8937047982 -2.9900459912
11.0794508277 -31.0545808108 -2.9900461500
11.0873144891 -31.1108061630 -2.9900462055
11.0869040570 -31.1917662349 -2.9900462853
3.8518920708 -28.9117211646 -2.9900440355
3.8438116489 -28.9744840436 -2.9900440974
-3.4565244750 -32.4537275768 -2.9900475306
11.0171783286 -31.8986488947 -2.9900469829
10.9984756550 -32.0022390999 -2.9900470851
10.9896818074 -32.1393451153 -2.9900472204
11.0003677798 -32.2873769206 -2.9900473664
3.8440981232 -29.3508954417 -2.9900444689
3.8396645749 -29.4066399187 -2.9900445239
3.8411153386 -29.4915244573 -2.9900446076
3.8312803651 -29.5445932098 -2.9900446600
3.8423818774 -29.5693650540 -2.9900446844
3.4507383337 -30.3818182075 -2.9900454861
2.7731453292 -30.5198167001 -2.9900456223
3.2169835712 -30.5275414133 -2.9900456299
2.8695974731 -30.5803706312 -2.9900456820
2.7938778847 -30.6204902499 -2.9900457216
2.8091294186 -30.6224583650 -2.9900457236
2.4967536449 -30.5791679002 -2.9900456809
3.1752686911 -30.7261085265 -2.9900458259
2.5519294000 -31.2906821945 -2.9900463830
2.9161544113 -31.3344006675 -2.9900464261
3.2183002325 -31.3289325499 -2.9900464207
3.2398220813 -31.3271062573 -2.9900464189
2.4125325195 -31.2838484477 -2.9900463762
2.6220484600 -31.3524632666 -2.9900464439
2.8993572858 -31.3820101390 -2.9900464731
2.3933409975 -31.3288255282 -2.9900464206
3.3420892535 -31.3889182511 -2.9900464799
2.7450907042 -31.4424334148 -2.9900465327
2.0566210903 -31.2937762287 -2.9900463860
2.1636268378 -31.3343018265 -2.9900464260
2.5418427349 -31.4610630860 -2.9900465511
2.4612182530 -31.4693177283 -2.9900465592
2.9692919433 -31.5537667455 -2.9900466426
2.6298892306 -31.5494121824 -2.9900466383
3.2139941538 -31.5716831354 -2.9900466602
3.1200237267 -31.6009281732 -2.9900466891
3.0806174098 -31.6262317096 -2.9900467141
1.5831224295 -31.3000047662 -2.9900463922
2.5136847030 -31.7016869782 -2.9900467885
1.5040866399 -31.3650852587 -2.9900464564
1.2698908880 -31.2646814297 -2.9900463573
-3.4710011887 -31.9456928796 -2.9900470293
-3.4563096413 -32.0328373641 -2.9900471153
-3.4965423547 -32.0048324680 -2.9900470876
-3.5129801558 -32.4010838621 -2.9900474786
-3.4921694295 -32.4396933056 -2.9900475167
-3.4711306409 -32.4781789502 -2.9900475547
-3.4988038525 -32.7231006402 -2.9900477964
11.0046066857 -32.8685015684 -2.9900479399
10.9906519032 -32.9501230094 -2.9900480204
10.9880545334 -33.0082649225 -2.9900480778
10.9973291695 -33.0429467932 -2.9900481120
11.0095412371 -33.0193399778 -2.9900480887
11.0064681261 -33.0777193638 -2.9900481463
11.0029830272 -33.1362060832 -2.9900482040
11.0154709478 -33.1125821346 -2.9900481807
10.9947713839 -33.2534901660 -2.9900483198
11.0076062880 -33.2298899957 -2.9900482965
11.0159899989 -33.2650705657 -2.9900483312
11.0295390143 -33.5849874623 -2.9900486469
3.4420574005 -29.2012035250 -2.9900443212
3.4430998371 -29.3176821222 -2.9900444361
3.8561298060 -29.3352864527 -2.9900444535
3.8624900529 -29.3162935175 -2.9900444347
3.8817365145 -29.5735970584 -2.9900446886
2.9932329960 -31.5382589451 -2.9900466272
-3.3024678556 -32.9765937366 -2.9900480465
11.0662395056 -31.5498775206 -2.9900466387
11.0813731077 -31.5008629330 -2.9900465903
11.0501060922 -31.6795549915 -2.9900467667
11.0730730336 -31.6870952094 -2.9900467741
3.4338069113 -29.2849493442 -2.9900444038
3.4398542709 -29.2549334757 -2.9900443742
3.4420588629 -29.2423669211 -2.9900443618
3.4424774634 -29.2398497742 -2.9900443593
3.4451989256 -29.2221966170 -2.9900443419
3.4481107978 -29.3283725629 -2.9900444466
3.4526639889 -29.3105837846 -2.9900444291
3.4568478727 -29.2927045424 -2.9900444114
3.4621806917 -29.2670210468 -2.9900443861
3.4679735692 -29.2334168687 -2.9900443529
3.4715479372 -29.2074302414 -2.9900443273
3.4525778232 -29.3964486487 -2.9900445138
3.4543189913 -29.3913481973 -2.9900445088
3.4593610184 -29.3759862864 -2.9900444936
3.4609810056 -29.3708460615 -2.9900444885
3.4630620621 -29.4380903934 -2.9900445549
3.4896315202 -29.3595001284 -2.9900444774
3.5169818765 -29.2325031928 -2.9900443520
3.5217340230 -29.3333461236 -2.9900444515
3.5081296716 -29.4555904421 -2.9900445722
3.4815432170 -29.6213286372 -2.9900447357
3.5149535402 -29.5596016906 -2.9900446748
3.4992233539 -29.6389322310 -2.9900447531
3.4821621115 -29.7105041626 -2.9900448237
3.8540223819 -29.2656717600 -2.9900443848
3.8545081198 -29.2619358485 -2.9900443811
3.8642601010 -29.3521405271 -2.9900444701
3.8678559997 -29.3332862134 -2.9900444515
3.8764365979 -29.2802353721 -2.9900443991
3.8714726830 -29.4292768004 -2.9900445462
3.8992628055 -29.2913414503 -2.9900444101
3.8787076211 -29.4927969795 -2.9900446089
3.8854833333 -29.4698869639 -2.9900445863
3.9053267859 -29.4882127074 -2.9900446044
3.8912043522 -29.6043408558 -2.9900447189
3.9109873389 -29.5500909094 -2.9900446654
3.9396191529 -29.4553458548 -2.9900445719
3.9457205816 -29.4313606694 -2.9900445483
3.9557971241 -29.3871218644 -2.9900445046
3.9606851529 -29.3628602956 -2.9900444807
3.9665312603 -29.3303838563 -2.9900444486
3.9028224605 -29.6403617214 -2.9900447545
3.9075697507 -29.6287019300 -2.9900447430
3.9202370250 -29.6613916147 -2.9900447752
3.3458994566 -31.3626230844 -2.9900464539
3.2032669859 -31.4302838573 -2.9900465207
3.3332289012 -31.3922289794 -2.9900464832
3.3603043861 -31.3832903396 -2.9900464743
2.8221945786 -31.5467548882 -2.9900466356
2.9233154917 -31.5350993456 -2.9900466241
2.9377188985 -31.5330927579 -2.9900466222
3.3411919059 -31.4404551447 -2.9900465307
2.8609894733 -31.5671030602 -2.9900466557
2.7693222967 -31.6238714914 -2.9900467117
3.4904811075 -31.4650168748 -2.9900465550
2.3764238334 -31.6695105390 -2.9900467568
2.3001666856 -31.8079118761 -2.9900468933
2.9396366366 -31.9716929616 -2.9900470549
-1.7569473108 -33.6938059300 -2.9900487542
3.4650570038 -29.2136419251 -2.9900443334
3.4724131861 -29.3604695378 -2.9900444783
3.5138556443 -29.2030552100 -2.9900443230
3.5174712798 -29.3821578714 -2.9900444997
3.4966965343 -29.5475877327 -2.9900446629
3.5191974040 -29.4776903124 -2.9900445940
3.5135855123 -29.5717469540 -2.9900446868
3.5294168909 -29.5267146982 -2.9900446423
3.5274272576 -29.6029620761 -2.9900447176
3.5696807935 -29.5586367358 -2.9900446738
3.6123107904 -29.4009948494 -2.9900445183
3.8766760991 -29.1340733105 -2.9900442549
3.8985864558 -29.2549694895 -2.9900443742
3.8999167624 -29.2289672933 -2.9900443485
3.9012248546 -29.1682337799 -2.9900442886
3.9247426822 -29.4402007486 -2.9900445570
3.6742770624 -31.2331690959 -2.9900463262
1.2394528571 -33.9185819357 -2.9900489760
0.7601733828 -33.7973279808 -2.9900488564
0.4200145241 -33.7391618762 -2.9900487990
-0.2048187719 -33.6073270718 -2.9900486689
3.4462812997 -29.0592457279 -2.9900441811
3.4932083906 -29.3087628675 -2.9900444273
3.4933432652 -29.2945522581 -2.9900444133
3.4903776240 -29.2058012058 -2.9900443257
3.4883720040 -29.1810128232 -2.9900443012
3.4746131204 -29.0789353519 -2.9900442005
3.5165044407 -29.2402874179 -2.9900443597
3.5160127623 -29.2294255521 -2.9900443490
3.5130828140 -29.1860345480 -2.9900443062
3.5047841914 -29.1140349609 -2.9900442351
3.5140807391 -29.5514925850 -2.9900446668
3.5305412324 -29.4568448634 -2.9900445734
3.5328696578 -29.4385130651 -2.9900445553
3.5382248592 -29.3833391478 -2.9900445009
3.5411273727 -29.3279819915 -2.9900444462
3.5330514469 -29.1435346245 -2.9900442642
3.5287058635 -29.1105580534 -2.9900442317
3.5237257820 -29.6151721088 -2.9900447296
3.5283966741 -29.5969237952 -2.9900447116
3.5422494002 -29.5344017146 -2.9900446499
3.5614386826 -29.3964068621 -2.9900445138
3.5644064110 -29.3512984597 -2.9900444693
3.5334421403 -29.6693363890 -2.9900447831
3.5697966792 -29.0619219855 -2.9900441837
3.5647948959 -29.0355200126 -2.9900441577
3.6034329695 -29.5950278739 -2.9900447098
3.6376492860 -29.3348813525 -2.9900444531
3.6085749012 -29.6710940427 -2.9900447848
3.5685068415 -29.8521646776 -2.9900449635
3.6092706527 -29.7485523964 -2.9900448612
3.6600760752 -29.5616192947 -2.9900446768
3.6864181600 -29.3199906556 -2.9900444384
3.6236148701 -29.7802022574 -2.9900448925
3.6063637001 -30.0448175956 -2.9900451536
3.9187846829 -29.1125395845 -2.9900442337
3.9524716776 -29.2667258183 -2.9900443858
3.8455573434 -31.1325405311 -2.9900462269
1.6641734009 -33.7590489337 -2.9900488186
1.8763100312 -33.7837646371 -2.9900488430
1.9295083984 -33.7883726430 -2.9900488476
0.9158013362 -33.6132886022 -2.9900486748
0.7423974387 -33.5799034380 -2.9900486418
0.7678035406 -33.5889983021 -2.9900486508
1.8852899085 -33.8331287974 -2.9900488917
2.1276482088 -33.8483538941 -2.9900489067
2.1681052266 -33.8496358889 -2.9900489080
1.7482326465 -33.8431041400 -2.9900489016
1.9642520674 -33.8637485901 -2.9900489219
2.1122767314 -33.8961559390 -2.9900489539
0.8995311504 -33.7095622067 -2.9900487698
1.3859015170 -33.8589699807 -2.9900489172
1.8766608193 -33.9294350970 -2.9900489868
0.2922441192 -33.5234789056 -2.9900485862
1.0043692656 -33.7915539298 -2.9900488507
0.1709506506 -33.5181765260 -2.9900485809
1.1397171676 -33.8779628769 -2.9900489360
1.4085074435 -33.9618408874 -2.9900490187
1.1161564326 -33.9717405730 -2.9900490285
0.0911315801 -33.6132582235 -2.9900486748
-0.1613934463 -34.2168427948 -2.9900492704
3.4893626454 -29.1521310972 -2.9900442727
3.4805097782 -29.1133103525 -2.9900442344
3.5424811262 -29.3963271128 -2.9900445137
3.5077406765 -29.1233628399 -2.9900442443
3.5058915130 -29.1154697846 -2.9900442366
3.5567708824 -29.6015186477 -2.9900447162
3.5665325921 -29.3915750513 -2.9900445090
3.5627401259 -29.3215617896 -2.9900444399
3.5710264894 -29.6708842319 -2.9900447846
3.5812686429 -29.6002919594 -2.9900447150
3.5831617497 -29.5836135223 -2.9900446985
3.5863552872 -29.5501952887 -2.9900446655
3.5911224635 -29.4538143513 -2.9900445704
3.5912269028 -29.4454221979 -2.9900445621
3.4926700249 -28.9122776627 -2.9900440361
3.5969546034 -29.6623252383 -2.9900447762
3.6062586633 -29.5946818246 -2.9900447094
3.6071962569 -29.5861976549 -2.9900447010
3.6154330158 -29.4413837232 -2.9900445581
3.6138894919 -29.3645858199 -2.9900444824
3.6016635732 -29.2328930676 -2.9900443524
3.5958577517 -29.1949242783 -2.9900443150
3.6005547109 -29.7683185698 -2.9900448808
3.6392469762 -29.3981503407 -2.9900445155
3.6480406913 -29.6482475463 -2.9900447623
3.6547872502 -29.5957508727 -2.9900447105
3.6630498412 -29.3843653509 -2.9900445019
3.6584041880 -29.3051139890 -2.9900444237
3.6722257498 -29.2140113496 -2.9900443338
3.6818324695 -29.7360094974 -2.9900448489
3.6938338698 -29.6687684922 -2.9900447825
3.6302974486 -29.9979530873 -2.9900451073
3.7349482787 -29.4976589282 -2.9900446137
4.1663794409 -30.8697222540 -2.9900459676
3.7423042676 -31.5085684452 -2.9900465980
1.1015939033 -33.4915071015 -2.9900485546
1.5514452193 -33.5842182523 -2.9900486461
1.6006200927 -33.5912787300 -2.9900486531
1.8227986095 -33.6158318882 -2.9900486773
0.9631623913 -33.4776699719 -2.9900485410
0.9871193054 -33.4847552887 -2.9900485480
1.0111177193 -33.4916987443 -2.9900485548
1.0471913145 -33.5018474078 -2.9900485648
1.1196015862 -33.5211823631 -2.9900485839
1.1438131963 -33.5273413715 -2.9900485900
1.4984976923 -33.6004393189 -2.9900486621
2.0577254666 -33.6530460644 -2.9900487140
1.0165513027 -33.5183771793 -2.9900485811
2.1073069918 -33.6782813414 -2.9900487389
1.2180251328 -33.5948904056 -2.9900486566
1.5407141843 -33.6559389775 -2.9900487169
2.2838009624 -33.7015132380 -2.9900487618
2.3343124552 -33.6998999310 -2.9900487603
1.3742891449 -33.6522691469 -2.9900487133
2.3352270632 -33.7240556503 -2.9900487841
0.9408571796 -33.5971327693 -2.9900486589
1.7339463724 -33.7532587428 -2.9900488129
1.4458421364 -33.7632550652 -2.9900488228
2.8429807858 -33.7723755144 -2.9900488318
1.4032208383 -33.7804371244 -2.9900488397
1.9871818466 -33.8440970696 -2.9900489025
2.1700153255 -33.8479954473 -2.9900489064
2.3789552562 -33.8431776934 -2.9900489016
1.1035463260 -33.7415230942 -2.9900488013
2.8113897341 -33.8259961330 -2.9900488847
1.0082374002 -33.7417973726 -2.9900488016
2.1567793436 -33.8963138851 -2.9900489541
2.9842486669 -33.8219626093 -2.9900488807
3.1008250745 -33.7988034115 -2.9900488579
0.9507420671 -33.7509769917 -2.9900488107
