55.6126472868 -7.4659970268 -3.0006668329
55.6269946717 -7.4548531699 -3.0006668219
55.6029754085 -7.5036581895 -3.0006668701
55.6078803026 -7.4999861697 -3.0006668664
55.6706379925 -7.4509428736 -3.0006668180
55.4798716309 -7.9795394349 -3.0006673396
54.9370681999 -8.2589062995 -3.0006676153
55.8632262589 -7.8523616829 -3.0006672141
55.8322797776 -7.9639207312 -3.0006673242
52.3371372610 -11.3488484712 -3.0006706643
51.3609176999 -11.2180502082 -3.0006705352
51.4087298792 -11.2444903156 -3.0006705613
50.7565119197 -11.0692665978 -3.0006703884
50.9983163014 -11.2851234070 -3.0006706014
55.9692778790 -5.8349876465 -2.9989829420
55.9685425187 -5.8294093357 -2.9989829365
55.9470905104 -5.7018138479 -2.9989828106
55.9832105450 -5.7642312419 -2.9989828722
55.9822658134 -5.7586120253 -2.9989828666
55.9661055925 -5.6746895639 -2.9989827838
56.0289840737 -6.2144907499 -2.9989833165
56.0298791303 -5.9608095255 -2.9989830661
56.0249453309 -5.8975389092 -2.9989830037
56.0571657644 -6.1286330131 -2.9989832318
56.0572190371 -6.0351841762 -2.9989831395
56.0490114325 -5.8952677789 -2.9989830015
56.0670976491 -6.3237372612 -2.9989834243
56.0776130000 -6.2119058030 -2.9989833139
56.0818497332 -6.0641850608 -2.9989831682
56.0486033662 -5.7173737639 -2.9989828259
56.0880413513 -6.3504167949 -2.9989834506
56.0655322905 -5.6777321790 -2.9989827868
56.0771250427 -6.5441813844 -2.9989836418
56.0887543141 -6.4909375951 -2.9989835893
56.1010366901 -6.4254708770 -2.9989835247
56.1094973519 -6.3716326169 -2.9989834715
56.1111826505 -6.3596392172 -2.9989834597
56.1295699823 -6.0274556746 -2.9989831319
55.5959444517 -7.4955765870 -2.9989845806
55.6371287077 -7.4502140749 -2.9989845358
55.6730329715 -7.4083621296 -2.9989844945
56.1288483125 -6.4053587007 -2.9989835048
56.1383252145 -6.3386328563 -2.9989834390
56.1472386988 -6.2533235392 -2.9989833548
56.1129090026 -5.6680995114 -2.9989827773
55.6836134204 -7.4333482952 -2.9989845192
55.6876075498 -7.4286080380 -2.9989845145
56.1108655361 -6.6092905816 -2.9989837060
56.1630727678 -6.3354906052 -2.9989834359
56.1783988877 -6.0509856166 -2.9989831551
56.1778996308 -6.0261962286 -2.9989831307
56.1480475951 -5.7242005445 -2.9989828327
56.1937666032 -6.2760887581 -2.9989833773
56.2027535013 -6.0694513498 -2.9989831734
56.2017006903 -6.0130315046 -2.9989831177
56.1912240022 -5.6910028641 -2.9989827999
56.2045615026 -6.5277128521 -2.9989836255
56.2508099568 -6.0435419961 -2.9989831478
56.2744923944 -6.1403876445 -2.9989832433
56.1468368739 -6.8890434456 -2.9989839821
56.1742225596 -6.8152938670 -2.9989839093
56.2585614295 -6.8666752458 -2.9989839600
55.7000247386 -7.9641597924 -2.9989850430
54.8626222511 -8.5136861831 -2.9989855852
54.5990320767 -8.6568707650 -2.9989857265
55.1247855852 -8.4927118412 -2.9989855645
55.7428476677 -8.2101412689 -2.9989852857
53.1971573898 -11.2677379697 -2.9989883028
53.0546888130 -11.2660241857 -2.9989883011
53.1161149938 -11.2778309022 -2.9989883127
53.0191858480 -11.2835313208 -2.9989883184
52.5100365602 -11.1781553617 -2.9989882144
52.5959728582 -11.2793580514 -2.9989883142
51.9537291234 -11.0772207277 -2.9989881148
51.9459436124 -11.1789050236 -2.9989882151
52.3131254555 -11.3687308936 -2.9989884024
51.9331945587 -11.2521675768 -2.9989882874
51.8473339847 -11.2419837718 -2.9989882774
51.6443524199 -11.2830306638 -2.9989883179
56.0728927223 -6.1353031079 -3.0006824475
56.0684594334 -6.0957853881 -3.0006824086
56.0624018053 -6.0497895678 -3.0006823632
56.0543143813 -5.9973897235 -3.0006823115
56.0226475656 -5.8415432648 -3.0006821577
56.0146625306 -5.8093815491 -3.0006821259
55.9718454500 -5.6631121674 -3.0006819816
56.1057770057 -6.2463522613 -3.0006825571
56.0759198986 -5.9802101658 -3.0006822945
56.0674675918 -5.9340846484 -3.0006822490
56.0223432533 -5.7451822813 -3.0006820626
56.0109939922 -5.7066231711 -3.0006820245
56.0050631674 -5.6874206726 -3.0006820056
56.0010147116 -5.6746485742 -3.0006819930
55.9968907626 -5.6619006515 -3.0006819804
55.9588102552 -5.5545822187 -3.0006818745
56.1276726246 -6.5225022213 -3.0006828296
56.1112096370 -6.0496856283 -3.0006823631
56.1083193527 -6.0295802629 -3.0006823432
56.0134734536 -5.6351131231 -3.0006819540
55.9885685850 -5.5649262571 -3.0006818847
56.1517885780 -6.5241623637 -3.0006828313
56.1565635433 -6.4216487109 -3.0006827301
56.1566394368 -6.3121835227 -3.0006826221
56.0931571466 -5.8245899018 -3.0006821409
56.0511924040 -5.6729488149 -3.0006819913
56.1672597088 -6.6222208593 -3.0006829280
56.1776405267 -6.4982223173 -3.0006828057
56.1780234871 -6.4913192115 -3.0006827988
56.1806370544 -6.3047166109 -3.0006826147
56.1785489309 -6.2494475504 -3.0006825602
56.0362703392 -5.5545005902 -3.0006818744
56.1134168070 -5.7119893945 -3.0006820298
56.0844217079 -5.6186007742 -3.0006819377
56.0661247801 -5.5658006060 -3.0006818856
56.0311176135 -5.4744953572 -3.0006817955
55.5072846032 -8.0755711683 -3.0006843621
56.1868322360 -6.8158753298 -3.0006831191
56.2189318053 -6.5924379472 -3.0006828986
56.2273847201 -6.7220795365 -3.0006830265
56.2489487212 -6.2102693316 -3.0006825215
56.2426314982 -6.1321169676 -3.0006824444
56.0942356997 -5.5026590144 -3.0006818233
55.7575725362 -7.8695973183 -3.0006841589
56.2512913357 -6.7256585043 -3.0006830301
56.2591442907 -6.6685996626 -3.0006829738
56.2600309015 -6.6614547084 -3.0006829667
56.2656448478 -6.6113709715 -3.0006829173
56.2538587259 -6.0225552949 -3.0006823363
56.2322013011 -5.8947976734 -3.0006822102
56.2063343494 -5.6852369212 -3.0006820034
56.3206002520 -6.5357833601 -3.0006828427
56.3497913661 -6.3003293961 -3.0006826104
56.3341719558 -6.0785232263 -3.0006823915
56.3141294403 -5.9391036884 -3.0006822539
56.2220170725 -5.5727359097 -3.0006818924
56.3746911378 -6.3895243990 -3.0006826984
56.2807758612 -7.1334156268 -3.0006834324
56.3544142100 -6.8404118470 -3.0006831433
56.3432074986 -5.8344134966 -3.0006821506
56.2044692686 -5.3875596395 -3.0006817097
56.2481980754 -7.2989973367 -3.0006835958
56.4231464063 -6.3594721189 -3.0006826687
56.2520709297 -5.3761747147 -3.0006816985
56.4689932379 -6.2505935899 -3.0006825613
56.3731964050 -5.6533695951 -3.0006819720
56.5224430022 -6.0246820855 -3.0006823384
55.5563954071 -8.4838898207 -3.0006847650
55.6389027521 -8.5725956834 -3.0006848526
56.1052691992 -8.2088286327 -3.0006844936
56.6837971713 -7.0344586075 -3.0006833348
53.2347737323 -11.1049096791 -3.0006873513
53.0770353610 -11.1064336078 -3.0006873528
53.1050988509 -11.1108898636 -3.0006873572
53.1753686215 -11.1213034403 -3.0006873675
52.5848344575 -11.0250848702 -3.0006872726
52.9466006997 -11.1080804915 -3.0006873545
52.9887254501 -11.1158600626 -3.0006873621
53.2144476044 -11.1510186739 -3.0006873968
53.4558114836 -11.1766284425 -3.0006874221
52.5370171983 -11.0370033818 -3.0006872843
52.6479307321 -11.0666291821 -3.0006873136
53.6400614257 -11.2121579035 -3.0006874572
53.7978582130 -11.2162359463 -3.0006874612
53.2367479558 -11.2026303954 -3.0006874478
53.4950615578 -11.2281082280 -3.0006874729
54.1305845751 -11.2564312755 -3.0006875008
53.2307234420 -11.2505996185 -3.0006874951
52.4125878837 -11.1014898184 -3.0006873479
52.8523202380 -11.2126960564 -3.0006874577
54.3958846218 -11.2823055967 -3.0006875264
54.2375336869 -11.3217462413 -3.0006875653
55.6938853653 -7.3814324927 -2.9996563315
55.7308242613 -7.3466098512 -2.9996562971
55.7365800604 -7.3282515699 -2.9996562790
55.7375349585 -7.4031851405 -2.9996563530
55.7884930033 -7.3236911040 -2.9996562745
55.6940321962 -7.9434207233 -2.9996568861
55.5769893347 -8.1555188812 -2.9996570953
55.7687888699 -7.8639731925 -2.9996568077
55.4602474567 -8.3679058633 -2.9996573049
55.6372631090 -8.1559359741 -2.9996570958
56.0137534874 -7.4138037292 -2.9996563635
56.1096669762 -7.2418620229 -2.9996561938
56.1780933067 -6.3916496612 -2.9996553548
56.1418621689 -6.1700925599 -2.9996551362
56.2191015467 -6.6299551074 -2.9996555900
56.2091874535 -6.4564538112 -2.9996554188
56.1591497891 -6.1355871938 -2.9996551022
56.2436481518 -6.7285653599 -2.9996556873
56.2385954702 -6.5227043473 -2.9996554842
56.2295093995 -6.4162959180 -2.9996553792
56.2009849311 -6.2200581279 -2.9996551855
56.1574664662 -6.0265922168 -2.9996549946
56.0475157707 -5.7016472427 -2.9996546740
56.2406004567 -7.0664164319 -2.9996560207
56.2676883753 -6.7366367349 -2.9996556953
56.2672458081 -6.6211423474 -2.9996555813
56.2510035610 -6.3907806159 -2.9996553540
56.2288537616 -6.2383981906 -2.9996552036
56.0265289684 -5.5936837899 -2.9996545674
55.9774217064 -7.9360041513 -2.9996568787
55.9883983386 -7.9154342464 -2.9996568584
56.2880613430 -6.8380365182 -2.9996557953
56.1875149057 -5.9542817914 -2.9996549233
56.3096791673 -6.8785445605 -2.9996558353
56.2617568310 -6.1529938600 -2.9996551193
56.2354307446 -6.0383370709 -2.9996550062
55.9813906116 -5.3986703620 -2.9996543750
56.3406454236 -6.6904814331 -2.9996556497
56.0684886420 -5.5131562346 -2.9996544880
56.0139707347 -5.4077022766 -2.9996543839
56.0039383531 -5.3404045831 -2.9996543175
54.9052617153 -9.1140762402 -2.9996580412
56.3532851396 -6.2492596340 -2.9996552143
56.3153290514 -6.0596738921 -2.9996550273
56.2593405773 -5.7115035894 -2.9996546837
56.4565176262 -6.8559027125 -2.9996558129
56.4802720235 -6.2796538965 -2.9996552443
56.0359042375 -8.3044340640 -2.9996572423
56.5263159383 -6.4786145120 -2.9996554407
56.1998222578 -5.3450012663 -2.9996543221
56.1377160228 -5.2338870997 -2.9996542124
56.3515534070 -5.4909029905 -2.9996544660
56.5578349639 -7.5350862024 -2.9996564831
56.5681003416 -7.5849080477 -2.9996565323
56.6684540451 -7.1473037777 -2.9996561005
56.4720107608 -4.9921487644 -2.9996539739
53.2263305723 -11.0101574398 -2.9996599122
53.2519044876 -11.0126775598 -2.9996599147
53.1853437017 -11.0301204508 -2.9996599319
53.2238888284 -11.0342068300 -2.9996599359
53.7011902191 -11.0563968970 -2.9996599578
53.1568705768 -11.0512168748 -2.9996599527
53.2580122559 -11.0860912064 -2.9996599871
53.3882495687 -11.0962072359 -2.9996599971
54.0277673115 -11.0899728354 -2.9996599909
54.1865767549 -11.0983335895 -2.9996599992
53.1747234114 -11.1262275470 -2.9996600267
53.8735981836 -11.1483657286 -2.9996600485
54.2156366502 -11.1191595306 -2.9996600197
53.7287438746 -11.1769597579 -2.9996600768
53.3555469923 -11.1909567147 -2.9996600906
54.4591536206 -11.1311699631 -2.9996600316
53.1534206168 -11.1968140320 -2.9996600964
54.0243168653 -11.2115121312 -2.9996601109
54.1873709796 -11.2199270687 -2.9996601192
54.6050654280 -11.1767183302 -2.9996600765
53.1046176693 -11.2640769117 -2.9996601627
54.7620224405 -11.1907323108 -2.9996600904
53.6899390760 -11.3707295592 -2.9996602680
53.8560864912 -11.3668975004 -2.9996602642
54.1736844391 -11.3430877104 -2.9996602407
54.6384393291 -11.2684974607 -2.9996601671
54.1901473103 -11.3655848804 -2.9996602629
55.0741894101 -11.1790548318 -2.9996600788
55.3588870554 -11.1054829904 -2.9996600062
55.7226916737 -7.3062736814 -3.0001721952
55.7466855138 -7.3092115238 -3.0001721981
55.7758406062 -7.2660443576 -3.0001721555
55.7998901327 -7.2684847581 -3.0001721579
55.6681947834 -8.2329194596 -3.0001731095
55.9238556419 -7.5626707835 -3.0001724482
55.9198441320 -8.1097584289 -3.0001729880
56.2362692214 -6.2737141234 -3.0001711763
56.1792407488 -8.0528998223 -3.0001729319
56.3343716182 -6.6092163295 -3.0001715073
56.2346621919 -6.1080056737 -3.0001710128
56.2789805737 -6.1644939587 -3.0001710685
56.1677575287 -5.8147313667 -3.0001707234
56.6052136283 -7.1954759860 -3.0001720858
56.4284300463 -5.8054655106 -3.0001707142
53.7772017135 -10.9656742559 -3.0001758061
53.8120320608 -10.9634752361 -3.0001758039
53.8370136891 -10.9859454685 -3.0001758261
53.8720215768 -10.9832148527 -3.0001758234
53.8836853174 -10.9822356211 -3.0001758224
53.9419577633 -10.9768221572 -3.0001758171
53.9092042770 -11.0042463386 -3.0001758441
53.9326525890 -11.0020330227 -3.0001758420
53.9677994785 -10.9984530318 -3.0001758384
54.0029132136 -10.9945612730 -3.0001758346
53.9821352006 -11.0212202294 -3.0001758609
53.9939108862 -11.0199150954 -3.0001758596
54.1114355778 -11.0049502017 -3.0001758448
54.1348845147 -11.0015404051 -3.0001758415
54.1583128677 -10.9979919365 -3.0001758380
53.8542180775 -11.0573775290 -3.0001758966
54.1737803800 -11.0200443447 -3.0001758597
54.1855517486 -11.0181722948 -3.0001758579
54.2090776147 -11.0143237707 -3.0001758541
54.2325802998 -11.0103361270 -3.0001758502
53.8097770321 -11.1089788757 -3.0001759475
54.2051225658 -11.0639773009 -3.0001759031
54.4301417035 -11.0206425151 -3.0001758603
53.7628841695 -11.1359448040 -3.0001759741
53.8175711169 -11.2295924500 -3.0001760665
54.7447873420 -11.0637954198 -3.0001759029
54.0084084330 -11.2615184722 -3.0001760980
55.0578685402 -11.0862690875 -3.0001759251
54.0985294947 -11.3725583678 -3.0001762076
54.9286012336 -11.1832107327 -3.0001760207
55.4698744524 -11.1223279401 -3.0001759607
55.7797873597 -7.2589880382 -2.9999322994
55.8396909964 -7.8498772192 -2.9999328825
55.9507223451 -7.2843736054 -2.9999323245
55.6982489843 -8.6027483290 -2.9999336254
55.6269418040 -8.8586877750 -2.9999338779
56.0403375754 -7.8257182609 -2.9999328586
56.0415663430 -7.8181890667 -2.9999328512
56.0712946158 -7.5376347750 -2.9999325744
56.0723562753 -7.5147730703 -2.9999325518
56.0978388275 -7.4773090469 -2.9999325148
56.0986003833 -7.4388153600 -2.9999324768
56.0482574267 -6.7844758899 -2.9999318312
56.1399527208 -6.9980872068 -2.9999320420
56.1439258265 -6.4354976101 -2.9999314868
56.4486383821 -7.8750461160 -2.9999329073
56.3193278723 -6.2850345140 -2.9999313384
56.5812117569 -7.3261171396 -2.9999323656
56.5089733144 -6.7379694770 -2.9999317853
56.5798969135 -7.8120263041 -2.9999328451
56.6274435934 -7.5473641624 -2.9999325840
54.3534321897 -10.9715182864 -2.9999359628
54.4165683447 -10.9557344101 -2.9999359472
54.4120666674 -10.9818590378 -2.9999359730
54.4648462683 -10.9679152320 -2.9999359592
54.4964130024 -10.9591747756 -2.9999359506
54.5452076442 -10.9702741753 -2.9999359615
54.5662733174 -10.9640028407 -2.9999359553
54.5838263484 -10.9839474028 -2.9999359750
54.6049722411 -10.9774473477 -2.9999359686
54.7074205203 -10.9695395490 -2.9999359608
54.5226283232 -11.0522452944 -2.9999360424
54.7469778048 -10.9814621914 -2.9999359726
54.7575474927 -10.9777451816 -2.9999359689
54.7681061387 -10.9739969210 -2.9999359652
54.8080371723 -10.9852602300 -2.9999359763
54.8291869081 -10.9774336454 -2.9999359686
54.9012100970 -10.9756970365 -2.9999359669
54.9312915219 -10.9897585614 -2.9999359808
54.4772748434 -11.1897178481 -2.9999361781
54.5219700329 -11.1778391072 -2.9999361663
55.0559445212 -10.9900579317 -2.9999359811
54.6471341520 -11.1920898537 -2.9999361804
54.7141387893 -11.1710585599 -2.9999361597
55.2028015475 -11.0029143385 -2.9999359937
55.2452088353 -11.0093685058 -2.9999360001
55.9097694132 -7.3551792931 -3.0000225165
56.0665047530 -7.7098923485 -3.0000228666
56.0902268903 -7.6940113086 -3.0000228509
55.9492768216 -6.9317435596 -3.0000220987
56.1107877889 -7.6163223364 -3.0000227742
56.1092643459 -7.5932717583 -3.0000227515
56.1062708941 -7.5548870850 -3.0000227136
56.0089158684 -8.5956361616 -3.0000237406
55.9199710771 -8.8876736986 -3.0000240287
55.8934089376 -8.9974210177 -3.0000241370
56.4436222656 -8.3668186038 -3.0000235148
56.5016888998 -7.7073963905 -3.0000228641
56.5564916648 -8.1126894331 -3.0000232640
56.5581343533 -8.2781410558 -3.0000234273
56.5678691543 -8.2149745677 -3.0000233649
56.6519590317 -7.4238672629 -3.0000225843
56.4967822010 -8.8845414878 -3.0000240256
54.8705405261 -10.9207187682 -3.0000260349
54.8798358708 -10.9166881687 -3.0000260309
54.8891192514 -10.9126300896 -3.0000260269
54.9453951241 -10.9139175706 -3.0000260281
54.9834178910 -10.9229781880 -3.0000260371
55.3507699921 -10.9211586567 -3.0000260353
55.4095859670 -10.9143151528 -3.0000260285
55.4314268764 -10.9293396642 -3.0000260434
55.5409024234 -10.9177595160 -3.0000260319
55.3846189742 -4.0996019564 -3.0000193041
55.5157518051 -4.1141622895 -3.0000193185
55.5707954287 -4.1170508025 -3.0000193213
55.5491091138 -4.1049382563 -3.0000193094
55.6490147210 -4.1061081147 -3.0000193105
55.7047009931 -4.1108969360 -3.0000193152
55.8967898747 -4.1168678392 -3.0000193211
56.0807916339 -4.1246957200 -3.0000193289
55.8414489680 -7.8303127368 -3.0000229854
56.0302505558 -8.2238139184 -3.0000233737
56.0314588241 -8.1014369277 -3.0000232529
55.9795074186 -7.6370704074 -3.0000227947
55.8109288220 -6.9113676311 -3.0000220786
56.1028074504 -7.5253628594 -3.0000226845
55.9733715722 -7.1347311547 -3.0000222990
55.9986249346 -7.1324187688 -3.0000222967
56.1129000699 -7.3789360442 -3.0000225400
56.1037352597 -7.3492305809 -3.0000225107
56.1960917639 -8.6671122003 -3.0000238111
56.1170532101 -7.2371844194 -3.0000224001
55.8118603182 -6.4302583680 -3.0000216039
56.4422114240 -8.0867472385 -3.0000232384
56.2559526873 -7.1249214846 -3.0000222893
56.4458235906 -8.6480481923 -3.0000237923
56.4823699283 -7.9149182176 -3.0000230689
56.5135397932 -8.5276116673 -3.0000236734
56.4109138040 -9.1515159208 -3.0000242891
56.5794433797 -7.9162613199 -3.0000230702
56.5172885455 -8.9798158256 -3.0000241197
56.6146511350 -7.7784938437 -3.0000229343
56.6397142005 -7.7846253317 -3.0000229403
56.6353128143 -7.7486579582 -3.0000229048
56.6715808381 -8.4197750941 -3.0000235670
56.6491315935 -7.6732474408 -3.0000228304
56.3203487367 -9.7410287889 -3.0000248708
55.4173250453 -10.8093012224 -3.0000259249
55.5538948595 -10.8014920538 -3.0000259172
55.5840404955 -10.8092701684 -3.0000259249
55.5919321186 -10.8033831215 -3.0000259191
55.6076629475 -10.7915391220 -3.0000259074
55.6843043071 -10.7934639405 -3.0000259093
55.9022794339 -10.7695795484 -3.0000258857
54.7683125390 -4.0311095491 -3.0000192365
54.7561567063 -4.0276652303 -3.0000192331
54.8480646111 -4.0294027815 -3.0000192348
54.8359033805 -4.0257225492 -3.0000192312
54.8115485251 -4.0184700900 -3.0000192240
54.9039080975 -4.0214414161 -3.0000192270
54.9966618727 -4.0264807647 -3.0000192319
54.9844913481 -4.0223609675 -3.0000192279
54.9601140039 -4.0142294709 -3.0000192198
54.9356889777 -4.0062423411 -3.0000192120
55.0532753027 -4.0205278674 -3.0000192261
55.2952038371 -4.0094613753 -3.0000192151
55.3533971561 -4.0075861779 -3.0000192133
55.0411498786 -3.8118987800 -3.0000190202
55.2489715435 -3.8350394421 -3.0000190430
54.9264800211 -3.7248097131 -3.0000189343
56.5611263474 -4.1460889252 -3.0000193500
55.7831900886 -7.7312733681 -3.0000228877
56.2697205925 -8.8784588322 -3.0000240196
56.2978952267 -8.3360926375 -3.0000234845
56.2512057885 -9.0915686036 -3.0000242299
56.3257326348 -8.5025369030 -3.0000236487
56.2424264296 -9.2162400367 -3.0000243530
56.3356708120 -8.7486968576 -3.0000238916
56.0621017861 -7.2334818406 -3.0000223965
55.9300265061 -7.0137528424 -3.0000221796
56.1819299554 -9.5247827324 -3.0000246574
56.1431430951 -9.7709486485 -3.0000249003
56.2476682452 -9.6150713433 -3.0000247465
56.3017910179 -9.4879268763 -3.0000246210
56.5254102141 -8.9615478752 -3.0000241016
56.1869874795 -9.9381036987 -3.0000250653
56.6867811762 -8.3758373334 -3.0000235237
56.7055070853 -8.2698889242 -3.0000234191
56.6963461427 -8.1650185563 -3.0000233157
56.7230470043 -8.1888873807 -3.0000233392
54.1629854880 -4.0305410307 -3.0000192359
54.0971974084 -4.0248745617 -3.0000192304
54.2180881897 -4.0117348881 -3.0000192174
54.2048815209 -4.0103608372 -3.0000192160
54.1520159327 -4.0052554859 -3.0000192110
54.3663819029 -4.0054803782 -3.0000192112
54.7605201971 -3.9541117029 -3.0000191605
54.7231645156 -3.7976361035 -3.0000190061
55.2493008644 -3.9137016330 -3.0000191207
57.2071270108 -11.8756542607 -3.0000269771
55.5028312009 -3.9273339942 -3.0000191341
54.8553625274 -3.0844351549 -3.0000183024
55.7098265082 -7.6348393969 -3.0000227925
55.7537046651 -7.6585760297 -3.0000228159
56.1124336056 -9.3916111807 -3.0000245260
56.1760848081 -9.0869384921 -3.0000242254
56.1338635172 -9.4046301801 -3.0000245388
56.1962314716 -9.1167519492 -3.0000242548
56.2081621275 -9.0237318657 -3.0000241630
56.0391564309 -9.7882795720 -3.0000249174
56.1477794357 -9.5224260182 -3.0000246551
56.2650147160 -8.6394427039 -3.0000237838
56.0609229148 -9.7987941077 -3.0000249278
56.1427405976 -9.6082757434 -3.0000247398
56.0219177497 -9.9756973466 -3.0000251023
55.7028457861 -7.0524841947 -3.0000222179
55.9189059695 -7.1465740857 -3.0000223107
56.3996982219 -9.6075229881 -3.0000247391
56.7279821053 -8.1408069309 -3.0000232918
56.1751848280 -6.8880396099 -3.0000220556
56.1582878062 -6.8684241512 -3.0000220362
53.6727698434 -3.9635755000 -3.0000191699
53.6585167085 -3.9644357537 -3.0000191707
53.6442661807 -3.9653381669 -3.0000191716
53.7430066932 -3.9357572568 -3.0000191424
54.2608710586 -3.9164001138 -3.0000191233
54.1900230420 -3.8882842704 -3.0000190956
53.4203783997 -3.8878099596 -3.0000190951
54.4550287854 -3.8595518630 -3.0000190672
53.5051244553 -3.8549943767 -3.0000190627
54.6035567236 -3.8524849632 -3.0000190602
54.4202126892 -3.7590384535 -3.0000189680
55.0546949717 -3.7844013624 -3.0000189931
54.9954817589 -3.7717562658 -3.0000189806
54.6916483442 -3.1813972434 -3.0000183980
56.0077858543 -9.4231868411 -3.0000245572
56.0330721957 -9.2738180100 -3.0000244098
56.0337458905 -9.2684480580 -3.0000244045
56.0445384898 -9.1498942384 -3.0000242875
55.9995669542 -9.5558658439 -3.0000246881
56.0025677316 -9.5453172623 -3.0000246777
56.0314322853 -9.4282049664 -3.0000245621
56.0631536038 -9.2223694385 -3.0000243590
56.0683432193 -9.1567751825 -3.0000242943
56.0695552717 -9.1348745963 -3.0000242727
56.0714510213 -9.0800738063 -3.0000242186
55.9716788827 -9.7152679115 -3.0000248454
55.9944194718 -9.6526096396 -3.0000247835
56.0066529622 -9.6156993910 -3.0000247471
56.0196947670 -9.5732166983 -3.0000247052
56.0373635998 -9.5089437974 -3.0000246418
56.0823999513 -9.2688813671 -3.0000244049
56.0872136965 -9.2247033668 -3.0000243613
56.1103714082 -8.8506746764 -3.0000239922
56.1143834323 -9.3817450082 -3.0000245163
56.1191803547 -9.3536615938 -3.0000244886
56.1218589447 -9.3367785707 -3.0000244719
56.1275255734 -9.2972972943 -3.0000244329
56.1403695871 -9.1668977121 -3.0000243043
56.1076187725 -9.5269223469 -3.0000246595
56.1198209337 -9.4764516641 -3.0000246097
56.1637189516 -9.1799608077 -3.0000243172
56.1746712697 -9.3094590161 -3.0000244449
56.1806644424 -8.8259018432 -3.0000239678
56.1786570395 -8.8084939657 -3.0000239506
56.1217682836 -9.6525347657 -3.0000247835
56.1994118795 -9.3068564015 -3.0000244424
56.1466066596 -9.6541997139 -3.0000247851
56.2356322012 -9.1910074335 -3.0000243281
56.1692643498 -8.5093711862 -3.0000236554
56.1854140852 -9.6093289337 -3.0000247408
56.2650012116 -9.0717908761 -3.0000242104
56.2645796130 -8.9930737526 -3.0000241327
56.2198196768 -8.6147600143 -3.0000237594
56.2118969145 -8.5793010825 -3.0000237245
56.1982564013 -8.2872516923 -3.0000234363
56.4357421235 -8.7242957214 -3.0000238675
56.4893717473 -8.6060171474 -3.0000237508
55.9452904389 -7.3979489195 -3.0000225587
56.2001361621 -7.6308723510 -3.0000227886
56.1832837970 -7.6075191520 -3.0000227655
55.5452290891 -6.9457639341 -3.0000221126
55.7347051325 -7.0479416767 -3.0000222134
55.6951571046 -6.9886486376 -3.0000221549
55.5773974696 -6.9089196288 -3.0000220762
53.4602922888 -3.8850240851 -3.0000190924
53.6719924190 -3.8340295794 -3.0000190420
53.5950036436 -3.8426769021 -3.0000190506
53.4874521404 -3.8566940993 -3.0000190644
53.2428705704 -3.8970731994 -3.0000191042
53.8400276224 -3.7949087494 -3.0000190034
53.6075863357 -3.8168465856 -3.0000190251
54.0725475439 -3.7591393280 -3.0000189681
52.7473523742 -3.9658582069 -3.0000191721
52.7173377083 -3.9746486534 -3.0000191808
52.6724145358 -3.9881668934 -3.0000191941
54.0718818495 -3.7349754680 -3.0000189443
52.7708304567 -3.9339875316 -3.0000191407
55.9434687784 -9.5090147203 -3.0000246418
55.9620012746 -9.3651555335 -3.0000244999
55.9664817214 -9.5175739273 -3.0000246503
55.9680218890 -9.5090328456 -3.0000246419
55.9801249599 -9.4274879249 -3.0000245614
55.9806348099 -9.4231785580 -3.0000245571
55.9820878418 -9.4102416722 -3.0000245444
55.9846492057 -9.3843317641 -3.0000245188
55.9867503125 -9.3583804775 -3.0000244932
55.9878950191 -9.3410606685 -3.0000244761
55.9899854681 -9.2933749057 -3.0000244291
55.9893389309 -9.1935894911 -3.0000243306
55.9982320576 -9.4740756864 -3.0000246074
56.0001360800 -9.4609806306 -3.0000245945
56.0087251323 -9.3864962592 -3.0000245210
56.0137262551 -9.3072665348 -3.0000244428
56.0147141271 -9.2543473425 -3.0000243906
56.0310899823 -9.4065085802 -3.0000245407
56.0352868665 -9.3573828528 -3.0000244922
56.0388397972 -9.2409222965 -3.0000243773
56.0381301635 -9.2050706286 -3.0000243419
56.0284555119 -9.0754803321 -3.0000242141
56.0212078343 -9.0221844115 -3.0000241615
56.0361420594 -9.5396080073 -3.0000246720
56.0504436777 -9.4496723328 -3.0000245833
56.0587480407 -9.3681327170 -3.0000245028
56.0623449202 -9.2999238549 -3.0000244355
56.0374978522 -8.9736035248 -3.0000241135
56.0340861466 -8.9557101840 -3.0000240959
56.0858331249 -9.3191504293 -3.0000244545
56.0860220305 -9.3145288326 -3.0000244499
56.0868682950 -9.2867893578 -3.0000244226
56.0871067659 -9.2729150802 -3.0000244089
56.0871973385 -9.2636646221 -3.0000243997
56.0799283656 -9.1020092560 -3.0000242402
56.0512234001 -8.9193405022 -3.0000240600
56.0418003484 -8.8787931578 -3.0000240200
56.0372665012 -8.8608555452 -3.0000240023
56.1062282722 -9.3811145301 -3.0000245156
56.1075094689 -9.1417998193 -3.0000242795
56.1068239625 -9.1324309467 -3.0000242703
56.1025657172 -9.0856564321 -3.0000242241
56.1267943420 -9.4210486779 -3.0000245550
56.1337041006 -9.3307235041 -3.0000244659
56.1348302805 -9.3021352085 -3.0000244377
56.1293665762 -9.1115858173 -3.0000242497
56.1152912682 -8.9980355117 -3.0000241376
56.1033710225 -8.9323545679 -3.0000240728
56.0840675948 -8.8487312404 -3.0000239903
56.0659925141 -8.7844710654 -3.0000239269
56.1555241642 -9.3705384298 -3.0000245052
56.1838871934 -9.2643252801 -3.0000244004
56.0668805758 -8.6406392721 -3.0000237850
56.1822392520 -9.5470075643 -3.0000246793
56.2063717567 -9.3292434439 -3.0000244645
56.1579539077 -8.8450325100 -3.0000239867
56.2130981586 -8.9977259156 -3.0000241373
56.1525198712 -8.7370578491 -3.0000238801
56.1262856382 -8.6605670441 -3.0000238046
56.2131896586 -8.8682254356 -3.0000240095
56.1801428639 -8.7444395407 -3.0000238874
56.1660181697 -8.7005222759 -3.0000238441
56.1126424077 -8.5618297224 -3.0000237072
56.0871118386 -8.5058695419 -3.0000236520
56.2770025287 -9.1403227992 -3.0000242780
56.2216540917 -8.7151608837 -3.0000238585
56.1811612108 -8.6009631170 -3.0000237458
56.3385687869 -8.6840323969 -3.0000238278
56.3810247513 -8.4516214061 -3.0000235985
55.6668721327 -7.5548977398 -3.0000227136
55.9761531193 -7.3606963997 -3.0000225220
55.8987914801 -7.2742413936 -3.0000224367
55.7859112406 -7.1438434889 -3.0000223080
55.5280978381 -7.0095764101 -3.0000221755
55.9037782398 -7.1898709012 -3.0000223534
55.5110991667 -6.9756702111 -3.0000221421
56.0201755049 -7.2424660991 -3.0000224053
55.1761348253 -6.7830104419 -3.0000219520
55.5495657841 -6.8869589725 -3.0000220545
55.2044100859 -6.7655828802 -3.0000219348
55.4089208126 -6.8050981791 -3.0000219737
55.1871404253 -6.7109227991 -3.0000218808
55.7785363978 -6.8081510695 -3.0000219768
53.3952278296 -3.6933069670 -3.0000189032
53.0948670051 -3.7378416880 -3.0000189471
53.0785584767 -3.7420923306 -3.0000189513
53.2202666016 -3.6820395762 -3.0000188921
52.8212026219 -3.7654420949 -3.0000189744
52.6517972998 -3.7953307163 -3.0000190038
52.3708370541 -3.8738807362 -3.0000190814
52.6361127826 -3.7495995776 -3.0000189587
52.5064132960 -3.7958052157 -3.0000190043
52.4741621154 -3.8078352012 -3.0000190162
52.1872643154 -3.9246292681 -3.0000191314
51.9943024463 -3.9598400616 -3.0000191662
52.2221418691 -3.8306024466 -3.0000190387
52.0685774237 -3.8717982831 -3.0000190793
51.6544252246 -4.0255217549 -3.0000192310
51.8142954549 -3.8325853359 -3.0000190406
55.9407759795 -9.3415786663 -3.0000244766
55.9665852388 -9.3891860945 -3.0000245236
55.9652594196 -9.3467410142 -3.0000244817
55.9603891093 -9.2848713823 -3.0000244207
55.9847752460 -9.2856178390 -3.0000244214
55.9825251540 -9.2657150398 -3.0000244018
55.9794540965 -9.2425499826 -3.0000243789
55.9742363352 -9.2095784211 -3.0000243464
55.9680456391 -9.1767756136 -3.0000243140
56.0003050974 -9.2188994235 -3.0000243556
56.0328615781 -9.2806132619 -3.0000244165
56.0620024175 -9.3454131363 -3.0000244804
56.0298352203 -9.1206615252 -3.0000242586
56.0655997270 -9.1716620160 -3.0000243090
56.0006691824 -8.9493380456 -3.0000240896
56.0926864269 -9.1852824194 -3.0000243224
56.0337367125 -8.9679958874 -3.0000241080
56.0175801523 -8.9266957795 -3.0000240672
56.0119901904 -8.8004773711 -3.0000239427
56.0423461983 -8.8066520244 -3.0000239488
55.7830089737 -7.2017628344 -3.0000223652
55.8641689487 -7.2108963604 -3.0000223742
55.5023016812 -7.0542367798 -3.0000222196
55.5349456821 -6.9629261586 -3.0000221295
55.1383454555 -6.8869979552 -3.0000220546
55.2084851804 -6.8712867233 -3.0000220391
54.8852206733 -6.7753083854 -3.0000219444
55.1069156261 -6.7380646233 -3.0000219076
55.0674818026 -6.7347386796 -3.0000219043
51.9448700871 -3.7080889533 -3.0000189178
51.9112314829 -3.7254493398 -3.0000189349
50.6173571150 -3.8636810622 -3.0000190713
55.9234556230 -9.3326615380 -3.0000244678
55.9229951091 -9.3305894280 -3.0000244658
55.9475303321 -9.3295954063 -3.0000244648
55.9435955832 -9.3124891102 -3.0000244479
55.9414766788 -9.3039720776 -3.0000244395
55.9369372932 -9.2870162056 -3.0000244228
55.9319979473 -9.2701724982 -3.0000244062
55.9665504451 -9.3045909518 -3.0000244401
55.9381749713 -9.2138254733 -3.0000243506
55.9656451554 -9.2183367306 -3.0000243550
55.9427826189 -9.1620507458 -3.0000242995
55.9368966282 -9.1493228724 -3.0000242869
55.9648123195 -9.1520994858 -3.0000242897
55.9481218620 -9.1173659027 -3.0000242554
55.9534326211 -9.0288379584 -3.0000241680
55.8331496914 -7.1562208395 -3.0000223202
55.4758649808 -7.0909602791 -3.0000222558
55.4138817115 -7.0609733273 -3.0000222262
55.4469442482 -7.0152561678 -3.0000221811
55.4249974194 -7.0133639973 -3.0000221793
55.0911168878 -6.9359864165 -3.0000221029
55.9714456919 -7.0194884897 -3.0000221853
55.6107365346 -6.9133221956 -3.0000220805
55.9659483125 -6.8416094617 -3.0000220098
55.2615690594 -6.6186055887 -3.0000217897
54.1009606695 -6.7943045408 -3.0000219631
49.3719985433 -3.3864342519 -3.0000186004
49.3002198563 -3.4560902682 -3.0000186691
55.4945583080 -7.2661026165 -3.0000224286
55.8784955606 -7.1117582845 -3.0000222763
55.6581865130 -7.0956348842 -3.0000222604
55.8336323591 -7.0582393081 -3.0000222235
55.1243170422 -7.0914249514 -3.0000222563
55.3740826328 -7.0318653276 -3.0000221975
55.1515488598 -7.0371706928 -3.0000222027
55.1296708421 -7.0411823190 -3.0000222067
54.7845028058 -7.0808948549 -3.0000222459
55.0288333699 -6.9631520270 -3.0000221297
54.5606555026 -7.1146662330 -3.0000222792
55.2733805103 -6.8723049832 -3.0000220401
54.6725280999 -7.0177870323 -3.0000221836
54.9845233141 -6.8740484004 -3.0000220418
54.7904043374 -6.7499026612 -3.0000219193
54.6289701798 -6.7508713964 -3.0000219202
49.0705887331 -6.1350515067 -3.0000213126
49.0461057056 -5.9236615831 -3.0000211040
49.0248978245 -5.9120615373 -3.0000210925
59.7164837271 -1.2238200250 -3.0000164664
59.8739580474 -1.2768714402 -3.0000165187
59.8252062209 -1.2516857427 -3.0000164939
59.8007746432 -1.2392011665 -3.0000164816
59.5544689399 -1.1183511385 -3.0000163623
59.3997212640 -0.9939846016 -3.0000162396
59.4447523956 -0.9612108695 -3.0000162073
59.5153622345 -0.9401961088 -3.0000161865
60.1245984592 -1.2188282699 -3.0000164615
60.4528413551 -1.3225422254 -3.0000165638
60.4286166375 -1.3082006810 -3.0000165497
59.9104515804 -1.0237841346 -3.0000162690
59.8602017658 -0.9983869585 -3.0000162440
59.7085631111 -0.9239853696 -3.0000161705
59.6831626467 -0.9118472787 -3.0000161586
60.0666051297 -0.9684160367 -3.0000162144
60.1902425412 -0.9793993185 -3.0000162252
60.1144067840 -0.9389339114 -3.0000161853
59.9469221963 -0.8255372405 -3.0000160734
59.5051480721 -0.6176286905 -3.0000158682
60.8335952107 -1.3016650810 -3.0000165432
60.6626270285 -1.1949054760 -3.0000164379
60.2890416678 -0.9781891854 -3.0000162240
60.0859682621 -0.8694445073 -3.0000161167
60.0091608238 -0.8299088058 -3.0000160777
59.7291024017 -0.6128759747 -3.0000158635
61.2379539479 -1.4266192057 -3.0000166665
60.8128081960 -1.1170894620 -3.0000163611
60.5876833136 -0.9810983362 -3.0000162269
61.2416108512 -1.3702452511 -3.0000166109
60.8255812964 -1.0965667140 -3.0000163408
61.3753811644 -1.4350367895 -3.0000166748
60.9507305788 -1.1183335142 -3.0000163623
60.8511274972 -1.0555212178 -3.0000163003
55.9095525448 -8.7758544306 -3.0000239184
55.4881273132 -7.0239951588 -3.0000221897
55.4567185392 -7.0006006304 -3.0000221667
55.3557131659 -6.7154099683 -3.0000218852
55.4750427789 -6.6857612369 -3.0000218560
55.3540018853 -6.6912975897 -3.0000218615
55.1205445786 -6.7193677346 -3.0000218892
55.8408330678 -6.6817119304 -3.0000218520
55.7427943037 -6.6466102208 -3.0000218174
55.5976458756 -6.6379916639 -3.0000218089
55.0552122950 -6.6821375462 -3.0000218524
54.9769625657 -6.6986856837 -3.0000218687
55.6423875780 -6.6155294837 -3.0000217867
55.1591421378 -6.6397821308 -3.0000218106
55.1446231076 -6.6419872094 -3.0000218128
55.4137728884 -6.5910107204 -3.0000217625
54.9535107060 -6.6296678677 -3.0000218006
54.7586383536 -6.6830912334 -3.0000218534
54.7443825641 -6.6876650689 -3.0000218579
54.6524078166 -6.7194414515 -3.0000218892
55.2684409575 -6.5530874822 -3.0000217251
54.7010714069 -6.6765852876 -3.0000218469
54.9574743043 -6.5791697403 -3.0000217508
54.5503863901 -6.7071286475 -3.0000218771
54.4871673590 -6.7339086504 -3.0000219035
54.9371449476 -6.5590195876 -3.0000217309
54.7734683679 -6.6025919468 -3.0000217739
54.6629956384 -6.6129913523 -3.0000217842
54.4251961260 -6.7087833360 -3.0000218787
54.3900244831 -6.7253047942 -3.0000218950
54.3412028824 -6.7493049081 -3.0000219187
54.6922097063 -6.5775686187 -3.0000217492
54.5813637605 -6.6169693601 -3.0000217881
54.2333301043 -6.7791990229 -3.0000219482
54.4531884085 -6.6168722567 -3.0000217880
54.9649464324 -6.4291130682 -3.0000216027
54.9020214009 -6.4431025202 -3.0000216165
54.6924278735 -6.5012287861 -3.0000216739
54.9710751991 -6.3784760823 -3.0000215528
54.6932904066 -6.4502295492 -3.0000216236
54.6309411277 -6.4706413588 -3.0000216437
54.4224138058 -6.5248485946 -3.0000216972
54.0147016622 -6.7124678132 -3.0000218823
55.4324465182 -6.2516299533 -3.0000214276
54.4634477107 -6.4034199645 -3.0000215774
53.9184893658 -6.6885457081 -3.0000218587
53.9500019111 -6.6103780279 -3.0000217816
55.6039641618 -6.1303345661 -3.0000213079
54.6208044795 -6.2196231343 -3.0000213960
52.5257011747 -6.1912248862 -3.0000213680
52.4996027428 -5.5531431135 -3.0000207384
49.0480600110 -6.2469233987 -3.0000214230
49.0344140769 -6.2179810822 -3.0000213944
49.0337713316 -6.1020599374 -3.0000212800
49.0029646018 -6.1112172128 -3.0000212891
49.0351473886 -5.9854948273 -3.0000211650
49.0259775376 -6.0047053760 -3.0000211840
48.9915478833 -5.9646040574 -3.0000211444
49.0169182130 -5.8575535824 -3.0000210388
49.0089439665 -5.6094785657 -3.0000207940
48.9762245265 -5.1299176032 -3.0000203208
48.9620137918 -5.0144193891 -3.0000202068
59.8777288461 -0.6595669436 -3.0000159096
59.9885741265 -0.6903172437 -3.0000159400
59.9387715409 -0.6640539063 -3.0000159140
59.8999000422 -0.6166044112 -3.0000158672
59.7086243533 -0.4937067250 -3.0000157460
60.0339301196 -0.6049228738 -3.0000158557
59.8317663001 -0.5005944411 -3.0000157528
59.8934961531 -0.5046810840 -3.0000157568
59.8170905512 -0.4662477603 -3.0000157189
59.7509210606 -0.4067564343 -3.0000156602
60.4426386727 -0.6945977378 -3.0000159442
60.4177674787 -0.6800860139 -3.0000159299
60.5293909767 -0.7178218434 -3.0000159671
60.6039058558 -0.7062227390 -3.0000159557
60.5541866032 -0.6763186141 -3.0000159262
60.5042912978 -0.6467091684 -3.0000158969
59.6044882242 -0.1772901786 -3.0000154337
60.2893468533 -0.4959968800 -3.0000157482
59.7725626883 -0.2293058266 -3.0000154851
60.5789822296 -0.6348153848 -3.0000158852
59.8092800217 -0.2201421324 -3.0000154760
60.4400621923 -0.5254732959 -3.0000157773
60.4146907088 -0.5109699337 -3.0000157630
60.0810486221 -0.3293071607 -3.0000155837
60.1441049874 -0.3350360739 -3.0000155894
60.7166597557 -0.6334031703 -3.0000158838
60.1553807831 -0.3136540320 -3.0000155683
60.7543711198 -0.6282332995 -3.0000158787
59.8513193293 -0.1330671008 -3.0000153901
60.7419447317 -0.5921962399 -3.0000158431
60.5514329066 -0.4502205696 -3.0000157030
55.9484404527 -8.8076638670 -3.0000239498
55.9444386779 -8.7942240216 -3.0000239365
55.9430518213 -8.7897601182 -3.0000239321
55.9401990006 -8.7808573173 -3.0000239233
55.9387331363 -8.7764187313 -3.0000239190
55.9341783462 -8.7631560945 -3.0000239059
55.9333963595 -8.7609536050 -3.0000239037
55.9639201850 -8.7756352216 -3.0000239182
55.9468578318 -8.7280257293 -3.0000238712
55.9423618697 -8.7168530116 -3.0000238602
55.9405172966 -8.7124027495 -3.0000238558
55.9821406079 -8.6867092170 -3.0000238304
55.9706692195 -8.6610928133 -3.0000238052
55.9651770508 -8.5971100973 -3.0000237420
55.9507995984 -8.5720930231 -3.0000237173
55.9810548130 -8.5760071847 -3.0000237212
55.9777976873 -8.5237811305 -3.0000236697
55.9401568961 -8.4691100601 -3.0000236157
55.4930681961 -6.6603319370 -3.0000218309
55.6439335953 -6.6600189648 -3.0000218306
55.4536796176 -6.6312853132 -3.0000218022
55.3400626498 -6.6214564343 -3.0000217925
55.9070389591 -6.6502630355 -3.0000218210
55.6864274142 -6.5945152186 -3.0000217660
54.8175891523 -6.5233084440 -3.0000216957
54.6283511406 -6.5340279572 -3.0000217063
54.6062548116 -6.5391037407 -3.0000217113
54.7728010123 -6.4813676714 -3.0000216543
55.7708390968 -6.4891513399 -3.0000216620
55.3614349003 -6.4048236016 -3.0000215788
55.4177632949 -6.3848678462 -3.0000215591
49.0266553953 -3.9731998786 -3.0000191794
55.9285743777 -8.7233186634 -3.0000238666
55.9557769941 -8.7488685847 -3.0000238918
55.9537150211 -8.7298082960 -3.0000238730
55.9495277447 -8.6981321044 -3.0000238417
55.9693295091 -8.6688020781 -3.0000238128
55.9646066437 -8.6430985862 -3.0000237874
55.9606660550 -8.6238982473 -3.0000237685
55.9533431790 -8.5920627980 -3.0000237370
56.0002933979 -8.5805294519 -3.0000237257
55.9888936603 -8.5376955723 -3.0000236834
55.9820755392 -8.5148218222 -3.0000236608
55.9801676412 -8.4352977621 -3.0000235824
55.9868204649 -8.3871214019 -3.0000235348
55.9724828700 -8.3546159620 -3.0000235027
56.0618021364 -8.4476075221 -3.0000235945
55.2649899624 -6.4521643742 -3.0000216255
54.4717572444 -6.1869459588 -3.0000213638
55.9470218390 -8.8483453388 -3.0000239899
55.9493992312 -8.8100317648 -3.0000239521
55.9745531620 -8.7838182644 -3.0000239263
55.9733351654 -8.6821808819 -3.0000238260
55.9935519852 -8.8718916240 -3.0000240132
55.9939101653 -8.8679258849 -3.0000240093
55.9968461876 -8.8282169029 -3.0000239701
55.9974978075 -8.8162890794 -3.0000239583
55.9985944532 -8.7088124123 -3.0000238522
55.9970524053 -8.6730097183 -3.0000238169
55.9906710503 -8.5976335431 -3.0000237425
56.0230728913 -8.7769934622 -3.0000239195
56.0122657894 -8.5747972041 -3.0000237200
55.9988399398 -8.4907553231 -3.0000236371
56.0434292135 -8.8557603685 -3.0000239972
56.0466495002 -8.6991298063 -3.0000238427
56.0430733321 -8.6373648336 -3.0000237817
56.0316649801 -8.5390477158 -3.0000236847
56.0151038126 -8.4498401912 -3.0000235967
56.0076474152 -8.4176952349 -3.0000235650
56.0641338625 -8.8952275766 -3.0000240362
56.0665099428 -8.8701618279 -3.0000240115
56.0675310571 -8.8576141259 -3.0000239991
56.0447156664 -8.4734118123 -3.0000236200
56.0280851311 -8.3997391255 -3.0000235473
56.0956580704 -8.7742169843 -3.0000239168
56.0862655990 -8.5825325137 -3.0000237276
56.0515148020 -8.3937905287 -3.0000235414
56.1200544953 -8.7486071624 -3.0000238915
56.1130488877 -8.6056345477 -3.0000237504
56.0895576611 -8.4512662595 -3.0000235981
56.0315128536 -8.2469039047 -3.0000233965
56.0208246003 -8.2184710393 -3.0000233684
56.1427498740 -8.6824614686 -3.0000238262
56.1404552632 -8.6428306206 -3.0000237871
56.1362193597 -8.5944977654 -3.0000237394
56.1066523266 -8.4161952076 -3.0000235635
56.0856711067 -8.3350676944 -3.0000234835
56.1149544864 -8.3499372457 -3.0000234981
56.1776862488 -8.5352517870 -3.0000236810
56.0834423123 -8.1795365793 -3.0000233300
56.1697947750 -8.3685324392 -3.0000235165
56.2183613717 -8.4821321685 -3.0000236286
56.0699424618 -7.9305485339 -3.0000230843
56.0708232642 -7.8846697124 -3.0000230390
55.6494796427 -7.3906078479 -3.0000225515
56.2516225083 -8.1452367887 -3.0000232961
55.9750450770 -6.6765371818 -3.0000218469
55.4117529187 -6.3600324280 -3.0000215346
55.3113309528 -6.3053917148 -3.0000214807
53.5201437389 -3.6596801648 -3.0000188700
53.2313899614 -3.6573461684 -3.0000188677
52.7686529329 -3.7581615184 -3.0000189672
52.0713922418 -3.8881064963 -3.0000190954
52.3631903027 -3.6643728525 -3.0000188746
51.9050969127 -3.6480932697 -3.0000188586
51.7162998022 -3.6984053609 -3.0000189082
51.5871930798 -3.7190162590 -3.0000189285
55.9645146103 -8.9907917788 -3.0000241305
55.9682549482 -8.9772064206 -3.0000241171
55.9861580035 -8.9042258265 -3.0000240451
56.0161080155 -8.7141129169 -3.0000238575
56.0212760397 -8.6438540256 -3.0000237881
56.0215096602 -8.6391628751 -3.0000237835
55.9811914428 -9.0202220747 -3.0000241595
55.9851923013 -9.0064875601 -3.0000241460
55.9964614027 -8.9650785695 -3.0000241051
56.0033599742 -8.9373122475 -3.0000240777
56.0184412709 -8.8673991393 -3.0000240087
56.0426490999 -8.6879176902 -3.0000238316
56.0473053908 -8.5354545728 -3.0000236812
56.0380533212 -8.3879735929 -3.0000235357
56.0393686970 -8.8862164380 -3.0000240273
56.0563698852 -8.7860253603 -3.0000239284
56.0627829938 -8.7331755838 -3.0000238763
56.0714750075 -8.5350484848 -3.0000236808
56.0703665288 -8.4963453999 -3.0000236426
56.0316686324 -9.0198026560 -3.0000241591
56.0432757179 -8.9771517225 -3.0000241170
56.0503811921 -8.9485526300 -3.0000240888
56.0537432999 -8.9342069174 -3.0000240747
56.0828847108 -8.7698500915 -3.0000239125
56.0866397131 -8.3876215384 -3.0000235353
56.0820383840 -8.3486008887 -3.0000234968
56.0772557365 -8.3145553555 -3.0000234632
56.0691430591 -8.9735307464 -3.0000241135
56.0750431705 -8.9493246660 -3.0000240896
56.1149484722 -8.6935584614 -3.0000238372
56.1139935409 -8.4197973712 -3.0000235671
56.1116988157 -8.3949885043 -3.0000235426
56.1011576224 -8.3109449351 -3.0000234596
56.0929875190 -8.2617911337 -3.0000234111
56.1179843636 -8.8608353447 -3.0000240023
56.1302138380 -8.7809008829 -3.0000239234
56.1433724421 -8.5085653119 -3.0000236547
56.1418888392 -8.4732155125 -3.0000236198
56.1100952371 -8.2227301459 -3.0000233726
56.1609655667 -8.7228557266 -3.0000238661
56.1683766277 -8.5539268607 -3.0000236994
56.1673639224 -8.5026785794 -3.0000236488
56.1648358621 -8.4514826731 -3.0000235983
56.1432351884 -8.2683024866 -3.0000234176
56.1168275004 -8.1429323449 -3.0000232939
56.1143155700 -8.1329928258 -3.0000232841
56.1781634507 -8.7870795372 -3.0000239295
55.8153600365 -7.4747707536 -3.0000226346
56.1641909419 -8.9920110077 -3.0000241317
56.2104968760 -8.7115831405 -3.0000238550
56.1890591356 -8.2497136934 -3.0000233992
56.1116938581 -7.9598825117 -3.0000231132
56.2361081592 -8.4308512210 -3.0000235780
56.2214568890 -8.2981746421 -3.0000234470
56.2198615930 -8.2876133834 -3.0000234366
56.2649148560 -8.5372111920 -3.0000236829
56.2132319266 -8.1300280905 -3.0000232811
56.1571885515 -7.9435248221 -3.0000230971
56.2892402766 -8.5533264934 -3.0000236988
56.2926689628 -8.8410385571 -3.0000239827
56.2471429285 -7.9829171175 -3.0000231360
56.3418452384 -8.2861140362 -3.0000234351
56.3162107163 -8.1460204612 -3.0000232969
56.1028994276 -6.8228416687 -3.0000219913
55.8940969583 -6.5540601153 -3.0000217260
55.5845511211 -6.3078824401 -3.0000214831
55.3873880580 -6.1137859642 -3.0000212916
55.0031232203 -5.8736878517 -3.0000210547
53.6799466192 -3.8440287589 -3.0000190519
53.1489442583 -3.9352820185 -3.0000191419
54.2260345669 -3.7401124151 -3.0000189494
53.6159588599 -3.8056560024 -3.0000190140
53.4336774872 -3.8406847002 -3.0000190486
53.1287170225 -3.9158381239 -3.0000191228
54.5262760253 -3.7122372063 -3.0000189219
53.4006017585 -3.8230784083 -3.0000190312
53.0945663037 -3.9004201555 -3.0000191075
52.9572591554 -3.9421235749 -3.0000191487
54.6420482797 -3.6915903364 -3.0000189015
54.5699825516 -3.6890692979 -3.0000188990
53.8503098147 -3.7224730171 -3.0000189320
53.6931516640 -3.7440763938 -3.0000189533
53.5793390722 -3.7629937636 -3.0000189719
52.9773909006 -3.9103917668 -3.0000191174
52.7098407152 -3.9770289099 -3.0000191831
54.3091745226 -3.6404928205 -3.0000188511
53.9748381620 -3.6604743329 -3.0000188708
53.4323665873 -3.6927846557 -3.0000189027
53.5144973495 -3.6519879080 -3.0000188624
53.2373089940 -3.6375058176 -3.0000188481
55.6816078016 -7.4056628001 -3.0000225664
56.0598510848 -8.6728351996 -3.0000238167
56.0432451307 -8.8533939862 -3.0000239949
56.0476273007 -8.8375377766 -3.0000239793
56.0754377293 -8.7201706927 -3.0000238635
56.0775860562 -8.7094160691 -3.0000238528
56.0836487539 -8.6770785741 -3.0000238209
56.0976988320 -8.5849329293 -3.0000237300
56.1015490127 -8.5522580767 -3.0000236978
56.1043140854 -8.5249803275 -3.0000236708
56.1099067420 -8.4484200132 -3.0000235953
56.1111350955 -8.4210300081 -3.0000235683
56.0259076016 -8.9868938382 -3.0000241266
56.0369546841 -9.0267370700 -3.0000241660
56.1158146705 -8.7628057196 -3.0000239055
56.1572312014 -8.4677957087 -3.0000236144
56.0319388166 -9.1040465975 -3.0000242422
56.1836034092 -8.4237431322 -3.0000235710
56.0841930934 -9.0384987375 -3.0000241776
56.0862168440 -9.0330957217 -3.0000241722
56.1511203690 -8.8237991486 -3.0000239657
56.2048637454 -8.2228228084 -3.0000233727
56.2017784523 -8.1825544207 -3.0000233330
56.2016032392 -8.7040443196 -3.0000238475
56.2114362706 -8.0586661198 -3.0000232107
56.2105609424 -8.0528909828 -3.0000232050
56.1735808658 -7.8697416825 -3.0000230243
56.2187480741 -8.7432062594 -3.0000238862
56.2534860759 -8.2255289856 -3.0000233754
56.2729513069 -8.1643460309 -3.0000233150
56.1262428322 -9.1901037920 -3.0000243272
56.1768156635 -9.0668776460 -3.0000242056
56.1810134509 -9.0555171685 -3.0000241944
56.2315278078 -7.8052061164 -3.0000229606
56.2653894734 -8.8649374223 -3.0000240063
56.2933828595 -8.7393708862 -3.0000238824
56.3164668807 -8.5879772781 -3.0000237330
56.2914076630 -7.9537605191 -3.0000231072
56.1877083051 -9.1701396779 -3.0000243075
56.4388484908 -8.9646184349 -3.0000241047
55.9481768189 -6.8435779233 -3.0000220117
56.3355296548 -9.3137507087 -3.0000244492
56.5158217434 -7.9719144609 -3.0000231251
56.0933351293 -6.9430851842 -3.0000221099
56.5634976641 -7.9638927583 -3.0000231172
56.5429166228 -8.9503432723 -3.0000240906
56.1645761703 -6.6504054580 -3.0000218211
56.1340814769 -6.6168483644 -3.0000217880
53.6455861546 -4.0028339957 -3.0000192086
53.4405146647 -4.0367147539 -3.0000192420
53.7848030303 -3.9611541432 -3.0000191675
53.6422113036 -3.9788977123 -3.0000191850
53.6292785240 -3.9807406582 -3.0000191868
53.4488493888 -4.0105501451 -3.0000192162
53.4360110889 -4.0129649520 -3.0000192186
54.2935516144 -3.9116116262 -3.0000191186
54.1622101336 -3.9125246601 -3.0000191195
53.9522872441 -3.9220633741 -3.0000191289
53.8606341421 -3.9293584548 -3.0000191361
53.6778792635 -3.9496332401 -3.0000191561
53.5998424639 -3.9606358909 -3.0000191670
53.5479317320 -3.9687397112 -3.0000191750
54.2805349346 -3.8873553440 -3.0000190947
54.1484817077 -3.8886639916 -3.0000190959
53.6058020319 -3.9108741604 -3.0000191179
54.0939151125 -3.8419672997 -3.0000190499
53.8541320730 -3.8571314471 -3.0000190648
53.5231483655 -3.8993124349 -3.0000191065
54.6962583286 -3.8359282082 -3.0000190439
54.6160430655 -3.8288743947 -3.0000190369
54.5892783827 -3.8268396459 -3.0000190349
54.2674680220 -3.8147914638 -3.0000190231
53.4530839763 -3.8868903513 -3.0000190942
54.8326734415 -3.8268636275 -3.0000190350
54.4024156018 -3.7928734260 -3.0000190014
54.9198240459 -3.7899162998 -3.0000189985
54.8928235573 -3.7860849625 -3.0000189947
54.9540181232 -3.7461029214 -3.0000189553
