33.8152034941 -29.4141824096 -3.1300446362
33.8468636011 -30.7021619809 -3.1300459071
33.8694265003 -30.6113313568 -3.1300458175
33.9196017269 -30.2987673110 -3.1300455091
33.7998846477 -29.2838982868 -3.1300445077
33.8846476816 -30.6520917578 -3.1300458577
33.6460240511 -28.8778419023 -3.1300441070
33.8522241095 -30.9259837605 -3.1300461280
33.8670433440 -30.8840395768 -3.1300460866
33.7392092536 -31.2422702419 -3.1300464401
33.9653514115 -30.6255324743 -3.1300458315
33.6835514062 -28.7971093420 -3.1300440273
33.9593355480 -30.8350807670 -3.1300460383
34.0135411492 -29.5086314553 -3.1300447294
33.9584586067 -29.3023122940 -3.1300445258
33.9176040701 -31.0902494859 -3.1300462901
34.0044635164 -29.0706707510 -3.1300442973
34.1467595573 -30.6993812520 -3.1300459044
34.1363749034 -29.3064306905 -3.1300445299
34.0143536530 -28.5030663810 -3.1300437372
33.1930289796 -33.4022793426 -3.1300485715
33.2028787301 -33.3972461968 -3.1300485665
33.2127135485 -33.3921839356 -3.1300485615
33.2225333488 -33.3870926034 -3.1300485565
33.2435597026 -33.4033827489 -3.1300485726
33.2632499152 -33.3929883658 -3.1300485623
33.2730718740 -33.3877475344 -3.1300485571
33.2828782865 -33.3824776708 -3.1300485519
33.3140440170 -33.3930589994 -3.1300485624
32.9878363451 -26.5885270776 -3.1300418480
33.3749052720 -33.3868477916 -3.1300485563
33.0387077947 -26.5843105248 -3.1300418438
33.0283894356 -26.5797637204 -3.1300418393
33.0077125923 -26.5707617817 -3.1300418305
33.4163640220 -33.3909751479 -3.1300485603
33.4261793554 -33.3852813861 -3.1300485547
33.0898864611 -26.5808134732 -3.1300418404
33.0795575331 -26.5761152884 -3.1300418357
33.0692147522 -26.5714476790 -3.1300418311
33.0484879939 -26.5622043495 -3.1300418220
33.4481998945 -33.4004142065 -3.1300485696
33.4580430111 -33.3946262271 -3.1300485639
33.1619938318 -26.5878351148 -3.1300418473
33.1103075340 -26.5635830879 -3.1300418234
33.4999370366 -33.3977974538 -3.1300485671
33.5293895459 -33.3798872543 -3.1300485494
33.1931255661 -26.5760043926 -3.1300418356
33.2554981560 -26.5798933741 -3.1300418395
33.2451657816 -26.5747052840 -3.1300418343
33.2348181050 -26.5695477817 -3.1300418293
33.3181244879 -26.5848677118 -3.1300418444
33.3500361457 -26.5743491953 -3.1300418340
33.4131753242 -26.5809588319 -3.1300418405
33.4662145658 -26.5828340945 -3.1300418424
33.4558899685 -26.5770226543 -3.1300418366
33.4455482252 -26.5712417815 -3.1300418309
33.7850400268 -33.3863759817 -3.1300485558
33.5729491634 -26.5888989056 -3.1300418484
34.3942903440 -32.9731319673 -3.1300481480
34.5653122038 -32.8998273170 -3.1300480757
33.9149431449 -26.5791559908 -3.1300418387
34.4159540070 -26.7890467270 -3.1300420458
33.0563811714 -30.0204006713 -3.1300452344
33.6680770497 -30.1747964046 -3.1300453868
33.7735058278 -29.8208662749 -3.1300450375
33.6738367901 -30.5386579170 -3.1300457458
33.7210952750 -30.3832204535 -3.1300455924
33.6711111872 -30.6172831890 -3.1300458234
33.8094477176 -29.5549963155 -3.1300447752
33.8087259828 -29.5481922751 -3.1300447684
33.8039731949 -29.5074155763 -3.1300447282
33.5836058087 -30.8718387717 -3.1300460746
33.5961954514 -30.8472159166 -3.1300460503
33.6574574313 -30.7156112085 -3.1300459204
33.8374379240 -29.5937755010 -3.1300448134
33.8355553943 -29.5731200094 -3.1300447930
33.7355362022 -30.5819921048 -3.1300457886
33.8669085511 -29.6683333311 -3.1300448870
33.8422164047 -29.4322231928 -3.1300446540
33.8365871063 -29.3977540020 -3.1300446200
33.5686227290 -30.9991561218 -3.1300462002
33.8944037072 -29.7728199194 -3.1300449901
33.8661015378 -29.4285035557 -3.1300446503
33.8173324482 -29.1936864847 -3.1300444186
33.7733026588 -29.0448412745 -3.1300442718
33.5822640390 -31.0236399553 -3.1300462244
33.9130007172 -29.6301542515 -3.1300448493
33.7703645854 -28.9632218492 -3.1300441912
33.5956870049 -31.0483269002 -3.1300462487
33.9417451308 -29.7219713689 -3.1300449399
33.9030499322 -29.3571784888 -3.1300445800
33.9126743473 -29.2815051310 -3.1300445053
33.7643960330 -28.8182807646 -3.1300440482
33.7656533502 -28.7617225491 -3.1300439924
33.7308231354 -28.6888517458 -3.1300439205
33.6501915664 -31.0983448345 -3.1300462981
33.5368373698 -31.3093579140 -3.1300465063
33.9499518584 -29.1281627748 -3.1300443540
34.0498668701 -29.5298535369 -3.1300447504
33.5099347826 -31.4225174829 -3.1300466179
34.0484196874 -29.3460696649 -3.1300445690
34.0877715736 -29.4407391466 -3.1300446624
33.6336915812 -31.3816603605 -3.1300465776
33.9463333292 -30.8393180325 -3.1300460425
34.1869185913 -29.2970047440 -3.1300445206
33.4847830379 -31.7745647551 -3.1300469653
32.6296973026 -33.4640921194 -3.1300486325
32.6622092209 -33.4540022406 -3.1300486225
32.6730264705 -33.4505748794 -3.1300486191
32.6912370274 -33.4701269130 -3.1300486384
32.7238000778 -33.4594906660 -3.1300486279
32.7346332937 -33.4558810839 -3.1300486244
32.7640781924 -33.4714422152 -3.1300486397
32.7966500470 -33.4601594920 -3.1300486286
32.8183084356 -33.4524772804 -3.1300486210
32.8482037310 -33.4673767888 -3.1300486357
32.8699039172 -33.4593894420 -3.1300486278
32.9109823589 -33.4697527845 -3.1300486381
32.9326955036 -33.4613939766 -3.1300486298
33.7672714953 -26.5760406047 -3.1300418357
32.9632431606 -33.4753880379 -3.1300486436
33.0066826368 -33.4579233376 -3.1300486264
32.9940059272 -33.4891481678 -3.1300486572
33.0376060661 -33.4713185049 -3.1300486396
33.9929563670 -26.6846675312 -3.1300419429
33.1546602649 -33.4734539236 -3.1300486417
33.2081966733 -33.4756710210 -3.1300486439
33.2190756342 -33.4706284354 -3.1300486389
33.2837652058 -33.4666972969 -3.1300486350
33.3486352323 -33.4887152009 -3.1300486568
33.0457288386 -33.6507085119 -3.1300488166
33.6076840316 -33.3759568753 -3.1300485455
33.6393752873 -33.3571913836 -3.1300485270
33.4580857457 -33.4869020204 -3.1300486550
33.1440507860 -33.6625924371 -3.1300488283
33.5240705613 -33.4788776601 -3.1300486471
32.9088382706 -33.7794454419 -3.1300489437
34.2834555593 -33.1375151155 -3.1300483102
33.7645617823 -29.5194347967 -3.1300447401
33.7539407914 -29.3057893838 -3.1300445293
33.7512377577 -29.2799920677 -3.1300445038
33.7512146386 -29.1152379799 -3.1300443412
33.7118686617 -28.9426974875 -3.1300441710
33.7598603242 -30.0059804131 -3.1300452202
33.7051058669 -28.8347145197 -3.1300440644
33.8247516781 -29.2853295745 -3.1300445091
33.6808716077 -28.6948173062 -3.1300439264
33.7233762651 -28.6708062140 -3.1300439027
33.6890861332 -28.5887385654 -3.1300438217
33.5018464696 -30.8403026855 -3.1300460434
33.6077640530 -30.6701373225 -3.1300458755
33.9057960678 -29.3880213902 -3.1300446104
33.8867676832 -29.1954302217 -3.1300444204
33.8321124218 -28.9245005051 -3.1300441530
33.9303178435 -29.3936170776 -3.1300446159
33.9290916588 -29.3726973578 -3.1300445953
33.9522867560 -29.3570930635 -3.1300445799
33.4101987994 -31.1170284089 -3.1300463165
33.9844808406 -29.1962120630 -3.1300444211
33.9648374678 -28.9571225180 -3.1300441852
33.6048616135 -30.9463036059 -3.1300461480
33.5636549854 -28.0393113958 -3.1300432796
34.0088241097 -28.7528106690 -3.1300439836
33.9536867393 -28.5959901218 -3.1300438289
34.1322538973 -29.9938653148 -3.1300452082
34.1517446150 -29.8722233953 -3.1300450882
33.6997349297 -27.8985649366 -3.1300431407
34.2272939289 -28.9117844806 -3.1300441405
32.0691889619 -33.4711278510 -3.1300486394
32.0925486290 -33.4681198521 -3.1300486365
32.1042216867 -33.4665640393 -3.1300486349
32.1074507215 -33.4905204292 -3.1300486586
32.1426540378 -33.4856163022 -3.1300486537
32.1543786339 -33.4839121919 -3.1300486520
32.1660981376 -33.4821734056 -3.1300486503
32.1778124465 -33.4803999586 -3.1300486486
32.2012250693 -33.4767491444 -3.1300486450
32.2246156830 -33.4729598772 -3.1300486412
32.2050200866 -33.5006224166 -3.1300486685
32.2403092102 -33.4948520184 -3.1300486628
32.3975056310 -33.4899040358 -3.1300486579
32.4731502903 -33.4982116436 -3.1300486661
32.4849106996 -33.4955298105 -3.1300486635
32.5257617562 -33.5107868378 -3.1300486786
32.1356894190 -33.6086541002 -3.1300487751
32.4838294125 -33.5453634991 -3.1300487127
32.7336214566 -33.5308716094 -3.1300486984
32.7691582092 -33.5204089793 -3.1300486880
32.1578901507 -33.6787806539 -3.1300488443
32.7998641154 -33.5363758248 -3.1300487038
32.4614524461 -33.6740529363 -3.1300488397
33.0010126554 -33.5463200833 -3.1300487136
33.0568926439 -33.5518183643 -3.1300487190
33.1011579146 -33.5610944898 -3.1300487282
33.2291958412 -33.5364571420 -3.1300487039
32.5172057282 -33.8103632580 -3.1300489742
33.2955569147 -33.5610423386 -3.1300487281
32.1655733481 -33.9217354471 -3.1300490841
32.8075881439 -33.7862801024 -3.1300489504
33.6544401454 -29.1336408023 -3.1300443594
33.6489827803 -29.0696237493 -3.1300442962
33.6103897859 -28.8334175007 -3.1300440631
33.5937056552 -28.7653427038 -3.1300439960
33.6691308361 -29.0319188590 -3.1300442590
33.6494897462 -28.9033561387 -3.1300441322
33.5977546649 -28.6909073654 -3.1300439225
33.5925461511 -28.6739515526 -3.1300439058
33.7018141569 -29.1183810848 -3.1300443443
33.6562132895 -28.8169098836 -3.1300440469
33.7164064394 -29.0201645850 -3.1300442474
33.6900489834 -28.8588452607 -3.1300440882
33.6404927656 -28.6653336770 -3.1300438973
33.6294648516 -28.6307144465 -3.1300438631
33.7767500073 -29.3855048020 -3.1300446079
33.7798439528 -29.2925843258 -3.1300445162
33.7775529248 -29.1686507818 -3.1300443939
33.7715898691 -29.0820811540 -3.1300443085
33.7489427980 -28.9100531591 -3.1300441388
33.5077079372 -28.2364256655 -3.1300434741
33.6580390274 -28.4960074618 -3.1300437302
33.8272348479 -29.3375014492 -3.1300445605
33.8065205814 -28.9643929959 -3.1300441924
33.5497722250 -28.2125942405 -3.1300434505
33.5164064899 -30.4287574739 -3.1300456373
33.7053834852 -28.4843432040 -3.1300437187
33.5708043689 -28.2006785280 -3.1300434388
33.9006631146 -29.2414774487 -3.1300444658
33.4704156716 -27.9568458218 -3.1300431982
33.6122951500 -30.4110227881 -3.1300456198
33.8671811722 -28.6654352177 -3.1300438974
33.7653109062 -28.3158775323 -3.1300435525
33.8852711684 -29.9811607104 -3.1300451957
33.9398116739 -29.8825831634 -3.1300450984
33.2886112704 -31.0997902802 -3.1300462995
34.1123902707 -29.4401950749 -3.1300446619
33.6781216485 -30.7481615523 -3.1300459525
33.6009504413 -30.8846528269 -3.1300460872
34.0274807768 -30.1595753817 -3.1300453717
33.3467003215 -31.1774364165 -3.1300463761
34.2191283759 -29.7453051746 -3.1300449629
31.4629128658 -33.4861553151 -3.1300486542
31.5128238205 -33.4884826626 -3.1300486565
31.5627588194 -33.4902192775 -3.1300486583
31.6002216419 -33.4911339210 -3.1300486592
31.6127108710 -33.4913649167 -3.1300486594
31.6626729813 -33.4919194198 -3.1300486599
31.6876556226 -33.4919749679 -3.1300486600
31.6751105131 -33.5161386379 -3.1300486838
31.8771416132 -33.5359778347 -3.1300487034
31.5344280722 -33.5860585203 -3.1300487528
32.0832577743 -33.5702272648 -3.1300487372
32.1595280724 -33.5624735435 -3.1300487296
32.2356487428 -33.5533673846 -3.1300487206
32.2546294849 -33.5996508789 -3.1300487662
32.4079567566 -33.5766903485 -3.1300487436
32.0140770337 -33.6730486447 -3.1300488387
32.1051889814 -33.6652814774 -3.1300488310
32.4846526839 -33.6368517954 -3.1300488029
32.5491625047 -33.6245402780 -3.1300487908
31.5949112217 -33.7569841958 -3.1300489215
32.2440661247 -33.7228702880 -3.1300488878
31.6878865089 -33.8062242469 -3.1300489701
32.3298971424 -33.7600929268 -3.1300489246
32.4756593211 -33.7367197936 -3.1300489015
32.9073075922 -33.6383450094 -3.1300488044
31.5658593431 -33.8530350131 -3.1300490163
33.0762710147 -33.6382613714 -3.1300488043
33.4169373515 -33.5408107323 -3.1300487082
33.2596483129 -33.6269909806 -3.1300487932
33.4513960145 -33.5528332759 -3.1300487200
33.5746080415 -33.5263743466 -3.1300486939
33.5997610676 -33.5151176417 -3.1300486828
33.7121074256 -33.4626291482 -3.1300486310
32.9797775099 -30.1458349257 -3.1300453582
33.5703442316 -28.9249637310 -3.1300441535
33.5290234412 -28.6463916330 -3.1300438786
33.5959844692 -28.9493146252 -3.1300441775
33.5937494893 -28.9130013218 -3.1300441417
33.5929728582 -28.9026353417 -3.1300441314
33.5902751943 -28.8715675091 -3.1300441008
33.5005496312 -28.4612707248 -3.1300436959
33.5893446165 -28.6972601376 -3.1300439288
33.6294105151 -29.2878052686 -3.1300445115
33.5662038237 -28.5062545086 -3.1300437403
33.6703742574 -28.9996921701 -3.1300442272
33.6903452921 -28.7114697755 -3.1300439428
33.5976235272 -28.3745321408 -3.1300436103
33.5908383320 -28.2929013034 -3.1300435298
33.8150203214 -29.0958567088 -3.1300443221
33.7200361589 -29.7211381362 -3.1300449391
33.4660847682 -30.2441351208 -3.1300454552
33.8123082345 -29.4942593243 -3.1300447152
33.8639854279 -29.0673332330 -3.1300442940
33.7224808153 -28.2952997840 -3.1300435322
33.8749415887 -29.2730505146 -3.1300444969
33.2549150056 -30.8697975822 -3.1300460725
31.5098041915 -33.5638562625 -3.1300487309
30.8808374380 -33.4978857465 -3.1300486658
30.8940315761 -33.5007074057 -3.1300486686
31.0264097796 -33.5267727287 -3.1300486943
31.1461631189 -33.5468746630 -3.1300487142
31.1861945863 -33.5528659417 -3.1300487201
31.2262776466 -33.5585017277 -3.1300487256
31.4004900057 -33.5788052930 -3.1300487457
31.0220910710 -33.5505568419 -3.1300487178
31.1022904935 -33.5643853795 -3.1300487314
31.6281259218 -33.6193706314 -3.1300487857
31.0580526337 -33.5814705481 -3.1300487483
31.5045057538 -33.6361815285 -3.1300488023
31.4048614375 -33.6763561076 -3.1300488419
32.1067808123 -33.6892738659 -3.1300488547
32.2186937222 -33.7057835346 -3.1300488710
32.3152405894 -33.6969684288 -3.1300488623
31.4956750243 -33.7567236385 -3.1300489212
32.2644178638 -33.7504026887 -3.1300489150
32.2245395033 -33.7780666197 -3.1300489423
32.5180053255 -33.7451320151 -3.1300489098
31.1655391361 -33.7941097518 -3.1300489581
31.0877750351 -33.8313544290 -3.1300489949
33.5027797866 -28.7722625071 -3.1300440028
33.5010017894 -28.7419391610 -3.1300439729
33.4901489376 -28.6383819887 -3.1300438707
33.4535995851 -28.4599481880 -3.1300436946
33.5286464717 -28.8372336362 -3.1300440669
33.4956147627 -28.5307948479 -3.1300437645
33.4946849390 -28.5264830339 -3.1300437603
33.4780794885 -28.4578962363 -3.1300436926
33.5429109535 -29.0160596903 -3.1300442434
33.5481059933 -28.9625246967 -3.1300441905
33.5610551151 -29.0639789624 -3.1300442906
33.5623360675 -29.0549616051 -3.1300442817
33.5647378128 -29.0369049443 -3.1300442639
33.5728954558 -28.9553505192 -3.1300441835
33.5358935144 -28.4895735050 -3.1300437239
33.5971389778 -28.7306663023 -3.1300439618
33.5957010740 -28.7122205400 -3.1300439435
33.5900793717 -28.6570034018 -3.1300438891
33.5773885877 -28.4556584072 -3.1300436904
33.6143949915 -29.1776469619 -3.1300444028
33.6475556359 -28.9225695024 -3.1300441511
33.6302701464 -28.5945708214 -3.1300438275
33.6696757511 -28.9575821081 -3.1300441857
33.6447975202 -29.2593888353 -3.1300444835
33.6947563932 -28.9445729183 -3.1300441728
33.6372695559 -29.3706042923 -3.1300445932
33.6436857869 -29.4259364170 -3.1300446478
33.0468731304 -30.9777071479 -3.1300461790
30.8649085717 -33.6000498799 -3.1300487666
31.4028172132 -33.7255388622 -3.1300488905
31.4751018569 -33.7343929279 -3.1300488992
30.6273690752 -33.5855811028 -3.1300487524
31.5888142415 -33.7704063372 -3.1300489347
30.4104723455 -33.5412011968 -3.1300487086
30.6988094838 -33.6564405721 -3.1300488223
30.1444976397 -33.4927222639 -3.1300486607
30.2490586501 -33.6372738403 -3.1300488034
33.4673795148 -28.7094781020 -3.1300439408
33.4676129682 -28.6881626618 -3.1300439198
33.4676150936 -28.6846098306 -3.1300439163
33.4675584106 -28.6739515171 -3.1300439058
33.4663859919 -28.6313358830 -3.1300438637
33.4621380279 -28.5710936711 -3.1300438043
33.4845744792 -28.8184279822 -3.1300440483
33.4906300174 -28.7389368607 -3.1300439699
33.4912839987 -28.7208271235 -3.1300439520
33.4897927699 -28.6157640333 -3.1300438484
33.4886250690 -28.5976801524 -3.1300438305
33.4952074501 -28.9124457905 -3.1300441411
33.4984271949 -28.8942493722 -3.1300441232
33.5030179883 -28.8650418505 -3.1300440943
33.5153819698 -28.6476146335 -3.1300438798
33.5049007697 -28.9831603702 -3.1300442109
33.5083341517 -28.9684873673 -3.1300441964
33.5123813372 -28.9500906700 -3.1300441783
33.5290158508 -28.8535866664 -3.1300440830
33.5301764131 -28.9813365019 -3.1300442091
33.5642981085 -28.6806858038 -3.1300439124
33.5325332795 -29.0661697580 -3.1300442928
33.5764184900 -28.8638366764 -3.1300440932
33.5291423550 -29.1524094648 -3.1300443779
33.5436591008 -29.1110863827 -3.1300443371
33.6117035766 -28.7362346471 -3.1300439672
33.6124622301 -28.7083722918 -3.1300439398
33.5469020493 -29.2380968840 -3.1300444625
33.6575736116 -28.7833569823 -3.1300440137
33.6150900471 -29.1260354851 -3.1300443519
33.6310238171 -29.0738645085 -3.1300443004
33.6429312242 -29.0292683650 -3.1300442564
33.5589937933 -29.3269434595 -3.1300445501
33.6894042049 -29.1317434780 -3.1300443575
33.0335275230 -30.0482774139 -3.1300452619
33.8671171284 -28.4939636769 -3.1300437282
33.9027093202 -28.6939064836 -3.1300439255
33.8922413652 -28.5007034885 -3.1300437348
33.1644840683 -30.8434608201 -3.1300460466
33.2410835907 -31.0472153785 -3.1300462476
30.7982808867 -33.7890724782 -3.1300489532
30.6406092051 -33.7664332718 -3.1300489308
30.4084540394 -33.7119795651 -3.1300488771
29.9288549773 -33.6148786250 -3.1300487813
30.2543708924 -33.7564767779 -3.1300489210
29.9331528902 -33.6436442563 -3.1300488097
29.6785537067 -33.5704092631 -3.1300487374
33.4274947680 -28.6586800700 -3.1300438907
33.4525326647 -28.6499218637 -3.1300438821
33.4519597283 -28.8029763998 -3.1300440331
33.4565143777 -28.7836417278 -3.1300440140
33.4872813457 -28.9340148644 -3.1300441624
33.5173600550 -28.9218992759 -3.1300441504
33.5473417627 -28.9086892970 -3.1300441374
33.8902707060 -28.8345957433 -3.1300440643
33.8953860910 -28.8061787059 -3.1300440363
33.8973980602 -28.7939687046 -3.1300440242
33.9328970144 -28.7062240370 -3.1300439376
33.8893481448 -29.0293608425 -3.1300442565
33.9518019543 -28.8949165048 -3.1300441238
32.8091800922 -30.8682617683 -3.1300460710
33.4509472850 -28.9438064860 -3.1300441721
33.8557082994 -28.8023533894 -3.1300440325
33.8669172324 -28.7580163927 -3.1300439887
33.8917934588 -28.8511686048 -3.1300440807
33.8658494559 -28.9885810478 -3.1300442162
33.8835266812 -29.0638840932 -3.1300442906
26.8979643955 -34.1230695338 -3.1300492827
27.0675964308 -34.3974849532 -3.1300495535
33.8432529181 -28.8753897207 -3.1300441046
33.8487713885 -28.8638864600 -3.1300440932
33.8530632878 -28.8546258694 -3.1300440841
32.4857357985 -30.8596386628 -3.1300460625
41.0087966419 -31.9787628718 -3.1300471668
33.8390900887 -29.3082498257 -3.1300445317
33.8381945023 -29.4090526113 -3.1300446312
32.9459673287 -30.6582116075 -3.1300458638
32.9265585869 -30.7298738702 -3.1300459345
33.0408349306 -30.8048714413 -3.1300460085
32.2638143215 -31.1132238440 -3.1300463127
32.3017058539 -31.1766579120 -3.1300463753
32.5613158092 -31.2432512752 -3.1300464411
26.5330838014 -31.8970909253 -3.1300470862
26.5312657513 -32.0625698824 -3.1300472495
26.4760728131 -32.5325359542 -3.1300477133
26.4657316814 -32.5636708224 -3.1300477440
26.4765895464 -32.5830532673 -3.1300477631
40.9829821315 -32.8577453832 -3.1300480342
40.9946464030 -32.8341818890 -3.1300480109
41.0062409184 -32.8105839929 -3.1300479876
40.9928644505 -32.8920943084 -3.1300480681
41.0163262843 -32.8448738499 -3.1300480215
40.9906755066 -32.9501228713 -3.1300481253
41.0026130138 -32.9265362145 -3.1300481020
40.9880781368 -33.0082647844 -3.1300481827
41.0154945513 -33.1125819964 -3.1300482856
41.0117694297 -33.1711844893 -3.1300483434
41.0243607849 -33.1475344656 -3.1300483201
33.4474143824 -29.1856906098 -3.1300444107
33.4424949572 -29.2644147748 -3.1300444884
33.4502199275 -29.3040686105 -3.1300445276
33.4418524360 -29.3683840647 -3.1300445910
33.4593770395 -29.4300119334 -3.1300446518
33.8676924106 -29.4385896911 -3.1300446603
33.8758842844 -29.4193754216 -3.1300446413
32.9652145834 -30.2043702518 -3.1300454159
33.0777458920 -30.1830606305 -3.1300453949
33.8726605627 -29.5896887698 -3.1300448094
41.0582635468 -31.4937997428 -3.1300466883
41.0581014049 -31.6551059098 -3.1300468475
41.0738577169 -31.6061376790 -3.1300467991
33.4364623099 -29.2724688110 -3.1300444964
33.4428948147 -29.2373312619 -3.1300444617
33.4465959398 -29.2120848731 -3.1300444368
33.4472464555 -29.2070230758 -3.1300444318
33.4487899909 -29.3258369988 -3.1300445490
33.4494554820 -29.3232995932 -3.1300445465
33.4480993512 -29.4091537906 -3.1300446313
33.4585458265 -29.3785526441 -3.1300446011
33.4617857867 -29.3682722392 -3.1300445909
33.4745322833 -29.4069396208 -3.1300446291
33.4763351362 -29.4017091325 -3.1300446239
33.4880843568 -29.3648099199 -3.1300445875
33.4738315375 -29.4757498044 -3.1300446970
33.4824853112 -29.4547624509 -3.1300446763
33.4793270171 -29.5223548519 -3.1300447430
33.5182640168 -29.4283187546 -3.1300446502
33.5310789968 -29.3896607542 -3.1300446120
33.5122220656 -29.5650577936 -3.1300447851
33.5352007986 -29.5731724563 -3.1300447931
33.1556264291 -30.1871237599 -3.1300453989
32.9335802891 -30.3011844818 -3.1300455115
33.2372250823 -30.1972189943 -3.1300454089
33.8742155029 -29.2954282164 -3.1300445190
33.8747891778 -29.2916324582 -3.1300445153
33.8789738586 -29.2612086903 -3.1300444853
33.8798013229 -29.3950825520 -3.1300446174
33.8916400725 -29.3376390051 -3.1300445607
33.8962900495 -29.3106647328 -3.1300445341
33.8969087002 -29.3068036074 -3.1300445303
33.8981117226 -29.2990759509 -3.1300445226
33.8854895322 -29.4698868258 -3.1300446912
33.8865792380 -29.4660569536 -3.1300446874
33.8948880717 -29.4353053529 -3.1300446571
33.9076693754 -29.3810480884 -3.1300446035
33.9274335969 -29.2632777001 -3.1300444873
33.8827880189 -29.5575939810 -3.1300447777
33.8868015822 -29.5461152983 -3.1300447664
33.9295896161 -29.3940249391 -3.1300446163
33.9374970585 -29.4633162467 -3.1300446847
33.9606913518 -29.3628601574 -3.1300445856
33.8979780821 -29.6519787860 -3.1300448709
33.9629984642 -29.4615127984 -3.1300446829
33.9594808054 -29.5576236795 -3.1300447778
33.2991412398 -30.4938550618 -3.1300457016
33.1319151334 -30.8221214492 -3.1300460255
33.2077909371 -30.7964481519 -3.1300460002
33.3654082692 -30.8634443146 -3.1300460663
33.3581740908 -30.9976320221 -3.1300461987
32.9237343484 -31.3397107101 -3.1300465362
32.4206895772 -31.4789850938 -3.1300466737
32.4315961116 -31.5281950039 -3.1300467222
32.6546664380 -31.5326213940 -3.1300467266
32.8294388865 -31.5460611912 -3.1300467399
33.0095502074 -31.5217834862 -3.1300467159
33.4584226793 -29.2927039131 -3.1300445163
33.4598381395 -29.2805772128 -3.1300445044
33.4653100280 -29.2075426915 -3.1300444323
33.4657966041 -29.1922892142 -3.1300444173
33.4646887956 -29.1129573570 -3.1300443390
33.4668907894 -29.3880358447 -3.1300446104
33.4718316161 -29.3635394672 -3.1300445862
33.4795276330 -29.3173229538 -3.1300445406
33.4870897749 -29.2490292493 -3.1300444732
33.4899623816 -29.1928812270 -3.1300444178
33.4892781059 -29.1210513270 -3.1300443470
33.4856208982 -29.4149168671 -3.1300446369
33.4891723969 -29.3993403008 -3.1300446216
33.5010636612 -29.3365600323 -3.1300445596
33.5051988661 -29.3081021301 -3.1300445315
33.5134885703 -29.2126340660 -3.1300444373
33.4874843629 -29.4991894981 -3.1300447201
33.5052825833 -29.4363343395 -3.1300446581
33.5238924710 -29.3468037677 -3.1300445697
33.4978129064 -29.5444431809 -3.1300447647
33.5011204491 -29.5349902333 -3.1300447554
33.5295350940 -29.4389907623 -3.1300446607
33.5627725341 -29.1746301219 -3.1300443998
33.4985367226 -29.6097963600 -3.1300448292
33.5099465165 -29.5813088942 -3.1300448011
33.5111673527 -29.5781251230 -3.1300447980
33.5529956091 -29.4448165253 -3.1300446664
33.5221876919 -29.6158657587 -3.1300448352
33.5756121196 -29.4540197533 -3.1300446755
33.0492727828 -30.1986453274 -3.1300454103
33.5176405621 -29.7392649046 -3.1300449570
33.5210071971 -29.7328454796 -3.1300449507
33.6280083626 -29.5357595673 -3.1300447562
33.6394547574 -29.5787196960 -3.1300447986
33.6324473704 -29.6655099899 -3.1300448842
33.8767986257 -29.1938195909 -3.1300444188
33.8750658024 -29.0914257790 -3.1300443177
33.8985816874 -29.2549693513 -3.1300444791
33.9377108267 -29.4981244787 -3.1300447190
33.3763714773 -30.4451297593 -3.1300456535
33.3440596794 -30.4977145869 -3.1300457054
33.3558330257 -30.4895885745 -3.1300456974
33.9502169167 -29.7151136198 -3.1300449332
33.3769978938 -30.7066899949 -3.1300459116
33.2905566303 -30.8924480973 -3.1300460949
33.4772840983 -30.9284662294 -3.1300461304
33.0991052110 -31.3318722876 -3.1300465285
32.8217581134 -31.4963377232 -3.1300466908
32.6367269427 -31.5439115278 -3.1300467377
32.6543698650 -31.6637006340 -3.1300468559
30.2514041010 -33.7147930595 -3.1300488799
29.7468779825 -33.7191955467 -3.1300488842
33.4677287227 -29.2318259138 -3.1300444563
33.4514270982 -29.0866164669 -3.1300443130
33.4902749987 -29.3761937950 -3.1300445987
33.4914149705 -29.3584664071 -3.1300445812
33.4924366568 -29.3371741866 -3.1300445602
33.4832898986 -29.1351094352 -3.1300443608
33.4818661339 -29.1245464926 -3.1300443504
33.4726935668 -29.0684514637 -3.1300442951
33.1796633935 -30.1350915557 -3.1300453476
33.5012233261 -29.4894646618 -3.1300447105
33.5040374202 -29.4715629538 -3.1300446928
33.5060978647 -29.4572128415 -3.1300446787
33.5129558079 -29.3959884233 -3.1300446183
33.5168529602 -29.3308745058 -3.1300445540
33.5147427153 -29.2077169105 -3.1300444325
33.2271756703 -30.1191040825 -3.1300453318
33.5244683889 -29.4970407656 -3.1300447180
33.5112454149 -29.0160899921 -3.1300442434
33.5501291450 -29.4898872803 -3.1300447109
33.5572084600 -29.5803409617 -3.1300448002
33.5727774336 -29.5012556432 -3.1300447221
33.5841596245 -29.4137156191 -3.1300446358
33.5882485025 -29.2219908204 -3.1300444466
33.5839446614 -29.1645736269 -3.1300443899
33.5519057498 -29.6913293888 -3.1300449097
33.5588256199 -29.6689111375 -3.1300448876
33.6099390605 -29.3965390582 -3.1300446188
33.6141733865 -29.2793427831 -3.1300445032
33.6097536993 -29.1817056766 -3.1300444068
33.6087384702 -29.1700186039 -3.1300443953
33.6623334438 -29.3154225095 -3.1300445388
33.7104923957 -29.3247012490 -3.1300445479
33.5721508063 -29.9562883102 -3.1300451711
33.7058143156 -29.5793953001 -3.1300447992
33.5765270054 -30.0480282019 -3.1300452617
33.5983781005 -30.0097134474 -3.1300452239
33.2535029105 -30.5235650838 -3.1300457309
33.9973501647 -29.8055195719 -3.1300450224
33.4615342600 -30.7904970470 -3.1300459943
33.1833215605 -31.4770355058 -3.1300466717
31.5322748182 -33.7385142328 -3.1300489033
31.5454368869 -33.7407431668 -3.1300489055
31.0700985570 -33.6594191433 -3.1300488252
31.1218820520 -33.6735753511 -3.1300488392
31.9409463669 -33.8135265401 -3.1300489773
31.9944923676 -33.8173676835 -3.1300489811
31.4975462046 -33.7815459946 -3.1300489457
31.5640610105 -33.7928099619 -3.1300489568
31.6307351391 -33.8030889173 -3.1300489670
31.9525276130 -33.8386520697 -3.1300490021
31.6003994702 -33.8229918902 -3.1300489866
30.5226166301 -33.5464075685 -3.1300487137
31.3552237894 -33.8034094787 -3.1300489673
31.7047711648 -33.8620719638 -3.1300490252
30.8289974156 -33.8393148193 -3.1300490027
30.7309074082 -33.9087728046 -3.1300490713
30.1063686663 -33.9168921139 -3.1300490793
29.9671017269 -34.0645634739 -3.1300492250
33.5145520460 -29.3253895256 -3.1300445486
33.4956219675 -29.1833654931 -3.1300444085
33.4901908849 -29.1560270634 -3.1300443815
33.4832923657 -29.1249287017 -3.1300443508
33.4823783608 -29.1210531406 -3.1300443470
33.4570239483 -29.0289335254 -3.1300442561
33.5426395042 -29.4611750008 -3.1300446826
33.5429315901 -29.4246967274 -3.1300446466
33.5423759063 -29.3922751167 -3.1300446146
33.5416390508 -29.3720217454 -3.1300445946
33.5408339348 -29.3558282777 -3.1300445786
33.5348427097 -29.2831222876 -3.1300445069
33.5303977026 -29.2469146688 -3.1300444712
33.5186246498 -29.1749184813 -3.1300444001
33.5049556264 -29.1115272560 -3.1300443376
33.4938251326 -29.0683536039 -3.1300442950
33.4606022795 -28.9641071115 -3.1300441921
33.4354558100 -28.8999594803 -3.1300441288
33.5577559900 -29.5933270066 -3.1300448130
33.5474911536 -29.1987994920 -3.1300444237
33.5322219126 -29.1219387443 -3.1300443478
33.4561252969 -28.8867751178 -3.1300441158
33.5774875325 -29.6294209734 -3.1300448486
33.5907708424 -29.4705959318 -3.1300446919
33.5912484977 -29.4202439487 -3.1300446422
33.5753135512 -29.2196173801 -3.1300444442
33.5567168508 -29.1206569365 -3.1300443466
33.5479391794 -29.0839245926 -3.1300443103
33.4926762237 -28.9122775246 -3.1300441410
33.5808478948 -29.7461361495 -3.1300449638
33.5724143686 -29.0821328619 -3.1300443086
33.5135993178 -28.8994529653 -3.1300441283
33.5022857404 -28.8718031675 -3.1300441010
33.6148758315 -29.7003859829 -3.1300449186
33.6224589635 -29.2080908363 -3.1300444329
33.6075932897 -29.1270040300 -3.1300443528
33.5749181630 -29.0010327671 -3.1300442285
33.5587406485 -28.9515392306 -3.1300441797
33.6177932844 -29.7995663940 -3.1300450165
33.6529723435 -29.2524655414 -3.1300444766
33.6483102932 -29.2174882336 -3.1300444421
33.6043473950 -29.0150602246 -3.1300442424
33.6872984036 -29.4777096221 -3.1300446989
33.6878367137 -29.4104806798 -3.1300446326
33.6520291446 -29.1038123139 -3.1300443300
33.6416759651 -29.0602016181 -3.1300442869
33.6878106055 -29.7046966804 -3.1300449229
33.6777948573 -29.0081240982 -3.1300442355
33.5231917262 -30.2670083263 -3.1300454777
33.7137899373 -29.8142932032 -3.1300450310
33.4603574605 -30.4017116044 -3.1300456107
33.4745595323 -30.3825609017 -3.1300455918
33.5311228421 -31.2740760357 -3.1300464715
33.0202538144 -31.7649783144 -3.1300469559
31.3678764197 -33.5525725601 -3.1300487198
30.9631685902 -33.4776698337 -3.1300486459
31.1196077851 -33.5211822249 -3.1300486888
31.1559387589 -33.5303669939 -3.1300486979
31.5108379400 -33.6024154006 -3.1300487690
31.7088968968 -33.6290608178 -3.1300487953
31.1867375583 -33.5627414893 -3.1300487298
31.5070489088 -33.6262896236 -3.1300487925
32.0068497830 -33.6755443903 -3.1300488411
30.9493201345 -33.5239900389 -3.1300486916
31.8293527550 -33.6891329039 -3.1300488545
32.2711765815 -33.7018230292 -3.1300488671
32.3469432683 -33.6994030863 -3.1300488647
32.3595663579 -33.6988690360 -3.1300488641
32.3974253746 -33.6970428712 -3.1300488623
31.0523802788 -33.5784436843 -3.1300487453
32.6985100049 -33.7678870171 -3.1300489322
31.3308047508 -33.7423702140 -3.1300489071
32.5981020028 -33.8031741395 -3.1300489671
31.7916563859 -33.8315240763 -3.1300489950
31.9730499357 -33.8676773580 -3.1300490307
33.1271541646 -30.2344374534 -3.1300454456
33.2884179815 -30.0046079198 -3.1300452188
33.5980196486 -29.5582255193 -3.1300447783
33.5974995449 -29.5403034055 -3.1300447607
33.5731668315 -29.3177116237 -3.1300445410
33.6193946491 -29.4939776929 -3.1300447150
33.5788227426 -29.2287204448 -3.1300444532
33.5316057181 -29.0718058303 -3.1300442984
33.4835010633 -28.9537567050 -3.1300441819
33.6387780240 -29.7511054924 -3.1300449687
33.5943169793 -29.1916210129 -3.1300444166
33.6498269431 -29.8513061525 -3.1300450675
33.6527710788 -29.8327505133 -3.1300450492
33.6654242116 -29.7254848447 -3.1300449434
33.6709425875 -29.5941232547 -3.1300448138
33.4815283620 -28.8411404009 -3.1300440708
33.6167984612 -29.0968766148 -3.1300443231
33.5704759527 -28.9716931578 -3.1300441996
33.7114080529 -29.7536121960 -3.1300449711
33.7189185654 -29.6280280510 -3.1300448472
33.5442266512 -28.8568740794 -3.1300440863
33.7370116992 -29.4470094886 -3.1300446686
33.7710023847 -29.3273874947 -3.1300445506
33.7702086233 -29.3223957047 -3.1300445456
33.8057193860 -29.4049159056 -3.1300446271
33.7901937449 -29.1772087254 -3.1300444024
33.8884195836 -29.6102685809 -3.1300448297
33.9504941407 -29.3946779426 -3.1300446170
33.9510580109 -30.3697955290 -3.1300455792
33.7598486005 -31.1154727102 -3.1300463150
33.7548054615 -31.1566168337 -3.1300463556
33.7393849595 -31.2077682454 -3.1300464060
31.6195533031 -33.4740224473 -3.1300486423
31.6310354513 -33.4753768894 -3.1300486436
31.6770026032 -33.4804548221 -3.1300486486
31.7230266216 -33.4849884947 -3.1300486531
31.7806267955 -33.4898892597 -3.1300486579
31.9306654944 -33.4986395722 -3.1300486666
31.6166859651 -33.4980248150 -3.1300486660
31.6976381720 -33.5068463248 -3.1300486747
31.7323846040 -33.5101134713 -3.1300486779
31.7555644087 -33.5121202039 -3.1300486799
31.8019576068 -33.5157220799 -3.1300486834
31.8251693763 -33.5173170971 -3.1300486850
31.8483901762 -33.5187747578 -3.1300486864
31.8832365300 -33.5207035951 -3.1300486883
31.9064763493 -33.5218176517 -3.1300486894
31.9413474196 -33.5232308869 -3.1300486908
31.9762296585 -33.5243346053 -3.1300486919
31.7768845650 -33.5380902642 -3.1300487055
32.0340842817 -33.5496572645 -3.1300487169
32.1745322414 -33.5489063388 -3.1300487162
32.2927645538 -33.5686125113 -3.1300487356
31.6198501628 -33.5714198686 -3.1300487384
31.7023213959 -33.5801601261 -3.1300487470
31.8322353338 -33.5904397221 -3.1300487572
32.1874929419 -33.5969483734 -3.1300487636
32.1993362422 -33.5966222095 -3.1300487633
32.4004322728 -33.5857208620 -3.1300487525
32.4476512034 -33.5816872094 -3.1300487485
31.7118897901 -33.6053394524 -3.1300487719
32.4735842635 -33.6035202092 -3.1300487701
32.6663656185 -33.6044781600 -3.1300487710
31.6114611965 -33.6434521029 -3.1300488095
32.3580579614 -33.6615496093 -3.1300488273
31.6448401916 -33.6715132574 -3.1300488372
31.6689764238 -33.6740351074 -3.1300488396
32.1172205917 -33.6948582985 -3.1300488602
32.2870105660 -33.6899309560 -3.1300488553
32.6011870206 -33.6621561815 -3.1300488279
31.7637867584 -33.7067937801 -3.1300488720
31.7759568552 -33.7077205352 -3.1300488729
32.8932657289 -33.6388608270 -3.1300488049
31.6396739313 -33.7195824875 -3.1300488846
31.7619156431 -33.7308942824 -3.1300488957
33.0060512777 -33.6394293197 -3.1300488055
32.6959729426 -33.7222909568 -3.1300488873
33.0114268139 -33.6629970708 -3.1300488287
31.6221609059 -33.7663062680 -3.1300489307
33.1556216801 -33.6774027642 -3.1300488430
32.7190432645 -33.7921616125 -3.1300489562
32.8182259401 -33.7759386881 -3.1300489402
32.9907717807 -33.7419182699 -3.1300489066
33.0275534226 -33.7337003241 -3.1300488985
33.2465803684 -33.6775691479 -3.1300488431
33.3259207170 -33.6794042187 -3.1300488449
33.7249621318 -33.5883604952 -3.1300487551
33.7485699987 -33.5785771006 -3.1300487454
31.5982729480 -33.9825480848 -3.1300491441
33.6473411695 -29.5671449272 -3.1300447871
33.5847512771 -29.2790264457 -3.1300445028
33.6135872496 -29.2905660292 -3.1300445142
33.6477693817 -29.3219057324 -3.1300445452
32.2851812617 -33.4747995294 -3.1300486430
32.4520758650 -33.4835672763 -3.1300486517
32.5542153628 -33.4947791536 -3.1300486628
32.2902853564 -33.5471387701 -3.1300487144
32.5051581233 -33.5501768722 -3.1300487174
32.6501768061 -33.5288709688 -3.1300486964
32.7721699218 -33.5064988576 -3.1300486743
32.5118644358 -33.6955146696 -3.1300488608
32.8053197730 -33.7956227712 -3.1300489596
33.1939732978 -30.0627769309 -3.1300452762
33.2210702596 -30.0252531952 -3.1300452392
33.5980717583 -30.1480492387 -3.1300453604
33.6022600469 -30.1101329573 -3.1300453229
33.6058979103 -30.0673724253 -3.1300452808
33.6903603150 -29.7162754210 -3.1300449343
33.7225430939 -30.1219807697 -3.1300453346
33.7308777285 -29.9582214719 -3.1300451730
33.6714321767 -29.5020987991 -3.1300447230
33.7194802551 -29.4946333848 -3.1300447156
33.6475360124 -29.2799520425 -3.1300445038
33.6689483927 -29.2069519472 -3.1300444317
33.8100866756 -29.5613022011 -3.1300447814
33.8003312420 -29.5185332506 -3.1300447392
34.2303636368 -30.3334239462 -3.1300455433
34.1437193695 -30.7488559476 -3.1300459532
34.1460668688 -30.7425052250 -3.1300459469
33.9931918177 -31.1693862895 -3.1300463682
34.0131776735 -31.2734164159 -3.1300464708
34.0373315834 -31.2806445225 -3.1300464780
32.8077088828 -33.4538875469 -3.1300486224
32.8652059504 -33.4649981418 -3.1300486334
32.8755938836 -33.4624176088 -3.1300486308
32.8859741375 -33.4598063578 -3.1300486282
32.9232075347 -33.4751688676 -3.1300486434
32.9440348801 -33.4696337488 -3.1300486379
32.9544361813 -33.4668200053 -3.1300486352
32.9648291134 -33.4639755052 -3.1300486324
32.9752135855 -33.4611002735 -3.1300486295
32.9921431161 -33.4814620270 -3.1300486496
33.0234248964 -33.4725011523 -3.1300486408
33.0338343325 -33.4694525463 -3.1300486378
33.0442347047 -33.4663731606 -3.1300486347
33.0546259221 -33.4632630222 -3.1300486317
33.0615914584 -33.4864107345 -3.1300486545
33.0929144209 -33.4768333499 -3.1300486450
33.1137486438 -33.4702941590 -3.1300486386
33.1241511561 -33.4669783686 -3.1300486353
33.1628784757 -33.4798006498 -3.1300486480
33.2045380814 -33.4657710653 -3.1300486341
33.2437251795 -33.4777181490 -3.1300486459
33.2645619977 -33.4702866955 -3.1300486386
33.3249816360 -33.4737904688 -3.1300486420
33.2545165298 -33.5763840814 -3.1300487433
33.4561288226 -33.5000785675 -3.1300486680
33.4770942151 -33.4913900714 -3.1300486594
33.4875575431 -33.4869993469 -3.1300486551
33.5696214119 -33.5042189304 -3.1300486721
33.2164205023 -33.7166155689 -3.1300488817
33.4743478268 -33.7011923247 -3.1300488664
33.4470637468 -33.7635885143 -3.1300489280
33.6478646875 -33.6810675886 -3.1300488466
33.2313042017 -30.1160940969 -3.1300453288
33.2715090215 -29.8485594233 -3.1300450648
33.6097152036 -29.9714542611 -3.1300451861
33.7288012536 -30.7536695461 -3.1300459580
34.0531609087 -30.1080264417 -3.1300453209
34.2702779734 -29.5569326069 -3.1300447771
33.4216686434 -33.4145593678 -3.1300485836
33.4895899607 -33.4109412610 -3.1300485800
34.3577022505 -33.2287605188 -3.1300484003
33.8542993665 -26.6111618196 -3.1300418703
33.8438607797 -26.6057105140 -3.1300418649
34.2772063501 -26.6058387295 -3.1300418651
33.3393789502 -30.1833662073 -3.1300453952
33.5510379710 -30.1207136637 -3.1300453334
33.6052344133 -30.0047181235 -3.1300452189
33.6220053302 -29.9672948283 -3.1300451820
33.6937487294 -30.5425479167 -3.1300457496
33.7082382609 -30.2682011932 -3.1300454789
33.6816229877 -30.7315994729 -3.1300459362
33.7256964666 -30.4765184800 -3.1300456845
33.7304557781 -30.2226710901 -3.1300454340
33.7537707460 -30.4284077028 -3.1300456370
33.7561027087 -30.3829782935 -3.1300455922
33.6628290159 -30.9483572290 -3.1300461501
33.7206759094 -30.7732135544 -3.1300459772
33.7220148772 -30.7682655062 -3.1300459724
33.7772012907 -30.4401967860 -3.1300456486
33.7698921003 -30.1178077998 -3.1300453305
33.7087055522 -30.8937520904 -3.1300460962
33.7639346506 -30.6988344856 -3.1300459038
33.8043488322 -30.2497114825 -3.1300454607
33.8155717344 -30.5432151501 -3.1300457503
33.8070397436 -30.0339421139 -3.1300452478
33.8780818439 -30.3388748228 -3.1300455487
33.7460215647 -31.0632307201 -3.1300462634
33.8822643268 -30.5904043854 -3.1300457969
33.8014074017 -31.0568215827 -3.1300462571
33.9989169648 -30.2940911010 -3.1300455045
33.7707254980 -31.2842535070 -3.1300464815
34.0341228222 -29.8195699868 -3.1300450362
34.2847522051 -30.1779392454 -3.1300453899
34.2819122529 -30.1382751697 -3.1300453507
34.2813705025 -30.1316696610 -3.1300453442
34.2116582623 -29.7339928861 -3.1300449518
34.3105987067 -29.8347853018 -3.1300450512
34.2598770137 -29.3604406030 -3.1300445832
34.1484194509 -28.9057657245 -3.1300441345
33.1487078057 -26.5425219663 -3.1300418026
33.1263509166 -26.5360799302 -3.1300417962
33.1151582773 -26.5329085421 -3.1300417931
33.2003411418 -26.5326758464 -3.1300417929
33.1891381089 -26.5292855967 -3.1300417895
33.1554695230 -26.5193138975 -3.1300417797
33.1509201934 -26.4928284749 -3.1300417536
33.3608674925 -26.5340746815 -3.1300417943
33.3496678952 -26.5302095597 -3.1300417904
33.3384569132 -26.5263775853 -3.1300417867
33.5518461239 -26.5016820061 -3.1300417623
33.6511226814 -26.5160449901 -3.1300417765
33.3618951693 -26.3812275567 -3.1300416434
33.8380721748 -26.5200476575 -3.1300417804
34.2028854217 -26.6582057181 -3.1300419167
34.1920493423 -26.6518492118 -3.1300419105
33.9715162306 -26.5315284097 -3.1300417917
33.4154381479 -26.2207109586 -3.1300414850
33.5935193807 -30.9421801511 -3.1300461440
33.6318246507 -30.7922263076 -3.1300459960
33.6548796496 -30.6391841045 -3.1300458450
33.6569677704 -30.6165105157 -3.1300458226
33.6622456744 -30.5119229734 -3.1300457194
33.6067100491 -30.9801596915 -3.1300461814
33.6705309509 -30.7104443078 -3.1300459153
33.6789746215 -30.3321802386 -3.1300455421
33.6025528510 -31.0628907784 -3.1300462631
33.5992723173 -29.9021039110 -3.1300451177
33.7275073709 -30.6416227530 -3.1300458474
33.6217123064 -31.1430489529 -3.1300463422
33.6349817802 -31.1118764316 -3.1300463114
33.7580343997 -30.4264040140 -3.1300456350
33.6943482749 -30.0307870661 -3.1300452446
33.6141733204 -31.2701962054 -3.1300464676
33.7213978140 -31.0183054466 -3.1300462191
33.7768792619 -30.8063493217 -3.1300460099
33.5536785081 -31.4208499215 -3.1300466163
33.6064123914 -31.3346213047 -3.1300465312
33.8242301526 -30.6458854146 -3.1300458516
33.7987533989 -30.1529343802 -3.1300453652
33.8291046019 -30.1834738471 -3.1300453953
33.5825159645 -29.5525807998 -3.1300447728
33.6353218085 -31.3810793267 -3.1300465771
33.7983695322 -29.9573169084 -3.1300451722
34.0007718753 -29.6714863751 -3.1300448901
33.9343341351 -28.9717611688 -3.1300441997
33.8974081308 -28.8922737748 -3.1300441212
34.0118835245 -28.8392477562 -3.1300440689
32.4939524253 -26.5230777287 -3.1300417834
32.4822257674 -26.5219977639 -3.1300417823
32.4704959661 -26.5209524933 -3.1300417813
32.6022263021 -26.5103576276 -3.1300417709
32.5904615421 -26.5089574247 -3.1300417695
32.5786926915 -26.5075920302 -3.1300417681
32.5551431306 -26.5049657140 -3.1300417655
32.5315784438 -26.5024787709 -3.1300417631
32.5197906858 -26.5012875916 -3.1300417619
32.4608018779 -26.4958550260 -3.1300417565
32.7114382742 -26.5006098419 -3.1300417612
32.6406002084 -26.4907942069 -3.1300417515
32.6051186342 -26.4863582589 -3.1300417472
32.5695990906 -26.4822373647 -3.1300417431
32.4628406319 -26.4717681257 -3.1300417328
32.8451168966 -26.4980776452 -3.1300417587
32.7742128330 -26.4858898569 -3.1300417467
32.7268281074 -26.4784646317 -3.1300417394
32.7149684570 -26.4766959737 -3.1300417376
32.9441659332 -26.4926040677 -3.1300417533
32.9086884665 -26.4854740729 -3.1300417463
32.8850022729 -26.4808957780 -3.1300417418
32.9965159573 -26.4789814090 -3.1300417399
32.9846566556 -26.4764149633 -3.1300417374
33.0611923161 -26.4687994241 -3.1300417298
32.9419430139 -26.4428082413 -3.1300417042
33.1382680065 -26.4626447151 -3.1300417238
32.5951944504 -26.3634956662 -3.1300416259
33.1741618909 -26.4219154228 -3.1300416836
32.7607120949 -26.3369129815 -3.1300415997
33.3605169209 -26.4494318570 -3.1300417107
33.3366095817 -26.4421810240 -3.1300417036
32.7396797366 -26.3092988964 -3.1300415725
32.5289120231 -26.2835814728 -3.1300415471
33.4035855109 -26.4375251131 -3.1300416990
33.4829457984 -26.4379758542 -3.1300416994
33.1310433653 -26.3363428108 -3.1300415991
33.5948445606 -26.4258373549 -3.1300416875
33.6960236731 -26.4120816248 -3.1300416739
33.9913831932 -26.5120541662 -3.1300417725
33.1848011957 -26.2250995820 -3.1300414894
34.2232071044 -26.6020237130 -3.1300418613
32.7937565262 -26.1218799064 -3.1300413875
34.0711770957 -26.4966787742 -3.1300417574
34.2809676291 -26.5784918714 -3.1300418381
33.5301403411 -30.9793479886 -3.1300461806
33.5704399505 -30.7321151883 -3.1300459367
33.5304646827 -31.1368295392 -3.1300463360
33.5867294921 -30.9514665259 -3.1300461531
33.6422666634 -30.5358138202 -3.1300457430
33.5509721786 -29.7628670966 -3.1300449803
33.9234979810 -29.5374738380 -3.1300447579
33.9818973830 -28.9531719706 -3.1300441813
32.1308216439 -26.4911181048 -3.1300417519
32.0817355156 -26.4925528751 -3.1300417533
31.8245278343 -26.5096045904 -3.1300417701
31.8123107908 -26.5108148207 -3.1300417713
31.7512822134 -26.5174077732 -3.1300417778
32.2043397758 -26.4658825418 -3.1300417270
32.0438703737 -26.4698604382 -3.1300417309
32.0192009416 -26.4710200252 -3.1300417320
32.4152803678 -26.4458451041 -3.1300417072
32.3532249082 -26.4435270101 -3.1300417049
32.2414649135 -26.4416682095 -3.1300417031
32.3289749899 -26.4186907612 -3.1300416804
32.1291317427 -26.4186187132 -3.1300416803
31.7901387702 -26.4158832748 -3.1300416776
32.7207096784 -26.3976955952 -3.1300416597
32.7081576667 -26.3962552471 -3.1300416583
32.5698321392 -26.3828650291 -3.1300416450
31.9209785684 -26.3074382469 -3.1300415706
33.0256620909 -26.3459764134 -3.1300416086
32.7061982085 -26.2987423429 -3.1300415620
32.3841175529 -26.2752416847 -3.1300415388
33.1701345964 -26.3506065539 -3.1300416132
33.1447399068 -26.3451048706 -3.1300416078
31.9434907731 -26.2574555667 -3.1300415213
33.2262912431 -26.3385134939 -3.1300416013
32.7532935824 -26.2311522979 -3.1300414953
31.8225127189 -26.2184255376 -3.1300414828
32.9000995755 -26.2266944812 -3.1300414909
32.3479843964 -26.1773670425 -3.1300414423
33.6009478267 -26.3668520462 -3.1300416292
32.1760389425 -26.1518641229 -3.1300414171
31.6992584692 -26.1827642962 -3.1300414476
33.7096217390 -26.3777159962 -3.1300416400
31.9223536705 -26.1377265386 -3.1300414032
33.5007987329 -30.9228275952 -3.1300461249
33.4881950249 -31.0995833538 -3.1300462993
33.4999968676 -31.0558949084 -3.1300462562
33.5064213375 -31.0287960927 -3.1300462294
33.4883563561 -31.1772820854 -3.1300463760
33.5572436035 -30.7023183960 -3.1300459073
33.5726850390 -30.9323867024 -3.1300461343
33.5769304126 -30.8963941191 -3.1300460988
33.5546774882 -30.5072636041 -3.1300457148
33.1476349765 -29.8339457146 -3.1300450504
33.5666921769 -31.0877792949 -3.1300462876
33.6020631073 -30.8878362373 -3.1300460903
33.5963425119 -30.6039282552 -3.1300458102
33.6350374162 -31.0026174245 -3.1300462036
33.6543844874 -30.7082985339 -3.1300459132
33.6606042236 -30.4309316581 -3.1300456395
31.7551010044 -26.3962320461 -3.1300416582
31.6388591053 -26.4138367811 -3.1300416756
32.1702732264 -26.3346625758 -3.1300415975
32.1692502121 -26.3105112048 -3.1300415737
31.2946859478 -26.4350342634 -3.1300416965
32.4470018313 -26.2832173005 -3.1300415467
32.2876749974 -26.2828923299 -3.1300415464
31.9562621325 -26.3003695814 -3.1300415636
31.6139490902 -26.3444684572 -3.1300416072
31.4833521087 -26.3684177248 -3.1300416308
32.5675560184 -26.2630250395 -3.1300415268
32.4608265996 -26.2593328984 -3.1300415232
31.0187614282 -26.4362177154 -3.1300416977
31.6818741479 -26.2602394127 -3.1300415240
31.6685337924 -26.2622597980 -3.1300415260
31.2193131176 -26.3542922439 -3.1300416169
31.1951696730 -26.2606628756 -3.1300415245
33.4343101594 -31.0227123842 -3.1300462234
33.4668704614 -30.7973650310 -3.1300460011
33.4796656818 -31.0446533701 -3.1300462451
33.4929709348 -30.9261917309 -3.1300461282
33.4934977819 -30.9145666973 -3.1300461167
33.4940300540 -30.8971194930 -3.1300460995
33.4941386524 -30.8913019981 -3.1300460938
33.4927571803 -30.8215081294 -3.1300460249
33.4918459556 -30.8069905391 -3.1300460106
33.4904692070 -30.7895895962 -3.1300459934
33.4899416847 -30.7837950504 -3.1300459877
33.5077321367 -31.0223153892 -3.1300462230
33.5156100928 -30.9512271945 -3.1300461529
33.5164315862 -30.9393325312 -3.1300461412
33.5177650005 -30.9125395826 -3.1300461147
33.5184094751 -30.8827399702 -3.1300460853
33.5177230696 -30.8380374067 -3.1300460412
33.5084223462 -30.7341727555 -3.1300459387
33.5062176841 -30.7194330244 -3.1300459242
33.5027654287 -30.6988556114 -3.1300459039
33.5426055906 -30.8768006394 -3.1300460795
33.5305670340 -30.7186964412 -3.1300459234
33.5296193823 -30.7126659040 -3.1300459175
33.5231858161 -30.6766100100 -3.1300458819
33.5168497032 -30.6467532851 -3.1300458525
33.5147769352 -30.6378341748 -3.1300458437
33.5635824374 -30.9579582085 -3.1300461595
33.5644802169 -30.9454954429 -3.1300461472
33.5646816150 -30.9423781598 -3.1300461442
33.5660790063 -30.9142996910 -3.1300461165
33.5644011603 -30.8050289831 -3.1300460086
33.5553913358 -30.7211919961 -3.1300459259
33.5431215856 -30.6535852709 -3.1300458592
33.5322459617 -30.6080120815 -3.1300458142
33.5165430668 -30.5540280896 -3.1300457610
33.5843798993 -30.9948288409 -3.1300461959
33.5878343840 -30.7938463491 -3.1300459976
33.5618190388 -30.6266815242 -3.1300458327
33.5548134355 -30.5987911380 -3.1300458051
33.5479648537 -30.5741639315 -3.1300457808
33.6043279335 -31.0299026621 -3.1300462305
