25.4095802449 -18.4143127686 -3.0000334292
25.4500410673 -18.4179300585 -3.0000334328
25.4720752598 -18.4327225266 -3.0000334474
25.4814034887 -18.4269124092 -3.0000334416
25.7157032154 -18.4166098306 -3.0000334315
25.7575418150 -18.4166000968 -3.0000334314
25.8654670208 -18.4275529516 -3.0000334423
25.4063340173 -11.6107390329 -3.0000267157
25.3954818729 -11.6051532391 -3.0000267102
25.4717553209 -11.6178380177 -3.0000267227
25.4609238904 -11.6120586647 -3.0000267170
25.4500754108 -11.6063113783 -3.0000267114
25.4392099772 -11.6005962089 -3.0000267057
25.5049035795 -11.6082504358 -3.0000267133
25.5707897066 -11.6170484183 -3.0000267220
25.5599555070 -11.6109761072 -3.0000267160
25.5382334559 -11.5989277660 -3.0000267041
25.5273457945 -11.5929518413 -3.0000266982
25.6152202196 -11.6144939399 -3.0000267194
25.6490089989 -11.6061057305 -3.0000267112
25.7155290786 -11.6173950298 -3.0000267223
25.7929572327 -11.6365832296 -3.0000267412
25.7605655938 -11.6164901958 -3.0000267214
26.8707297549 -12.0487499718 -3.0000271479
26.7342143476 -11.9124842310 -3.0000270135
26.8881576006 -12.0319986889 -3.0000271314
26.5275265784 -11.6001284648 -3.0000267053
26.0314664535 -15.6014436034 -3.0000306536
26.0685213721 -15.2168089548 -3.0000302740
24.9282513865 -11.5292469292 -3.0000266353
25.5418394966 -11.5125377745 -3.0000266188
26.0099003621 -15.0794301858 -3.0000301385
26.0131476255 -15.0234041738 -3.0000300832
26.2673095332 -16.3933713552 -3.0000314350
26.2790258435 -16.4649024188 -3.0000315056
26.3499286542 -15.9488834287 -3.0000309964
26.2805574288 -16.6708031093 -3.0000317088
26.3978304274 -15.4638408707 -3.0000305178
26.4013694089 -16.6870993252 -3.0000317249
26.4942512370 -15.6038391595 -3.0000306559
26.6557838083 -15.5380850142 -3.0000305911
26.5986660659 -14.9996659558 -3.0000300598
24.0972145745 -11.5248688396 -3.0000266310
24.2445062106 -11.5145944406 -3.0000266209
24.2048986870 -11.5103551151 -3.0000266167
24.3531732494 -11.5036619530 -3.0000266101
24.3399421253 -11.5018883822 -3.0000266083
24.1409175663 -11.4799904325 -3.0000265867
24.6438071797 -11.4788010417 -3.0000265855
24.8006221860 -11.4632785029 -3.0000265702
24.7872696426 -11.4601814738 -3.0000265672
24.7471578612 -11.4511275701 -3.0000265582
24.6801314134 -11.4368299057 -3.0000265441
24.8998081274 -11.4626407916 -3.0000265696
24.9460021668 -11.4496819914 -3.0000265568
25.0864874550 -11.4136220651 -3.0000265212
25.1204009384 -11.3984735324 -3.0000265063
27.2071441770 -19.3756485387 -3.0000343778
26.0818763353 -16.9102330932 -3.0000319450
26.0909325753 -16.8787282874 -3.0000319139
26.1265488381 -16.7322325857 -3.0000317694
26.1278705961 -16.7258110252 -3.0000317631
26.1012648035 -16.9297838328 -3.0000319643
26.1069272123 -16.9107241642 -3.0000319455
26.1949375703 -16.3757765140 -3.0000314177
26.1968110616 -16.2631332406 -3.0000313065
26.1185118301 -16.9559844927 -3.0000319902
26.1841481584 -16.6894484496 -3.0000317272
26.1952186684 -16.6233799859 -3.0000316620
26.1981582151 -16.6034985952 -3.0000316424
26.2196674146 -16.2026507919 -3.0000312468
26.2139106600 -16.1023361116 -3.0000311478
26.0998855563 -17.0848543261 -3.0000321173
26.2239682277 -16.5935180538 -3.0000316325
26.0450589064 -17.2759437739 -3.0000323059
26.2679836283 -16.2009523722 -3.0000312451
25.7971414608 -14.8816156028 -3.0000299433
25.9903414395 -17.4335085914 -3.0000324614
26.0104545591 -17.3972290994 -3.0000324256
26.0487334772 -17.3236278845 -3.0000323529
25.7952435226 -14.8396234496 -3.0000299018
25.7649794052 -14.8018586759 -3.0000298646
26.2253462470 -17.0188428454 -3.0000320522
26.0156759680 -15.0780008919 -3.0000301371
25.8885035506 -14.8830299212 -3.0000299447
26.0499306371 -17.4754302775 -3.0000325027
26.3456074477 -16.5958277594 -3.0000316348
26.3176886591 -15.8016010999 -3.0000308511
26.2407226837 -17.1222169126 -3.0000321542
26.3157378841 -15.6844839867 -3.0000307355
25.9890427705 -14.9435184438 -3.0000300044
25.9526858134 -14.8898837619 -3.0000299514
26.4144359810 -16.2903657629 -3.0000313334
26.1446302409 -15.1625488602 -3.0000302205
26.2772857571 -15.3359021753 -3.0000303916
25.9732690771 -14.7941813403 -3.0000298570
25.6352900438 -14.4212165902 -3.0000294890
26.4201123086 -15.7043722722 -3.0000307551
25.5837291447 -14.3442931163 -3.0000294131
26.5518641327 -16.0831332085 -3.0000311289
25.5672555606 -14.1156717700 -3.0000291875
26.6497320090 -15.6252468794 -3.0000306771
26.7283918325 -15.7605803075 -3.0000308106
26.4454428252 -14.9046631727 -3.0000299660
23.6032955226 -11.4924096939 -3.0000265990
23.7297926084 -11.4605600409 -3.0000265675
23.6713358601 -11.4394480676 -3.0000265467
24.2608577071 -11.4164039284 -3.0000265240
24.0879747900 -11.4086651424 -3.0000265163
23.9005047647 -11.4072110984 -3.0000265149
24.3346576086 -11.3973378157 -3.0000265052
24.0886270004 -11.3845009146 -3.0000264925
24.1766125461 -11.3634696936 -3.0000264717
23.8416988470 -11.3598812337 -3.0000264682
24.4695753493 -11.3610521098 -3.0000264694
24.2653859266 -11.3440263576 -3.0000264526
23.4031859536 -11.3653995423 -3.0000264736
24.6181235429 -11.3544246133 -3.0000264628
23.7229826065 -11.3156818368 -3.0000264246
24.8929157547 -11.3253668221 -3.0000264341
23.6735196985 -11.2214077880 -3.0000263316
25.0053072604 -11.2985104781 -3.0000264076
24.2594047269 -11.1983527303 -3.0000263088
25.1432105397 -11.3046842788 -3.0000264137
25.3108909116 -11.3226111452 -3.0000264314
23.8214251346 -11.1427599532 -3.0000262540
23.3914145410 -11.1234911735 -3.0000262349
25.9944821502 -16.9812235575 -3.0000320151
26.0330721957 -16.7738304078 -3.0000318104
26.0337458905 -16.7684604557 -3.0000318051
25.9733251841 -17.1395902376 -3.0000321713
25.9980431752 -17.0611458287 -3.0000320939
26.0097961817 -17.0188821510 -3.0000320522
26.0230757077 -16.9656808855 -3.0000319997
26.0390113586 -16.8905888449 -3.0000319256
26.0420207041 -16.8744158229 -3.0000319097
26.0448864047 -16.8582167316 -3.0000318937
26.0476082345 -16.8419928467 -3.0000318777
26.0533984908 -16.8040478766 -3.0000318403
26.0664638837 -16.6841406299 -3.0000317219
26.0683432193 -16.6567875802 -3.0000316949
26.0717908061 -16.5526707745 -3.0000315922
25.9656473260 -17.2308156643 -3.0000322614
26.0478706185 -16.9657766814 -3.0000319998
26.0947419302 -16.4750358261 -3.0000315156
26.0943045831 -16.4639343231 -3.0000315046
26.0962210772 -16.8442258432 -3.0000318799
26.1057141976 -16.7773812359 -3.0000318139
26.1070654354 -16.7662095257 -3.0000318029
26.1142349310 -16.6934208123 -3.0000317311
26.1158772321 -16.6709746496 -3.0000317089
26.0127157444 -17.2432075292 -3.0000322736
26.0364216389 -17.1790752335 -3.0000322103
26.0739125540 -17.0594781436 -3.0000320923
26.0975082771 -16.9655390352 -3.0000319996
26.1369088285 -16.7123621389 -3.0000317498
26.0667274602 -17.1652225842 -3.0000321966
26.1061801408 -17.0325220952 -3.0000320657
26.1483103238 -16.8233545159 -3.0000318593
26.1641144281 -16.6742171874 -3.0000317121
26.1685052463 -16.5416148838 -3.0000315813
26.1662362510 -16.4493379496 -3.0000314902
26.1311025888 -16.1632707472 -3.0000312080
26.1310371634 -17.0329275945 -3.0000320661
26.1619777808 -16.8902497037 -3.0000319253
26.1757403442 -16.2853248748 -3.0000313284
26.1464282626 -16.1185411545 -3.0000311638
26.1601831519 -17.0159741855 -3.0000320494
26.2098470010 -16.3762130869 -3.0000314181
26.1006186097 -17.2839082507 -3.0000323138
26.1519512768 -17.1370738606 -3.0000321689
26.1949208457 -16.1139843689 -3.0000311593
26.1936418884 -16.1081385264 -3.0000311536
26.1910321227 -16.0964583193 -3.0000311420
26.2618591265 -16.4265328116 -3.0000314677
26.1988359485 -16.0264026854 -3.0000310729
26.1648003617 -15.9101893889 -3.0000309582
26.1544454695 -17.2787458071 -3.0000323087
26.2670355080 -16.8467652766 -3.0000318824
26.2531523824 -16.1577582897 -3.0000312025
26.2252851451 -16.0321636970 -3.0000310786
26.1700341888 -15.8505055844 -3.0000308993
26.2434390372 -17.0808865403 -3.0000321134
26.2835028609 -16.1898585019 -3.0000312342
26.2889034894 -16.9956760826 -3.0000320293
26.3698956192 -16.2791342063 -3.0000313223
26.2488602394 -15.6556952554 -3.0000307071
26.4120578544 -17.1048417925 -3.0000321371
26.4771970056 -16.7019771221 -3.0000317395
25.7344865664 -14.7968358016 -3.0000298596
25.9516916362 -14.9400999147 -3.0000300010
26.2857751147 -15.3059387365 -3.0000303620
26.2840050562 -15.2566565605 -3.0000303134
26.0718194144 -14.9662561723 -3.0000300268
25.8884478048 -14.7732064737 -3.0000298363
25.6646050632 -14.4670399063 -3.0000295342
25.3495170689 -14.2798793369 -3.0000293495
25.4407068684 -14.3002341077 -3.0000293696
26.0985852109 -14.4410953381 -3.0000295086
23.5519633290 -11.3723988447 -3.0000264806
23.4145444919 -11.3919649471 -3.0000264999
23.6874050507 -11.3324492132 -3.0000264411
23.5181511867 -11.3524743705 -3.0000264609
23.0155489043 -11.4454116943 -3.0000265526
22.9494833538 -11.4365380315 -3.0000265438
24.2758185415 -11.2574616912 -3.0000263671
24.1663563722 -11.2574003319 -3.0000263671
24.0725475439 -11.2591517258 -3.0000263688
22.8377010521 -11.4405668489 -3.0000265478
22.6954186705 -11.4559648521 -3.0000265630
23.7067093470 -11.2090870290 -3.0000263194
23.4705918383 -11.2370231136 -3.0000263470
23.0495993108 -11.3135825372 -3.0000264225
23.0341336588 -11.3170621285 -3.0000264259
23.6252060450 -11.1932086016 -3.0000263037
22.8432183594 -11.3390042202 -3.0000264476
23.2900500537 -11.2165240577 -3.0000263267
23.4127770436 -11.1721485768 -3.0000262830
25.9566212208 -16.9203691479 -3.0000319550
25.9672543070 -17.0132997571 -3.0000320467
25.9687692018 -17.0047541566 -3.0000320383
25.9709466808 -16.9919193250 -3.0000320256
25.9795985496 -16.9317909963 -3.0000319663
25.9820840271 -16.9102369038 -3.0000319450
25.9878912044 -16.8410559002 -3.0000318768
25.9899352560 -16.7109319407 -3.0000317484
26.0146997466 -16.7587534924 -3.0000317956
26.0131050775 -16.6837924997 -3.0000317216
26.0126696942 -16.6749813976 -3.0000317129
26.0119188962 -16.6617699597 -3.0000316999
26.0085700881 -16.6177895522 -3.0000316565
26.0379779944 -16.7005858766 -3.0000317382
26.0368096304 -16.6737169748 -3.0000317116
26.0238300730 -16.5399159481 -3.0000315796
26.0369795211 -17.0351276728 -3.0000320683
26.0417488221 -17.0082237979 -3.0000320417
26.0477629465 -16.5365170001 -3.0000315763
26.0256335332 -16.4156013849 -3.0000314570
26.0670941145 -17.0031044637 -3.0000320367
26.0851805767 -16.8330068151 -3.0000318688
26.0769999397 -16.5744066385 -3.0000316137
26.0983896785 -16.9558446449 -3.0000319900
26.1045975309 -16.8998269408 -3.0000319348
26.1048639879 -16.6090231749 -3.0000316478
26.0891283665 -16.4879504475 -3.0000315283
26.1124665397 -17.0249491477 -3.0000320582
26.1587708696 -16.6964069581 -3.0000317340
26.1086711740 -16.3473514224 -3.0000313896
26.0774270946 -16.2405287663 -3.0000312842
26.1748503184 -16.0231180913 -3.0000310697
25.8558707457 -14.7741657059 -3.0000298373
25.8323632734 -14.7585403869 -3.0000298218
25.7488251730 -14.6780377343 -3.0000297424
25.9998696451 -14.8179658389 -3.0000298805
25.9983403399 -14.6965730125 -3.0000297607
25.2922570474 -14.2913069030 -3.0000293608
25.3944190063 -14.2998985194 -3.0000293693
26.0040010377 -14.4377074483 -3.0000295053
23.2586125282 -11.1979908410 -3.0000263085
23.0134484292 -11.2595720043 -3.0000263692
22.7402222011 -11.2912169942 -3.0000264004
22.6918223786 -11.3072586972 -3.0000264163
22.6361089679 -11.2495948092 -3.0000263594
22.3618514899 -11.3514335202 -3.0000264599
22.1421907226 -11.3652305585 -3.0000264735
25.9423986918 -16.8894751559 -3.0000319245
25.9419985674 -16.8703078338 -3.0000319056
25.9666043417 -16.8924517588 -3.0000319275
25.9906962797 -16.8855571220 -3.0000319207
25.9899809511 -16.8588608615 -3.0000318943
25.9736457061 -16.7062891179 -3.0000317438
25.9645718414 -16.6604455151 -3.0000316986
25.9903317473 -16.6652630895 -3.0000317033
26.0387462984 -16.8709119035 -3.0000319062
26.0230255042 -16.7081789844 -3.0000317457
26.0174429880 -16.6773493406 -3.0000317152
26.0095085119 -16.6398875068 -3.0000316783
26.0063216270 -16.6263318638 -3.0000316649
25.9994678051 -16.5993384432 -3.0000316383
26.0618132281 -16.8418636108 -3.0000318776
26.0431618721 -16.6831966175 -3.0000317210
26.0404850847 -16.6692397403 -3.0000317072
26.0376433405 -16.6553155132 -3.0000316935
26.0161718049 -16.5691498735 -3.0000316085
25.9979595489 -16.5115696424 -3.0000315516
25.9883924188 -16.4848062311 -3.0000315252
26.0597866891 -16.6432525962 -3.0000316816
26.0441740449 -16.4279596657 -3.0000314691
26.0384771046 -16.4140086802 -3.0000314554
26.0172464342 -16.3657314981 -3.0000314077
26.0224775039 -16.3209754475 -3.0000313636
26.0819836782 -16.2265742619 -3.0000312704
26.3767806286 -16.8528861965 -3.0000318884
26.3915218724 -16.5761836192 -3.0000316154
26.4161360865 -16.5757349032 -3.0000316150
25.9093165101 -14.7321089538 -3.0000297958
25.3844714438 -14.4510654731 -3.0000295184
25.8140969729 -14.4018711016 -3.0000294699
20.3602897943 -11.5389167428 -3.0000266449
20.3128688691 -11.5790809766 -3.0000266845
25.9484335135 -16.8338823408 -3.0000318697
25.9446000401 -16.8167530648 -3.0000318528
25.9414595127 -16.8039682629 -3.0000318402
25.9332529665 -16.7743685779 -3.0000318110
25.9326199799 -16.7722676899 -3.0000318089
25.9293619788 -16.7617918419 -3.0000317986
25.9701569550 -16.8200271118 -3.0000318560
25.9670705104 -16.8067882054 -3.0000318430
25.9659895386 -16.8023876677 -3.0000318386
25.9583308561 -16.7739487985 -3.0000318106
25.9576965179 -16.7717737274 -3.0000318084
25.9516987428 -16.7522852357 -3.0000317892
25.9428987907 -16.7265620603 -3.0000317638
25.9405565645 -16.7201813408 -3.0000317575
25.9747056807 -16.7448679523 -3.0000317819
25.9702845814 -16.7315601528 -3.0000317687
25.9564841957 -16.6943060306 -3.0000317320
25.9437244479 -16.6641783135 -3.0000317022
25.9696717273 -16.6631075884 -3.0000317012
25.9587290760 -16.6389783781 -3.0000316774
25.9447931761 -16.6109394692 -3.0000316497
25.9604160297 -16.5888123140 -3.0000316279
25.9580455558 -16.5844549613 -3.0000316236
25.9458088064 -16.5628827427 -3.0000316023
25.9876649599 -16.5885932999 -3.0000316277
25.9574552739 -16.5353365136 -3.0000315751
25.9612473896 -16.4539815754 -3.0000314948
25.9516657066 -16.4409584539 -3.0000314820
25.9821813868 -16.3250442498 -3.0000313676
25.9782499916 -16.3205627423 -3.0000313632
26.3672515684 -16.7133221423 -3.0000317507
26.3656106162 -16.7065556348 -3.0000317441
26.3586473606 -16.6795902367 -3.0000317174
26.3962993783 -16.7319392875 -3.0000317691
26.3923941856 -16.7146098533 -3.0000317520
26.3864972364 -16.6904497123 -3.0000317282
26.3762234826 -16.6527449037 -3.0000316910
26.3690490359 -16.6289328535 -3.0000316675
26.3870894281 -16.5343000576 -3.0000315741
26.3830234928 -16.5239849664 -3.0000315639
26.3731815086 -16.5000597211 -3.0000315403
26.4054729295 -16.5150206999 -3.0000315551
26.4026580904 -16.5080315326 -3.0000315482
26.3879664012 -16.4733422061 -3.0000315139
26.3802373692 -16.4561643062 -3.0000314970
26.3973584007 -16.4356371008 -3.0000314767
26.4125056718 -16.4112429389 -3.0000314527
26.4210960063 -16.2743409533 -3.0000313176
26.3950377267 -16.2322596117 -3.0000312760
26.4582587445 -16.2422989386 -3.0000312859
25.7430584008 -14.6344728851 -3.0000296994
25.4332772842 -14.5868417491 -3.0000296524
26.1217336995 -14.6995781198 -3.0000297637
25.7321778851 -14.5826517041 -3.0000296483
25.4664594482 -14.5413931252 -3.0000296076
25.3883676646 -14.5106396102 -3.0000295772
25.0581868211 -14.5105682649 -3.0000295772
25.0713830463 -14.4855091388 -3.0000295524
25.9717067939 -14.5701373507 -3.0000296359
25.7472078234 -14.5117072293 -3.0000295783
25.1746341456 -14.4572189848 -3.0000295245
25.0923453416 -14.4601235155 -3.0000295274
24.7417042431 -14.4536767060 -3.0000295210
25.3605112100 -14.3394782380 -3.0000294083
25.2037068304 -14.3359648451 -3.0000294049
25.3630233151 -14.2911974917 -3.0000293607
24.5477312006 -14.3732978547 -3.0000294417
24.9653847276 -14.2270028364 -3.0000292973
26.7087462346 -14.5898731592 -3.0000296554
25.8073275767 -14.2279293304 -3.0000292983
24.1767537173 -14.3678012082 -3.0000294363
24.4464880029 -14.2504686464 -3.0000293205
24.1632366570 -14.1656628645 -3.0000292368
24.1044268729 -14.1624357394 -3.0000292336
24.0451715724 -14.1604143494 -3.0000292316
19.1575488467 -12.1209962444 -3.0000272192
19.1408570531 -11.9881723145 -3.0000270882
33.1382658724 -14.9931542981 -3.0000300533
19.2816622519 -11.0083788249 -3.0000261214
19.4463838350 -10.7828704165 -3.0000258988
25.7940550177 -14.5061578136 -3.0000295728
25.4983819473 -14.3063127516 -3.0000293756
33.4912596746 -13.3125696831 -3.0000283950
33.4905758414 -13.1983797925 -3.0000282823
26.3413942179 -16.1918462037 -3.0000312362
25.6388430188 -14.1879754410 -3.0000292588
24.8096092222 -14.1171131030 -3.0000291889
24.0124531644 -14.3002046614 -3.0000293696
19.0380865229 -13.6505145248 -3.0000287285
19.0000903565 -12.8268131440 -3.0000279157
18.9761215296 -12.6299261863 -3.0000277214
33.4500192674 -12.6257884617 -3.0000277173
33.5266639704 -12.6169697072 -3.0000277086
33.5291949234 -12.2548192270 -3.0000273513
33.5632831700 -12.2670586248 -3.0000273634
25.9444520293 -16.2942345120 -3.0000313372
25.9437619023 -16.2920015347 -3.0000313350
25.9387464877 -16.2764292217 -3.0000313196
25.9341916976 -16.2631665849 -3.0000313065
25.9302167141 -16.2521775590 -3.0000312957
25.9294022373 -16.2499868764 -3.0000312935
25.9723453805 -16.3032974346 -3.0000313461
25.9545456109 -16.2483099526 -3.0000312919
25.9494892665 -16.2347713393 -3.0000312785
25.9477505176 -16.2302786747 -3.0000312741
25.9395984960 -16.2101922208 -3.0000312543
25.9684504847 -16.2168718520 -3.0000312609
25.9647333149 -16.2076737836 -3.0000312518
25.9628339810 -16.2030914044 -3.0000312473
25.9529325097 -16.1803524615 -3.0000312248
25.9498313539 -16.1735889280 -3.0000312181
25.9322863727 -16.1379989425 -3.0000311830
25.9640759255 -16.1472920248 -3.0000311922
25.9587561435 -16.0856912418 -3.0000311314
25.9410904050 -16.0120519781 -3.0000310587
26.3645328350 -16.1802508331 -3.0000312247
26.3614145690 -16.1698345817 -3.0000312144
26.3823690077 -16.1557339890 -3.0000312005
26.3790324661 -16.1451604170 -3.0000311901
26.3767560312 -16.1381279989 -3.0000311832
26.3744380300 -16.1311091720 -3.0000311762
26.3783058148 -16.0702678293 -3.0000311162
26.3712718142 -15.9907812002 -3.0000310378
26.3615791643 -15.9698870193 -3.0000310171
26.3746988962 -15.8887580327 -3.0000309371
25.4324272442 -14.1290434300 -3.0000292007
25.4182393513 -14.1276467317 -3.0000291993
25.8930717419 -14.1965540275 -3.0000292673
25.4083527109 -14.0781803759 -3.0000291505
24.6685083008 -13.9266549172 -3.0000290010
25.6941209018 -13.8989027745 -3.0000289736
19.1196772971 -12.3119005246 -3.0000274076
19.1436265863 -12.0301069872 -3.0000271295
25.9304015697 -16.2388238437 -3.0000312825
25.9577412726 -16.2711428567 -3.0000313144
25.9566676868 -16.2584069342 -3.0000313018
25.9551139118 -16.2425063574 -3.0000312861
25.9480756832 -16.1886500734 -3.0000312330
25.9801362872 -16.2497286008 -3.0000312933
25.9773254912 -16.2237464074 -3.0000312676
25.9734294718 -16.1946053626 -3.0000312389
25.9613331248 -16.1270886317 -3.0000311723
25.9592635206 -16.1175092818 -3.0000311628
25.9509496617 -16.0825510841 -3.0000311283
26.0000868612 -16.2109243584 -3.0000312550
25.9901976259 -16.1482806282 -3.0000311932
25.9637844246 -16.0379434224 -3.0000310843
25.9569769144 -16.0155892489 -3.0000310622
26.0212596291 -16.1875614158 -3.0000312319
26.0086337184 -16.1170888833 -3.0000311624
26.0049841106 -16.1004351667 -3.0000311460
25.9977956797 -16.0706015352 -3.0000311165
25.9830651831 -16.0180760169 -3.0000310647
25.9747719087 -15.9920893823 -3.0000310390
25.9692772139 -15.9759501678 -3.0000310231
26.0030776803 -16.0010269511 -3.0000310479
25.9672445437 -15.9029632503 -3.0000309511
26.0172469981 -15.9667469717 -3.0000310140
26.0077295392 -15.9399658564 -3.0000309876
25.9724695186 -15.8546111937 -3.0000309034
26.0732523361 -16.0737951357 -3.0000311197
26.0491784461 -15.9864646533 -3.0000310335
25.9913973252 -15.8379504617 -3.0000308870
25.9851956497 -15.8248466312 -3.0000308740
26.0568796385 -15.9336583424 -3.0000309814
26.0491301706 -15.8484473118 -3.0000308973
26.0188010051 -15.7836209207 -3.0000308333
26.0758429755 -15.8494074862 -3.0000308983
26.0438271336 -15.7796362583 -3.0000308294
26.0208269632 -15.7353505908 -3.0000307857
26.0620111286 -15.5698174017 -3.0000306224
26.3842356863 -16.1658191902 -3.0000312105
26.3806323331 -16.1391673834 -3.0000311842
26.3720095504 -16.0860765970 -3.0000311318
26.4125948637 -15.7803491815 -3.0000308301
26.4296045414 -15.6337237530 -3.0000306854
25.7685936942 -14.5647244599 -3.0000296306
25.7526665743 -14.5569170881 -3.0000296229
26.4547966591 -14.5629070700 -3.0000296288
26.0520566173 -14.2495908942 -3.0000293196
25.7820548992 -14.1206876354 -3.0000291924
25.7688172035 -14.1153951423 -3.0000291872
25.5531054029 -14.0414967088 -3.0000291143
25.5394031941 -14.0375601438 -3.0000291104
25.4912670975 -14.0244219890 -3.0000290974
25.3993801944 -13.9775312972 -3.0000290512
25.4964765138 -13.9758212231 -3.0000290495
25.4329099614 -13.9602772686 -3.0000290342
25.3189656908 -13.9368417078 -3.0000290110
25.0904315987 -13.8821761770 -3.0000289571
25.2910567069 -13.8829326633 -3.0000289578
25.3630083879 -13.8220904151 -3.0000288978
24.7937180324 -13.7780971870 -3.0000288544
25.4533010306 -13.6924087996 -3.0000287698
24.8532613052 -13.6317254637 -3.0000287100
24.6986914871 -13.6134587338 -3.0000286919
21.9848492999 -11.1428680265 -3.0000262541
21.9694420515 -11.1514578402 -3.0000262625
21.7489498706 -11.1960743569 -3.0000263066
21.0129136691 -11.2892198379 -3.0000263985
25.9488260163 -16.3215368015 -3.0000313641
25.9742115868 -16.2955475604 -3.0000313385
25.9968671685 -16.3282207176 -3.0000313707
25.9983695146 -16.2964018456 -3.0000313393
25.9986154340 -16.2088162270 -3.0000312529
25.9984911742 -16.2048362849 -3.0000312490
25.9931647772 -16.1214000306 -3.0000311666
26.0222169807 -16.3053569542 -3.0000313482
26.0183267139 -16.1312220685 -3.0000311763
26.0451290647 -16.3310721208 -3.0000313735
26.0466704810 -16.1991336210 -3.0000312434
26.0443158908 -16.1538228665 -3.0000311986
26.0706723835 -16.1940785534 -3.0000312384
26.0689798205 -16.1605507702 -3.0000312053
26.0857883777 -16.0782975917 -3.0000311241
26.1413583412 -16.1560377566 -3.0000312008
26.1223166606 -15.9940299028 -3.0000310410
26.1657838053 -16.3382006288 -3.0000313806
26.1331787989 -15.9239281061 -3.0000309718
26.1240051929 -15.8846442264 -3.0000309330
26.0834632931 -15.6795403940 -3.0000307306
26.0021363865 -16.3212151164 -3.0000313638
26.0028947597 -16.3165797802 -3.0000313592
26.0097231051 -16.2701108490 -3.0000313134
26.0195734586 -16.1719835945 -3.0000312166
25.9728153279 -16.5475809328 -3.0000315872
25.9851827646 -16.5064866064 -3.0000315466
26.0066146449 -16.4233833108 -3.0000314646
25.9973175796 -16.5502369179 -3.0000315898
26.0632711253 -16.2283603038 -3.0000312722
26.0709338645 -16.1124781957 -3.0000311578
26.0714654708 -16.0350475311 -3.0000310814
26.0809704933 -16.2844599362 -3.0000313275
26.0958172407 -16.0493747407 -3.0000310956
26.0850129077 -15.8729751868 -3.0000309215
26.1128173401 -16.2183817797 -3.0000312623
26.0938019839 -16.4745242139 -3.0000315151
26.1394244283 -16.1903979970 -3.0000312347
26.1607851223 -15.9003829857 -3.0000309486
26.1432256516 -15.7683015329 -3.0000308182
26.1696270403 -15.7795746723 -3.0000308293
26.1226537404 -15.5718517074 -3.0000306244
26.1041762157 -15.5122847270 -3.0000305656
26.1443859889 -15.5600436356 -3.0000306127
26.2875904653 -16.1410389267 -3.0000311860
26.2770136561 -15.6945234386 -3.0000307454
25.7806571078 -14.6837641142 -3.0000297481
26.0461441765 -14.8385401723 -3.0000299008
25.9734205429 -14.7114194842 -3.0000297753
25.9451149301 -14.6798665730 -3.0000297442
25.9369081899 -14.6709597620 -3.0000297354
25.9152025993 -13.7181525676 -3.0000287952
23.7182305067 -11.3136059622 -3.0000264225
23.7287421327 -11.2875922769 -3.0000263969
23.5597211080 -11.3156861211 -3.0000264246
23.2390294605 -11.3862138095 -3.0000264942
24.3110266774 -11.2129870504 -3.0000263233
23.2970346967 -11.3220188370 -3.0000264308
22.8188224703 -11.4374754770 -3.0000265448
22.7369907711 -11.4668981951 -3.0000265738
23.8679065502 -11.1230342982 -3.0000262345
22.7590412978 -11.3560358428 -3.0000264644
23.5392405745 -11.1228388596 -3.0000262343
26.0012932118 -16.4838754591 -3.0000315243
26.0490529178 -16.3322447620 -3.0000313747
26.0826743629 -16.1824765044 -3.0000312269
26.0948063075 -16.1066769301 -3.0000311521
26.1015451980 -16.0522590304 -3.0000310984
25.9917387172 -16.5749234663 -3.0000316142
26.0820909134 -16.3008538854 -3.0000313437
26.1295287116 -15.6888437545 -3.0000307398
26.1911109998 -15.3409421610 -3.0000303965
26.0899813538 -14.8838901827 -3.0000299455
26.4256623702 -15.7853143450 -3.0000308350
26.4957886290 -15.9752239656 -3.0000310224
26.1621502211 -14.1116648544 -3.0000291835
23.4745433233 -11.5058354715 -3.0000266122
23.5998386492 -11.4606368446 -3.0000265676
24.3465578052 -11.3881669290 -3.0000264961
24.0560911677 -11.3919048199 -3.0000264998
24.5327599623 -11.3715022010 -3.0000264797
24.2806491140 -11.3631835577 -3.0000264715
24.4809193753 -11.3444297903 -3.0000264530
24.5491061432 -11.3240854678 -3.0000264329
24.9565982259 -11.3198550278 -3.0000264287
24.9029267167 -11.3119148940 -3.0000264209
25.1170317078 -11.2736812055 -3.0000263831
25.2078984086 -11.2422828673 -3.0000263522
25.1806110571 -11.2367479964 -3.0000263467
24.5738275151 -11.1561327272 -3.0000262671
25.5184668956 -11.2671503436 -3.0000263767
24.0569749156 -11.1015098435 -3.0000262132
26.1515096724 -15.0812651191 -3.0000301403
26.1434567488 -16.2504726575 -3.0000312940
26.2108107756 -15.9766874742 -3.0000310239
26.2430206452 -15.6211683846 -3.0000306730
26.1417145534 -14.9607849762 -3.0000300214
26.1278733699 -14.9191343342 -3.0000299803
26.2300602605 -16.0058421515 -3.0000310526
26.2399824354 -15.2676328696 -3.0000303242
26.1444667066 -14.8933106581 -3.0000299548
26.2913658180 -15.6214606152 -3.0000306733
26.3154896161 -15.6280912178 -3.0000306799
26.3017745146 -15.3627367529 -3.0000304180
26.2944640240 -15.3048361024 -3.0000303609
26.3389584688 -15.6676391255 -3.0000307189
26.2900613550 -16.1788989398 -3.0000312234
26.3482919489 -15.3441522826 -3.0000303997
26.3845050922 -15.7358640598 -3.0000307862
26.3951704367 -15.1733572411 -3.0000302312
26.1633109380 -16.9359943845 -3.0000319705
26.6035899406 -15.2466454968 -3.0000303035
25.9341535533 -13.7382495478 -3.0000288151
26.7841936229 -15.0250352501 -3.0000300848
26.7696452942 -14.9622370774 -3.0000300228
24.1842986952 -11.5312020250 -3.0000266373
24.3180606347 -11.5111937132 -3.0000266175
24.2695674799 -11.5091780111 -3.0000266155
24.2574407296 -11.5087637536 -3.0000266151
24.2453128070 -11.5083853711 -3.0000266147
24.4410199534 -11.4946405567 -3.0000266012
24.4045005283 -11.4919844402 -3.0000265986
24.3801417710 -11.4903937919 -3.0000265970
24.3313981558 -11.4876449731 -3.0000265943
24.6017306287 -11.4858790375 -3.0000265925
24.5773322979 -11.4831216165 -3.0000265898
24.5040454034 -11.4757160961 -3.0000265825
24.4551194408 -11.4715022195 -3.0000265783
24.6780332130 -11.4710579385 -3.0000265779
24.6045163487 -11.4618670604 -3.0000265688
24.8163329540 -11.4674489919 -3.0000265743
24.4484618476 -11.3982352522 -3.0000265060
25.2791835789 -11.4214231631 -3.0000265289
25.5185715602 -11.3930165892 -3.0000265009
25.7761668250 -11.3831931883 -3.0000264912
24.1643106262 -11.0716445589 -3.0000261838
24.2589562685 -11.0493005283 -3.0000261617
25.1065344412 -11.1297383831 -3.0000262411
25.9498843030 -14.9749554509 -3.0000300354
26.1743767985 -15.2085406002 -3.0000302659
26.1726096435 -15.1832357514 -3.0000302409
26.3250877704 -15.0208267925 -3.0000300807
26.2674906708 -16.2520778030 -3.0000312956
26.2832339043 -16.2123118433 -3.0000312564
26.3937940785 -14.8528190269 -3.0000299149
26.1830271265 -16.5890648780 -3.0000316281
26.1501726270 -16.7343080792 -3.0000317714
26.1098779282 -13.8548283498 -3.0000289301
26.3752253045 -14.2617901500 -3.0000293317
26.6613555840 -15.2786413943 -3.0000303351
26.7710902379 -15.0889679865 -3.0000301479
24.8998692352 -11.5337323745 -3.0000266397
24.8885903488 -11.5311905324 -3.0000266372
24.8660102651 -11.5262069984 -3.0000266323
24.9957252070 -11.5318253820 -3.0000266379
24.9731470042 -11.5262079911 -3.0000266323
25.1439282826 -11.5218932863 -3.0000266281
25.1212887244 -11.5153992501 -3.0000266217
25.0986111415 -11.5090392707 -3.0000266154
25.2413717532 -11.5261550525 -3.0000266323
25.2187557036 -11.5190844334 -3.0000266253
25.1960982177 -11.5121477422 -3.0000266184
25.2827019883 -11.5140267475 -3.0000266203
25.4769125727 -11.5052544654 -3.0000266116
25.4541687459 -11.4967906735 -3.0000266033
25.1542705014 -11.3991212021 -3.0000265069
24.9480128653 -11.3215688792 -3.0000264304
24.8934015187 -11.2848545308 -3.0000263942
25.6515664442 -11.4966716528 -3.0000266032
25.7066158239 -11.4938949997 -3.0000266004
25.1087882232 -11.2864011896 -3.0000263957
25.2247342179 -11.2432991703 -3.0000263532
25.4331271439 -11.2584412876 -3.0000263681
26.2042038804 -15.2652926670 -3.0000303219
26.2222400509 -15.3267618717 -3.0000303825
26.3313434194 -15.5592417416 -3.0000306119
26.3663235844 -15.3433752859 -3.0000303989
26.4089012964 -14.0921992629 -3.0000291643
26.7814845312 -15.5171912577 -3.0000305704
25.8336757320 -18.3822708046 -3.0000333976
25.5387116094 -11.5843335412 -3.0000266897
25.5283932503 -11.5797867369 -3.0000266852
25.4973581038 -11.5663297425 -3.0000266719
25.6310288680 -11.5732151549 -3.0000266787
25.7034581400 -11.5810615492 -3.0000266864
25.7555019707 -11.5799163906 -3.0000266853
25.8706895881 -11.5853993888 -3.0000266907
25.9234922791 -11.5866669137 -3.0000266920
25.9131791389 -11.5809818483 -3.0000266864
25.8478810019 -15.0295036811 -3.0000300892
25.9399478945 -15.0702956449 -3.0000301295
26.1623263233 -15.3201210583 -3.0000303760
26.1712970409 -15.2818210306 -3.0000303382
26.1674080195 -15.3963823221 -3.0000304512
26.1726549286 -15.3772041109 -3.0000304323
26.1777314353 -15.3579800915 -3.0000304133
26.3261908422 -14.4906829397 -3.0000295575
26.3251682769 -14.3359272817 -3.0000294048
26.3938024429 -14.7375350550 -3.0000298011
26.4040867857 -14.5307579566 -3.0000295971
26.3544535913 -14.2429268916 -3.0000293131
26.4215357082 -15.1169983731 -3.0000301755
26.4428208858 -14.8083506120 -3.0000298710
26.4104497345 -14.3997307358 -3.0000294678
26.3454268282 -15.5591146526 -3.0000306118
26.3789362545 -15.4477160860 -3.0000305019
26.3519327953 -15.6153114940 -3.0000306673
26.3567416772 -15.6014356421 -3.0000306536
26.4224019178 -15.3759188614 -3.0000304310
26.4716649477 -14.3295314436 -3.0000293985
26.2458058371 -13.6648138753 -3.0000287426
26.5371296844 -14.9061386082 -3.0000299675
26.5021037657 -14.3618630372 -3.0000294304
26.3544593601 -15.8081905344 -3.0000308576
26.5524416341 -15.0353509885 -3.0000300950
26.4616158168 -13.9984718840 -3.0000290718
26.3196331657 -15.9942816226 -3.0000310412
26.6157704902 -14.4682589269 -3.0000295354
26.1671781435 -16.3770240661 -3.0000314189
26.7780845297 -14.6625636748 -3.0000297271
26.8036216530 -14.6944639835 -3.0000297586
26.0330503164 -11.6803474748 -3.0000267844
25.1405407274 -18.4607543427 -3.0000334750
25.1513780652 -18.4573910400 -3.0000334717
25.1622054062 -18.4539956932 -3.0000334683
25.1730226558 -18.4505683320 -3.0000334650
25.1838297194 -18.4471089864 -3.0000334615
25.1694726269 -18.4770504711 -3.0000334911
25.2237962631 -18.4594841186 -3.0000334738
25.2346294790 -18.4558745365 -3.0000334702
25.2454519697 -18.4522329236 -3.0000334666
25.2562636405 -18.4485593117 -3.0000334630
25.2966462323 -18.4601529446 -3.0000334744
25.3074811080 -18.4563278561 -3.0000334706
25.4326916889 -18.4613874292 -3.0000334756
25.4435296211 -18.4571598883 -3.0000334715
26.4354175618 -11.7007863813 -3.0000268046
25.5066788221 -18.4579167902 -3.0000334722
25.5376022514 -18.4713119574 -3.0000334854
25.5484690832 -18.4667740287 -3.0000334810
25.5796418951 -18.4798385447 -3.0000334938
25.3334757575 -18.6009244330 -3.0000336133
25.6655290867 -18.4685631707 -3.0000334827
25.4091551941 -18.5995033526 -3.0000336119
25.7081928586 -18.4756644736 -3.0000334897
25.7511123353 -18.4822960889 -3.0000334963
25.8813335412 -18.4722376343 -3.0000334863
25.9689930218 -18.4811136211 -3.0000334951
25.5841740777 -18.7134239088 -3.0000337243
25.6280967165 -18.7216382742 -3.0000337324
25.7976467564 -15.1302868666 -3.0000301887
25.8659582385 -15.0778357430 -3.0000301369
25.8999184062 -15.1301329738 -3.0000301885
25.9162586722 -15.2278969552 -3.0000302850
26.0276240348 -15.2049671178 -3.0000302624
26.2250387015 -14.1069236705 -3.0000291789
26.3230086339 -14.7734174012 -3.0000298365
26.2796552814 -14.0145599680 -3.0000290877
26.3682201762 -14.9591844260 -3.0000300198
26.3013822228 -15.4988006757 -3.0000305523
26.4073760176 -15.2081431200 -3.0000302655
26.4618409014 -14.9843697672 -3.0000300447
26.5227998613 -14.7153268528 -3.0000297792
26.4952513723 -14.1067340237 -3.0000291787
26.2793839215 -15.6574194033 -3.0000307088
26.6452140446 -14.3437785119 -3.0000294126
26.5938615184 -13.7013142712 -3.0000287786
24.5691908693 -18.4711270256 -3.0000334852
24.5808729274 -18.4696403018 -3.0000334838
24.5925505364 -18.4681190267 -3.0000334823
24.5839601716 -18.4936153764 -3.0000335074
24.6074526288 -18.4905196038 -3.0000335044
24.6426559451 -18.4856154768 -3.0000334995
24.7129250859 -18.4748709838 -3.0000334889
24.7403111175 -18.4948511930 -3.0000335087
24.7755476425 -18.4887678509 -3.0000335027
24.6851217708 -18.5281897472 -3.0000335416
24.8504917073 -18.4993878198 -3.0000335131
24.8622561351 -18.4970688336 -3.0000335108
24.8975075383 -18.4899032105 -3.0000335038
24.9024278286 -18.5135701922 -3.0000335271
24.9496078362 -18.5034700577 -3.0000335172
24.9613839064 -18.5008578501 -3.0000335146
24.6789664445 -18.6513269040 -3.0000336631
25.2098812165 -18.5376704867 -3.0000335509
24.6455909904 -18.6804934738 -3.0000336918
25.2998660228 -18.5363749994 -3.0000335496
25.3354490137 -18.5253242862 -3.0000335387
24.7723649549 -18.6855604208 -3.0000336968
24.8922508713 -18.7128997166 -3.0000337238
25.5485401679 -18.5291340744 -3.0000335425
24.7593125507 -18.7612142809 -3.0000337715
24.7253125643 -18.7910381241 -3.0000338009
25.9599314845 -18.5136603336 -3.0000335272
25.2380114049 -18.8308635797 -3.0000338402
26.0873606933 -18.5051417620 -3.0000335188
25.5862897379 -18.7468861075 -3.0000337574
25.5818685346 -18.7741265525 -3.0000337842
26.1829356420 -14.2323573592 -3.0000293026
26.1724213404 -14.0612671098 -3.0000291338
26.1200586352 -13.7705847641 -3.0000288470
26.2298050126 -14.1830421940 -3.0000292540
26.2522615946 -14.3902513993 -3.0000294584
26.0160818532 -13.3020600326 -3.0000283847
26.2754325697 -14.1314893156 -3.0000292031
26.0348854951 -13.2354086790 -3.0000283189
26.4001745969 -14.2152269665 -3.0000292857
26.3307346957 -13.7163007386 -3.0000287934
26.2154483233 -13.3819615744 -3.0000284635
26.0633297967 -13.0048873997 -3.0000280914
26.0776826769 -15.5556392595 -3.0000306084
26.4724011470 -14.3353156761 -3.0000294042
26.7116386960 -14.6439314109 -3.0000297087
26.7684377444 -14.9637120918 -3.0000300243
24.0386251064 -18.4652360165 -3.0000334794
24.0128200058 -18.4884522733 -3.0000335023
24.0377849367 -18.4893944394 -3.0000335033
24.1127070563 -18.4913345274 -3.0000335052
24.1501780786 -18.4918058294 -3.0000335057
24.1374190241 -18.5158572171 -3.0000335294
24.2639359365 -18.5637310970 -3.0000335766
24.7769384919 -18.5722247852 -3.0000335850
24.8405156238 -18.5629924504 -3.0000335759
24.0189203568 -18.6580326418 -3.0000336697
24.1358094210 -18.6608864533 -3.0000336725
24.9503649556 -18.5938732350 -3.0000336064
24.6181873464 -18.6639875370 -3.0000336756
25.0877746927 -18.6166654636 -3.0000336289
23.9887399194 -18.7535759772 -3.0000337640
24.4829286815 -18.7963726482 -3.0000338062
25.6039954565 -18.6801166192 -3.0000336915
25.6170372408 -18.6758983416 -3.0000336873
25.8839089174 -18.6059931717 -3.0000336183
26.7331619152 -18.2829506790 -3.0000332996
26.1209873608 -14.1113620767 -3.0000291832
26.1221992557 -14.0692282287 -3.0000291417
26.0521716350 -13.5436781166 -3.0000286231
25.9641978104 -13.2482561176 -3.0000283316
26.1925521955 -13.9443763038 -3.0000290185
26.0342260872 -13.2264908737 -3.0000283101
26.3724468697 -14.7969375986 -3.0000298597
26.3543221469 -15.3635436283 -3.0000304188
26.3084311170 -15.5528880570 -3.0000306057
25.5860715021 -16.2976557771 -3.0000313406
23.3859295670 -18.4742567660 -3.0000334883
23.4866180742 -18.5193665126 -3.0000335328
24.2371240683 -18.5989673652 -3.0000336114
23.3227785152 -18.5097803462 -3.0000335234
24.1542492007 -18.6447067265 -3.0000336565
24.3314593769 -18.6484924384 -3.0000336603
24.4684619809 -18.6709302762 -3.0000336824
24.5643407879 -18.6673039349 -3.0000336788
24.5780309113 -18.6666238416 -3.0000336782
24.5379756040 -18.6926940783 -3.0000337039
23.3418530910 -18.6131063795 -3.0000336253
23.3775339696 -18.6454563660 -3.0000336573
24.2894897205 -18.7449099961 -3.0000337554
24.8896875203 -18.7374709859 -3.0000337481
23.4503812011 -18.7093253163 -3.0000337203
23.9216940016 -18.7992573079 -3.0000338090
25.0633969639 -18.7628386288 -3.0000337731
25.1610512613 -18.7468739688 -3.0000337573
24.4304950439 -18.8410585181 -3.0000338503
25.0248885522 -18.7929878758 -3.0000338028
25.2071559704 -18.7631905456 -3.0000337734
25.2908638012 -18.7470787915 -3.0000337575
26.0012961347 -13.7462593102 -3.0000288230
25.9935529527 -13.6641855535 -3.0000287420
25.9876284803 -13.6211992342 -3.0000286996
25.9772039447 -13.5613527656 -3.0000286405
26.0214312957 -13.6963117767 -3.0000287737
26.0195923047 -13.6787642498 -3.0000287564
26.0164448408 -13.6524868292 -3.0000287304
26.0115237116 -13.6175450310 -3.0000286960
26.0034099809 -13.5697101572 -3.0000286488
26.0401880050 -14.0382960211 -3.0000291111
26.0423942173 -14.0205026150 -3.0000290936
26.0453083956 -13.9937666743 -3.0000290672
26.0469873576 -13.9759157988 -3.0000290496
26.0503638808 -13.7564944062 -3.0000288331
26.0392484270 -13.6405110833 -3.0000287186
26.0538533134 -14.1089339917 -3.0000291808
26.0753451239 -13.9144299392 -3.0000289889
26.0438381742 -13.5251184457 -3.0000286048
26.0822150413 -14.0857340930 -3.0000291579
26.0840189989 -14.2978071353 -3.0000293672
26.1133999382 -14.1823006423 -3.0000292532
26.1395097130 -14.0223579803 -3.0000290954
26.1493686188 -13.8653700786 -3.0000289405
26.1317619153 -14.2110085823 -3.0000292816
26.1700095869 -13.9527441144 -3.0000290267
26.1602949052 -13.6339603851 -3.0000287122
26.1954387507 -13.7531227960 -3.0000288297
26.1325259316 -14.3847706014 -3.0000294530
26.2384235772 -13.6799470983 -3.0000287575
26.2202005094 -14.3486972434 -3.0000294174
26.3005866592 -13.5893304305 -3.0000286681
25.7726434530 -15.3210793948 -3.0000303769
25.8327033802 -15.3652951765 -3.0000304206
25.7438616457 -15.9568194588 -3.0000310042
25.5719104202 -16.0993622680 -3.0000311449
25.8247776935 -15.9652953822 -3.0000310126
26.2228726019 -15.6653121773 -3.0000307166
25.7862387017 -16.0161202483 -3.0000310628
23.9922663519 -18.7120031347 -3.0000337229
23.0573800514 -18.5641956107 -3.0000335771
23.2117659737 -18.6098530581 -3.0000336221
23.9432707849 -18.7549682241 -3.0000337653
24.1745752201 -18.8016938004 -3.0000338114
22.8886049654 -18.5591765078 -3.0000335721
22.8666151052 -18.5770727546 -3.0000335898
23.1209435698 -18.6592946641 -3.0000336709
23.1858568085 -18.7030092692 -3.0000337141
23.1240519138 -18.8111786659 -3.0000338208
22.4864406442 -18.7150588040 -3.0000337259
25.9675840000 -13.6775129385 -3.0000287551
25.9674033286 -13.6633028376 -3.0000287411
25.9645106426 -13.5994248603 -3.0000286781
25.9639793835 -13.5923390922 -3.0000286711
25.9909199380 -13.7317028538 -3.0000288086
26.0355430491 -13.7936781679 -3.0000288698
25.8432396934 -15.3696439534 -3.0000304248
21.7475174789 -18.4886363896 -3.0000335025
25.9434551140 -13.7240404144 -3.0000288010
25.9577439834 -13.7781045548 -3.0000288544
25.9668509008 -13.7307353631 -3.0000288076
25.9967234259 -13.8232251150 -3.0000288989
26.0185426910 -13.9865969404 -3.0000290601
26.3835727709 -13.7138014931 -3.0000287909
26.3882184131 -13.6572485641 -3.0000287351
26.4518090949 -13.7551529145 -3.0000288317
25.7194046693 -15.4201159082 -3.0000304747
25.9351034952 -13.6908045944 -3.0000287682
25.9396998320 -13.6735913645 -3.0000287513
25.9420548454 -13.6639774401 -3.0000287418
25.9429569922 -13.6601222939 -3.0000287380
25.9610775483 -13.6874584847 -3.0000287649
25.9567741499 -13.8880127591 -3.0000289628
26.3574218577 -13.7960438687 -3.0000288721
26.3583430555 -13.8757327383 -3.0000289507
26.3873895422 -13.7764428985 -3.0000288528
26.3720526346 -13.9092716992 -3.0000289838
26.4092445421 -13.7887808967 -3.0000288649
26.3658494559 -13.9885764077 -3.0000290621
26.3947257886 -13.9176540240 -3.0000289921
26.3735165465 -14.0831842557 -3.0000291554
26.4186840152 -13.9883139417 -3.0000290618
25.5734853705 -15.7564983887 -3.0000308066
33.1031743828 -15.3133664858 -3.0000303693
33.1158865321 -15.3651325057 -3.0000304204
33.1213413923 -15.3419766650 -3.0000303975
33.1165510553 -15.5620428287 -3.0000306147
19.2506185500 -18.9642024824 -3.0000339718
19.4138749577 -19.1746073890 -3.0000341794
19.3629586744 -19.1564106673 -3.0000341615
19.4301897420 -19.2261575238 -3.0000342303
19.4982413802 -19.2951039883 -3.0000342983
19.3622355335 -19.1906464765 -3.0000341952
19.5328617267 -19.3635162719 -3.0000343658
33.5624451601 -15.5747009805 -3.0000306272
33.5804463424 -15.5012143457 -3.0000305547
26.3454845335 -13.8708059790 -3.0000289459
25.5642210309 -15.4469316770 -3.0000305011
25.4649190235 -15.4684004743 -3.0000305223
25.5641704022 -15.4711046520 -3.0000305250
25.6761807410 -15.8796101022 -3.0000309281
25.3628597787 -16.0914876173 -3.0000311371
19.0886752592 -16.8950625859 -3.0000319301
19.0440961928 -17.1178281536 -3.0000321499
19.0524929341 -17.4219402656 -3.0000324500
19.0207815748 -17.6011636646 -3.0000326268
19.0329524000 -17.6205144665 -3.0000326459
33.4727211087 -16.8796316798 -3.0000319148
33.4848736612 -16.9125767289 -3.0000319473
33.4763556612 -16.9924710601 -3.0000320262
33.5326668312 -17.3318062465 -3.0000323610
33.5416883131 -17.4236959465 -3.0000324517
33.5516899490 -17.4580103193 -3.0000324856
33.5536596026 -17.6672271239 -3.0000326920
26.3366739092 -14.3131132387 -3.0000293823
26.3290793407 -14.4234798447 -3.0000294912
26.3274896394 -14.5494062830 -3.0000296155
25.5592635244 -15.6112334002 -3.0000306632
25.5744220700 -15.6108469085 -3.0000306629
25.4214420668 -15.8264747148 -3.0000308756
25.2467366482 -16.2967072279 -3.0000313396
25.2872543742 -16.3981827254 -3.0000314398
24.6797623368 -16.2887647136 -3.0000313318
25.8407614838 -16.4378656592 -3.0000314789
24.4723964308 -16.2580066476 -3.0000313014
24.2042411977 -16.2862013196 -3.0000313293
24.5849757780 -16.4601650216 -3.0000315009
24.6686693441 -16.4893387621 -3.0000315297
19.0462307456 -16.8678613183 -3.0000319032
19.0406371676 -17.0818046555 -3.0000321143
19.0305969775 -17.3285554658 -3.0000323578
18.9823601689 -17.7863455905 -3.0000328095
33.4512828257 -17.8128419645 -3.0000328357
33.4628142733 -17.7893724280 -3.0000328125
25.9286984014 -14.2356098063 -3.0000293058
25.9399640067 -14.2069818001 -3.0000292776
25.9434355700 -14.1973315330 -3.0000292681
25.9678052724 -14.4599327706 -3.0000295272
26.3614601132 -14.3194610682 -3.0000293886
26.3645417752 -14.3099320905 -3.0000293792
26.3561628531 -14.4037827102 -3.0000294718
26.3624996526 -14.3879551745 -3.0000294562
26.3721496142 -14.3624412211 -3.0000294310
26.3689913764 -14.4934159808 -3.0000295602
25.1364815848 -16.3964938987 -3.0000314381
25.4416447068 -16.4449586888 -3.0000314859
19.1975388201 -17.9765880047 -3.0000329973
19.1775272780 -18.1205940016 -3.0000331394
19.1398497994 -18.3624446526 -3.0000333780
19.1463766389 -18.4129215468 -3.0000334278
19.4971681706 -19.3707594137 -3.0000343730
25.9407627019 -14.2499250731 -3.0000293200
25.9416371096 -14.2448971139 -3.0000293150
25.9455621365 -14.2196845647 -3.0000292901
25.9526682805 -14.3105980798 -3.0000293798
25.9539014417 -14.3054986214 -3.0000293748
25.9556945609 -14.2978359773 -3.0000293672
25.9579794727 -14.2875949389 -3.0000293571
25.9616859190 -14.2696106558 -3.0000293394
25.9626764270 -14.2644585633 -3.0000293343
25.9645659130 -14.2541372489 -3.0000293241
25.9687542087 -14.2282424795 -3.0000292986
25.9705606584 -14.2152514682 -3.0000292857
25.9453166125 -14.4167590639 -3.0000294846
25.9617838793 -14.3682866726 -3.0000294368
25.9625748446 -14.3657106373 -3.0000294342
25.9707708146 -14.3372255392 -3.0000294061
25.9892925398 -14.2530396625 -3.0000293230
25.9910450487 -14.2424042132 -3.0000293125
25.9620612315 -14.4406818611 -3.0000295082
25.9587154635 -14.5094142280 -3.0000295760
25.9635036560 -14.4991226331 -3.0000295659
26.0166990028 -14.3525744686 -3.0000294213
25.9936439894 -14.6001321846 -3.0000296655
26.0203360974 -14.5486553908 -3.0000296147
26.0162937491 -14.6091243094 -3.0000296744
26.3685459844 -14.3295233790 -3.0000293985
26.3736286945 -14.2992366944 -3.0000293686
26.3815250252 -14.3874689969 -3.0000294557
26.3894745214 -14.3491832696 -3.0000294179
26.3923366310 -14.3338059506 -3.0000294027
26.3998285726 -14.2874858924 -3.0000293570
26.4003785980 -14.2836143953 -3.0000293532
26.4034380337 -14.2603527863 -3.0000293303
26.3821505981 -14.4813712999 -3.0000295483
26.4243163065 -14.2869791232 -3.0000293565
26.4480680907 -14.5139947143 -3.0000295805
26.4749769093 -14.4126189348 -3.0000294805
25.5643893432 -16.4624018391 -3.0000315031
25.2134203432 -16.5545998542 -3.0000315941
25.2787300140 -16.5504806295 -3.0000315900
25.5353511424 -16.5417745715 -3.0000315815
25.7358796969 -16.4966688714 -3.0000315369
25.1955731135 -16.6521979977 -3.0000316904
25.4538708772 -16.7017136721 -3.0000317393
24.7300749619 -16.7262858145 -3.0000317635
25.0577665527 -16.7991533907 -3.0000318354
22.2259402444 -18.8269860155 -3.0000338364
22.2820772690 -18.8605600950 -3.0000338695
25.9417013272 -14.1887106777 -3.0000292596
25.9417358611 -14.1469829399 -3.0000292184
25.9405508791 -14.1142173730 -3.0000291861
25.9568657369 -14.3048064686 -3.0000293741
25.9572688805 -14.3017809354 -3.0000293711
25.9608074225 -14.2714651132 -3.0000293412
25.9632242081 -14.2441019704 -3.0000293142
25.9644303287 -14.2258283213 -3.0000292962
25.9659821461 -14.1831277132 -3.0000292540
25.9660253020 -14.1800757444 -3.0000292510
25.9657647100 -14.1403994698 -3.0000292119
25.9613735890 -14.4124018993 -3.0000294803
25.9668926967 -14.3880292973 -3.0000294562
25.9706526875 -14.3696678690 -3.0000294381
25.9766972945 -14.3358436286 -3.0000294047
25.9842054318 -14.2801257665 -3.0000293498
25.9893390136 -14.2116067005 -3.0000292822
25.9902734529 -14.1710107727 -3.0000292421
25.9718324030 -14.4674446968 -3.0000295346
25.9810574857 -14.4335303141 -3.0000295011
25.9833814569 -14.4242304457 -3.0000294920
25.9877813550 -14.4055706699 -3.0000294735
25.9891743042 -14.3993337534 -3.0000294674
25.9955842594 -14.3680315670 -3.0000294365
26.0106765505 -14.2572698075 -3.0000293272
25.9884642807 -14.4960659859 -3.0000295628
25.9903926187 -14.4898234452 -3.0000295567
26.0113574676 -14.4109094148 -3.0000294788
26.0148469764 -14.3949526605 -3.0000294631
26.0187222909 -14.3757390406 -3.0000294441
26.0199382047 -14.3693195892 -3.0000294378
26.0249389721 -14.3403476756 -3.0000294092
26.0311803224 -14.2950436471 -3.0000293645
26.0384088673 -14.1450608568 -3.0000292165
25.9837497530 -14.5819437660 -3.0000296476
26.0270802812 -14.4486931068 -3.0000295161
25.9998437871 -14.6066396689 -3.0000296720
26.0099484239 -14.5813023467 -3.0000296469
26.0635398346 -14.3982546759 -3.0000294663
26.0715954545 -14.3546679550 -3.0000294233
26.0817219496 -14.2769139542 -3.0000293466
26.0850989483 -14.2327179008 -3.0000293030
26.0862127028 -14.2088756112 -3.0000292795
26.0868081094 -14.1475090532 -3.0000292189
26.0140520428 -14.6350965480 -3.0000297000
26.0512887194 -14.5375571559 -3.0000296038
26.0523799686 -14.5342512841 -3.0000296005
26.0170499590 -14.6867238452 -3.0000297510
26.0973039537 -14.4667943043 -3.0000295340
26.0226781649 -14.7296217785 -3.0000297933
26.0612728002 -14.6476667942 -3.0000297124
26.1280102699 -14.5357530199 -3.0000296020
