54.1626596299 -18.4918892871 -2.7400337537
53.9992756741 -18.5120760784 -2.7400337736
54.0620482422 -18.5143521155 -2.7400337759
54.0997255249 -18.5152719951 -2.7400337768
54.1374094874 -18.5158574737 -2.7400337773
54.1876600316 -18.5161178566 -2.7400337776
54.2253480378 -18.5159229325 -2.7400337774
54.2379101390 -18.5157836335 -2.7400337773
54.2504717730 -18.5156071742 -2.7400337771
54.3383809016 -18.5133316397 -2.7400337748
54.4136805096 -18.5099327570 -2.7400337715
53.9855996201 -18.5356562600 -2.7400337969
54.3140018219 -18.5383294579 -2.7400337995
54.3392565700 -18.5374888019 -2.7400337987
54.0479537430 -18.5622927946 -2.7400338232
54.1749896661 -18.5644544417 -2.7400338253
54.3147345530 -18.5624913781 -2.7400338234
54.4416596302 -18.5567622189 -2.7400338177
54.5936629811 -18.5449357556 -2.7400338060
54.6063092958 -18.5437067875 -2.7400338048
54.6189519198 -18.5424404146 -2.7400338036
54.0727291784 -18.5871906766 -2.7400338477
54.1877133131 -18.5886369210 -2.7400338492
54.6722125384 -18.5610195647 -2.7400338219
54.2262771650 -18.6126105803 -2.7400338728
54.2776663157 -18.6118126662 -2.7400338720
54.2523482074 -18.6364577474 -2.7400338963
54.3046789563 -18.6595136613 -2.7400339191
54.0832857410 -18.6841692318 -2.7400339434
54.2802577098 -18.7326500227 -2.7400339913
54.2934606886 -18.7323473428 -2.7400339910
55.2087197884 -18.6146090529 -2.7400338748
53.9476738488 -18.7758016567 -2.7400340338
54.0410354330 -18.7797400177 -2.7400340377
55.3492733651 -18.6291232151 -2.7400338891
54.1073510170 -18.8055386630 -2.7400340632
54.6300463234 -18.7842687997 -2.7400340422
54.0251728532 -18.8517710395 -2.7400341088
55.1993666739 -18.8151617618 -2.7400340727
55.2664907260 -18.7996548365 -2.7400340574
54.0070596159 -18.9720587121 -2.7400342275
54.6466622428 -18.9526622083 -2.7400342084
55.0325536027 -18.8983724070 -2.7400341548
54.0760803963 -18.9983359800 -2.7400342534
54.3558942691 -18.9964748843 -2.7400342516
55.5802250497 -18.7889910903 -2.7400340469
55.8712046989 -18.6886558864 -2.7400339479
55.1289091267 -18.9536814353 -2.7400342094
55.3001816318 -18.9407257160 -2.7400341966
55.4165804085 -18.9363902693 -2.7400341923
56.0367888542 -13.6814232273 -2.7400290069
56.0858175978 -13.8302288502 -2.7400291538
56.0215342534 -13.5254930240 -2.7400288531
55.9988292741 -13.4563661774 -2.7400287849
55.9970982267 -13.4514653908 -2.7400287800
56.1157715518 -13.8850056688 -2.7400292078
56.0903443364 -13.7024340574 -2.7400290277
56.0686705431 -13.6047102475 -2.7400289312
56.1365520026 -14.2294994365 -2.7400295478
56.1411690846 -13.8988820608 -2.7400292215
56.1170400098 -13.7136112641 -2.7400290387
56.1600114263 -14.2374300080 -2.7400295556
56.1627460495 -14.2105085432 -2.7400295290
56.1700382972 -14.0916880423 -2.7400294118
56.1641563559 -14.3756580840 -2.7400296920
56.1918143054 -14.1471646327 -2.7400294665
56.1949670100 -14.0375548187 -2.7400293584
56.1948191057 -14.0156212173 -2.7400293367
56.1939358405 -13.9772471680 -2.7400292989
56.1728440974 -13.7535512516 -2.7400290781
56.1467402192 -13.6190023873 -2.7400289454
56.1562699581 -14.5209301613 -2.7400298353
56.2083365331 -13.8379391356 -2.7400291614
56.1651208350 -13.5919124106 -2.7400289186
56.2218642619 -14.4558312193 -2.7400297711
56.1190771457 -13.2369533221 -2.7400285684
55.8167579983 -15.3512708591 -2.7400306547
56.2670745693 -13.6029978295 -2.7400289296
55.7908169709 -15.4152231848 -2.7400307178
56.3502304181 -14.2762329486 -2.7400295939
56.3549633423 -13.8462166474 -2.7400291696
56.1518296917 -13.1368511501 -2.7400284696
56.3288267549 -14.5291500577 -2.7400298434
56.0426065889 -15.2623068233 -2.7400305669
56.4332909762 -13.9196455726 -2.7400292420
56.1208870945 -15.4002060590 -2.7400307030
56.2031672093 -15.3282432301 -2.7400306320
56.2035648348 -15.3696933694 -2.7400306729
56.2112260299 -15.4003948068 -2.7400307031
53.3728079942 -18.4714105525 -2.7400337335
53.4121805123 -18.4798306425 -2.7400337418
53.4647904912 -18.4905132775 -2.7400337523
53.4911419613 -18.4956209651 -2.7400337574
53.5836003852 -18.5122682983 -2.7400337738
53.6233271922 -18.5188161151 -2.7400337803
53.6498433367 -18.5229853509 -2.7400337844
53.7561406460 -18.5380914034 -2.7400337993
53.3281422716 -18.4862105171 -2.7400337481
53.3544706767 -18.4921267367 -2.7400337539
53.4072301887 -18.5034913605 -2.7400337651
53.4998695654 -18.5218744682 -2.7400337833
53.6195018790 -18.5426845516 -2.7400338038
53.6594971994 -18.5489125651 -2.7400338100
53.8065820999 -18.5687064125 -2.7400338295
53.8199838716 -18.5702683209 -2.7400338310
54.1022939190 -18.5938908821 -2.7400338543
54.2236298546 -18.5986385933 -2.7400338590
53.5220872563 -18.5505581804 -2.7400338116
53.5621562868 -18.5576503839 -2.7400338186
53.7499053061 -18.5860336777 -2.7400338466
53.9927418282 -18.6110634161 -2.7400338713
53.5177685478 -18.5743422936 -2.7400338351
54.3041830430 -18.6483529444 -2.7400339081
54.1258746246 -18.6676657579 -2.7400339271
54.4684562588 -18.6709295791 -2.7400339304
54.7030060115 -18.6827808862 -2.7400339421
54.7442019414 -18.6793878915 -2.7400339387
53.5457264156 -18.6529363947 -2.7400339126
53.9853920072 -18.7074757838 -2.7400339664
54.8014558426 -18.6983514426 -2.7400339574
53.4867998575 -18.6669712940 -2.7400339265
53.3178610856 -18.6573301466 -2.7400339169
53.4227603798 -18.7039720033 -2.7400339630
54.0359990780 -18.7837294162 -2.7400340417
54.9204139068 -18.7581365432 -2.7400340164
53.3903671797 -18.7221456926 -2.7400339809
53.9357715567 -18.8004770055 -2.7400340582
55.0141868084 -18.8189255908 -2.7400340764
55.1168777723 -18.8278298026 -2.7400340852
53.2724055671 -18.7957919639 -2.7400340536
55.4180148265 -18.7940179693 -2.7400340518
53.4231978242 -18.8517937219 -2.7400341088
54.1997173800 -18.9607161423 -2.7400342163
54.3744789406 -18.9626396350 -2.7400342182
54.4472965490 -18.9616100247 -2.7400342172
55.5621053005 -18.8339465073 -2.7400340912
55.7455502802 -18.7834643393 -2.7400340414
55.8087241052 -18.7896124094 -2.7400340475
53.2446419034 -18.9877369666 -2.7400342430
56.0040577233 -13.8069468755 -2.7400291308
56.0023511251 -13.7635877872 -2.7400290880
55.9982167551 -13.7073304609 -2.7400290325
55.9869795032 -13.6169128190 -2.7400289433
55.9804485219 -13.5784091172 -2.7400289053
55.9898599796 -13.5049590149 -2.7400288328
55.9868032763 -13.4920841420 -2.7400288201
55.9780947473 -13.4578889918 -2.7400287864
56.0398540638 -13.6449563835 -2.7400289710
56.0123812743 -13.4951153216 -2.7400288231
56.0554137679 -14.0999606309 -2.7400294199
56.0583485340 -14.0819829079 -2.7400294022
56.0658737805 -14.0278590283 -2.7400293488
56.0674545282 -14.0142889844 -2.7400293354
56.0689147871 -14.0007054467 -2.7400293220
56.0768296933 -13.8188258661 -2.7400291425
56.0699974946 -13.6960919344 -2.7400290214
56.0438515257 -13.5251206096 -2.7400288527
56.0316224350 -13.4718620608 -2.7400288002
56.0212143058 -13.4322213452 -2.7400287610
56.0641764461 -14.1811628004 -2.7400295001
56.0680714206 -14.1630757086 -2.7400294822
56.0699385829 -14.1540151963 -2.7400294733
56.0989016136 -13.7583563736 -2.7400290829
56.0712164449 -13.5382552248 -2.7400288657
56.1030813192 -14.1080319186 -2.7400294279
56.1183880643 -13.9916366870 -2.7400293130
56.1211277568 -13.9588728602 -2.7400292807
56.1071179884 -13.6029303817 -2.7400289295
56.0967293744 -13.5427638744 -2.7400288701
56.1493398696 -13.8176892591 -2.7400291414
56.1386576699 -13.6559819121 -2.7400289818
56.1248008242 -13.5616385338 -2.7400288887
56.1698265156 -13.7302789106 -2.7400290552
56.1143283053 -14.3630251286 -2.7400296795
56.2159890970 -13.9858017645 -2.7400293073
56.2634727681 -14.1720880361 -2.7400294911
55.7316277691 -15.1970261176 -2.7400305025
56.2927581449 -14.4392001952 -2.7400297547
55.7451524982 -15.4356489761 -2.7400307379
55.7115446970 -15.4903551446 -2.7400307919
55.7405981575 -15.4692598994 -2.7400307711
55.9766980494 -15.3991058620 -2.7400307019
56.0636199050 -15.4833348929 -2.7400307850
56.2215563718 -15.9839702356 -2.7400312790
55.9522314117 -16.2551770782 -2.7400315466
55.8626802443 -16.3875595808 -2.7400316772
53.4778204790 -18.6264594307 -2.7400338865
53.8628562624 -18.6957636204 -2.7400339549
54.2217104676 -18.7564755621 -2.7400340148
53.5676164221 -18.6947850266 -2.7400339539
54.0014470023 -18.7616584850 -2.7400340199
53.3761488959 -18.6774099921 -2.7400339368
54.4537237257 -18.8142568449 -2.7400340718
53.3417813321 -18.6939244189 -2.7400339531
53.8788300339 -18.7955185262 -2.7400340533
54.2613177576 -18.8314933635 -2.7400340888
54.5272102261 -18.8391262868 -2.7400340963
54.6454389192 -18.8379726357 -2.7400340952
52.5759482038 -18.4642072378 -2.7400337264
52.6033234227 -18.4757320223 -2.7400337377
52.6769353961 -18.5318004360 -2.7400337931
52.7325462637 -18.5534881829 -2.7400338145
54.0181716372 -18.8849732095 -2.7400341416
54.7980778617 -18.9291625580 -2.7400341852
54.8281650214 -18.9275323397 -2.7400341836
54.0433414373 -18.9360779708 -2.7400341920
54.4361429775 -18.9589967040 -2.7400342146
53.6752252155 -18.9358553697 -2.7400341918
53.7773214972 -18.9765314684 -2.7400342319
52.8058014263 -18.9907633437 -2.7400342460
52.8210371551 -18.9958637299 -2.7400342510
55.9664684039 -13.7378948288 -2.7400290627
55.9676036495 -13.6846187985 -2.7400290101
55.9666749952 -13.6384441519 -2.7400289645
55.9652212756 -13.6100593521 -2.7400289365
55.9624602837 -13.5746397647 -2.7400289016
55.9911631883 -13.7244587810 -2.7400290494
55.9914591351 -13.7135898210 -2.7400290387
55.9917766681 -13.6845975054 -2.7400290101
55.9858382760 -13.5651892976 -2.7400288923
55.9965161983 -13.9051819218 -2.7400292277
56.0064555569 -13.8394112722 -2.7400291628
56.0120545312 -13.7842615594 -2.7400291084
56.0131338424 -13.7695176992 -2.7400290939
56.0131466530 -13.9464132277 -2.7400292684
56.0323793410 -13.5454475928 -2.7400288728
56.0060079765 -14.0702348721 -2.7400293906
56.0292847987 -13.9850820704 -2.7400293066
56.0611076368 -13.7765918804 -2.7400291009
56.0613709162 -13.7727620543 -2.7400290971
56.0559770422 -13.5389710080 -2.7400288664
56.0131013108 -14.1256481798 -2.7400294453
56.0879248444 -13.7236108696 -2.7400290486
56.0277446804 -14.1561512258 -2.7400294754
56.0345652298 -14.1374467436 -2.7400294569
56.0521825094 -14.0845615479 -2.7400294047
56.0773842675 -14.2884459697 -2.7400296059
56.1642810005 -14.0434079025 -2.7400293641
56.1701661613 -14.1120816504 -2.7400294319
56.0821028216 -14.3876582475 -2.7400297038
55.6581931523 -15.5014863932 -2.7400308029
55.6796162379 -15.4908093691 -2.7400307924
55.6306070359 -15.5414728635 -2.7400308424
55.8818004075 -15.4881670814 -2.7400307898
56.1117444096 -15.3548926912 -2.7400306582
55.7887204439 -15.7065170427 -2.7400310052
56.0559829978 -15.5767294129 -2.7400308771
56.2006539256 -16.1145231050 -2.7400314078
55.7258595489 -16.6955413194 -2.7400319811
53.9303328980 -18.9053721433 -2.7400341617
53.4042543937 -18.8183900346 -2.7400340759
53.6744103530 -18.9072826707 -2.7400341636
53.6229557104 -18.9210007361 -2.7400341771
53.3826507869 -18.9626913670 -2.7400342183
52.3056644085 -18.6086700010 -2.7400338689
51.8620089835 -18.5587329767 -2.7400338196
52.2539045148 -18.8257692603 -2.7400340831
55.9443590064 -13.7185778724 -2.7400290436
55.9515920592 -13.6609482680 -2.7400289867
55.9519902459 -13.8029805993 -2.7400291269
55.9571628424 -13.7808762773 -2.7400291051
55.9589674874 -13.7725565289 -2.7400290969
55.9612586949 -13.7614392414 -2.7400290859
55.9634181971 -13.7502956217 -2.7400290749
55.9649512096 -13.7419215647 -2.7400290666
55.9659319054 -13.7363314443 -2.7400290611
55.9707333832 -13.7054890746 -2.7400290307
55.9748238996 -13.6716844470 -2.7400289973
55.9751105644 -13.6688612142 -2.7400289945
55.9756588329 -13.6632122664 -2.7400289890
55.9768832058 -13.6490765708 -2.7400289750
55.9777120868 -13.6377559406 -2.7400289639
55.9784069589 -13.6264262953 -2.7400289527
55.9508396491 -13.8924697601 -2.7400292152
55.9632537158 -13.8536811580 -2.7400291769
55.9997256065 -13.6654762648 -2.7400289912
55.9687649159 -13.9143743637 -2.7400292368
55.9727334921 -13.9031312205 -2.7400292257
55.9715509571 -13.9737348530 -2.7400292954
55.9750665471 -13.9652798236 -2.7400292870
55.9840732127 -13.9425839946 -2.7400292646
55.9915115863 -13.9225550893 -2.7400292449
56.0069454732 -13.8762264379 -2.7400291992
55.9773568929 -14.0202298308 -2.7400293413
55.9986101805 -13.9715700741 -2.7400292932
56.0110476819 -13.9395400090 -2.7400292616
56.0263155321 -13.8952445517 -2.7400292179
55.9933466111 -14.1454248865 -2.7400294648
55.9999060948 -14.2259770827 -2.7400295443
55.5198900828 -15.5586149832 -2.7400308593
55.5374883807 -15.5541057803 -2.7400308548
55.5433455018 -15.5525680287 -2.7400308533
55.6421749865 -15.5237879045 -2.7400308249
55.4900559547 -15.5907078899 -2.7400308909
55.5138932004 -15.5850117000 -2.7400308853
55.5731768622 -15.5695408279 -2.7400308701
55.5790794868 -15.5678974358 -2.7400308684
55.6143907966 -15.5576710663 -2.7400308583
55.6844411672 -15.5353464438 -2.7400308363
55.4349628714 -15.6274066470 -2.7400309272
55.9773682617 -15.4375978725 -2.7400307399
55.9604091638 -15.4732120037 -2.7400307750
55.6572769057 -15.7718329260 -2.7400310697
55.6967904421 -15.7852925037 -2.7400310829
55.7807987377 -15.9108699110 -2.7400312069
55.8015128263 -15.9040314189 -2.7400312001
55.6089439324 -16.2824793795 -2.7400315735
55.8075045231 -16.2316023008 -2.7400315233
55.8539384377 -16.2427474472 -2.7400315343
55.4505835170 -16.3854658115 -2.7400316752
55.6325556524 -16.3515483143 -2.7400316417
55.3280108484 -16.4258055203 -2.7400317150
55.4785986627 -16.4544923657 -2.7400317433
55.0933336192 -16.5381237913 -2.7400318258
55.4375042349 -16.5339779697 -2.7400318217
54.8794716167 -16.6082561726 -2.7400318950
55.7822715552 -16.5644217194 -2.7400318518
51.8260160063 -18.7227209391 -2.7400339815
51.8871691905 -18.7601601122 -2.7400340184
52.0732264878 -18.8680998895 -2.7400341249
50.9694586322 -18.5880008926 -2.7400338485
55.9334621175 -13.6965156019 -2.7400290218
55.9543342111 -13.7111326974 -2.7400290363
55.9566727690 -13.7032684486 -2.7400290285
55.9578071114 -13.6993260851 -2.7400290246
55.9346078314 -13.8266177997 -2.7400291502
55.5675742700 -15.5622522656 -2.7400308629
55.5339026721 -15.5908494449 -2.7400308911
55.6449563009 -16.2591302925 -2.7400315505
55.5433087776 -16.3188620913 -2.7400316094
49.7115850928 -19.5998352694 -2.7400348470
49.7701459180 -19.7178168549 -2.7400349634
49.9441150107 -19.9312976933 -2.7400351740
50.0244889375 -20.0284797826 -2.7400352699
55.4995648589 -15.3247775266 -2.7400306285
55.7032191070 -15.5391780418 -2.7400308401
55.7213409414 -15.5379004969 -2.7400308388
55.3720665704 -15.5827623283 -2.7400308831
55.4338573532 -15.5876544312 -2.7400308879
55.4524199953 -15.5887654119 -2.7400308890
55.4709917659 -15.5897116158 -2.7400308900
55.5296796039 -15.7850313708 -2.7400310827
55.4735776158 -15.8317823984 -2.7400311288
55.5150385990 -15.8330961677 -2.7400311301
55.5288633023 -15.8333705348 -2.7400311304
55.4337491000 -16.2171457417 -2.7400315091
55.8842217804 -16.2020926475 -2.7400314942
55.1817754196 -16.2173231106 -2.7400315093
55.2704983690 -16.2284589082 -2.7400315202
55.9836981691 -16.2130720532 -2.7400315051
55.1216275149 -16.2325931437 -2.7400315243
55.2434330427 -16.2497147383 -2.7400315412
55.2923478143 -16.2550473256 -2.7400315465
55.4149813279 -16.2645739702 -2.7400315559
55.2323861856 -16.2727395708 -2.7400315639
55.0153262350 -16.2624235981 -2.7400315538
55.8041147486 -16.3072915352 -2.7400315980
55.8788544973 -16.3000185960 -2.7400315909
54.7574745211 -16.2233311301 -2.7400315152
54.7817050724 -16.2304195969 -2.7400315222
54.9119342122 -16.2645755188 -2.7400315559
54.7450799254 -16.2952895605 -2.7400315862
55.7968723532 -16.4291371095 -2.7400317183
54.4081897071 -16.2521153894 -2.7400315436
55.0036637023 -16.4571823787 -2.7400317459
54.4038260493 -16.3810493486 -2.7400316708
54.0415826950 -16.3172518462 -2.7400316079
54.7051586301 -16.6357716756 -2.7400319222
53.2673149589 -16.1624905388 -2.7400314551
52.5686027592 -16.6378523449 -2.7400319242
49.0969419044 -17.0635055756 -2.7400323442
49.0641525187 -17.4411973466 -2.7400327169
49.0541810596 -17.7431251949 -2.7400330148
59.8778159451 -22.1437710522 -2.7400373572
59.8017542092 -22.3155253785 -2.7400375267
60.3915239363 -22.0073078665 -2.7400372225
60.4789667671 -21.9850935490 -2.7400372006
59.7964406869 -22.3716562036 -2.7400375821
60.6908676030 -22.0567335702 -2.7400372713
55.4855487847 -15.7562662816 -2.7400310543
55.3587474693 -15.9676617752 -2.7400312629
55.3831894877 -15.9694641622 -2.7400312647
54.9806200025 -16.6955054805 -2.7400319811
55.1687415767 -16.7499258293 -2.7400320348
55.0218893544 -16.7523114818 -2.7400320372
54.2144476217 -16.5371999143 -2.7400318249
49.0509043019 -16.9354810532 -2.7400322179
49.0595539187 -17.1201028433 -2.7400324001
49.0452702636 -17.1992635226 -2.7400324782
49.0295706072 -17.5786326679 -2.7400328525
59.8669429049 -22.6951382167 -2.7400379013
59.7779691520 -22.8457346433 -2.7400380499
59.8571637086 -22.8076245872 -2.7400380123
59.8253044686 -22.8767046783 -2.7400380804
55.9301764474 -14.2318222763 -2.7400295501
55.9492259794 -14.1798360033 -2.7400294988
55.9498513611 -14.1778825071 -2.7400294968
55.9361069890 -14.2778713606 -2.7400295955
55.9492398421 -14.2488688095 -2.7400295669
55.9533299015 -14.2390753288 -2.7400295572
55.9557142506 -14.2331705800 -2.7400295514
55.9735255141 -14.1831951038 -2.7400295021
55.9409257494 -14.3215388539 -2.7400296386
55.9540574132 -14.2962190241 -2.7400296136
55.9616509338 -14.2803935363 -2.7400295980
55.9381695581 -14.3741542560 -2.7400296905
55.9623497570 -14.3810325546 -2.7400296973
55.6050302218 -15.6220516352 -2.7400309219
55.6343512750 -15.6408735573 -2.7400309404
55.4839040090 -16.7328689169 -2.7400320180
55.4030086466 -16.7615717793 -2.7400320463
55.3040239298 -16.8121971381 -2.7400320962
55.5691484082 -16.8470027925 -2.7400321306
54.5530148255 -16.7903465003 -2.7400320747
55.0466074786 -16.9716707539 -2.7400322536
53.9749628404 -16.8135387987 -2.7400320976
52.7240002128 -17.3520322378 -2.7400326289
52.7150958439 -17.4058517686 -2.7400326820
49.2197346018 -18.2244155670 -2.7400334898
49.1985388049 -18.4026147975 -2.7400336656
49.5291400487 -19.4049331028 -2.7400346546
49.3998696459 -19.3007273991 -2.7400345518
49.4633877223 -19.3700389672 -2.7400346202
49.5601914266 -19.4725850138 -2.7400347214
49.5928619077 -19.5063832219 -2.7400347547
49.6748152333 -19.6575565624 -2.7400349039
49.6578372407 -19.6747636264 -2.7400349209
49.8475852121 -19.8888271256 -2.7400351321
49.9018857588 -19.9707910230 -2.7400352130
49.8679523622 -19.9727714371 -2.7400352150
49.9934596455 -20.0837346891 -2.7400353245
49.9436357566 -20.1044980592 -2.7400353449
49.9983090955 -20.1516950024 -2.7400353915
55.9501439816 -14.3207749199 -2.7400296378
55.9514373957 -14.3156904098 -2.7400296328
55.9533210573 -14.3080495191 -2.7400296253
55.9539338666 -14.3054988779 -2.7400296228
55.9574520328 -14.2901579786 -2.7400296076
55.9606973717 -14.2747570545 -2.7400295924
55.9622174082 -14.2670355987 -2.7400295848
55.9663655649 -14.2437945563 -2.7400295619
55.9667882394 -14.2412056082 -2.7400295593
55.9698935630 -14.2204513242 -2.7400295388
55.9712618288 -14.2100480777 -2.7400295286
55.9610177220 -14.3708606133 -2.7400296872
55.9618163042 -14.3682869291 -2.7400296847
55.9633906110 -14.3631325301 -2.7400296796
55.9649343951 -14.3579689071 -2.7400296745
55.9888671837 -14.2556954831 -2.7400295736
55.9934699784 -14.2264142771 -2.7400295447
56.0131526799 -14.2571111933 -2.7400295750
55.9623504547 -14.5017010888 -2.7400298164
55.9935989671 -14.4255971819 -2.7400297413
56.0645434805 -14.7173847583 -2.7400300292
55.6305492365 -15.4117411484 -2.7400307143
55.7284032086 -16.7480043393 -2.7400320329
55.4006869992 -16.8545745965 -2.7400321381
55.4414000532 -16.8496987204 -2.7400321333
55.6033977711 -16.8241915708 -2.7400321081
55.1889330807 -16.8943533144 -2.7400321773
55.2715518206 -16.8902456896 -2.7400321733
55.7614367421 -16.8145958779 -2.7400320986
55.5089109623 -16.9135958252 -2.7400321963
55.5195542244 -16.9853296283 -2.7400322671
54.8224307323 -17.1015869866 -2.7400323818
55.5689910808 -17.0755319083 -2.7400323561
55.6305074343 -17.0650049175 -2.7400323457
55.7807639322 -17.2072808228 -2.7400324861
52.9249251849 -17.4681689479 -2.7400327435
53.0711131976 -18.9584246840 -2.7400342140
52.5187598351 -18.9378024886 -2.7400341937
51.2638942319 -18.7664123810 -2.7400340246
55.9555930938 -14.3138759841 -2.7400296310
55.9591407166 -14.2866363657 -2.7400296041
55.9627405796 -14.2501883308 -2.7400295682
55.9902639161 -14.1710110292 -2.7400294900
55.9633130631 -14.1728203285 -2.7400294918
55.9907700805 -14.3691100319 -2.7400296855
55.9930879134 -14.3158723400 -2.7400296330
55.9932184042 -14.3087678825 -2.7400296260
55.9920507221 -14.2341795237 -2.7400295524
55.9764519586 -14.0894407604 -2.7400294096
55.9706862967 -14.0579903358 -2.7400293785
55.9656242518 -14.0336415756 -2.7400293545
56.0056063041 -14.4608077928 -2.7400297760
56.0161259302 -14.3489863028 -2.7400296657
56.0128537881 -14.0233114241 -2.7400293443
56.0501367744 -14.4898924335 -2.7400298047
56.0509623175 -14.0959089684 -2.7400294159
56.0695242835 -14.5201759478 -2.7400298346
56.0708621653 -14.5126156914 -2.7400298271
56.0781651094 -14.1150133010 -2.7400294348
56.1108379792 -14.3848470339 -2.7400297011
56.1140031702 -14.3145398185 -2.7400296317
56.1141236612 -14.3067200090 -2.7400296240
56.1142176466 -14.2949893004 -2.7400296124
56.1381721217 -14.3149837406 -2.7400296321
56.1866976270 -14.2787490605 -2.7400295964
56.0701826012 -14.9600764743 -2.7400302687
55.8843681318 -15.8179584133 -2.7400311152
56.4167698671 -16.5068484306 -2.7400317949
55.9104875952 -16.8797811577 -2.7400321629
56.1589373686 -17.1919364131 -2.7400324710
54.1149984256 -18.7274122239 -2.7400339861
54.0849694773 -18.7472013725 -2.7400340056
53.6348614447 -18.6770237384 -2.7400339364
53.6998699225 -18.6936635000 -2.7400339528
54.0149851902 -18.7600670765 -2.7400340183
54.1475310524 -18.7811038222 -2.7400340391
54.6017096004 -18.8231531244 -2.7400340806
53.8914978418 -18.7614862068 -2.7400340197
54.2511111143 -18.8191069207 -2.7400340766
54.6546283231 -18.8492534662 -2.7400341063
53.9666427563 -18.8005481585 -2.7400340583
54.8166452251 -18.8754416154 -2.7400341322
54.4061398195 -18.9077292590 -2.7400341640
54.7483671841 -18.9236433874 -2.7400341797
52.9532987368 -18.5695926790 -2.7400338304
53.0678684269 -18.6170324536 -2.7400338772
55.2434555322 -18.9261281128 -2.7400341822
52.7922541328 -18.5234839207 -2.7400337849
52.9310377555 -18.5863144228 -2.7400338469
54.7756077697 -18.9721682191 -2.7400342276
52.7567883137 -18.5333714532 -2.7400337946
52.8959123952 -18.5973505765 -2.7400338578
54.1648481262 -18.9543496080 -2.7400342100
54.4417296356 -18.9832923121 -2.7400342386
54.0508671666 -18.9620692162 -2.7400342176
52.7995038106 -18.6069081263 -2.7400338672
54.1723435616 -19.0041186706 -2.7400342591
54.2840623910 -19.0174699423 -2.7400342723
52.8733777517 -18.7193985846 -2.7400339782
52.8112327361 -18.7184478593 -2.7400339772
53.2215617589 -18.9821443278 -2.7400342375
52.5781704465 -18.7690237038 -2.7400340272
52.6047070430 -18.7820451072 -2.7400340400
52.6405959702 -18.8795700105 -2.7400341362
56.0422257990 -14.3882182688 -2.7400297044
56.0262482992 -14.2188372177 -2.7400295372
55.9916240575 -14.0605385399 -2.7400293810
55.9633210445 -13.9717294956 -2.7400292934
56.0501271382 -14.2150773868 -2.7400295335
56.0284316547 -14.1058688747 -2.7400294258
55.9746392838 -13.9326622207 -2.7400292549
56.0743867298 -14.6501710651 -2.7400299629
56.1067132306 -14.5904349578 -2.7400299039
56.1124102582 -14.7131683832 -2.7400300250
56.1594509178 -14.3182981611 -2.7400296354
56.0617368591 -13.8898118381 -2.7400292126
56.1816799903 -14.2941219699 -2.7400296115
56.1073046466 -13.9441793348 -2.7400292662
56.1643938423 -14.9759274010 -2.7400302843
56.0479443101 -15.7106540116 -2.7400310093
53.6256097558 -18.4977676934 -2.7400337595
53.6737915805 -18.5098726632 -2.7400337714
53.8191491250 -18.5427554502 -2.7400338039
54.2485772155 -18.6089570160 -2.7400338692
53.4751151044 -18.4812248722 -2.7400337432
53.6195810822 -18.5211768877 -2.7400337826
54.0478477036 -18.6081196854 -2.7400338684
54.1964564566 -18.6276650384 -2.7400338877
54.2461353243 -18.6330063912 -2.7400338929
54.3581205309 -18.6428728324 -2.7400339027
53.6744955874 -18.5598013583 -2.7400338207
54.0940118216 -18.6391683739 -2.7400338990
54.3187487576 -18.6640042655 -2.7400339235
54.4817195460 -18.6744834285 -2.7400339339
54.7580326934 -18.6779221093 -2.7400339373
53.4614037329 -18.5275858409 -2.7400337889
53.5586588159 -18.5551021257 -2.7400338161
53.7673291215 -18.6058898422 -2.7400338662
54.8973986717 -18.6970375340 -2.7400339561
53.4423692038 -18.5471448042 -2.7400338082
53.5769051406 -18.5849940939 -2.7400338456
53.8948984345 -18.6806914457 -2.7400339400
54.1474833655 -18.7192480980 -2.7400339780
54.8105819483 -18.7490972359 -2.7400340075
53.6018853397 -18.6414089265 -2.7400339012
54.1445440359 -18.7432417559 -2.7400340017
55.1984833021 -18.7678816799 -2.7400340260
55.2881493719 -18.7560652360 -2.7400340144
53.6404048890 -18.7007761590 -2.7400339598
55.1755892899 -18.7949305645 -2.7400340527
55.3814525896 -18.7662508928 -2.7400340244
53.5966721213 -18.7148915142 -2.7400339737
53.7621332402 -18.7530946826 -2.7400340114
54.9980617624 -18.8602267693 -2.7400341171
54.0085005755 -18.8710956779 -2.7400341279
54.1532763267 -18.8903547895 -2.7400341469
53.6193638149 -18.8448862128 -2.7400341020
54.9381887023 -18.9610810982 -2.7400342167
53.4309787924 -18.8207514600 -2.7400340782
53.4569660871 -18.8280210599 -2.7400340854
55.4353780965 -18.9288105437 -2.7400341848
53.4243978688 -18.8440114413 -2.7400341011
53.9941925289 -18.9667233115 -2.7400342222
55.7449883754 -18.8900572771 -2.7400341466
55.7845092602 -18.8803657226 -2.7400341370
53.4178169452 -18.8672714225 -2.7400341241
53.6290714600 -18.9216767338 -2.7400341778
54.3429065236 -19.0295622326 -2.7400342842
53.6503187459 -18.9513498504 -2.7400342071
54.9027863035 -19.0598316787 -2.7400343141
53.5300100046 -19.0968449026 -2.7400343506
53.2900115888 -19.1070979497 -2.7400343608
56.0689556972 -14.2957148074 -2.7400296131
56.0553637785 -14.2344548444 -2.7400295527
56.1219237768 -14.6396390428 -2.7400299525
56.1153793657 -14.4440606825 -2.7400297595
56.0860760233 -14.2597784530 -2.7400295776
56.1190248360 -14.2998404956 -2.7400296172
56.0605401469 -14.0810741514 -2.7400294013
56.0528035732 -14.0592794939 -2.7400293798
56.1709692904 -14.5941341300 -2.7400299076
56.1427685214 -14.2953047835 -2.7400296127
56.0155723219 -13.9081551025 -2.7400292307
56.2190741745 -14.5651231647 -2.7400298789
56.3396647852 -14.6358065645 -2.7400299487
56.3547102237 -14.7783256671 -2.7400300893
54.2230533245 -18.4849993699 -2.7400337469
54.3960397817 -18.4971433846 -2.7400337589
54.2787823831 -18.5140006372 -2.7400337755
54.4878857815 -18.5246445894 -2.7400337860
54.5576762520 -18.5257167042 -2.7400337871
54.6042090537 -18.5257432174 -2.7400337871
54.4171107406 -18.5464857161 -2.7400338076
54.5926336099 -18.5499611680 -2.7400338110
54.6979605223 -18.5483073738 -2.7400338094
54.7810304054 -18.5692260508 -2.7400338300
54.8515659421 -18.5650883602 -2.7400338259
54.8633142448 -18.5642770572 -2.7400338251
54.9004589757 -18.5857317373 -2.7400338463
54.9358776999 -18.5827588744 -2.7400338434
54.2831828117 -18.6113076828 -2.7400338715
54.9261318821 -18.6078700607 -2.7400338681
54.9854724557 -18.6023585820 -2.7400338627
54.6887791052 -18.6452888968 -2.7400339051
54.7606791496 -18.6427765180 -2.7400339026
55.2138145801 -18.5973074226 -2.7400338577
55.2651916502 -18.6133977011 -2.7400338736
54.1448668944 -18.6715241326 -2.7400339309
54.7385487938 -18.6920671315 -2.7400339512
55.3050959799 -18.6309826428 -2.7400338909
54.3612435402 -18.7132101302 -2.7400339721
55.1405684559 -18.6813610321 -2.7400339407
54.0728419690 -18.7605702868 -2.7400340188
54.0851719499 -18.7620617349 -2.7400340203
55.6013849660 -18.6663662334 -2.7400339259
54.7930441325 -18.8106576116 -2.7400340682
54.0919136445 -18.8115381916 -2.7400340691
54.1543577983 -18.8183428451 -2.7400340758
54.2294134126 -18.8252882135 -2.7400340827
54.4551541836 -18.8381185005 -2.7400340953
54.6310140632 -18.8397794285 -2.7400340970
54.2022251707 -18.8471977992 -2.7400341043
54.2525867698 -18.8514076691 -2.7400341084
55.3099897747 -18.8019261764 -2.7400340596
54.6061476960 -18.8883334547 -2.7400341449
54.3508411838 -18.9063143742 -2.7400341626
54.2173313977 -18.9698222755 -2.7400342253
54.3728905198 -18.9800494050 -2.7400342354
55.6608833550 -18.8508079792 -2.7400341079
56.0094372529 -18.7470484151 -2.7400340055
54.4761701384 -19.0079631765 -2.7400342629
55.4384318306 -18.9995462359 -2.7400342546
55.7488473822 -18.9277772819 -2.7400341838
56.3383118338 -18.7244037958 -2.7400339831
55.0071688119 -19.0859905129 -2.7400343399
55.8754198067 -15.1993358889 -2.7400305048
56.1583807879 -14.8376590465 -2.7400301479
56.1097918487 -14.3675040838 -2.7400296839
56.1839898209 -14.7650213910 -2.7400300762
56.0841811119 -14.2020194797 -2.7400295206
56.1987239251 -14.5908919537 -2.7400299044
56.2273619853 -14.6386692867 -2.7400299515
56.0399662360 -13.9302111668 -2.7400292524
56.1304472958 -14.0581178083 -2.7400293786
56.2962827970 -14.9435972965 -2.7400302524
56.3516788591 -14.6942789781 -2.7400300064
56.3241741024 -15.2099408327 -2.7400305152
56.4823364532 -14.3707472559 -2.7400296871
56.2251482795 -15.8631609364 -2.7400311598
54.7507776905 -18.4528576715 -2.7400337152
54.7193498063 -18.4788673673 -2.7400337408
54.7412951399 -18.4776448452 -2.7400337396
54.8289926273 -18.4714571071 -2.7400337335
54.8640380209 -18.4926745965 -2.7400337545
54.8970700466 -18.4895075595 -2.7400337513
54.9190752207 -18.4872333986 -2.7400337491
54.9630432796 -18.4822947102 -2.7400337442
54.9740259229 -18.4809787744 -2.7400337429
55.0431724390 -18.4963430627 -2.7400337581
55.0652154972 -18.4932043913 -2.7400337550
55.1461848018 -18.5050375344 -2.7400337667
54.9715642658 -18.5543114467 -2.7400338153
55.2056991548 -18.5192048645 -2.7400337806
55.2389531677 -18.5130047319 -2.7400337745
54.8389254420 -18.5919134114 -2.7400338524
55.2657678240 -18.5324238324 -2.7400337937
55.2991367824 -18.5256901035 -2.7400337870
55.3213489877 -18.5210365475 -2.7400337825
55.3435332723 -18.5162516580 -2.7400337777
55.1693642689 -18.5746770913 -2.7400338354
55.3263756990 -18.5446811548 -2.7400338058
55.3821315237 -18.5323961152 -2.7400337937
55.1734077181 -18.5985095440 -2.7400338589
55.4657341608 -18.5372658508 -2.7400337985
55.4715968706 -18.5607171603 -2.7400338216
55.5610556257 -18.5372248320 -2.7400337984
54.9973165562 -18.6729553471 -2.7400339324
55.2730568037 -18.6295229604 -2.7400338895
55.3300733037 -18.6180172476 -2.7400338781
55.6122615853 -18.5479148967 -2.7400338090
55.6234355043 -18.5446781686 -2.7400338058
54.9537172936 -18.7023160652 -2.7400339613
55.3807964316 -18.6318053503 -2.7400338918
54.8977666315 -18.7323121746 -2.7400339909
55.0381915743 -18.7165390191 -2.7400339754
55.2752415897 -18.7029536948 -2.7400339620
55.8243946854 -18.5570053934 -2.7400338179
55.3615626783 -18.7101934060 -2.7400339691
55.8209662636 -18.5837224024 -2.7400338443
55.8435126746 -18.5759805122 -2.7400338367
55.1898870410 -18.7673249406 -2.7400340255
55.4134440602 -18.7235868656 -2.7400339823
55.9388347739 -18.5931774557 -2.7400338536
55.9614350613 -18.5847380503 -2.7400338453
54.8728689264 -18.8559022262 -2.7400341129
55.6123836485 -18.7236729270 -2.7400339824
55.3458206213 -18.8122270061 -2.7400340698
55.4279235456 -18.8441969532 -2.7400341013
55.4627696392 -18.8859112250 -2.7400341425
55.9657152193 -18.7378018300 -2.7400339963
56.2664021396 -18.6152678060 -2.7400338754
56.3551228544 -18.6274076247 -2.7400338874
55.6947456952 -18.9265714350 -2.7400341826
55.7438579042 -18.9124238969 -2.7400341687
55.9909321731 -18.8828733588 -2.7400341395
55.4544342739 -18.4668251585 -2.7400337290
55.4855875993 -18.4581994883 -2.7400337204
55.6524359560 -18.4832360997 -2.7400337452
55.6628765683 -18.4798058030 -2.7400337418
55.7437232721 -18.4777233022 -2.7400337397
56.1320908069 -18.5025506090 -2.7400337642
55.9235617365 -15.0750196785 -2.7400303821
56.1563732969 -14.6934044684 -2.7400300055
56.2345076650 -15.0100872483 -2.7400303180
56.2239711922 -14.9081248467 -2.7400302174
56.1922952145 -14.7368177203 -2.7400300484
56.2574033330 -14.9927694718 -2.7400303009
56.2450625784 -14.8843390287 -2.7400301939
56.2260140562 -14.7768838799 -2.7400300879
56.2227492295 -14.7616369918 -2.7400300729
56.2003312534 -14.6708185752 -2.7400299832
56.2679215459 -15.4006318596 -2.7400307034
56.2709159329 -15.3797696533 -2.7400306828
56.2831021547 -15.0117977522 -2.7400303197
56.2474822212 -14.7616196559 -2.7400300728
56.2417376156 -14.7359086790 -2.7400300475
56.2057774857 -14.6037526956 -2.7400299171
56.3001820638 -15.3406714249 -2.7400306442
56.3115084940 -15.1114626562 -2.7400304180
56.2049806148 -14.5256614037 -2.7400298400
56.2560953470 -15.6714791473 -2.7400309706
56.3248031661 -15.3380181536 -2.7400306416
56.3356484923 -15.1652372922 -2.7400304711
56.3002508762 -14.7779200744 -2.7400300889
56.2323740537 -15.8131604350 -2.7400311104
56.2534540392 -15.7566475139 -2.7400310547
56.2606619817 -15.7359315705 -2.7400310342
56.3442208265 -15.3787787275 -2.7400306818
56.3561808681 -15.0176365021 -2.7400303255
56.3329982987 -14.8216883174 -2.7400301321
56.2316761324 -15.8785008248 -2.7400311749
56.3709536767 -15.3598824689 -2.7400306632
56.3736842884 -14.9385949333 -2.7400302475
56.2346926935 -14.4028477396 -2.7400297188
56.2471530153 -15.9035228827 -2.7400311996
56.4012961798 -15.3011857220 -2.7400306053
56.4078249432 -15.1832272141 -2.7400304889
56.2123958678 -14.2962286662 -2.7400296136
56.4082053473 -14.8318295037 -2.7400301421
56.3068368910 -14.4526602913 -2.7400297680
56.4425347105 -14.9022647316 -2.7400302116
56.2633198166 -16.0382075736 -2.7400313325
56.3435958842 -14.4136905563 -2.7400297295
56.4510052290 -14.6753872916 -2.7400299877
56.4097761522 -14.5273307327 -2.7400298416
56.3787922155 -14.4379561937 -2.7400297535
56.4129359534 -15.8131979152 -2.7400311105
56.4870225826 -15.5483064214 -2.7400308491
56.4582777799 -14.6060168690 -2.7400299193
56.3634702886 -14.3351323841 -2.7400296520
56.3154839172 -14.2320732612 -2.7400295503
56.3747602825 -14.1885565618 -2.7400295074
56.5680459116 -15.6291546736 -2.7400309289
56.4196395378 -16.1041222314 -2.7400313976
56.4469653614 -16.1035614086 -2.7400313970
56.1830467466 -16.6593905870 -2.7400319455
57.0952088563 -16.7271952238 -2.7400320124
55.9023070038 -18.4228733616 -2.7400336856
55.9120206769 -18.4187294850 -2.7400336815
55.9217220491 -18.4145568916 -2.7400336774
55.9508024689 -18.4282606433 -2.7400336909
55.9799524001 -18.4153123176 -2.7400336781
55.9800942434 -18.4417342416 -2.7400337042
56.0487485490 -18.4369562700 -2.7400336995
56.0973853309 -18.4137826188 -2.7400336766
56.0981798635 -18.4402510666 -2.7400337027
56.1176942930 -18.4307754428 -2.7400336934
56.1468599697 -18.4163459467 -2.7400336791
56.1662321165 -18.4065827335 -2.7400336695
56.1771751438 -18.4281369775 -2.7400336908
56.2174489415 -18.4346360081 -2.7400336972
56.2369280631 -18.4244548467 -2.7400336872
56.2466449503 -18.4193210934 -2.7400336821
56.1990611985 -18.4712454655 -2.7400337333
56.2774829598 -18.4302567273 -2.7400336929
56.2969351213 -18.4197204611 -2.7400336825
56.0898361426 -18.5511497396 -2.7400338122
56.3377592640 -18.4248183205 -2.7400336875
56.3571781951 -18.4139255346 -2.7400336768
56.3982595892 -18.4183127001 -2.7400336811
56.4492730766 -18.4164939616 -2.7400336793
56.2749571113 -18.5953541941 -2.7400338558
56.5744951708 -18.4249948064 -2.7400336877
56.5971435331 -18.4392858683 -2.7400337018
56.6069027171 -18.4330864676 -2.7400336957
56.3543527723 -11.6111593435 -2.7400269641
56.3334595183 -11.6002876352 -2.7400269534
56.3655742799 -11.5897487608 -2.7400269430
57.5605951226 -17.7651711439 -2.7400330366
56.4293752121 -11.5963931984 -2.7400269495
56.8636922339 -18.4346073269 -2.7400336972
56.5038263427 -11.6100469799 -2.7400269630
56.6552910516 -11.6149942874 -2.7400269679
56.6239493242 -11.5960623176 -2.7400269492
56.6029620327 -11.5835958498 -2.7400269369
56.5819013528 -11.5712537681 -2.7400269247
56.6783519650 -11.6007685196 -2.7400269539
56.9563111269 -11.6092376773 -2.7400269622
56.9353959684 -11.5948046149 -2.7400269480
56.9249064590 -11.5876345499 -2.7400269409
56.9805835686 -11.5966864992 -2.7400269498
57.0259279820 -11.5990929884 -2.7400269522
57.0154507622 -11.5916550946 -2.7400269449
56.1686594352 -15.7797125212 -2.7400310774
56.1898155025 -15.6976950896 -2.7400309965
56.2324292903 -15.3671156250 -2.7400306703
56.1946485659 -15.7766066411 -2.7400310744
56.2219958038 -15.7682611227 -2.7400310661
56.2379378049 -14.8349948658 -2.7400301452
56.2398900882 -15.9497841100 -2.7400312453
56.3259061506 -14.7116564263 -2.7400300235
56.2868260393 -14.4333544102 -2.7400297489
56.7832104899 -18.2859519777 -2.7400335505
55.7747703995 -11.5307096233 -2.7400268847
55.7635612373 -11.5270991506 -2.7400268812
55.6575941540 -11.4695961216 -2.7400268244
55.8912678421 -11.5191082731 -2.7400268733
56.0429684597 -11.5241689688 -2.7400268783
56.0204961135 -11.5153945625 -2.7400268696
56.1735698461 -11.5255877193 -2.7400268797
56.1325000299 -15.6189399583 -2.7400309188
56.1000994567 -15.9203832538 -2.7400312162
56.1548834643 -15.6391863967 -2.7400309388
56.1855683499 -15.4290776856 -2.7400307314
56.2617686220 -14.5696927625 -2.7400298834
54.9450636669 -11.5430611895 -2.7400268969
55.0291163270 -11.5265279852 -2.7400268806
55.0173997150 -11.5253439954 -2.7400268794
54.9470311585 -11.5189683636 -2.7400268731
55.0315822585 -11.5024810630 -2.7400268569
55.1287812230 -11.4892828648 -2.7400268438
55.2505352675 -11.4821094499 -2.7400268368
55.3968525702 -11.4831697006 -2.7400268378
55.5849508069 -11.4744226224 -2.7400268292
55.5493064260 -11.4660439907 -2.7400268209
55.5374086153 -11.4633214492 -2.7400268182
55.4539057319 -11.4452507716 -2.7400268004
55.1893161199 -11.3997701319 -2.7400267555
55.3220227264 -11.3468010130 -2.7400267032
54.9894897665 -11.3042279106 -2.7400266612
55.5222588614 -11.3608910201 -2.7400267172
55.9035893256 -11.4375274053 -2.7400267928
55.3631655110 -11.2557633519 -2.7400266134
55.4678033272 -11.2507562393 -2.7400266085
56.1477048966 -11.3937565646 -2.7400267496
55.5657657257 -11.2219499659 -2.7400265800
55.9546127542 -11.2761922307 -2.7400266336
56.0161234676 -16.0291807815 -2.7400313236
56.0455344749 -15.9134419313 -2.7400312094
56.0471284678 -15.9056393314 -2.7400312017
56.0523433399 -15.8782588364 -2.7400311747
56.0605195046 -15.8271473779 -2.7400311242
56.0732772542 -15.6684770293 -2.7400309677
56.0524943589 -15.9893633480 -2.7400312843
56.0844580592 -15.8305060807 -2.7400311276
56.0866157940 -15.8144368310 -2.7400311117
56.1034253285 -15.8664865922 -2.7400311631
56.1180733352 -15.7436505065 -2.7400310419
56.1217768444 -15.6199995783 -2.7400309198
56.1156846455 -15.9322748996 -2.7400312280
56.1458805957 -15.6154548887 -2.7400309154
56.0741017265 -16.1580392673 -2.7400314508
56.1606172271 -15.8067170682 -2.7400311041
55.9544122020 -16.4442307735 -2.7400317332
55.9888734509 -16.3890165278 -2.7400316787
56.1459930145 -16.0140081428 -2.7400313086
56.1604833399 -15.3263156188 -2.7400306300
56.2188854057 -15.9081949205 -2.7400312042
56.2904323475 -15.6869319608 -2.7400309859
56.1712280307 -16.3010081702 -2.7400315918
56.0560745128 -14.3474072809 -2.7400296641
56.1813829815 -14.4137349527 -2.7400297296
56.6537447626 -13.5796588781 -2.7400289065
56.5635848186 -13.3730693712 -2.7400287027
54.4101284494 -11.5021478983 -2.7400268565
54.3489609501 -11.5072948688 -2.7400268616
54.3245163902 -11.5096068826 -2.7400268639
54.2756704449 -11.5146645694 -2.7400268689
54.2634685767 -11.5160192727 -2.7400268702
54.7660694300 -11.4659984139 -2.7400268209
54.7290249186 -11.4658206804 -2.7400268207
54.7166765777 -11.4658344929 -2.7400268207
54.7043283317 -11.4658848340 -2.7400268208
54.6672852436 -11.4662550225 -2.7400268211
54.5438589296 -11.4698627304 -2.7400268247
54.4945273577 -11.4723278367 -2.7400268271
54.4698733734 -11.4737792426 -2.7400268285
54.3344607869 -11.4843671726 -2.7400268390
54.2607656408 -11.4919978360 -2.7400268465
54.8159661203 -11.4425790991 -2.7400267978
54.7787118107 -11.4419594827 -2.7400267971
54.6793552444 -11.4419236624 -2.7400267971
54.5303883557 -11.4462779123 -2.7400268014
54.4807786603 -11.4489040598 -2.7400268040
54.9163499024 -11.4216985502 -2.7400267772
54.8664223530 -11.4197595420 -2.7400267752
54.4544229581 -11.4263147978 -2.7400267817
55.0052360618 -11.4023915222 -2.7400267581
54.9676176568 -11.4000938237 -2.7400267558
54.9425280320 -11.3987475328 -2.7400267545
54.8923270828 -11.3965003796 -2.7400267523
54.5532197431 -11.3968796950 -2.7400267527
54.4528595825 -11.4021923779 -2.7400267579
55.2332459303 -11.3991753602 -2.7400267549
54.6528368895 -11.3456046024 -2.7400267021
54.5374775334 -11.3249650149 -2.7400266817
54.3335261395 -11.3387890961 -2.7400266953
55.1012416864 -11.3127168446 -2.7400266696
54.9987365034 -11.3050851018 -2.7400266621
54.6519962621 -11.2972658552 -2.7400266544
55.6574298762 -11.3478392239 -2.7400267043
55.5172912511 -11.3198575107 -2.7400266767
55.2217475012 -11.2761601319 -2.7400266335
54.6381660242 -11.2491722210 -2.7400266069
54.9119465193 -11.2279429093 -2.7400265860
54.6376742151 -11.2250041966 -2.7400265831
54.2467199377 -11.2503419686 -2.7400266081
55.0342919834 -11.1620665527 -2.7400265210
54.8220769439 -11.1525671365 -2.7400265116
54.4623104457 -11.1351978473 -2.7400264944
54.6217973930 -11.1044569754 -2.7400264641
54.4340990754 -11.1127233398 -2.7400264723
54.5942584663 -11.0809991393 -2.7400264410
54.2309287519 -11.1061660045 -2.7400264658
56.1176029029 -11.2706686135 -2.7400266281
56.2493054116 -11.2635575256 -2.7400266211
56.2363520879 -11.2590749584 -2.7400266167
54.2502928835 -11.0311739224 -2.7400263918
55.0321091269 -10.9923296550 -2.7400263535
54.9495713233 -10.9876558322 -2.7400263489
54.9220418926 -10.9864235278 -2.7400263476
54.5225876091 -10.9868703455 -2.7400263481
54.3026565183 -11.0017775506 -2.7400263628
56.1601085175 -11.1827453584 -2.7400265414
54.4661932950 -10.9654856124 -2.7400263270
56.4946125306 -11.2783749324 -2.7400266357
54.6874525243 -10.9341843622 -2.7400262961
54.6178542900 -10.9352917285 -2.7400262972
54.3639111039 -10.8995920848 -2.7400262620
57.0445142478 -11.4607901413 -2.7400268157
55.9757394565 -16.0533481850 -2.7400313475
55.9850601301 -16.0135083127 -2.7400313081
55.9969101017 -15.9498234192 -2.7400312453
56.0029476962 -15.9059116587 -2.7400312020
56.0061364017 -15.8753903340 -2.7400311719
56.0207900941 -15.9535759178 -2.7400312490
56.0269543048 -15.9087432705 -2.7400312048
56.0348258854 -15.7941752604 -2.7400310917
56.0329328081 -15.7002235442 -2.7400309990
55.9859589158 -16.1839618320 -2.7400314763
56.0031720600 -16.1335303750 -2.7400314266
56.0833737391 -15.7625144814 -2.7400310605
56.0829376880 -15.7371482927 -2.7400310354
56.0784806030 -15.6611799987 -2.7400309605
56.0591945847 -15.5285410791 -2.7400308296
56.0694835220 -16.0770423761 -2.7400313708
56.0763889513 -16.0482939891 -2.7400313425
56.1068284933 -15.8140824817 -2.7400311114
56.0920716964 -15.5746765283 -2.7400308751
56.0698259914 -15.4660927509 -2.7400307680
56.0670733886 -15.4553523546 -2.7400307574
56.0391702595 -16.2475777704 -2.7400315391
56.0841743075 -16.1157238984 -2.7400314090
56.1092121048 -16.0094126039 -2.7400313041
56.1313276892 -15.8036213078 -2.7400311010
56.1287217531 -15.6831390387 -2.7400309821
56.2092184187 -15.9995976589 -2.7400312944
56.2172098393 -15.5958139465 -2.7400308960
56.1043369428 -15.1451661344 -2.7400304513
56.0993616163 -14.2978554921 -2.7400296152
56.0463006260 -14.2547341274 -2.7400295727
56.0837849327 -14.2536678365 -2.7400295716
56.0436783040 -14.1917954582 -2.7400295106
54.4497732748 -11.3737867265 -2.7400267299
54.1646761764 -11.4096576491 -2.7400267653
54.0359851373 -11.4320788034 -2.7400267874
53.8189215383 -11.4788957063 -2.7400268336
54.5653769340 -11.3403517710 -2.7400266969
53.9413312044 -11.4263818203 -2.7400267818
53.9284833797 -11.4291131272 -2.7400267845
53.8899891704 -11.4375349159 -2.7400267928
53.7877189605 -11.4616596267 -2.7400268166
53.7368051037 -11.4746278640 -2.7400268294
53.7241008944 -11.4779639850 -2.7400268327
54.8012865407 -11.3068748336 -2.7400266638
54.7880814300 -11.3070627600 -2.7400266640
54.5374326111 -11.3180512742 -2.7400266749
53.8332328003 -11.4257674323 -2.7400267812
53.7947126506 -11.4350346483 -2.7400267903
53.6796668528 -11.4648821210 -2.7400268198
53.6669340638 -11.4683873099 -2.7400268232
53.6161082677 -11.4827842593 -2.7400268374
53.4772553662 -11.5254652503 -2.7400268795
54.9204764122 -11.2827707558 -2.7400266401
54.6549886860 -11.2869417693 -2.7400266442
54.1270731993 -11.3422866257 -2.7400266988
53.6989199085 -11.4346319619 -2.7400267899
54.9341596304 -11.2588049797 -2.7400266164
54.6939090916 -11.2611578514 -2.7400266187
54.4940272025 -11.2728849879 -2.7400266303
53.9263563684 -11.3554256943 -2.7400267118
53.8351303855 -11.3756671399 -2.7400267317
53.8221330023 -11.3787128299 -2.7400267347
55.0024153021 -11.2120999433 -2.7400265703
54.2353202874 -11.2525531483 -2.7400266102
55.0438449592 -11.1894059801 -2.7400265479
53.6677031560 -11.3178676847 -2.7400266747
55.5504121215 -11.1892955209 -2.7400265478
55.5097257962 -11.1833330456 -2.7400265419
55.1279430240 -11.1451581989 -2.7400265043
53.8077290019 -11.2579490604 -2.7400266156
55.6356528198 -11.1784685547 -2.7400265371
55.2804866456 -11.1323090138 -2.7400264916
53.6286156162 -11.2783580494 -2.7400266357
54.4090842043 -11.0862618699 -2.7400264462
54.8398735678 -11.0406441333 -2.7400264011
53.6364864035 -11.2011034076 -2.7400265595
53.5218982276 -11.2080944494 -2.7400265664
53.5967085934 -11.1617805046 -2.7400265207
53.3934984880 -11.2222753179 -2.7400265804
56.0488961549 -11.1180239749 -2.7400264775
54.1882363555 -11.0150487760 -2.7400263759
53.5787866623 -11.0413974961 -2.7400264019
55.9697269924 -15.9022652667 -2.7400311984
56.0107836297 -15.7518957255 -2.7400310500
56.0267697803 -16.0559522024 -2.7400313500
56.0194939288 -15.6586680409 -2.7400309580
56.0459809431 -14.3673612815 -2.7400296838
55.9523766518 -14.1678018218 -2.7400294869
54.7185070770 -11.1061718025 -2.7400264658
53.9222113528 -11.2228687130 -2.7400265810
55.1722657904 -11.0515790941 -2.7400264119
52.8355359007 -11.4587602889 -2.7400268137
52.7834231265 -11.4848082854 -2.7400268394
53.7496815614 -11.0664364692 -2.7400264266
55.9447137569 -15.9076466780 -2.7400312037
55.9438274493 -15.8940816775 -2.7400311903
55.9415778766 -15.8692619934 -2.7400311658
55.9413333457 -15.8670095450 -2.7400311636
55.9688483885 -15.9062847531 -2.7400312023
55.9660974068 -15.8713378576 -2.7400311679
55.9485964944 -15.7677092484 -2.7400310656
55.9925438889 -15.8977101062 -2.7400311939
55.9912704626 -15.8808976624 -2.7400311773
55.9783092706 -15.7903380541 -2.7400310879
55.9773459633 -15.7856179564 -2.7400310833
55.9715498559 -15.7597651897 -2.7400310578
55.9692340533 -15.7504128972 -2.7400310485
55.9602608353 -15.7179093742 -2.7400310165
55.9588693314 -15.7132973248 -2.7400310119
56.0177247454 -15.9159469646 -2.7400312119
56.0144441247 -15.8689435491 -2.7400311655
56.0131421913 -15.8566111509 -2.7400311533
56.0106801334 -15.8369232931 -2.7400311339
55.9978683729 -15.7661698921 -2.7400310641
55.9868829231 -15.7229042705 -2.7400310214
55.9626231962 -15.6499738023 -2.7400309494
56.0374451092 -15.8564315763 -2.7400311531
56.0335557959 -15.8260606006 -2.7400311232
56.0094486199 -15.7138791167 -2.7400310125
56.0087441413 -15.7114265742 -2.7400310101
55.9922849379 -15.6604399411 -2.7400309597
55.9887924212 -15.6508492548 -2.7400309503
55.9833414840 -15.6365423867 -2.7400309362
55.9795668264 -15.6270591965 -2.7400309268
56.0426565281 -15.7453022280 -2.7400310435
56.0420448595 -15.7427513130 -2.7400310410
56.0382166287 -15.7274848355 -2.7400310259
56.0159266772 -15.6547745052 -2.7400309542
56.0019728095 -15.6179868647 -2.7400309179
55.9785886830 -15.5652368721 -2.7400308658
56.0481519247 -15.6748027182 -2.7400309739
56.0439748862 -15.6619930045 -2.7400309613
