25.4523121703 -22.7192716852 -3.1393728326
24.9954999397 -22.7830184141 -3.1393728955
25.0220089045 -22.7833132196 -3.1393728958
25.2008010743 -22.7771010271 -3.1393728897
25.5862294025 -22.7141360098 -3.1393728275
25.6629406363 -22.6931573216 -3.1393728068
24.9348248886 -22.8053584603 -3.1393729176
25.0955665201 -22.8066705156 -3.1393729189
25.8536187600 -22.6538652599 -3.1393727681
25.8909556547 -22.6389801329 -3.1393727534
25.5190751155 -22.7796252494 -3.1393728922
25.9188725740 -22.6535816032 -3.1393727678
24.7622540712 -22.8398829880 -3.1393729516
24.8507672411 -22.8486197400 -3.1393729602
25.0763667431 -22.8554684985 -3.1393729670
25.4974216962 -22.8088943810 -3.1393729210
25.8519566429 -22.7062781585 -3.1393728198
25.8965760217 -22.6888710286 -3.1393728026
24.6158541227 -22.8423858911 -3.1393729541
25.3249500628 -22.8618132654 -3.1393729733
25.4070670806 -22.8500145453 -3.1393729616
24.4342664785 -22.8268654556 -3.1393729388
24.7427119277 -22.8862146510 -3.1393729973
24.5379773559 -22.8763127038 -3.1393729876
24.5933326792 -22.8873889855 -3.1393729985
24.6002700711 -22.8886813203 -3.1393729998
25.0565373993 -22.9282721065 -3.1393730388
24.6169241132 -22.9162438832 -3.1393730270
24.7014189687 -22.9295392563 -3.1393730401
25.3834289605 -22.9270359877 -3.1393730376
24.7623761933 -22.9615604948 -3.1393730717
25.0282022131 -22.9767216442 -3.1393730866
25.6059726759 -22.9084839872 -3.1393730193
24.3048742729 -22.8903731371 -3.1393730014
24.6372386923 -22.9687219863 -3.1393730788
25.8842879627 -22.8747743259 -3.1393729861
25.2428100094 -23.0405057947 -3.1393731496
24.2477100454 -22.9482697918 -3.1393730586
24.0820553820 -22.9397703121 -3.1393730502
23.8624904590 -22.8675853393 -3.1393729790
24.2471763593 -23.0242797626 -3.1393731336
25.4804843965 -23.1563649929 -3.1393732639
24.4467726378 -23.1532957663 -3.1393732609
23.7225460684 -22.9304973893 -3.1393730410
26.1019979441 -23.0485600318 -3.1393731575
24.7920572245 -23.2803353498 -3.1393733862
25.3438789972 -23.2734124007 -3.1393733794
24.1741394531 -23.2547122659 -3.1393733610
24.8914927328 -23.4083172457 -3.1393735125
19.1556700131 -24.5238771869 -3.1393746133
19.1634806594 -24.6207321465 -3.1393747089
19.1387546335 -24.7949819977 -3.1393748808
19.0533975266 -25.3604968904 -3.1393754388
19.0676750585 -25.3781665344 -3.1393754563
19.0362451062 -25.4924668134 -3.1393755691
25.9322701482 -20.8180561332 -3.1527766670
25.9448975301 -20.8954686360 -3.1527767462
25.9475229901 -20.8806297652 -3.1527767316
25.9493767589 -20.8694807932 -3.1527767206
25.9538357029 -20.8396743085 -3.1527766912
25.9548401266 -20.8322068516 -3.1527766838
25.9562638811 -20.8209948510 -3.1527766727
25.9439615530 -21.0083352214 -3.1527768605
25.9526265278 -20.9748906982 -3.1527768275
25.9587485982 -20.9487257930 -3.1527768017
25.9612062390 -20.9374745185 -3.1527767906
25.9650801140 -20.9186753502 -3.1527767720
25.9802576141 -20.8239335688 -3.1527766785
25.9541059887 -21.0597437910 -3.1527769141
25.9597890501 -21.0410362638 -3.1527768956
25.9608924235 -21.0372847861 -3.1527768919
25.9662425651 -21.0184793416 -3.1527768734
25.9770302070 -20.9768418819 -3.1527768323
25.9711146180 -21.0859029394 -3.1527769428
25.9735755105 -21.0783289453 -3.1527769353
26.0256786338 -20.8495541273 -3.1527767096
26.0277551568 -20.8337626312 -3.1527766940
25.9724088261 -21.1545597813 -3.1527770134
25.9780980468 -21.1393772461 -3.1527769984
25.9876204847 -21.1126496683 -3.1527769721
26.0014605746 -21.0702668411 -3.1527769302
26.0329643540 -20.9486705401 -3.1527768103
25.9875008282 -21.1823906077 -3.1527770438
26.0233361909 -21.0813353782 -3.1527769440
26.0245584984 -21.0773957402 -3.1527769402
26.0513008311 -20.9778254195 -3.1527768419
26.0630387898 -20.9212865518 -3.1527767861
25.9853636671 -21.2492772640 -3.1527771126
25.9987997616 -21.2185128628 -3.1527770823
25.9874096159 -21.3016896477 -3.1527771672
26.0108857215 -21.2514219025 -3.1527771176
26.0243654186 -21.2200529654 -3.1527770867
26.0312144029 -21.2651914442 -3.1527771341
26.0465371746 -21.3456796959 -3.1527772193
26.0063102870 -21.4679933368 -3.1527773429
26.0806587358 -21.4363478029 -3.1527773174
25.0822033629 -22.8478663719 -3.1527787852
25.3807947333 -22.7727603091 -3.1527787110
25.7533667088 -22.6393712799 -3.1527785823
24.6139660649 -23.0261985183 -3.1527789784
25.1040276491 -23.1384618330 -3.1527791065
25.7624792716 -23.1446926642 -3.1527791357
25.9195562728 -23.2325544073 -3.1527792397
19.7575430192 -26.1662956576 -3.1527826763
19.2271744520 -25.8877681369 -3.1527824216
25.9518826672 -20.8543692794 -3.1506799009
25.9506070336 -20.7792356699 -3.1506798267
25.9722764666 -20.9545814927 -3.1506799998
25.9918682647 -21.0092884328 -3.1506800537
26.0002528569 -20.8498527445 -3.1506798964
25.9998397373 -21.1284834020 -3.1506801714
26.0089146979 -21.0702514953 -3.1506801139
26.0414127169 -20.9993011610 -3.1506800439
26.0039752101 -21.3237525624 -3.1506803640
26.0634963707 -21.0216535319 -3.1506800659
26.0766093036 -21.2367644402 -3.1506802782
26.1207802840 -20.8087258025 -3.1506798558
26.1553858751 -21.0688587480 -3.1506801125
26.1718287118 -21.1254633778 -3.1506801684
25.5604036359 -22.7094532617 -3.1506817314
25.8428882910 -22.8373732239 -3.1506818576
26.0093465013 -21.0647923845 -3.1489980654
25.9973785777 -20.8658081665 -3.1489978691
25.9953953715 -20.8488294089 -3.1489978523
25.9939895579 -20.8375203038 -3.1489978412
25.9885428438 -20.7980080883 -3.1489978022
25.9813178148 -20.7530007251 -3.1489977578
25.9762620861 -20.7249627467 -3.1489977301
25.9661189439 -20.6746946611 -3.1489976805
26.0297544289 -21.2029815412 -3.1489982018
26.0295290602 -20.9550564918 -3.1489979572
26.0041480291 -20.7432031656 -3.1489977481
26.0482479728 -21.2743588604 -3.1489982722
26.0560189466 -21.1636650325 -3.1489981630
26.0577307576 -21.0702318605 -3.1489980708
26.0574676193 -21.0468690848 -3.1489980477
26.0572323886 -21.0351892734 -3.1489980362
26.0556006084 -20.9884900766 -3.1489979901
26.0181689299 -20.6873699437 -3.1489976930
26.0533942682 -21.4173354340 -3.1489984133
26.0698468595 -21.3002508440 -3.1489982978
26.0723045645 -21.2767286023 -3.1489982746
26.0783672106 -21.2001089345 -3.1489981990
26.0793475470 -21.1823982840 -3.1489981815
26.0819195641 -21.0878403796 -3.1489980882
26.0636097508 -20.8107759783 -3.1489978148
26.0602761984 -20.7873618031 -3.1489977917
26.0585055862 -20.7756699171 -3.1489977801
26.0566658319 -20.7639887112 -3.1489977686
26.0674480859 -21.4743667890 -3.1489984696
26.0751720497 -21.4331970222 -3.1489984290
26.0925244202 -21.3147969771 -3.1489983121
26.0995637022 -21.2433372390 -3.1489982416
26.1004901063 -21.2314049346 -3.1489982298
26.1060992644 -21.0759574574 -3.1489980765
26.0987643365 -20.9086108002 -3.1489979113
26.0977104006 -20.8966890833 -3.1489978996
26.0971569873 -20.8907306154 -3.1489978937
26.0734661528 -20.7188696821 -3.1489977241
26.0824819485 -21.5205608860 -3.1489985152
26.1049872840 -21.4015757553 -3.1489983978
26.1245960377 -21.2332047552 -3.1489982316
26.0874873771 -21.6031987516 -3.1489985967
26.0920445503 -21.5853912916 -3.1489985791
26.0978746156 -21.5615864349 -3.1489985556
26.1034226025 -21.5377142606 -3.1489985321
26.1227788268 -21.4416193674 -3.1489984373
26.1390923396 -21.3325573664 -3.1489983297
26.1533926904 -21.0145819601 -3.1489980159
26.1517556302 -21.4152724529 -3.1489984113
26.1527360438 -21.4091518404 -3.1489984052
26.1786181416 -21.0757842739 -3.1489980763
26.1009996396 -21.7297689523 -3.1489987216
26.1735803299 -21.4315046085 -3.1489984273
26.1990167838 -21.2073243731 -3.1489982061
26.2021746909 -21.1321528466 -3.1489981319
26.1850242541 -20.8068783281 -3.1489978109
26.1240117116 -21.7371702915 -3.1489987289
26.2004848037 -21.4167279254 -3.1489984127
26.1410518092 -21.7628607323 -3.1489987543
26.2032434736 -21.5339913917 -3.1489985284
26.2497331939 -21.1589652750 -3.1489981584
26.2462108907 -20.9346324013 -3.1489979370
26.2334257134 -21.5072887577 -3.1489985021
26.2502280258 -21.4114889579 -3.1489984075
26.2673614994 -20.8942085258 -3.1489978971
26.1346700156 -21.9194822537 -3.1489989088
26.1468502254 -21.8890485428 -3.1489988788
26.2947149421 -21.2261833085 -3.1489982247
25.6261898070 -22.7052414276 -3.1489996842
26.2013988136 -21.8107910998 -3.1489988016
26.2999816959 -21.4056728989 -3.1489984018
26.2448910423 -21.8329415236 -3.1489988234
26.3497407251 -21.3992794513 -3.1489983955
26.1686705606 -22.0811350109 -3.1489990683
26.4002234531 -21.6482512658 -3.1489986412
25.2806684986 -23.1718610878 -3.1490001446
26.2927250086 -22.2639473517 -3.1489992487
23.0547021644 -26.2660292829 -3.1490031978
23.2085188030 -26.2941812422 -3.1490032256
22.6311109222 -26.2139591013 -3.1490031464
22.8295391882 -26.2659923881 -3.1490031977
22.5652557241 -26.2704732833 -3.1490032022
22.3209274910 -26.2437857057 -3.1490031758
22.0407465784 -26.2955814190 -3.1490032269
25.4109144761 -22.9669565696 -3.1506991516
25.5848711087 -22.7759673696 -3.1506989632
26.0676485757 -21.0892035347 -3.1506972987
26.0623979906 -21.0497860819 -3.1506972598
26.0061988701 -20.7773379672 -3.1506969910
25.9897805982 -20.7199946319 -3.1506969344
26.1078620574 -21.4338610676 -3.1506976388
26.1082280150 -21.4204676899 -3.1506976256
26.1084462974 -21.3199882012 -3.1506975265
26.1081385347 -21.3065933599 -3.1506975132
26.1067398455 -21.2664230428 -3.1506974736
26.0413619250 -20.8163690724 -3.1506970295
25.9796391468 -20.6111561414 -3.1506968270
25.9728623712 -20.5922356250 -3.1506968083
26.1256490216 -21.5495059810 -3.1506977529
26.1327399712 -21.3262739757 -3.1506975327
26.1308898174 -21.2653675135 -3.1506974726
26.0924739465 -20.9361268833 -3.1506971477
26.0858802531 -20.9029220057 -3.1506971149
26.0113000846 -20.6286959437 -3.1506968443
25.9813773480 -20.5459248655 -3.1506967627
26.1568525609 -21.4079639494 -3.1506976133
26.1081626764 -20.8913394548 -3.1506971035
26.1648845046 -21.6428224641 -3.1506978450
26.1711078815 -21.1460137748 -3.1506973548
26.0087269157 -20.4836112325 -3.1506967012
26.2054067083 -21.3948867500 -3.1506976004
26.2036344247 -21.2691799354 -3.1506974763
26.1970479424 -21.1646173024 -3.1506973731
26.0731286955 -20.5855462954 -3.1506968017
26.0684763460 -20.5723732589 -3.1506967887
26.1854853266 -21.8227995876 -3.1506980226
26.2102815414 -21.6695720878 -3.1506978714
26.1929227569 -21.9041325298 -3.1506981029
26.2284258583 -21.7150248130 -3.1506979163
26.2368905444 -21.6514333737 -3.1506978535
26.2538573676 -21.3455955945 -3.1506975517
26.2412060424 -21.1179280664 -3.1506973271
26.2743619306 -21.2302708936 -3.1506974379
26.2686821024 -21.1512810143 -3.1506973600
26.1269534200 -20.5209523359 -3.1506967380
26.2448279901 -21.8936603193 -3.1506980925
26.2659017974 -21.7866557308 -3.1506979869
26.1917426067 -20.6364708191 -3.1506968520
26.1546299122 -20.5262203306 -3.1506967432
26.3101538835 -21.0812857327 -3.1506972909
26.3147923900 -21.7876366719 -3.1506979879
26.2531738905 -22.1404096942 -3.1506983360
26.3741354718 -21.3071827141 -3.1506975138
26.3455828792 -21.8848839704 -3.1506980839
26.3965395077 -21.2537566917 -3.1506974611
26.4714946305 -21.3671309525 -3.1506975730
26.6156751331 -21.8898583954 -3.1506980888
26.6425075573 -21.8778075024 -3.1506980769
22.6538882328 -26.0431992582 -3.1507021871
23.7980856791 -26.1920605389 -3.1507023340
22.4405624797 -26.0089305491 -3.1507021533
22.6618394956 -26.0701441216 -3.1507022137
22.8015142448 -26.1030590514 -3.1507022462
22.9280051498 -26.1291387156 -3.1507022719
23.7978543983 -26.2162324604 -3.1507023579
23.0186941467 -26.1947441626 -3.1507023366
23.1475487910 -26.2150098923 -3.1507023566
23.7684069492 -26.2642132183 -3.1507024052
23.4898633198 -26.3004375529 -3.1507024409
22.3632647591 -26.2128211940 -3.1507023545
22.6233589092 -26.2847730506 -3.1507024255
25.4433202411 -23.0116383129 -3.1496713732
25.5837708555 -22.7981457670 -3.1496711625
25.4547725509 -23.0366780557 -3.1496713979
25.5706810378 -22.8671233624 -3.1496712306
25.7287160027 -22.5612352144 -3.1496709288
25.3462167171 -23.2061889151 -3.1496715652
25.4413372076 -23.0936456549 -3.1496714541
25.4861012036 -23.0351127992 -3.1496713964
25.5058138856 -23.0080319748 -3.1496713697
25.7785659176 -22.5023177123 -3.1496708706
25.7880433886 -22.4772530515 -3.1496708459
25.2015934147 -23.3852376385 -3.1496717419
25.8011255675 -22.5110008845 -3.1496708792
25.8540658362 -22.3574056457 -3.1496707276
25.3589970198 -23.2638076434 -3.1496716220
25.5168092914 -23.0748331131 -3.1496714356
25.6810376741 -22.8227681743 -3.1496711868
25.4138792644 -23.2393195969 -3.1496715979
25.7662912957 -22.7121666079 -3.1496710777
25.3607400231 -23.3321900055 -3.1496716895
25.8060396088 -22.6849096174 -3.1496710508
25.4640286553 -23.2554896900 -3.1496716138
25.9545914513 -22.4402778278 -3.1496708094
25.7934039722 -22.8694505652 -3.1496712329
25.7991183167 -22.9565764455 -3.1496713189
26.1814436683 -21.4213855117 -3.1496698040
26.1724320410 -21.3470747727 -3.1496697307
26.1671029146 -21.3100274938 -3.1496696941
26.1612264276 -21.2730630872 -3.1496696577
26.1387591450 -21.1554279498 -3.1496695416
26.1322743749 -21.1261956059 -3.1496695127
26.1218998228 -21.0824960733 -3.1496694696
26.1200953936 -21.0752310176 -3.1496694625
26.1182694808 -21.0679713316 -3.1496694553
25.0188418546 -23.8553748800 -3.1496722058
26.2194148951 -21.6450464515 -3.1496700247
26.2158425453 -21.5468726117 -3.1496699278
26.1921238112 -21.3138826609 -3.1496696979
26.1799278415 -21.2393030633 -3.1496696244
26.1655313269 -21.1651168218 -3.1496695511
26.1639711139 -21.1577223347 -3.1496695439
26.1435469958 -21.0693694789 -3.1496694567
26.1220808581 -20.9890623350 -3.1496693774
26.0886214502 -20.8807630857 -3.1496692706
26.0862204039 -20.8735973561 -3.1496692635
26.2430073811 -21.7590532997 -3.1496701372
26.2439269677 -21.6751451773 -3.1496700544
26.2423935892 -21.5988753135 -3.1496699792
26.2375769230 -21.5074612593 -3.1496698890
26.2370291115 -21.4998521504 -3.1496698814
26.1613505908 -21.0413294669 -3.1496694290
26.1324013522 -20.9385323264 -3.1496693276
26.1091295732 -20.8658833919 -3.1496692559
26.1017300378 -20.8442262560 -3.1496692345
26.0837191993 -20.7939545641 -3.1496691849
26.0756823366 -20.7725257634 -3.1496691638
26.2625228491 -21.8597013410 -3.1496702365
26.2611371418 -21.4980806660 -3.1496698797
26.2340139123 -21.2687453910 -3.1496696534
26.2029782021 -21.1100715133 -3.1496694968
26.1416949394 -20.8874177470 -3.1496692771
26.0786054307 -20.7137537141 -3.1496691058
26.2396516743 -21.1654729866 -3.1496695515
26.2212613206 -21.0819882695 -3.1496694691
26.1317472560 -20.7844710742 -3.1496691755
26.1181014537 -20.7480870787 -3.1496691396
26.3096887040 -21.8785243853 -3.1496702551
26.3130492687 -21.8237249979 -3.1496702010
26.2214195820 -20.9852350133 -3.1496693736
26.2895077974 -22.2094973402 -3.1496705817
26.2997257539 -22.1550448583 -3.1496705280
26.3075850272 -22.1082113132 -3.1496704817
26.3350962145 -21.5164542943 -3.1496698978
26.1716456722 -20.7529828591 -3.1496691445
26.3314592734 -22.1120001982 -3.1496704855
26.3447976920 -22.0171018681 -3.1496703918
26.3614970317 -21.5547631657 -3.1496699356
26.3294385235 -21.2531406452 -3.1496696380
26.3041683639 -21.1197597689 -3.1496695064
26.2480378840 -20.9033673642 -3.1496692929
26.2106532191 -20.7895652361 -3.1496691806
25.9546166356 -20.2582258185 -3.1496686563
26.1815156532 -20.6461053834 -3.1496690390
26.1083750093 -20.4846587686 -3.1496688797
26.0525546490 -20.3774639759 -3.1496687739
26.3817086454 -22.1035127555 -3.1496704771
26.2589348839 -20.7811304359 -3.1496691722
26.1336406748 -20.4812695762 -3.1496688764
26.0417605981 -20.3092000512 -3.1496687066
26.3126014249 -20.8665903875 -3.1496692566
26.2735218484 -20.7499605358 -3.1496691415
26.0988667184 -20.3613824724 -3.1496687581
26.4467197944 -21.4015091105 -3.1496697844
26.4087192497 -21.1479873094 -3.1496695342
26.1734229535 -20.4525997215 -3.1496688481
26.0667914603 -20.2564101701 -3.1496686545
26.4850530407 -21.7489517285 -3.1496701272
26.4094158557 -21.0373191644 -3.1496694250
26.1251555588 -20.3090273403 -3.1496687064
26.2963842472 -20.6076164477 -3.1496690010
26.1625315535 -20.3266577506 -3.1496687238
26.4049425931 -20.8379115945 -3.1496692283
26.3876764637 -22.7367633637 -3.1496711020
26.5085740457 -22.3409258500 -3.1496707114
26.6055631953 -21.6123179882 -3.1496699924
26.6266235659 -21.5327960611 -3.1496699140
26.4257768955 -22.8367107854 -3.1496712006
26.2398366470 -20.1220586818 -3.1496685219
26.2305219708 -20.1068529955 -3.1496685069
26.4887227669 -20.5674484638 -3.1496689614
26.6016717541 -20.7385707022 -3.1496691303
23.3305909336 -25.9952088947 -3.1496743173
23.3543453492 -26.0212235821 -3.1496743429
23.3671626783 -26.0221238441 -3.1496743438
23.3928050456 -26.0238106007 -3.1496743455
23.5725181723 -26.0313665854 -3.1496743529
23.6239074257 -26.0321578516 -3.1496743537
23.3526159953 -26.0453346712 -3.1496743667
23.3897744188 -26.0720615741 -3.1496743931
23.6364406232 -26.0806056802 -3.1496744015
23.6754161939 -26.0806869230 -3.1496744016
23.7663507220 -26.0795314037 -3.1496744005
23.8702204553 -26.0759056198 -3.1496743969
23.3361287255 -26.0926030117 -3.1496744134
23.4012980417 -26.0969866717 -3.1496744177
23.4665250656 -26.1004059727 -3.1496744211
23.9496080119 -26.0956965919 -3.1496744164
23.1773880207 -26.1021805978 -3.1496744228
23.2009944763 -26.1290307857 -3.1496744493
23.2141313896 -26.1303842156 -3.1496744506
23.8999879940 -26.1470338020 -3.1496744671
23.6225324967 -26.1771895024 -3.1496744968
24.1394846328 -26.1522506625 -3.1496744722
23.2043644141 -26.2265817764 -3.1496745456
23.3926344066 -26.2417658538 -3.1496745606
24.1337302825 -26.2257697591 -3.1496745448
24.4277934125 -26.1856871816 -3.1496745052
24.5604653377 -26.1611606641 -3.1496744810
24.5736913487 -26.1584923927 -3.1496744784
23.5131310999 -26.2715648206 -3.1496745900
24.2977896781 -26.2302206473 -3.1496745492
23.2401960095 -26.2786319294 -3.1496745969
24.0844125905 -26.2791429846 -3.1496745974
23.8541236101 -26.3185715212 -3.1496746363
24.8078712439 -26.2042342109 -3.1496745235
25.0202295281 -26.1451083405 -3.1496744652
25.2246196512 -26.1034026748 -3.1496744240
25.4764758609 -23.1783249050 -3.1501881907
25.5754449875 -22.9908361473 -3.1501880057
25.6361357235 -22.9744226674 -3.1501879895
25.8393227451 -22.4945325366 -3.1501875160
25.8720348977 -22.2758086725 -3.1501873002
25.8635686055 -22.7025871701 -3.1501877213
25.6451475155 -23.3200492885 -3.1501883306
25.5317980156 -23.6480935282 -3.1501886543
26.3426313046 -22.0992993081 -3.1501871260
26.3432626458 -22.0413971215 -3.1501870689
26.3412541609 -21.9338815612 -3.1501869628
26.3300984088 -21.7688346688 -3.1501867999
26.2871827110 -21.4826303299 -3.1501865175
26.3649529337 -22.1581901101 -3.1501871841
26.3673108437 -22.0664416774 -3.1501870936
26.3657137058 -21.9413038061 -3.1501869701
26.3630686725 -21.8829575520 -3.1501869125
26.3458855361 -21.6918560925 -3.1501867240
26.2811832179 -21.3476668489 -3.1501863843
26.3904103062 -21.9572813196 -3.1501869859
26.3872042711 -21.8816128720 -3.1501869112
26.3294188496 -21.4482794362 -3.1501864836
26.1483471516 -20.8888265916 -3.1501859316
26.4155622207 -22.0753836843 -3.1501871024
26.3739263582 -21.5515849248 -3.1501865856
26.2285157036 -21.0203262918 -3.1501860613
26.1670077266 -20.8712898061 -3.1501859143
26.3869401873 -21.4885457608 -3.1501865234
26.1455971253 -20.7684103460 -3.1501858128
26.2318314124 -20.8990719865 -3.1501859417
26.1480616960 -20.7191692196 -3.1501857642
26.4608901376 -22.4404934746 -3.1501874627
26.4732730617 -22.3368186847 -3.1501873604
26.4576869345 -21.6165813509 -3.1501866497
26.3831823829 -22.9059737774 -3.1501879220
26.4981953538 -22.3305296709 -3.1501873542
26.5133967001 -22.4120024755 -3.1501874346
26.5269842295 -22.2800443570 -3.1501873044
26.5276816974 -22.2712274573 -3.1501872957
26.5445084077 -22.3530089448 -3.1501873764
26.5780769525 -21.8349739121 -3.1501868652
26.1560560191 -20.4834607709 -3.1501855316
26.6085442261 -21.9781346145 -3.1501870065
26.5950152769 -21.2103856307 -3.1501862489
26.4448403618 -23.3567926903 -3.1501883669
26.1867318228 -20.1760408764 -3.1501852282
26.3894129820 -20.3556447276 -3.1501854055
26.3105031389 -19.9762613987 -3.1501850311
23.8019791326 -25.9883680144 -3.1501909636
23.8486818458 -25.9850724976 -3.1501909603
23.8603511758 -25.9841622897 -3.1501909594
23.8836815027 -25.9822383341 -3.1501909575
23.9560835812 -25.9996837304 -3.1501909747
24.0613511044 -25.9873857472 -3.1501909626
24.0527247545 -26.0128699442 -3.1501909877
24.1583090530 -25.9979946495 -3.1501909731
23.7842782568 -26.0863345447 -3.1501910602
23.8321413947 -26.0832416146 -3.1501910572
23.8939713190 -26.1026646673 -3.1501910764
24.2370024534 -26.1076797580 -3.1501910813
24.3809376719 -26.0806221365 -3.1501910546
23.7654269081 -26.1842264585 -3.1501911568
24.2410460439 -26.1315121867 -3.1501911048
24.5592468134 -26.0895253424 -3.1501910634
24.1017832533 -26.2014947356 -3.1501911739
24.2001057424 -26.1871972993 -3.1501911598
24.9458537946 -26.0752161463 -3.1501910493
24.9577849851 -26.0710599109 -3.1501910452
23.8618295104 -26.3234592198 -3.1501912942
24.9537720369 -26.0980555141 -3.1501910718
24.5503530851 -26.2658543164 -3.1501912374
24.8425096773 -26.2109358764 -3.1501911832
25.4430562037 -25.9744476832 -3.1501909498
25.8673179302 -22.8333548476 -3.1499472860
26.1847394316 -22.8413536554 -3.1499472939
26.5620716271 -21.7546980819 -3.1499462216
24.3477720520 -25.9480309959 -3.1499503594
24.4060595386 -25.9584579490 -3.1499503697
24.5943983798 -25.9807281244 -3.1499503917
25.7176177226 -23.0002238823 -3.1500382881
25.7237309134 -22.9283686443 -3.1500382172
25.7289377072 -22.7711395256 -3.1500380621
25.7294385278 -23.1013167867 -3.1500383879
25.7468993337 -22.9432470990 -3.1500382319
25.7528529786 -22.8108464280 -3.1500381013
25.7523563668 -22.7180667325 -3.1500380097
25.7509674617 -22.6783253792 -3.1500379705
25.7460749574 -22.5989479129 -3.1500378922
25.7351757295 -22.4934764336 -3.1500377881
25.6785506740 -23.4378592295 -3.1500387200
25.7701720056 -22.5970328275 -3.1500378903
25.7666321629 -22.5569943432 -3.1500378508
25.7442564755 -22.3910543536 -3.1500376870
25.7341448429 -23.3274679189 -3.1500386110
25.7956053073 -22.9400937875 -3.1500382288
25.8013178199 -22.7506543112 -3.1500380419
25.7471222662 -22.2806655852 -3.1500375781
25.7016397556 -23.5235917519 -3.1500388046
25.7592443088 -23.3266440954 -3.1500386102
25.8181579999 -22.9622894679 -3.1500382507
25.7692293994 -22.2687518730 -3.1500375664
25.7582333935 -22.2221365859 -3.1500375204
25.8280251457 -23.0948022890 -3.1500383815
25.8471291051 -22.8883406241 -3.1500381777
25.7940805053 -23.3855136539 -3.1500386683
25.8731095841 -22.8406366505 -3.1500381307
25.8720122319 -22.6800110695 -3.1500379722
25.7929617694 -22.1632033574 -3.1500374622
25.7320320244 -21.9700772308 -3.1500372716
25.7247885573 -21.9504132946 -3.1500372522
25.7286819878 -23.6595284699 -3.1500389387
25.8866662958 -23.0102873784 -3.1500382981
25.8940605964 -22.6367363108 -3.1500379295
25.8840270257 -22.5172047548 -3.1500378115
25.8181279598 -22.1637428623 -3.1500374627
25.8068904556 -22.1229214953 -3.1500374225
25.7571518925 -21.9684584576 -3.1500372700
25.7424580501 -21.9287500641 -3.1500372309
25.7004892545 -23.7863494588 -3.1500390639
25.8597794658 -23.3219106388 -3.1500386056
25.9127247089 -22.9913661972 -3.1500382794
25.9185990814 -22.6424372043 -3.1500379351
25.9190613491 -22.4120066212 -3.1500377077
25.8887169322 -22.2492486991 -3.1500375471
25.7412969795 -21.7983044253 -3.1500371021
25.6795668600 -23.9367691949 -3.1500392123
25.8169415783 -23.6320869011 -3.1500389116
25.9598001786 -22.5454927184 -3.1500378394
25.7575480253 -21.7752904405 -3.1500370794
25.7855668386 -21.7788745333 -3.1500370830
25.6126872399 -24.1445574868 -3.1500394173
25.6247457649 -24.1258670405 -3.1500393989
25.7044463383 -23.9921416431 -3.1500392669
26.0117189438 -22.5852738076 -3.1500378787
25.9578975455 -22.2263043913 -3.1500375245
25.9062084783 -22.0329621843 -3.1500373337
25.8708728621 -21.9275204173 -3.1500372296
25.7034523629 -24.0429487058 -3.1500393171
25.9328604182 -23.5155195357 -3.1500387966
26.0510805106 -23.0644502574 -3.1500383515
26.0584883770 -22.9892439972 -3.1500382773
25.8444386453 -23.8780032567 -3.1500391543
26.0834336317 -22.5721367167 -3.1500378657
26.0564739853 -22.3526184823 -3.1500376491
25.7391012776 -21.4750701836 -3.1500367832
26.1110708501 -22.9318276324 -3.1500382206
26.0670055765 -22.1619277246 -3.1500374609
26.0414906596 -22.0641752938 -3.1500373645
25.9711620137 -21.8501188429 -3.1500371533
25.9307014418 -21.7491243391 -3.1500370536
25.6164393023 -24.3901461936 -3.1500396597
25.8426023561 -24.0418644286 -3.1500393160
26.0116099141 -23.6625408726 -3.1500389417
25.8250467796 -24.1223849491 -3.1500393954
26.1683936659 -23.1016569134 -3.1500383882
25.5798053696 -24.5129748761 -3.1500397809
25.5615888875 -24.5713330048 -3.1500398384
26.2303792737 -22.5927906750 -3.1500378861
26.2614367227 -23.5981116143 -3.1500388781
26.4297766421 -22.7435719647 -3.1500380349
26.4289713357 -22.7004302641 -3.1500379923
26.4284705602 -22.6831777118 -3.1500379753
26.4278677216 -22.6659284241 -3.1500379583
26.4259142460 -22.6228234502 -3.1500379157
26.4233234449 -22.5797520838 -3.1500378732
26.4323254443 -23.1339769614 -3.1500384201
26.4504990918 -22.6302405418 -3.1500379231
26.4480153032 -22.5868047447 -3.1500378802
26.4364259624 -23.4014437493 -3.1500386840
26.4954482952 -22.9813932768 -3.1500382696
26.4976645121 -22.9460851815 -3.1500382347
26.4256342030 -22.1029397603 -3.1500374027
26.4152647699 -23.5882622633 -3.1500388684
26.4945078614 -23.3587194225 -3.1500386419
26.4955095406 -23.4696526192 -3.1500387514
26.4398377887 -21.8766922603 -3.1500371795
26.3977216429 -21.6796404572 -3.1500369850
26.4351483812 -23.8420116715 -3.1500391188
26.4002401906 -21.6196189504 -3.1500369258
26.3968054523 -21.6110820248 -3.1500369174
26.4349926563 -23.9110446875 -3.1500391869
26.4806023925 -21.7671592232 -3.1500370714
26.4813583974 -21.6276965841 -3.1500369338
26.4571895983 -21.5048247288 -3.1500368125
26.4361279859 -21.3993989297 -3.1500367085
26.4481509445 -24.1845064595 -3.1500394567
26.5091580666 -21.5033631054 -3.1500368111
26.4012735874 -21.2228571817 -3.1500365343
26.4891209239 -21.3420257755 -3.1500366519
26.3502762469 -21.0838694860 -3.1500363972
26.4750907441 -24.3967426283 -3.1500396662
26.3641796446 -20.9233346977 -3.1500362388
24.8519085486 -25.9286834110 -3.1500411778
24.8612275769 -25.9247078764 -3.1500411739
24.8798301487 -25.9166741924 -3.1500411660
24.8891135294 -25.9126161133 -3.1500411620
24.8894795731 -25.9388377637 -3.1500411878
24.9081652476 -25.9306366841 -3.1500411797
24.9361019665 -25.9181281420 -3.1500411674
24.9085434214 -25.9568859724 -3.1500412056
25.0020022862 -25.9142076731 -3.1500411635
25.0112778360 -25.9097881975 -3.1500411592
26.3559809140 -20.7816499065 -3.1500360990
25.0217077834 -25.9315953403 -3.1500411807
25.0310346828 -25.9271174962 -3.1500411763
25.0589353325 -25.9135186954 -3.1500411628
25.0696225820 -25.9352008996 -3.1500411842
25.0789599376 -25.9305812990 -3.1500411797
25.0882835868 -25.9259340971 -3.1500411751
25.0975934479 -25.9212593345 -3.1500411705
25.1271782488 -25.9333490550 -3.1500411824
25.1365098745 -25.9285592024 -3.1500411777
25.1458272901 -25.9237417662 -3.1500411729
25.1850173417 -25.9304809938 -3.1500411796
25.2036484023 -25.9205315598 -3.1500411698
25.2244547390 -25.9367708323 -3.1500411858
25.2617293334 -25.9162948288 -3.1500411656
25.2710099209 -25.9111070245 -3.1500411605
25.2921635124 -25.9269393885 -3.1500411761
25.3014754553 -25.9216615078 -3.1500411709
25.3816588432 -25.9310117234 -3.1500411801
25.4002896023 -25.9198988830 -3.1500411691
25.4095802449 -25.9143011765 -3.1500411636
25.4314211544 -25.9293256879 -3.1500411784
25.5129395618 -25.9356213109 -3.1500411847
25.6232705354 -25.9213970392 -3.1500411706
25.3811459507 -26.1541301635 -3.1500414003
25.4045482254 -26.1964347101 -3.1500414420
25.9747897524 -25.9353463601 -3.1500411844
25.4171695904 -19.1163453129 -3.1500344557
25.4063340173 -19.1107274408 -3.1500344502
25.3954818729 -19.1051416470 -3.1500344447
25.4717553209 -19.1178264256 -3.1500344572
25.4609238904 -19.1120470726 -3.1500344515
25.5491033917 -19.1049242800 -3.1500344444
25.6598572164 -19.1124299072 -3.1500344518
25.6490089989 -19.1060941384 -3.1500344456
25.6381420866 -19.0997904883 -3.1500344394
25.7046952710 -19.1108829597 -3.1500344503
25.7388726549 -19.1032432894 -3.1500344428
25.8057906643 -19.1160865621 -3.1500344555
25.9317083851 -19.1108475382 -3.1500344503
26.1217747136 -18.9472619332 -3.1500342889
26.8707297549 -19.5487383796 -3.1500348824
26.7042341099 -19.3840156116 -3.1500347198
26.6230644160 -19.3094424315 -3.1500346462
26.8569797545 -19.4654098447 -3.1500348001
27.0924860748 -19.6476026566 -3.1500349799
26.1196769042 -18.8004832363 -3.1500341440
26.4617775097 -18.9551427530 -3.1500342966
27.1747175584 -19.5947899494 -3.1500349278
27.6129385766 -20.0945212318 -3.1500354209
27.5565280805 -20.0101965708 -3.1500353377
25.7287870495 -22.4465065541 -3.1500377418
26.3989552401 -23.4702406363 -3.1500387519
26.4107083633 -22.9288505471 -3.1500382177
26.3931781434 -22.6101597146 -3.1500379032
26.4582768887 -22.9167927586 -3.1500382058
26.4874497682 -23.2826525400 -3.1500385668
26.3534492247 -24.1678193892 -3.1500394403
26.5603027407 -23.2775004224 -3.1500385617
26.4984104817 -23.8639511873 -3.1500391404
26.4132103137 -21.7055838231 -3.1500370106
25.4252251192 -25.8039129238 -3.1500410547
26.3938242928 -24.9441738578 -3.1500402063
24.8237389457 -19.0220838820 -3.1500343627
24.9844989775 -19.0223665416 -3.1500343630
25.1224226901 -19.0198395097 -3.1500343605
25.4868752134 -19.0668924804 -3.1500344069
25.5905250218 -19.0358270232 -3.1500343763
25.7501967582 -22.5272510809 -3.1500378214
25.9731016054 -23.0594720138 -3.1500383466
25.9876748569 -23.0085364369 -3.1500382963
25.4758503721 -21.5294729304 -3.1500368369
26.3652194418 -23.8937112840 -3.1500391698
26.3794469034 -23.1589489676 -3.1500384448
26.1406264389 -24.7241872204 -3.1500399893
26.3609530638 -22.8002663363 -3.1500380908
26.2072882599 -22.3638914153 -3.1500376602
26.4606723658 -22.8001384631 -3.1500380907
26.1739287241 -24.9597004820 -3.1500402217
26.5906822030 -23.3959367799 -3.1500386786
26.4999708887 -22.6679521130 -3.1500379603
26.3120823855 -24.8136317085 -3.1500400775
26.6337092959 -23.6683003988 -3.1500389474
26.1388025028 -25.2694764686 -3.1500405273
24.3134644270 -18.9984652268 -3.1500343394
24.1010070307 -18.9766782885 -3.1500343179
24.4758842964 -18.9975305595 -3.1500343385
24.4264488390 -18.9653163607 -3.1500343067
24.6038662859 -18.9710260813 -3.1500343123
24.5905375028 -18.9685110579 -3.1500343098
24.5009899469 -18.9281639574 -3.1500342700
24.9057909578 -18.9392263667 -3.1500342809
25.0796771662 -18.9368224551 -3.1500342786
24.9313091661 -18.8958677912 -3.1500342381
25.9725025500 -19.0834959370 -3.1500344233
26.1167654714 -24.2770699519 -3.1500395481
26.1196554304 -24.2642800460 -3.1500395355
26.1210720211 -24.2578787372 -3.1500395291
26.1341941314 -24.1936459713 -3.1500394658
26.1563414027 -24.0511462255 -3.1500393251
26.1342560262 -24.3082732375 -3.1500395789
26.1502182854 -24.2371408536 -3.1500395087
26.1907083764 -23.9485549595 -3.1500392239
26.1960766238 -23.8426578017 -3.1500391194
25.9831018225 -22.8270795818 -3.1500381173
25.8631695492 -22.6057675397 -3.1500378989
26.2153021961 -23.9436682952 -3.1500392191
26.2182431668 -23.6691852527 -3.1500389482
26.2175348997 -23.6558056097 -3.1500389350
26.1024846878 -23.0590060936 -3.1500383461
26.0514114169 -24.7039970792 -3.1500399693
26.1248643764 -24.5146935967 -3.1500397825
26.1679104557 -24.3721209582 -3.1500396419
26.1904382130 -24.2800539240 -3.1500395510
26.2291362459 -24.0532242718 -3.1500393272
26.2448630146 -23.8236553331 -3.1500391007
26.0301327137 -24.8067264934 -3.1500400707
26.0817207438 -24.6949076970 -3.1500399604
25.6931507813 -22.2545699035 -3.1500375524
26.0518050298 -24.8174337803 -3.1500400813
26.1938298927 -24.4577312925 -3.1500397263
26.2929497281 -23.7277459383 -3.1500390060
26.2906718793 -23.6655659787 -3.1500389447
26.0306976447 -22.7053135458 -3.1500379971
26.1935694999 -24.5379018612 -3.1500398054
26.3079133042 -23.5668171543 -3.1500388472
25.5690067261 -22.0572568766 -3.1500373577
26.1620377984 -24.6910013661 -3.1500399565
26.3368243458 -23.9382050907 -3.1500392137
26.2851887853 -23.2650096322 -3.1500385494
26.2846921341 -24.4032725494 -3.1500396726
26.3474211110 -24.0816869715 -3.1500393553
25.8757539752 -22.2856121118 -3.1500375830
26.4145458329 -24.1270939418 -3.1500394001
25.8537497672 -22.1817543346 -3.1500374805
26.2996696041 -22.8267752166 -3.1500381170
26.4361275702 -24.3967412134 -3.1500396662
26.5116011068 -23.4332863025 -3.1500387155
26.6334691304 -23.4327654000 -3.1500387150
26.5297144239 -22.9655961915 -3.1500382540
26.5173549417 -22.9276257071 -3.1500382165
26.5759888220 -23.0354376501 -3.1500383229
23.6032955226 -18.9924095459 -3.1500343334
23.4900520961 -19.0021071766 -3.1500343430
23.8582277197 -18.9562353127 -3.1500342977
24.6326979232 -18.8564034230 -3.1500341992
24.0611759108 -18.8113013973 -3.1500341547
23.8552768645 -18.8112271660 -3.1500341546
23.7817651984 -18.8132670674 -3.1500341566
23.7082917443 -18.8163940116 -3.1500341597
24.1969241544 -18.7434146809 -3.1500340877
23.5706410388 -18.7524528262 -3.1500340966
25.1902554603 -18.8659669355 -3.1500342086
25.1174073917 -18.8482559997 -3.1500341912
25.1028067890 -18.8448432193 -3.1500341878
25.9995382506 -24.4601473665 -3.1500397287
26.0089015197 -24.4178765840 -3.1500396870
26.0228712063 -24.3434123610 -3.1500396135
25.9917924365 -24.5821435589 -3.1500398491
25.9995669542 -24.5558513908 -3.1500398232
26.0040447037 -24.5400219069 -3.1500398075
26.0125778988 -24.5082468465 -3.1500397762
26.0192571819 -24.4816553365 -3.1500397499
26.0218186459 -24.4709915594 -3.1500397394
26.0336772204 -24.4174556400 -3.1500396866
26.0458096777 -24.3527846108 -3.1500396228
26.0518243279 -24.3148745620 -3.1500395854
26.0563540417 -24.2822869635 -3.1500395532
26.0702942040 -24.1184261303 -3.1500393915
26.0708872645 -24.1019862070 -3.1500393753
26.0715514177 -24.0745767173 -3.1500393483
26.0717552898 -24.0581273636 -3.1500393320
26.0709518044 -23.9868500439 -3.1500392617
26.0083381195 -24.6103916428 -3.1500398770
26.0440502662 -24.4819711695 -3.1500397503
26.0637889749 -24.3896311301 -3.1500396591
26.0765421580 -24.3129186348 -3.1500395834
26.0909806977 -24.1804093749 -3.1500394527
26.0917586341 -24.1693265298 -3.1500394418
26.0928025619 -24.1526941173 -3.1500394253
26.0953666171 -24.0916449162 -3.1500393651
26.0959275527 -24.0583196826 -3.1500393322
26.0938015634 -23.9528087510 -3.1500392281
25.9881425400 -24.7396375778 -3.1500400045
26.0079617358 -24.6869801790 -3.1500399526
26.0621688367 -24.5094692165 -3.1500397774
26.0648941059 -24.4985510729 -3.1500397666
26.0962210772 -24.3441989923 -3.1500396143
26.1101541605 -24.2382201355 -3.1500395097
26.1172538249 -24.1484837749 -3.1500394212
26.1198286109 -24.0078750612 -3.1500392824
26.1179464593 -23.9516428669 -3.1500392270
26.1167279893 -23.9291697117 -3.1500392048
26.1139561431 -23.8898820594 -3.1500391660
26.0287728180 -24.7005188197 -3.1500399659
26.0382941065 -24.6736667492 -3.1500399394
26.1200898645 -24.3480221158 -3.1500396181
26.1425147255 -24.1270551251 -3.1500394000
26.0592404287 -24.6870257327 -3.1500399526
26.0685588166 -24.6597245104 -3.1500399257
26.0924905197 -24.5825829357 -3.1500398495
26.1017651643 -24.5492314192 -3.1500398166
26.1684605122 -24.0300489561 -3.1500393043
26.1672129328 -23.9723686486 -3.1500392474
26.1634647845 -23.9032387375 -3.1500391792
26.1264707273 -23.6406352614 -3.1500389201
26.0661177443 -24.7389274165 -3.1500400038
26.1532260259 -24.4361236640 -3.1500397050
26.1790852612 -24.2746775102 -3.1500395457
26.1869801857 -24.1932899993 -3.1500394654
26.1913699337 -23.9714885398 -3.1500392465
26.1852614788 -23.8723884110 -3.1500391488
26.1464282626 -23.6185143036 -3.1500388982
26.1916962265 -24.3594914863 -3.1500396294
26.2009359358 -24.2951153752 -3.1500395659
26.0939729411 -24.8005583200 -3.1500400646
26.2095721293 -24.3987151505 -3.1500396681
26.2403568704 -24.0953727301 -3.1500393688
26.2406290872 -24.0834076137 -3.1500393570
26.1869880189 -23.5789406192 -3.1500388592
26.2113753648 -24.5097073797 -3.1500397776
26.2048147147 -23.5498487272 -3.1500388305
26.1792392507 -23.4564045718 -3.1500387383
26.2851093180 -24.1761827467 -3.1500394485
26.2520026615 -23.6517131453 -3.1500389310
26.2190953707 -23.5084229776 -3.1500387896
26.3018769719 -24.2641950990 -3.1500395354
26.3092326065 -24.1777326613 -3.1500394501
26.3134779192 -24.0600505532 -3.1500393339
26.2456147175 -23.5141656787 -3.1500387953
26.3161091396 -23.7414955416 -3.1500390196
26.2218087148 -23.3520597244 -3.1500386353
26.2176835668 -23.3402173543 -3.1500386236
26.1982564013 -23.2872372392 -3.1500385714
26.2354327028 -24.7687755784 -3.1500400333
26.3151894577 -24.4884080169 -3.1500397566
26.3536275465 -24.2314181371 -3.1500395030
26.2971166390 -23.5203848180 -3.1500388014
26.3118777360 -24.6056571674 -3.1500398723
26.3183842908 -24.5808435423 -3.1500398478
26.3505045470 -23.6523372439 -3.1500389316
26.2874283265 -24.7667992339 -3.1500400313
26.4045702476 -23.8858696887 -3.1500391621
26.2728632966 -23.2795714019 -3.1500385638
26.2267109964 -23.1653506729 -3.1500384511
26.3602604650 -24.6118618840 -3.1500398784
26.3861287508 -24.5034623928 -3.1500397715
25.8407530803 -22.5337453830 -3.1500378278
25.7999907904 -22.4910851587 -3.1500377857
25.7815125820 -22.4724764506 -3.1500377674
26.3876154090 -23.4839505104 -3.1500387655
25.5790797324 -22.2636456592 -3.1500375613
25.5258441539 -22.2241706049 -3.1500375224
26.3778194756 -23.3620052650 -3.1500386451
26.3589155653 -23.3047545272 -3.1500385886
26.0780859505 -22.7095253206 -3.1500380013
26.5251229792 -23.8771851643 -3.1500391535
26.2502839865 -22.9387572324 -3.1500382275
25.9574035634 -22.5186595564 -3.1500378130
25.5289955074 -22.1377352951 -3.1500374371
26.4126921555 -24.8472097662 -3.1500401107
26.3678296871 -23.1262983779 -3.1500384125
25.8910929936 -22.4113725610 -3.1500377071
26.2894153186 -22.9095361031 -3.1500381987
25.4579093159 -21.9771174416 -3.1500372786
25.1530224275 -21.8224627513 -3.1500371260
26.1221495746 -22.5273728938 -3.1500378216
25.7285028447 -22.1041539239 -3.1500374039
26.0809927820 -22.3306841591 -3.1500376275
26.5779082800 -22.9446042285 -3.1500382333
25.3334792726 -21.6913866216 -3.1500369966
23.4602922888 -18.8850096320 -3.1500342274
23.5642453604 -18.8464400618 -3.1500341894
23.9021566072 -18.7907879054 -3.1500341345
23.6694720140 -18.8099738525 -3.1500341534
23.5921279345 -18.8186610828 -3.1500341620
22.8139854476 -18.9720928838 -3.1500343134
23.6619107990 -18.7378500315 -3.1500340822
22.8555668418 -18.8857198137 -3.1500342281
22.7424085654 -18.8918000535 -3.1500342341
23.4042015238 -18.7223177930 -3.1500340669
23.0443281863 -18.7899643632 -3.1500341336
23.1280484436 -18.7225967701 -3.1500340672
22.6418468740 -18.7196720401 -3.1500340643
25.9785151398 -24.4404170545 -3.1500397093
25.9801211452 -24.4274982673 -3.1500396965
25.9829889079 -24.4016204803 -3.1500396710
25.9890337676 -24.3194041918 -3.1500395898
25.9892238168 -24.3150689328 -3.1500395856
25.9905269001 -24.2586749460 -3.1500395299
25.9902544559 -24.5219444292 -3.1500397897
25.9955089172 -24.4915188386 -3.1500397597
26.0125242640 -24.3337149886 -3.1500396040
26.0143251148 -24.2190731501 -3.1500394908
26.0140983530 -24.2102542126 -3.1500394821
26.0375265635 -24.3171148523 -3.1500395876
26.0388725932 -24.2588622605 -3.1500395301
26.0498513343 -24.4541984334 -3.1500397229
26.0621365694 -24.1997652037 -3.1500394718
26.0549582552 -24.0952908907 -3.1500393687
26.0285683992 -23.9289593370 -3.1500392046
26.0678272854 -24.4985525949 -3.1500397666
26.0706247751 -24.4802635882 -3.1500397486
26.0764649016 -24.0698273423 -3.1500393436
26.0660597695 -23.9965621106 -3.1500392713
26.0894256958 -24.5162549452 -3.1500397841
26.1140478148 -24.5155593297 -3.1500397834
26.0974278423 -23.9043777193 -3.1500391803
26.0714243523 -23.8027642673 -3.1500390800
26.0696778356 -23.7176184755 -3.1500389960
26.0668767611 -23.6406496145 -3.1500389201
26.2080418200 -24.2395860234 -3.1500395111
26.2055211770 -24.1599053415 -3.1500394325
26.1981831626 -24.0705226635 -3.1500393443
26.1603350503 -23.8547192569 -3.1500391313
26.2280741174 -24.1333468440 -3.1500394063
26.1660143550 -23.7005326183 -3.1500389792
25.9295991306 -22.5397684999 -3.1500378338
26.1145438665 -22.6413137932 -3.1500379340
26.3977048566 -22.8973893551 -3.1500381867
25.7348250038 -22.2824996817 -3.1500375799
25.6760472148 -22.2197243942 -3.1500375180
26.1867011486 -22.4759887662 -3.1500377708
25.2844354919 -21.8902782352 -3.1500371929
22.7155788418 -18.8248131207 -3.1500341680
22.2599161071 -18.9196194362 -3.1500342616
22.4419788579 -18.8200661275 -3.1500341634
21.9211651886 -18.9684630539 -3.1500343098
21.9947797837 -18.8793624550 -3.1500342219
21.7408957900 -18.9243894057 -3.1500342663
25.9416709474 -24.3607217205 -3.1500396306
25.9664722677 -24.3826464112 -3.1500396523
25.9662532340 -24.3728484916 -3.1500396426
25.9647064747 -24.3369485838 -3.1500396072
25.9515011806 -24.2201434388 -3.1500394919
25.9905766806 -24.3788757165 -3.1500396485
25.9888369719 -24.3355152703 -3.1500396057
25.9857524758 -24.2955766072 -3.1500395663
25.9758887872 -24.2194466567 -3.1500394912
26.0148666043 -24.3851897351 -3.1500396548
25.9968531702 -24.1987246829 -3.1500394708
25.9752271831 -24.1022648419 -3.1500393756
26.0345200768 -24.2979322446 -3.1500395687
26.0132661963 -24.1568776610 -3.1500394295
25.9784575421 -24.0293211194 -3.1500393036
26.0491297516 -24.2182129498 -3.1500394900
26.0058092525 -24.0351618353 -3.1500393094
25.9896229109 -23.9881333031 -3.1500392630
25.9938279267 -23.9325444401 -3.1500392081
25.9809183787 -23.9025897309 -3.1500391786
26.0161525156 -23.9232736251 -3.1500391990
26.0782627938 -24.0237616488 -3.1500392981
26.3842393816 -24.1708058766 -3.1500394432
25.6192807010 -22.2424190586 -3.1500375404
25.0807966576 -21.8570798012 -3.1500371601
25.9479784203 -24.3317456743 -3.1500396020
25.9435803244 -24.3124946842 -3.1500395830
25.9430600488 -24.3103630848 -3.1500395809
25.9420005919 -24.3061045499 -3.1500395767
25.9363264345 -24.2849099881 -3.1500395558
25.9313372834 -24.2680809659 -3.1500395392
25.9711354003 -24.3244613854 -3.1500395948
25.9648844581 -24.2980029910 -3.1500395687
25.9570576557 -24.2696099310 -3.1500395407
25.9557568445 -24.2652692947 -3.1500395364
25.9451862068 -24.2329727032 -3.1500395046
25.9405584718 -24.2201907296 -3.1500394919
25.9446790412 -24.1663219123 -3.1500394388
25.9427673601 -24.1620563198 -3.1500394346
25.9408304757 -24.1578021121 -3.1500394304
25.9534987260 -24.1281403350 -3.1500394011
25.9574571813 -24.0353459023 -3.1500393096
26.3647770422 -24.2031854401 -3.1500394752
26.3873721768 -24.1939029981 -3.1500394660
26.3690509432 -24.1289422422 -3.1500394019
26.3613849867 -24.1052838498 -3.1500393786
26.3831446326 -24.0941604617 -3.1500393676
26.3772029381 -24.0770406912 -3.1500393507
26.4266918158 -24.1535094953 -3.1500394261
26.3989870754 -23.9391236308 -3.1500392146
26.4418722974 -23.7619907198 -3.1500390398
25.4778397481 -22.2614171956 -3.1500375591
25.4472869043 -22.2338337964 -3.1500375319
25.4139326269 -22.2307592130 -3.1500375289
25.2868671375 -22.2235823579 -3.1500375218
25.7031899284 -22.0027982394 -3.1500373039
24.4748239412 -22.0698232935 -3.1500373701
24.1977183887 -21.7818438080 -3.1500370859
19.0661622472 -19.4267832868 -3.1500347620
19.0709979516 -19.3075815455 -3.1500346444
26.3603720694 -24.1674692740 -3.1500394399
26.3563314554 -24.1584086310 -3.1500394310
26.3391056124 -24.1226630891 -3.1500393957
26.3486747965 -24.0891131426 -3.1500393626
26.3424496614 -24.0779764370 -3.1500393516
26.3446508358 -24.0344876639 -3.1500393087
26.3460197385 -23.9923336947 -3.1500392671
26.3468682493 -23.9516284173 -3.1500392269
24.9721837765 -22.2762058756 -3.1500375737
23.9313794533 -21.8459203120 -3.1500371491
19.0723007749 -21.1846646895 -3.1500364966
19.0366709683 -20.7914899339 -3.1500361087
19.0266844887 -20.7601378346 -3.1500360777
19.0088816363 -20.6460418467 -3.1500359651
18.9871940346 -20.4472897778 -3.1500357690
33.4775839283 -21.0160286487 -3.1500363302
33.5123717374 -20.9162640221 -3.1500362318
33.5017226933 -20.8928517058 -3.1500362087
33.5129636177 -20.8593650694 -3.1500361756
33.5021462536 -20.8359512512 -3.1500361525
33.5129553822 -20.7451731315 -3.1500360630
33.5123522006 -20.6878855765 -3.1500360064
33.5113476295 -20.6304739401 -3.1500359498
26.3317047593 -23.5766233570 -3.1500388569
25.2800725099 -21.8678334963 -3.1500371707
25.3441259786 -21.8374824636 -3.1500371408
25.5876865849 -21.7344426717 -3.1500370391
25.2828802606 -21.6973936626 -3.1500370026
19.0097159981 -20.6593630081 -3.1500359783
33.4733633293 -20.1727383568 -3.1500354981
33.4950410469 -20.1620420098 -3.1500354876
25.9372543889 -23.7719897011 -3.1500390497
25.9310247069 -23.7543609567 -3.1500390323
25.9720585585 -23.7261035751 -3.1500390044
25.9629510302 -23.6449919546 -3.1500389244
25.9428001914 -23.6065823053 -3.1500388865
25.9631664610 -23.5458984185 -3.1500388266
25.9501009354 -23.5254669230 -3.1500388064
26.3603546201 -23.6663590133 -3.1500389455
26.3592844232 -23.6628962804 -3.1500389420
26.3790324661 -23.6451507322 -3.1500389245
26.3767560312 -23.6381183141 -3.1500389176
26.3696776548 -23.6171035895 -3.1500388968
26.3659988758 -23.6066441669 -3.1500388865
26.4140542056 -23.6774372405 -3.1500389564
26.3809837061 -23.5773009194 -3.1500388576
26.3755863029 -23.5632313364 -3.1500388437
26.3865973086 -23.5259668443 -3.1500388069
26.3648512349 -23.4768229056 -3.1500387584
26.3800416526 -23.4524555880 -3.1500387344
26.3842769804 -23.3559821312 -3.1500386392
26.3782803201 -23.3454034304 -3.1500386287
25.5299486696 -21.8364591438 -3.1500371398
25.9752589722 -21.9283415758 -3.1500372305
25.8055607468 -21.8472446489 -3.1500371504
25.5439984851 -21.7897273030 -3.1500370937
25.6776918825 -21.7408595149 -3.1500370455
25.8116848828 -21.7485886013 -3.1500370531
25.2539719031 -21.6417839187 -3.1500369477
19.1546599161 -19.8888825736 -3.1500352180
19.1249441764 -19.7621505352 -3.1500350930
19.1124011157 -19.4507869764 -3.1500347857
19.0616706383 -19.1219988326 -3.1500344613
25.9572233174 -23.7647693448 -3.1500385657
25.9460266811 -23.6760303308 -3.1500384782
25.9780858235 -23.7302316431 -3.1500385316
25.9761130409 -23.7140173653 -3.1500385156
25.9743622805 -23.7010680583 -3.1500385029
25.9664356381 -23.6527154962 -3.1500384552
25.9658310152 -23.6495051372 -3.1500384520
25.9556255309 -23.6015817608 -3.1500384047
25.9947905848 -23.6745845873 -3.1500384767
25.9914042138 -23.6548433406 -3.1500384573
25.9709957189 -23.5636532547 -3.1500383673
26.0151920474 -23.6505451715 -3.1500384530
25.9789954201 -23.5050542035 -3.1500383094
25.9779539334 -23.5018073365 -3.1500383062
25.9658660278 -23.4663023076 -3.1500382712
26.0277824856 -23.5916882040 -3.1500383949
26.0245806526 -23.5781360839 -3.1500383816
25.9826211599 -23.4418000140 -3.1500382470
25.9725231638 -23.4158452437 -3.1500382214
25.9974435160 -23.3511227933 -3.1500381576
26.0438879752 -23.3990560046 -3.1500382049
26.0689371449 -23.0803261836 -3.1500378903
26.3824931408 -23.6524813295 -3.1500384549
26.4144984592 -23.7216528428 -3.1500385232
25.6941282379 -21.7678476060 -3.1500365953
25.5503159672 -21.7173890566 -3.1500365455
25.5186192557 -21.7077218325 -3.1500365359
25.3905070516 -21.6737711812 -3.1500365024
25.3287156568 -21.6109344362 -3.1500364404
21.6905596758 -18.7035160703 -3.1500335715
21.5299124966 -18.7197179565 -3.1500335875
21.1916084421 -18.7468352341 -3.1500336143
20.5327461595 -18.8693034453 -3.1500337351
25.9750091835 -23.7408081329 -3.1500390189
25.9748859615 -23.7290776950 -3.1500390073
25.9708034759 -23.6431615753 -3.1500389226
25.9683330833 -23.6159011495 -3.1500388957
25.9949314619 -23.8560224052 -3.1500391326
25.9960783738 -23.6571130039 -3.1500389363
25.9931609625 -23.6213960679 -3.1500389011
25.9902351041 -23.5936773784 -3.1500388737
26.0164754742 -23.8862056598 -3.1500391624
