33.4822468504 -21.1279470248 -2.8727770158
33.4993535671 -21.1515946398 -2.8727770420
33.0431842750 -23.0749694749 -2.8727790782
33.0234406335 -23.1838909794 -2.8727791972
27.2786482792 -27.0325510150 -2.8727836375
33.4511170782 -20.7933175632 -2.8706798692
33.4506070336 -20.7792359462 -2.8706798553
33.4700560871 -20.9831059489 -2.8706800565
33.4704613033 -20.9783547251 -2.8706800518
33.4751968797 -20.8974376614 -2.8706799720
33.4753486512 -20.8926716050 -2.8706799673
33.4758147303 -20.8736035154 -2.8706799485
33.4758959934 -20.8688357355 -2.8706799438
33.4760162059 -20.8592995590 -2.8706799343
33.4886738506 -21.0381519908 -2.8706801108
33.4949469301 -20.9755496096 -2.8706800491
33.4993564962 -20.8982427784 -2.8706799728
33.4989131666 -20.7772716041 -2.8706798534
33.4987093614 -20.7724359164 -2.8706798486
33.4980121297 -20.7579327669 -2.8706798343
33.4945285741 -21.1574696646 -2.8706802286
33.5023021853 -21.1139564766 -2.8706801856
33.5108600131 -21.0556463279 -2.8706801281
33.5244001288 -20.8548546257 -2.8706799300
33.5001752442 -21.2447847963 -2.8706803147
33.5383877550 -21.0290456159 -2.8706801018
33.5485880142 -20.8350844422 -2.8706799105
33.5224425854 -21.2554472249 -2.8706803252
33.5712630628 -20.9158107980 -2.8706799901
33.5709317510 -20.7642256983 -2.8706798405
33.5355525494 -21.3009510008 -2.8706803701
33.5395441418 -21.2861000764 -2.8706803555
33.5459034212 -21.2612716961 -2.8706803310
33.5968503695 -20.8245840798 -2.8706799001
33.5574902213 -21.3123403116 -2.8706803814
33.5884892386 -21.1808424182 -2.8706802516
33.6207802840 -20.8087260788 -2.8706798844
33.6194596384 -20.7671678371 -2.8706798434
33.5513911848 -21.4144718532 -2.8706804822
33.5735739198 -21.3441252993 -2.8706804128
33.5750466436 -21.3390662713 -2.8706804078
33.6248628958 -21.1128117965 -2.8706801845
33.6386337613 -20.9977345711 -2.8706800709
33.6451934685 -20.8240493736 -2.8706798996
33.6687979791 -20.8932024520 -2.8706799678
33.5615204207 -21.5263932507 -2.8706805926
33.6073194737 -21.3991119711 -2.8706804670
33.5692574954 -21.5708747929 -2.8706806365
33.6756311433 -21.2369864119 -2.8706803070
33.7326965176 -21.4027258793 -2.8706804706
33.5934865310 -21.7967438007 -2.8706808594
33.7004107727 -21.5696597406 -2.8706806353
33.7477985058 -21.5121148292 -2.8706805785
33.1319668725 -23.0894602553 -2.8706821350
32.5544892237 -23.3535885097 -2.8706823956
33.0966413711 -23.1365219935 -2.8706821814
32.9119364055 -23.3318671979 -2.8706823742
33.0316343608 -23.3047794426 -2.8706823474
33.6010366064 -22.9420566165 -2.8706819895
33.1938645766 -23.2487061514 -2.8706822921
33.1041602009 -23.4576598905 -2.8706824983
33.2339884646 -23.3920216150 -2.8706824335
29.9105128667 -26.3496669154 -2.8706853520
30.0008628484 -26.4063941830 -2.8706854080
29.2205171370 -26.2696177409 -2.8706852730
29.0658519820 -26.2187618386 -2.8706852228
29.3131597241 -26.3670836903 -2.8706853692
28.7781826344 -26.1430141764 -2.8706851481
28.4807583839 -26.1025561496 -2.8706851082
33.4545511346 -20.7404940307 -2.8689977740
33.5028996902 -20.9225190613 -2.8689979537
33.4960731814 -20.8544873072 -2.8689978865
33.4909773306 -20.8149283111 -2.8689978475
33.4885428438 -20.7980083646 -2.8689978308
33.4741237706 -20.7137692847 -2.8689977477
33.5326994323 -21.1395874943 -2.8689981678
33.5328648401 -21.1338202778 -2.8689981622
33.5334622494 -21.0588226067 -2.8689980882
33.5298924818 -20.9608148989 -2.8689979914
33.5265084096 -20.9147834798 -2.8689979460
33.5132925338 -20.8001679252 -2.8689978329
33.5576071061 -21.1052780493 -2.8689981340
33.5574676193 -21.0468693611 -2.8689980764
33.5573586417 -21.0410292814 -2.8689980706
33.5532666381 -20.9476700641 -2.8689979785
33.5426776244 -20.8372101875 -2.8689978695
33.5289587096 -20.7447738347 -2.8689977783
33.5070101964 -20.6359998749 -2.8689976709
33.5678210219 -21.3178728167 -2.8689983438
33.5794620998 -20.9814546862 -2.8689980118
33.5741670680 -20.9047781461 -2.8689979361
33.5651725743 -20.8224977242 -2.8689978550
33.5418572859 -20.6825538863 -2.8689977169
33.6034893180 -21.1836274517 -2.8689982113
33.6057656071 -21.1178444618 -2.8689981464
33.5841873165 -20.7838133177 -2.8689978168
33.5968302762 -21.4493282088 -2.8689984735
33.6517728601 -21.1860852346 -2.8689982137
33.6526258509 -21.1677237023 -2.8689981956
33.6531039696 -21.1554787877 -2.8689981835
33.6221194518 -20.7162502144 -2.8689977501
33.6141342663 -20.6741109638 -2.8689977085
33.6093065954 -21.6152918708 -2.8689986373
33.6228173219 -21.5611665484 -2.8689985838
33.6517556302 -21.4152727292 -2.8689984399
33.6718482857 -21.2491647391 -2.8689982760
33.6425610885 -20.6937048939 -2.8689977279
33.6934213939 -20.8816463702 -2.8689979133
33.6161022269 -21.7612723988 -2.8689987813
33.6240117116 -21.7371705678 -2.8689987575
33.6316354586 -21.7129768353 -2.8689987336
33.7321546399 -21.5136479117 -2.8689985370
33.7450997990 -21.4435041800 -2.8689984677
33.7492402720 -21.4178982354 -2.8689984425
33.7410979176 -20.6949780088 -2.8689977291
33.6371420478 -21.9134102536 -2.8689989314
33.6763995770 -21.8091103769 -2.8689988285
33.7856426083 -20.8334336174 -2.8689978657
33.7512279504 -21.6458775177 -2.8689986674
33.3903710345 -22.5628206935 -2.8689995722
33.7491535799 -21.9588172875 -2.8689989762
33.8395177930 -21.7771336193 -2.8689987969
33.0580573475 -23.1963104580 -2.8690001973
33.1966088059 -23.2151771044 -2.8690002159
30.5087265610 -26.2566979924 -2.8690032172
30.5240425383 -26.2598538450 -2.8690032203
30.9406365814 -26.3278494112 -2.8690032874
30.6228025279 -26.3282304363 -2.8690032878
31.0288395130 -26.3865116471 -2.8690033453
30.1856463648 -26.2541183502 -2.8690032146
29.4537424748 -26.0772261012 -2.8690030401
29.3114231677 -26.0407454565 -2.8690030041
30.2228466264 -26.3639305159 -2.8690033230
29.1881720629 -26.0361715772 -2.8690029996
33.5791923281 -21.2079282443 -2.8706974445
33.5728889076 -21.1352998983 -2.8706973728
33.5947822741 -21.1128362608 -2.8706973507
33.5803165702 -21.0066398031 -2.8706972459
33.5724106336 -20.9604175032 -2.8706972003
33.4862477466 -20.6301363292 -2.8706968744
33.4728623712 -20.5922359013 -2.8706968370
33.6545791654 -21.4763460967 -2.8706977094
33.6559687256 -21.4421635677 -2.8706976756
33.6528832952 -21.2233161913 -2.8706974597
33.6187444349 -20.9450435872 -2.8706971851
33.6640534173 -21.6496863271 -2.8706978804
33.6449872808 -20.9542559957 -2.8706971942
33.5823750882 -20.6921448642 -2.8706969355
33.6913185445 -21.9110781916 -2.8706981383
33.7466852809 -21.5521271787 -2.8706977841
33.7132223440 -21.9235634011 -2.8706981507
33.8761385571 -21.7061400828 -2.8706979361
33.6215996889 -23.0701729060 -2.8706992821
30.0160485769 -26.0059443801 -2.8707021790
30.0986206015 -26.0287869180 -2.8707022015
29.9956062296 -26.0252150491 -2.8707021980
29.9888859073 -26.0484351385 -2.8707022209
30.8489371583 -26.2396978639 -2.8707024096
31.2104461550 -26.2629729090 -2.8707024326
30.2664404434 -26.1943239805 -2.8707023648
31.7939522010 -26.2926698179 -2.8707024619
30.9734630776 -26.3234735498 -2.8707024923
32.0039564266 -26.3177494316 -2.8707024866
31.8744388841 -26.3575934293 -2.8707025259
31.0111234189 -26.4230520326 -2.8707025905
33.6942979666 -21.3288403221 -2.8696697413
33.5688210430 -20.8236407834 -2.8696692428
33.1542598544 -23.3301216314 -2.8696717161
33.6346101071 -20.9458346597 -2.8696693634
33.6115533386 -20.8731172010 -2.8696692916
33.7915356175 -21.7526005863 -2.8696701595
33.6875244424 -20.9542618925 -2.8696693717
33.6236243413 -20.7626167011 -2.8696691826
33.5385647558 -20.5623859388 -2.8696689850
33.7772777442 -22.1431077649 -2.8696705448
33.8051941938 -21.9332427173 -2.8696703377
33.8417790426 -22.0408701832 -2.8696704439
33.6142563075 -20.5529827939 -2.8696689757
33.8960161475 -21.3822293437 -2.8696697940
33.8668656393 -22.4102528144 -2.8696708084
33.9600947752 -21.5995536948 -2.8696700084
33.8626788736 -22.5127476576 -2.8696709095
34.0028217401 -21.4887597667 -2.8696698991
30.8305909336 -25.9952091710 -2.8696743459
30.6369582153 -26.0001265769 -2.8696743507
30.6752392456 -26.0046436151 -2.8696743552
30.7263401091 -26.0101375409 -2.8696743606
30.7775024019 -26.0150264329 -2.8696743654
30.8159101256 -26.0182956335 -2.8696743687
30.9826224915 -26.0285192458 -2.8696743787
31.0596726029 -26.0310740380 -2.8696743813
30.7473151906 -26.0607844918 -2.8696744106
30.7688743643 -26.1113328267 -2.8696744605
31.4773756272 -26.1180495601 -2.8696744671
31.6106566778 -26.1309272127 -2.8696744798
31.4198917641 -26.2669980483 -2.8696746141
30.6317055243 -26.2672927832 -2.8696746143
30.7130487046 -26.2760381030 -2.8696746230
32.3212235918 -26.2008341559 -2.8696745488
31.8282530751 -26.3479884700 -2.8696746940
32.0662255265 -26.3324923462 -2.8696746787
31.5976070650 -26.4235800152 -2.8696747686
32.4538788185 -26.2652845494 -2.8696746124
32.8100299500 -26.1754235453 -2.8696745237
33.5047317426 -22.6417748321 -2.8701876899
33.0801343685 -23.7789245771 -2.8701888120
33.7704234822 -22.0816451875 -2.8701871372
33.9158466121 -22.6887038606 -2.8701877362
33.6121760746 -20.4577288744 -2.8701855348
33.8248685688 -20.7512924017 -2.8701858245
33.6674887521 -20.4555451799 -2.8701855326
34.2016365172 -22.4640870972 -2.8701875146
34.2145889988 -22.5424090138 -2.8701875919
34.2522459756 -21.9277897710 -2.8701869854
31.3120282461 -25.9634782254 -2.8701909676
31.3019791326 -25.9883682907 -2.8701909922
31.3136584156 -25.9875962235 -2.8701909914
31.3836815027 -25.9822386104 -2.8701909861
31.3740044678 -26.0073090911 -2.8701910109
31.3857394659 -26.0063238770 -2.8701910099
31.4443679171 -26.0008773405 -2.8701910045
31.5146061316 -25.9931977798 -2.8701909969
31.4231978806 -26.0272260660 -2.8701910305
31.5174466026 -26.0172033418 -2.8701910206
31.5879630631 -26.0082241960 -2.8701910118
31.6465975008 -25.9997864865 -2.8701910034
31.6973137131 -26.0162684205 -2.8701910197
31.7603100974 -26.0300080983 -2.8701910333
31.8074734262 -26.0212864815 -2.8701910247
31.8310155653 -26.0167165508 -2.8701910202
31.8829735571 -26.0308185889 -2.8701910341
31.8522698446 -26.0617841786 -2.8701910646
31.2654269081 -26.1842267348 -2.8701911854
31.3266997716 -26.1805402078 -2.8701911818
31.5222955193 -26.1626612794 -2.8701911642
31.3066595755 -26.2545052314 -2.8701912548
31.5333733024 -26.2587167177 -2.8701912589
31.4230219325 -26.2942528342 -2.8701912940
31.3998316418 -26.3204953293 -2.8701913199
31.5010266172 -26.3109434071 -2.8701913105
31.7189122974 -26.3065906053 -2.8701913062
32.3998775796 -26.3956152848 -2.8701913940
33.4806760338 -22.9995720475 -2.8699474786
33.5444409593 -22.5816840443 -2.8699470663
33.3857296813 -23.3753927071 -2.8699478495
33.4853865023 -23.0791147520 -2.8699475571
33.5427671104 -22.8106716576 -2.8699472922
33.5516157891 -22.7502875336 -2.8699472326
33.5087230917 -23.0854186301 -2.8699475633
33.5986786452 -22.4311308938 -2.8699469177
33.4894152012 -23.3074277090 -2.8699477824
33.5198156010 -23.2183577711 -2.8699476945
33.6409057029 -22.5883110911 -2.8699470728
33.2797789967 -23.8000962261 -2.8699482685
33.5476296945 -23.2106749620 -2.8699476869
33.5706852757 -23.2179396339 -2.8699476941
33.2422490480 -23.9470233851 -2.8699484135
33.2736633434 -23.9001773488 -2.8699483673
33.7373704465 -22.5949381380 -2.8699470794
33.7140341628 -21.8622258427 -2.8699463563
33.7714481107 -22.7464625385 -2.8699472289
33.8454427023 -22.7384223415 -2.8699472209
33.8573046405 -22.9741365467 -2.8699474535
33.8385296416 -21.6510561385 -2.8699461480
33.9610891600 -22.3643676113 -2.8699468518
33.9821357676 -22.5497006923 -2.8699470347
33.9142578670 -23.2508197741 -2.8699477265
33.9076116481 -21.5397150002 -2.8699460381
33.9378517100 -21.4735564258 -2.8699459728
33.7508971272 -20.8610795382 -2.8699453685
34.1604739035 -22.9278829916 -2.8699474079
34.2031195347 -22.4083645850 -2.8699468953
34.2024686440 -22.3419528114 -2.8699468297
34.1745015605 -22.9883206554 -2.8699474675
34.1778876379 -22.9695038585 -2.8699474490
34.1903169632 -22.8940462292 -2.8699473745
34.2135504015 -22.7043006385 -2.8699471873
34.2190248722 -22.6376094400 -2.8699471215
34.1815429471 -23.0777177322 -2.8699475557
34.1835143237 -23.0682906171 -2.8699475464
34.2474401139 -22.2447304317 -2.8699467338
34.2361404006 -22.0910631015 -2.8699465822
34.2229006536 -21.9762576178 -2.8699464689
34.1565822039 -21.6263157252 -2.8699461236
33.7083009146 -20.5627492716 -2.8699450741
34.2548802834 -21.8635460896 -2.8699463576
33.8431900361 -20.5918189832 -2.8699451028
31.8217558223 -25.9790047693 -2.8699504186
31.8639684616 -25.9689808862 -2.8699504087
31.8745028578 -25.9663969251 -2.8699504062
31.8955484884 -25.9611355716 -2.8699504010
31.9060595386 -25.9584582253 -2.8699503983
32.0240995143 -25.9764361556 -2.8699504161
32.0346552639 -25.9733784652 -2.8699504130
32.0452019221 -25.9702895624 -2.8699504100
32.0557393967 -25.9671694741 -2.8699504069
32.0662675953 -25.9640182278 -2.8699504038
32.0943983798 -25.9807284007 -2.8699504203
32.1049665191 -25.9774627348 -2.8699504171
32.1260735852 -25.9708376872 -2.8699504105
32.1366123273 -25.9674783636 -2.8699504072
32.1471410859 -25.9640878792 -2.8699504039
31.8868641228 -26.0629231728 -2.8699505014
32.1651713232 -25.9836425955 -2.8699504232
32.1757477735 -25.9801675577 -2.8699504197
32.1863138977 -25.9766612480 -2.8699504163
32.2179493899 -25.9659549960 -2.8699504057
31.8489839342 -26.0967630470 -2.8699505348
32.2363914455 -25.9851633050 -2.8699504247
32.2469720828 -25.9814775785 -2.8699504210
32.2786479285 -25.9702328295 -2.8699504099
32.3800636530 -25.9839651519 -2.8699504235
31.9982476238 -26.1341866502 -2.8699505717
32.4100613587 -25.9982044026 -2.8699504375
32.4206798140 -25.9940048720 -2.8699504334
32.4312857999 -25.9897739485 -2.8699504292
32.4418792234 -25.9855116690 -2.8699504250
31.9489374888 -26.1720402242 -2.8699506091
32.4934462428 -25.9904535082 -2.8699504299
32.5146233676 -25.9815298568 -2.8699504211
32.1845324384 -26.1551743915 -2.8699505924
32.4454892940 -26.0881723186 -2.8699505263
33.4520511483 -19.2431622422 -2.8699437720
33.5999864892 -19.2689491753 -2.8699437974
33.6154250747 -19.2503484935 -2.8699437791
32.6831147574 -26.2510601990 -2.8699506870
32.8507932728 -26.2268333041 -2.8699506631
33.3840251183 -22.5172050311 -2.8700376017
33.5407638860 -23.2856620077 -2.8700383600
33.5584724913 -23.1880875759 -2.8700382637
33.5685283862 -23.1201707634 -2.8700381967
33.5831996986 -22.9836545763 -2.8700380620
33.5770818482 -22.5037740387 -2.8700375885
33.5718384849 -22.4583031191 -2.8700375436
33.5613753981 -23.3055234519 -2.8700383796
33.5427883451 -23.4840868895 -2.8700385558
33.5983473222 -23.2417691649 -2.8700383167
33.6086343517 -23.1804529772 -2.8700382562
33.5639442409 -23.4981481940 -2.8700385697
33.6640402119 -22.7857846200 -2.8700378667
33.5626188730 -22.0500755628 -2.8700371408
33.6004926404 -22.0968907375 -2.8700371870
33.6271266337 -23.4496294218 -2.8700385218
33.6233502776 -21.9992630737 -2.8700370906
33.6479493682 -23.5557040087 -2.8700386265
33.7450151493 -23.0700912374 -2.8700381473
33.7470157880 -22.5020554411 -2.8700375868
33.6943109903 -23.5694131708 -2.8700386400
33.7912678827 -23.0917019235 -2.8700381686
33.5955443282 -23.9687082094 -2.8700390340
33.6966738161 -23.7192342611 -2.8700387878
33.7589973218 -23.5183426792 -2.8700385896
33.7888646368 -23.5000380172 -2.8700385715
33.8739570239 -23.2044218293 -2.8700382798
33.4663832191 -24.3543830226 -2.8700394146
33.9113625225 -23.1053276184 -2.8700381820
33.9141372235 -22.2930278016 -2.8700373805
33.9541331600 -23.1543247972 -2.8700382304
33.9724811708 -22.9622284720 -2.8700380408
33.9778087488 -22.8307530870 -2.8700379111
33.9709531349 -22.5677406246 -2.8700376516
33.9669169173 -23.2362117581 -2.8700383112
33.9700821989 -22.3375021113 -2.8700374244
33.9511796228 -22.1061844145 -2.8700371961
34.0165717686 -22.3215161760 -2.8700374086
33.9727357233 -22.0920492959 -2.8700371822
34.0233209891 -23.3366566346 -2.8700384103
34.0504752191 -22.3896729613 -2.8700374759
34.0153859066 -22.1751541754 -2.8700372642
33.9645970668 -23.6779004523 -2.8700387470
34.0436924339 -23.3590215533 -2.8700384324
34.0988073162 -22.8238371764 -2.8700379043
34.0975933488 -22.6777681778 -2.8700377601
34.0204460828 -23.5699068830 -2.8700386405
34.1017991965 -22.4109668689 -2.8700374969
34.0108352021 -23.6920205080 -2.8700387610
34.1957533439 -22.7499919221 -2.8700378314
34.1410753283 -22.1883979742 -2.8700372773
34.2153937112 -22.9489558891 -2.8700380277
34.2193856105 -22.7118430056 -2.8700377938
34.2133635049 -22.5696618367 -2.8700376535
33.8551825325 -21.2907376340 -2.8700363915
34.2413624454 -22.9120619933 -2.8700379913
34.2441630370 -22.7591494390 -2.8700378404
34.2158605629 -22.3493428992 -2.8700374361
34.1923704081 -23.4758534155 -2.8700385477
34.2169095195 -23.3530860947 -2.8700384265
34.2208627749 -22.0944279744 -2.8700371845
34.2188312039 -22.0849405061 -2.8700371752
34.2125682225 -22.0565147406 -2.8700371471
34.1922692542 -21.9715865755 -2.8700370633
34.2250725989 -22.0036114038 -2.8700370949
34.1531699488 -21.7497690794 -2.8700368444
33.8298894135 -21.0043254914 -2.8700361089
32.3798282414 -25.9166744687 -2.8700409562
32.4361000592 -25.9181284183 -2.8700409576
32.4453874947 -25.9139038706 -2.8700409534
32.4647686631 -25.9316108879 -2.8700409709
32.4740958568 -25.9273014743 -2.8700409666
32.5020003789 -25.9142079494 -2.8700409537
32.5310327754 -25.9271177725 -2.8700409665
32.5403463877 -25.9226123573 -2.8700409620
32.5496466314 -25.9180794105 -2.8700409575
32.5589334251 -25.9135189717 -2.8700409530
32.5509051710 -25.9443574114 -2.8700409835
32.5882816794 -25.9259343734 -2.8700409653
32.5975915405 -25.9212596108 -2.8700409607
32.6068875321 -25.9165573283 -2.8700409560
32.6458253828 -25.9237420425 -2.8700409631
32.6551285068 -25.9188970648 -2.8700409583
32.6663258356 -25.9403203024 -2.8700409795
32.7129398696 -25.9155158271 -2.8700409550
32.7337941539 -25.9316934796 -2.8700409710
32.7431204148 -25.9265882396 -2.8700409659
32.7524315327 -25.9214554331 -2.8700409609
32.7710080135 -25.9111073008 -2.8700409507
32.8107698371 -25.9163563801 -2.8700409558
33.9158966051 -24.9762101461 -2.8700400281
32.8909805339 -25.9254693578 -2.8700409648
32.9095783376 -25.9143014528 -2.8700409538
32.9407376397 -25.9236361238 -2.8700409630
32.9500391600 -25.9179187427 -2.8700409574
32.9720733524 -25.9327112108 -2.8700409720
32.9814015814 -25.9269010933 -2.8700409662
33.0315933877 -25.9237319652 -2.8700409631
33.0408947940 -25.9177458160 -2.8700409572
33.0819840174 -25.9198133047 -2.8700409592
33.2575399077 -25.9165887810 -2.8700409561
32.9171676830 -19.1163455892 -2.8700342459
32.9063321099 -19.1107277171 -2.8700342404
32.8846113448 -19.0995882564 -2.8700342294
32.9609219830 -19.1120473489 -2.8700342417
32.9500735035 -19.1063000625 -2.8700342360
32.9392080699 -19.1005848930 -2.8700342303
32.9283257774 -19.0949018905 -2.8700342247
33.0157441757 -19.1141485895 -2.8700342437
32.9940417348 -19.1023617504 -2.8700342321
33.0382315485 -19.0989164501 -2.8700342287
33.1152183122 -19.1144826241 -2.8700342441
33.1598553090 -19.1124301835 -2.8700342420
33.2046933637 -19.1108832360 -2.8700342405
33.1938403739 -19.1044148349 -2.8700342341
33.2497270051 -19.1098451799 -2.8700342395
33.3620142204 -19.1231446938 -2.8700342526
33.6626588171 -19.2137368798 -2.8700343420
33.4697733693 -22.4068344020 -2.8700374928
33.6489251408 -23.0014166941 -2.8700380795
33.6023557785 -22.6343757330 -2.8700377173
33.5880452519 -22.5678846212 -2.8700376517
33.6767693642 -23.1297416140 -2.8700382061
33.6412750553 -22.7121255971 -2.8700377940
33.6937497183 -22.9450298061 -2.8700380239
33.4993760406 -22.0731279055 -2.8700371635
33.7432554614 -23.3175959298 -2.8700383915
33.7478583310 -23.0510748190 -2.8700381285
33.7733596426 -23.1135797765 -2.8700381902
33.7564453660 -22.8372012199 -2.8700379175
33.5921680040 -22.1704485612 -2.8700372595
33.4627757317 -21.8363009340 -2.8700369298
33.8095034753 -22.8798401286 -2.8700379595
33.7466726396 -22.4064670053 -2.8700374924
33.4163670401 -21.6186818681 -2.8700367151
33.8147660141 -23.8009734805 -2.8700388685
33.8979581452 -23.4785254658 -2.8700385503
33.9172404201 -23.0538281016 -2.8700381312
33.8750956795 -23.7550528574 -2.8700388232
33.9300804649 -23.4061393902 -2.8700384789
33.9417158308 -23.2129727003 -2.8700382883
33.9425046184 -23.1709034930 -2.8700382467
33.9418586561 -23.0699260971 -2.8700381471
33.4953036141 -21.6071823263 -2.8700367037
33.9365746181 -22.7228418539 -2.8700378046
33.8997095296 -22.4174394798 -2.8700375033
33.8963245858 -23.9629272056 -2.8700390283
33.9291495391 -23.9363128052 -2.8700390020
34.0387783480 -23.1981020790 -2.8700382736
33.9421416541 -22.3885476675 -2.8700374748
33.5767894616 -21.5551302257 -2.8700366524
33.8134114015 -24.3307063033 -2.8700393912
33.9396463326 -24.0678766014 -2.8700391318
34.0246426812 -23.9538806179 -2.8700390194
33.8159571773 -24.5493261301 -2.8700396069
34.0359189958 -22.1166300496 -2.8700372064
34.2287249612 -22.9795220993 -2.8700380579
34.1935420076 -23.7683055487 -2.8700388362
34.2555997168 -23.2305286306 -2.8700383056
34.2006596329 -22.4274771036 -2.8700375132
34.2199277582 -22.4035930106 -2.8700374896
32.9252213045 -25.8039132001 -2.8700408449
34.2126596789 -22.2776640860 -2.8700373653
32.9547447767 -25.8129116204 -2.8700408538
34.1822774694 -22.0963104928 -2.8700371864
33.1921525485 -25.7872862146 -2.8700408285
33.3866771836 -25.7831728325 -2.8700408244
33.6973754766 -25.7587333401 -2.8700408003
33.8032004293 -25.7547600709 -2.8700407964
34.4984077412 -25.2084572875 -2.8700402573
32.2804619443 -19.0345956623 -2.8700341652
32.2683163537 -19.0311153994 -2.8700341618
32.3480684258 -19.0294086318 -2.8700341601
32.3359071952 -19.0257283995 -2.8700341565
32.3237351310 -19.0220841583 -2.8700341529
32.3115523398 -19.0184759403 -2.8700341493
32.2993589281 -19.0149037770 -2.8700341458
32.4160855096 -19.0253286877 -2.8700341561
32.4039119122 -19.0214472664 -2.8700341523
32.3795305380 -19.0137925434 -2.8700341447
32.4966656874 -19.0264866150 -2.8700341572
32.4844951628 -19.0223668179 -2.8700341532
32.4723125043 -19.0182830414 -2.8700341491
32.4601178186 -19.0142353212 -2.8700341451
32.5532791174 -19.0205337178 -2.8700341514
32.5410907353 -19.0162464739 -2.8700341471
32.5044502417 -19.0036013360 -2.8700341346
32.6224188754 -19.0198397860 -2.8700341507
32.6102281381 -19.0153480173 -2.8700341462
32.5980241666 -19.0108923306 -2.8700341418
32.6675024827 -19.0109366083 -2.8700341419
32.6883646866 -18.9930287578 -2.8700341242
32.5230792697 -18.9078257826 -2.8700340401
32.8656135878 -19.0128031801 -2.8700341437
33.1836281134 -19.0009908472 -2.8700341321
32.7276346967 -18.7752723935 -2.8700339093
32.7053618348 -18.7155428974 -2.8700338504
33.7683512029 -24.0172317287 -2.8700390819
33.8228053956 -23.6016625716 -2.8700386718
33.8452606037 -23.6335999345 -2.8700387033
33.7089639539 -24.3926195913 -2.8700394523
33.8741702659 -23.4564146890 -2.8700385285
33.6978409957 -24.5488689705 -2.8700396065
34.3037494374 -23.2903059701 -2.8700383646
31.6366994447 -19.0281587615 -2.8700341589
31.6103806876 -19.0259310820 -2.8700341567
31.5972164819 -19.0248756436 -2.8700341556
31.7737128996 -18.9936148475 -2.8700341248
31.7443557533 -18.6256111912 -2.8700337617
33.6137979863 -24.2898428123 -2.8700393509
33.5726123771 -24.5180305830 -2.8700395760
33.5873944902 -24.4740555960 -2.8700395326
33.6848088217 -24.0145667839 -2.8700390792
33.6738858254 -24.2420495459 -2.8700393037
33.5974998985 -24.5911916591 -2.8700396482
33.7398845379 -23.9386378418 -2.8700390043
33.7316302314 -23.5330124785 -2.8700386041
33.5421082113 -24.7821180836 -2.8700398366
33.5897348417 -24.6760113070 -2.8700397319
33.6499442979 -24.5159443665 -2.8700395740
33.7304638251 -24.2048713135 -2.8700392670
33.8118671143 -23.6155529014 -2.8700386855
33.5324127348 -24.9573244026 -2.8700400095
33.7925817167 -23.2995096614 -2.8700383737
33.8573143224 -23.5766083104 -2.8700386471
33.7985120990 -24.6043527092 -2.8700396612
33.8838863808 -24.3005959955 -2.8700393615
33.9344597460 -23.4064063034 -2.8700384791
33.8573868697 -22.9093126294 -2.8700379886
33.4994750981 -22.2084866243 -2.8700372971
33.3518250075 -21.8937765957 -2.8700369865
33.6888988541 -22.2640782751 -2.8700373519
33.3117527877 -21.8209812884 -2.8700369147
33.8088334357 -22.1825199139 -2.8700372715
33.8040909749 -22.1755680854 -2.8700372646
31.2451185664 -18.9840604382 -2.8700341154
31.0749617384 -18.9945829390 -2.8700341257
30.9900501888 -19.0021074529 -2.8700341332
30.9052855601 -19.0111378070 -2.8700341421
30.8911742817 -19.0127890743 -2.8700341437
31.3154018774 -18.9572971570 -2.8700340890
31.0019164594 -18.9766830999 -2.8700341081
31.6016654396 -18.9332379079 -2.8700340652
31.4294802580 -18.9311383046 -2.8700340631
31.2860093402 -18.9340578778 -2.8700340660
31.2716683796 -18.9345832325 -2.8700340665
31.4005028573 -18.9072112267 -2.8700340395
31.8491043768 -18.8984781705 -2.8700340309
31.7768291658 -18.8932046000 -2.8700340257
31.6610496195 -18.8869919544 -2.8700340196
31.3132830750 -18.8848090323 -2.8700340174
31.9670664528 -18.8850949144 -2.8700340177
31.6766106387 -18.8634698219 -2.8700339964
32.1181216355 -18.8544247416 -2.8700339874
32.1945040955 -18.8408425961 -2.8700339740
31.7241387455 -18.7932025676 -2.8700339270
31.1004036054 -18.7502586494 -2.8700338847
32.4121307824 -18.8044194648 -2.8700339381
30.8896693669 -18.7452924872 -2.8700338798
32.5546797129 -18.7844053054 -2.8700339184
32.2309686388 -18.6996647441 -2.8700338347
32.7286053615 -18.7759249062 -2.8700339100
31.2741204027 -18.5958443823 -2.8700337323
31.1208002880 -18.6035058123 -2.8700337399
33.5419417532 -24.1876746242 -2.8700390116
33.4802566337 -24.6187535753 -2.8700394370
33.5448864047 -24.3581901570 -2.8700391799
33.5698177871 -24.1293831518 -2.8700389541
33.5717552898 -24.0581276399 -2.8700388838
33.5132995377 -24.5944824483 -2.8700394131
33.5550787163 -24.4332089149 -2.8700392539
33.5959728739 -24.0360998736 -2.8700388621
33.5952747820 -23.9916658718 -2.8700388182
33.5949359717 -23.9805609247 -2.8700388073
33.5953229813 -24.3497537020 -2.8700391716
33.6070654354 -24.2661829511 -2.8700390891
33.6142349310 -24.1933942377 -2.8700390173
33.6196679555 -24.0866415744 -2.8700389119
33.6201457202 -24.0360061616 -2.8700388620
33.6200053843 -24.0191270797 -2.8700388453
33.6085866183 -23.8338754578 -2.8700386625
33.6182542091 -24.3592697268 -2.8700391810
33.6399958301 -24.1725693439 -2.8700389967
33.6407265228 -24.1611966460 -2.8700389855
33.6397552557 -23.9106598696 -2.8700387383
33.6210936759 -24.4708100302 -2.8700392910
33.6553335701 -23.8170851229 -2.8700386460
33.6451629972 -23.6128121673 -2.8700384444
33.5969412198 -24.7252594785 -2.8700395421
33.7004701313 -23.7880018170 -2.8700386173
33.6901577010 -23.7178077328 -2.8700385480
33.6535419884 -23.5443093982 -2.8700383768
33.7385602870 -24.1432110857 -2.8700389678
33.7392128094 -23.9577696622 -2.8700387848
33.6611525231 -23.4805573085 -2.8700383139
33.7374829627 -24.3790910887 -2.8700392005
33.6832302259 -24.6979196807 -2.8700395151
33.7434568492 -23.6096842803 -2.8700384413
33.6761064312 -23.3678283997 -2.8700382026
33.7139732079 -23.2608711911 -2.8700380971
33.8549822615 -23.6775962081 -2.8700385083
33.7245534445 -23.2222819757 -2.8700380590
33.9585544235 -24.0545771950 -2.8700388803
33.9593057092 -24.3684337389 -2.8700391900
34.0882699401 -23.6087353866 -2.8700384404
33.4596664968 -22.2409153411 -2.8700370907
33.7167038833 -22.4520879474 -2.8700372990
33.7684429841 -22.4791490703 -2.8700373257
33.8199101437 -22.5076767716 -2.8700373539
33.6343781507 -22.2816026674 -2.8700371308
33.1486724668 -21.8686569832 -2.8700367233
33.6521732736 -22.2652420781 -2.8700371147
32.6646916904 -21.3863410487 -2.8700362474
32.9900168134 -21.4987611678 -2.8700363583
31.0060997703 -18.8784877029 -2.8700337728
31.4190762163 -18.8140100727 -2.8700337091
31.1411816279 -18.8373376752 -2.8700337322
31.1257837381 -18.8390671549 -2.8700337339
30.5910817587 -18.9281562012 -2.8700338218
30.4494833538 -18.9365114569 -2.8700338300
30.2242005114 -18.9978128547 -2.8700338905
31.2915143451 -18.7743624645 -2.8700336700
30.1724145358 -18.9881527166 -2.8700338810
31.7132465453 -18.7329494829 -2.8700336292
31.6974436413 -18.7088143015 -2.8700336053
31.3033438768 -18.7249238326 -2.8700336212
32.0142441573 -18.6927890560 -2.8700335895
30.9392105758 -18.7415120632 -2.8700336376
30.5754296981 -18.7831120105 -2.8700336787
30.1065088190 -18.8820144334 -2.8700337763
30.8175738492 -18.6872614852 -2.8700335841
30.6595470594 -18.7162409136 -2.8700336127
30.4242866405 -18.7684410744 -2.8700336642
31.5678876833 -18.5899781307 -2.8700334881
30.8095577047 -18.6395846296 -2.8700335370
30.4916253354 -18.7027622574 -2.8700335994
33.4449548950 -24.5006205593 -2.8700395589
33.4702335115 -24.4962151302 -2.8700395545
33.4801211452 -24.4274985436 -2.8700394867
33.4842504393 -24.3886637949 -2.8700394484
33.4902823825 -24.2803707681 -2.8700393415
33.5246876598 -24.4599237219 -2.8700395187
33.5355852769 -24.3529212325 -2.8700394131
33.5385872228 -24.2230049820 -2.8700392849
33.5473637138 -24.4722437401 -2.8700395309
33.5629088211 -24.2316331991 -2.8700392934
33.5787079685 -24.4160185954 -2.8700394754
33.5809490975 -24.3930003632 -2.8700394527
33.5637233638 -23.9828841685 -2.8700390480
33.6041562027 -24.4045185123 -2.8700394640
33.5674882376 -23.8821465061 -2.8700389486
33.6340542515 -24.1829636422 -2.8700392454
33.5942721167 -23.8904250332 -2.8700389567
33.5840637801 -23.8487418591 -2.8700389156
33.7069122705 -24.5462593869 -2.8700396039
33.3650625822 -22.4284158777 -2.8700375141
32.8662789690 -21.7135806007 -2.8700368087
32.9642964171 -21.7224289498 -2.8700368175
33.4116904915 -21.7698393164 -2.8700368642
29.7569457958 -18.8683876062 -2.8700340012
29.3167215366 -18.9939914703 -2.8700341252
33.4421697420 -24.3766905210 -2.8700394366
33.4559677084 -24.2492027857 -2.8700393108
33.4652828650 -24.1637016293 -2.8700392264
33.5277853409 -24.2391407181 -2.8700393008
33.5418441220 -24.1762086259 -2.8700392387
33.5151808409 -24.0657324468 -2.8700391297
33.5741675632 -24.0985459928 -2.8700391621
33.8774818795 -24.3842492911 -2.8700394440
33.8773478065 -24.3752854250 -2.8700394352
33.8887090336 -24.2023683155 -2.8700392646
32.7704214363 -21.6603660251 -2.8700367562
33.4484354209 -24.3338920059 -2.8700393943
33.4479784203 -24.3317459506 -2.8700393922
33.4380944803 -24.2912508784 -2.8700393523
33.4632137462 -24.2117604766 -2.8700392738
33.4427673601 -24.1620565961 -2.8700392248
33.4742940584 -23.8161142378 -2.8700388834
33.8656125235 -24.2065652999 -2.8700392687
33.3112115738 -22.0012976868 -2.8700370926
32.8426189111 -21.8870139195 -2.8700369799
33.8457614825 -24.1359720036 -2.8700391990
33.8424477540 -24.0779767132 -2.8700391418
33.8608342439 -24.0148413001 -2.8700390795
33.8535092651 -24.0035328474 -2.8700390684
33.8452278069 -23.9493999515 -2.8700390149
33.8402727441 -23.9427429442 -2.8700390084
33.1092274654 -21.9497592020 -2.8700370418
32.9581438285 -21.9532477215 -2.8700370452
32.8978125757 -21.9571445217 -2.8700370491
33.2998810223 -21.9338734139 -2.8700370261
33.3937774250 -21.9188375417 -2.8700370113
32.7410048156 -21.9252179796 -2.8700370176
32.5740134794 -21.9535458252 -2.8700370455
32.7146519711 -21.9045184968 -2.8700369971
32.5208440748 -21.8906516853 -2.8700369835
32.6128070742 -21.6758652522 -2.8700367715
33.0592601168 -21.5389515981 -2.8700366364
26.5462548819 -20.8732675472 -2.8700359795
26.5641260770 -20.6001737966 -2.8700357101
26.5226336474 -20.5753601024 -2.8700356856
26.5164899144 -20.4920288315 -2.8700356034
26.5116195408 -20.2721630950 -2.8700353864
40.4534247186 -21.3257275098 -2.8700364260
40.9393201568 -21.1708399696 -2.8700362732
40.9672282508 -20.9927190808 -2.8700360974
41.0113826918 -20.9730283095 -2.8700360780
41.0009015702 -20.9496186650 -2.8700360549
40.9797318071 -20.9028929030 -2.8700360088
40.9582859692 -20.8562932061 -2.8700359628
40.9910025306 -20.8694712700 -2.8700359758
40.9802151578 -20.8461223668 -2.8700359528
40.9693587619 -20.8228054767 -2.8700359298
40.9692773459 -20.7659035039 -2.8700358736
40.9799910032 -20.7321897172 -2.8700358403
40.9896318305 -20.6410969370 -2.8700357505
40.9998512638 -20.6070661801 -2.8700357169
40.9962913009 -20.4918916987 -2.8700356032
41.0032840792 -20.3996420307 -2.8700355122
41.0247405223 -20.3885084629 -2.8700355012
41.0339536410 -20.3538648699 -2.8700354670
41.0216408232 -20.3303911655 -2.8700354439
41.0181303428 -20.2721668696 -2.8700353864
41.0394535463 -20.2607801986 -2.8700353752
33.8316271998 -23.6726189555 -2.8700387418
32.9709634845 -21.4924170715 -2.8700365905
26.5556201941 -21.1121809276 -2.8700362153
26.5150326891 -20.2059219382 -2.8700353210
26.4779671587 -19.9433942315 -2.8700350620
40.9932473776 -20.1041302284 -2.8700352206
40.9694594029 -19.8478281360 -2.8700349677
40.9772803431 -19.6603982243 -2.8700347827
40.9719476436 -19.6015272147 -2.8700347247
40.9929902524 -19.5896299925 -2.8700347129
33.4252237597 -23.8143574023 -2.8700388817
33.4497327345 -23.8121604198 -2.8700388795
33.4478015098 -23.8054200748 -2.8700388729
33.4458105443 -23.7986971338 -2.8700388662
33.4451336404 -23.7964601126 -2.8700388640
33.4444501220 -23.7942251035 -2.8700388618
33.4372524816 -23.7719899774 -2.8700388399
33.4334078036 -23.7609546870 -2.8700388290
33.4318243013 -23.7565566960 -2.8700388246
33.4511994974 -23.7392648038 -2.8700388076
33.4468692759 -23.7280268112 -2.8700387965
33.4549646407 -23.6848672499 -2.8700387539
33.4498294465 -23.6735795196 -2.8700387428
33.4368283318 -23.6468085528 -2.8700387164
33.4486138419 -23.5232186874 -2.8700385944
33.8635017783 -23.6767662711 -2.8700387459
33.8624623532 -23.6732941771 -2.8700387425
33.8603527128 -23.6663592896 -2.8700387356
33.8582020801 -23.6594370047 -2.8700387288
33.8659969684 -23.6066444432 -2.8700386767
33.8622255128 -23.5962180796 -2.8700386664
33.9140522983 -23.6774375168 -2.8700387466
33.8823051073 -23.5808284935 -2.8700386512
33.9062881342 -23.5759692675 -2.8700386465
33.8952886240 -23.5472964933 -2.8700386182
33.8748993995 -23.4419109507 -2.8700385142
33.8996398726 -23.1555759569 -2.8700382316
33.0551770295 -22.2091879589 -2.8700372978
33.1283368057 -21.8787141755 -2.8700369717
33.0901500888 -21.8712596217 -2.8700369643
32.6903815425 -21.8101177997 -2.8700369040
33.1592475130 -21.7616787974 -2.8700368562
33.1709267894 -21.7394249230 -2.8700368342
33.0745000016 -21.5009087217 -2.8700365989
33.1233309975 -21.4843157048 -2.8700365825
32.9874203968 -21.4648163371 -2.8700365633
32.9495009331 -21.4606866044 -2.8700365592
33.3381873513 -21.5055338764 -2.8700366034
32.9672576292 -21.4382364119 -2.8700365370
32.9442781598 -21.4358712447 -2.8700365347
32.8675450506 -21.4294617795 -2.8700365284
32.7675688374 -21.4245272770 -2.8700365235
32.7290775312 -21.4236536408 -2.8700365226
32.6439610725 -21.3995665684 -2.8700364989
32.0990754573 -21.3671890303 -2.8700364669
33.2715182774 -21.3407031339 -2.8700364408
32.1769696177 -21.3018821395 -2.8700364025
31.8056995463 -21.2968904151 -2.8700363976
32.7511415520 -21.1097561204 -2.8700362129
32.0689385126 -21.1510793797 -2.8700362537
26.7223540868 -19.9611939526 -2.8700350796
26.6283575971 -19.1162651458 -2.8700342458
33.4560724931 -23.7520402731 -2.8700385818
33.4517232563 -23.7139462617 -2.8700385442
33.4480737758 -23.6886463870 -2.8700385192
33.4533279202 -23.5920543432 -2.8700384239
33.4978241439 -23.6943831027 -2.8700385249
33.4679771192 -23.8852488884 -2.8700389516
33.4743291542 -23.7056226854 -2.8700387744
33.4722240960 -23.6626620057 -2.8700387320
33.4988363067 -23.7804776184 -2.8700388482
33.4960802812 -23.6571132802 -2.8700387265
33.5218165408 -23.4821527175 -2.8700385539
33.5306560859 -23.3198689530 -2.8700383937
33.6191572466 -23.8006695850 -2.8700388682
33.3427039003 -21.5702444516 -2.8700366673
33.8965386247 -21.8485046078 -2.8700369419
32.8963375047 -21.2289083442 -2.8700363305
31.0400651238 -18.6058141533 -2.8700337421
30.3935081722 -18.6360352542 -2.8700337720
33.4682454114 -23.9771979658 -2.8700390424
33.4730447084 -23.9590335383 -2.8700390244
33.4753636730 -23.9499303468 -2.8700390155
33.4765029485 -23.9453736459 -2.8700390110
33.5005785202 -23.8304714560 -2.8700388976
33.5078189824 -23.7840649524 -2.8700388518
33.5173814153 -23.7000721366 -2.8700387689
33.5192427540 -23.6766614008 -2.8700387458
33.4699187186 -24.0566598374 -2.8700391208
33.5137495243 -23.8907685623 -2.8700389571
33.5296967327 -23.8015941919 -2.8700388691
33.5343050758 -23.7685351196 -2.8700388365
33.5349074935 -23.7638048531 -2.8700388318
33.5464527780 -23.6212643705 -2.8700386911
33.5469106155 -23.6069663235 -2.8700386770
33.5468626039 -23.5163772542 -2.8700385876
33.5462037525 -23.4973148517 -2.8700385688
33.4914375113 -24.0686746680 -2.8700391326
33.5383946325 -23.8909508829 -2.8700389573
33.5570143840 -23.7812213190 -2.8700388490
33.5676840493 -23.4480127537 -2.8700385202
33.5666035399 -23.4335331136 -2.8700385059
33.5218487954 -24.0527446192 -2.8700391169
33.5882863497 -23.7210275269 -2.8700387896
33.5953664391 -23.6033893723 -2.8700386735
33.5957710510 -23.5444559679 -2.8700386154
33.5749808792 -23.2999876576 -2.8700383741
33.5725864427 -23.2854490912 -2.8700383598
33.5589505769 -24.0120628064 -2.8700390768
33.6155554335 -23.4396587536 -2.8700385119
33.5902437893 -23.2470859028 -2.8700383219
33.5650261391 -24.0766686342 -2.8700391405
33.6197102314 -23.8508679619 -2.8700389177
33.6377921930 -23.7105424123 -2.8700387792
33.6436978500 -23.6045792700 -2.8700386747
33.6293131886 -23.3373515556 -2.8700384110
33.6070041894 -23.2078746317 -2.8700382832
33.6004465066 -23.1782654741 -2.8700382540
33.5933643480 -23.1487773673 -2.8700382249
33.5956100375 -24.0594440676 -2.8700391235
33.6635296758 -23.6921994532 -2.8700387611
33.6587457087 -23.3799732188 -2.8700384531
33.6774820438 -23.7922249959 -2.8700388598
33.6310967091 -23.1018642644 -2.8700381786
33.7053022911 -23.7640073355 -2.8700388320
33.7094043373 -23.4010981017 -2.8700384739
33.6790299683 -23.1979783162 -2.8700382735
33.6523482202 -24.1210213261 -2.8700391843
33.6768498553 -24.0391691539 -2.8700391035
33.7371963328 -23.4468266861 -2.8700385190
33.7109399287 -23.2349503639 -2.8700383099
33.6195017105 -22.9116654859 -2.8700379909
33.2114579280 -22.2852787450 -2.8700373729
33.7609648386 -23.4398771063 -2.8700385122
33.7543216345 -23.3644056516 -2.8700384377
33.6459215509 -22.9130583373 -2.8700379923
33.7515237391 -23.9346217172 -2.8700390004
33.7286489047 -23.0924069801 -2.8700381693
33.7274644274 -23.0008666885 -2.8700380790
33.7905807957 -23.9828260909 -2.8700390479
33.8270152842 -23.3621468675 -2.8700384355
33.7851323284 -23.0245881244 -2.8700381024
33.6644289966 -22.6597441540 -2.8700377424
33.8928973820 -23.3023095508 -2.8700383764
33.5375680375 -22.3673288255 -2.8700374538
33.5432806156 -22.0723572447 -2.8700371628
33.4628669142 -21.6675497944 -2.8700367633
33.4759931547 -21.6161607357 -2.8700367126
33.4586595968 -21.6025669366 -2.8700366992
33.4570695432 -21.4803045696 -2.8700365785
33.3504770067 -21.4064540136 -2.8700365057
33.2446034635 -21.2846463523 -2.8700363855
33.4495298749 -21.3564895684 -2.8700364564
33.2342358103 -21.2232652239 -2.8700363249
33.3014566762 -21.2338000905 -2.8700363353
32.8398373271 -20.9418882587 -2.8700360473
31.2218409271 -18.8375003469 -2.8700339707
31.5144368250 -18.7782254186 -2.8700339123
31.3449036432 -18.7961856353 -2.8700339300
31.2885474421 -18.8035082763 -2.8700339372
31.1761146884 -18.8201513999 -2.8700339536
31.1060562095 -18.8319026881 -2.8700339652
30.7175143068 -18.9167499649 -2.8700340489
31.3702823715 -18.7687678138 -2.8700339029
31.2711448891 -18.7815001584 -2.8700339155
31.0316524948 -18.8209434787 -2.8700339544
30.8222140839 -18.8657065716 -2.8700339986
31.7966813875 -18.7133691722 -2.8700338483
31.3359850623 -18.7242170557 -2.8700338590
31.0509488277 -18.7681350797 -2.8700339023
30.9236331451 -18.7933830767 -2.8700339272
30.6573200723 -18.8577602578 -2.8700339907
30.3677047614 -18.9461913531 -2.8700340780
32.2154401493 -18.6710349681 -2.8700338065
31.1608251120 -18.7246757833 -2.8700338594
31.1465172665 -18.7269887688 -2.8700338617
30.3874057083 -18.9140616493 -2.8700340463
30.1827319922 -18.9873107243 -2.8700341186
32.3350135404 -18.6308391943 -2.8700337668
32.2766315697 -18.6264579702 -2.8700337625
31.4533298824 -18.5896697734 -2.8700337262
30.7975713541 -18.6976702538 -2.8700338328
31.5081081069 -18.5361397106 -2.8700336734
30.5841772193 -18.7023787502 -2.8700338374
30.3909522763 -18.7349055155 -2.8700338695
30.3624174869 -18.7441284488 -2.8700338786
30.9374994120 -18.5684046342 -2.8700337052
30.0074823690 -18.7444233326 -2.8700338789
30.7458744504 -18.3374758225 -2.8700334773
33.5387205108 -23.8692079495 -2.8700389358
33.5864627252 -23.6608680152 -2.8700387302
33.6099048346 -23.4484172804 -2.8700385206
33.5001770603 -24.0543634962 -2.8700391185
33.5083696739 -24.0337088279 -2.8700390981
33.5369012570 -23.9554271031 -2.8700390209
33.6102971148 -23.6649000317 -2.8700387342
33.6340449209 -23.4496788343 -2.8700385218
33.4750057820 -24.1715394261 -2.8700392341
33.5971986066 -23.8393383320 -2.8700389063
33.6526036373 -23.1755361335 -2.8700382513
33.5183044515 -24.1353963501 -2.8700391985
33.6145896947 -23.8675314195 -2.8700389342
33.6786491797 -23.1960039094 -2.8700382715
33.5091124987 -24.2654961491 -2.8700393268
33.5404419499 -24.2027984324 -2.8700392650
33.6840586463 -23.7898765547 -2.8700388575
33.7538486145 -23.2314276148 -2.8700383065
33.6926374631 -23.9451180381 -2.8700390107
33.6006253250 -24.2449702768 -2.8700393066
33.6548207561 -24.1232938634 -2.8700391865
33.5775244888 -24.3426812561 -2.8700394030
33.8135649852 -23.7621443865 -2.8700388302
33.8529802628 -23.2813351814 -2.8700383557
33.8499835015 -23.2194235272 -2.8700382946
33.8190237194 -23.9441023197 -2.8700390097
33.9012343270 -23.4255422132 -2.8700384980
33.9127445456 -23.1062588870 -2.8700381830
33.8926955039 -24.0342387681 -2.8700390986
33.9459465500 -23.9387767750 -2.8700390045
33.8383646435 -24.3076002568 -2.8700393684
33.9448455756 -24.0295937969 -2.8700390941
33.5276111663 -21.7153369981 -2.8700368105
33.6164499743 -21.5282709707 -2.8700366259
33.4572937063 -21.3473709300 -2.8700364474
33.7314755718 -21.5801684478 -2.8700366771
33.6912726095 -21.3978770243 -2.8700364972
32.8286504807 -20.4823160334 -2.8700355938
31.0813302216 -19.0123757869 -2.8700341433
30.9532807814 -19.0343104327 -2.8700341650
31.3367850285 -18.9558508925 -2.8700340875
31.2328835748 -18.9670666551 -2.8700340986
31.1680910277 -18.9753239003 -2.8700341067
31.1034276957 -18.9845385491 -2.8700341158
31.0905117806 -18.9864961936 -2.8700341178
31.0260221770 -18.9968570474 -2.8700341280
31.0131430409 -18.9990436175 -2.8700341302
31.0002704293 -19.0012682768 -2.8700341323
31.1388345453 -18.9549586962 -2.8700340866
31.1258309727 -18.9568117302 -2.8700340885
30.9961186148 -18.9774544632 -2.8700341088
31.8333554502 -18.8879229899 -2.8700340205
31.5429011411 -18.8925201172 -2.8700340250
31.3847782556 -18.9029897020 -2.8700340354
31.0049803394 -18.9513916350 -2.8700340831
31.1715527622 -18.9016999259 -2.8700340341
31.6339408552 -18.8406793956 -2.8700339739
31.2081174325 -18.8726717796 -2.8700340055
31.1419314577 -18.8813056509 -2.8700340140
32.1561644397 -18.8322205988 -2.8700339655
31.1785363866 -18.8520333053 -2.8700339851
31.0457018818 -18.8711629837 -2.8700340040
31.0152658246 -18.8516102604 -2.8700339847
30.9620710038 -18.8607224404 -2.8700339937
32.4431911228 -18.8178067776 -2.8700339513
32.2279123242 -18.7905006909 -2.8700339244
30.9845735857 -18.8322616788 -2.8700339656
31.0539333813 -18.7475494444 -2.8700338820
31.3067581721 -18.6430393668 -2.8700337789
31.0014928520 -18.6824017060 -2.8700338177
31.3464663527 -18.6151317137 -2.8700337513
32.2898655647 -18.6026578957 -2.8700337390
31.6407184411 -18.5745077550 -2.8700337112
31.8105991677 -18.5491570071 -2.8700336862
30.9338413977 -18.6202472590 -2.8700337564
31.7537448793 -18.5247065921 -2.8700336621
30.9437600783 -18.5940017665 -2.8700337305
31.3237871764 -18.5200693453 -2.8700336575
30.8886925841 -18.5300551190 -2.8700336674
33.6746875351 -23.3956458871 -2.8700384685
33.7069848825 -23.3313312157 -2.8700384051
33.7357681942 -23.2839688975 -2.8700383583
33.7347402906 -22.9207476595 -2.8700379999
33.6949310705 -23.6603842466 -2.8700387297
33.7634633515 -23.2353681274 -2.8700383104
33.7582478773 -22.9122923802 -2.8700379916
33.5675982530 -22.1490100745 -2.8700372384
33.6034077603 -22.1674945935 -2.8700372566
33.6048617200 -24.1013021105 -2.8700391648
33.8072566428 -22.7302189924 -2.8700378119
33.8675641577 -23.9861288584 -2.8700390512
33.7245607060 -21.9285461168 -2.8700370208
34.0343833181 -22.2633489774 -2.8700373512
34.1946345712 -22.5685162793 -2.8700376523
33.6707834008 -21.4618824598 -2.8700365604
34.2467247077 -22.5818418066 -2.8700376655
31.7084175376 -19.0316114795 -2.8700341623
31.8301780241 -19.0117654785 -2.8700341427
31.7938151313 -19.0100923299 -2.8700341411
31.7574388223 -19.0087419474 -2.8700341397
31.9896712120 -18.9986641756 -2.8700341298
31.9775124614 -18.9975988517 -2.8700341287
31.9531857720 -18.9955761303 -2.8700341267
31.8923204187 -18.9911492954 -2.8700341224
31.8679570625 -18.9896307116 -2.8700341209
31.8557721218 -18.9889254797 -2.8700341202
32.1261103113 -18.9887589527 -2.8700341200
32.1017287213 -18.9858572313 -2.8700341171
32.0895315952 -18.9844604770 -2.8700341158
32.0773303905 -18.9830998102 -2.8700341144
32.0529161729 -18.9804867862 -2.8700341118
31.9918167334 -18.9745865507 -2.8700341060
31.9306367105 -18.9695906449 -2.8700341011
31.7590179231 -18.9604216869 -2.8700340920
31.7099284013 -18.9591081359 -2.8700340907
32.2269469198 -18.9778876593 -2.8700341093
32.1780313057 -18.9710361322 -2.8700341025
31.9693566777 -18.9483897060 -2.8700340802
31.9447389931 -18.9464160982 -2.8700340782
31.6733920654 -18.9343329099 -2.8700340663
32.3040784621 -18.9653956796 -2.8700340969
32.0826176071 -18.9350437339 -2.8700340670
32.5021006664 -18.9286964964 -2.8700340607
31.7764537084 -18.8158946939 -2.8700339494
31.7383546880 -18.8147060315 -2.8700339483
32.7110423031 -18.9281600389 -2.8700340602
31.9431608959 -18.8008435749 -2.8700339346
32.7791816715 -18.9214013569 -2.8700340535
32.0520780464 -18.7374418862 -2.8700338720
32.0003296080 -18.7326763216 -2.8700338673
32.0024038940 -18.7085924552 -2.8700338435
31.9242567956 -18.7025599817 -2.8700338376
32.9936058704 -18.8848146484 -2.8700340174
32.8175656678 -18.8317085313 -2.8700339650
33.0744076740 -18.8097084514 -2.8700339433
32.5436647894 -18.6657391643 -2.8700338013
31.9879574791 -18.5618532235 -2.8700336988
31.9745065702 -18.5607948804 -2.8700336977
32.3935334308 -18.5882200036 -2.8700337248
34.1211457207 -19.0912290382 -2.8700342211
33.2929960337 -22.4345946499 -2.8700375202
33.6370030058 -22.3147297225 -2.8700374019
33.7826168453 -23.1220893529 -2.8700381986
33.7848552056 -23.2655323871 -2.8700383401
33.7963023912 -23.1988025288 -2.8700382743
33.8082242723 -23.1115999468 -2.8700381882
33.8167846674 -23.0240034789 -2.8700381018
33.8207350839 -22.9631971107 -2.8700380418
33.7544789105 -23.4961187355 -2.8700385677
33.8626598834 -23.0553366806 -2.8700381327
33.8660222720 -23.0139913851 -2.8700380919
33.8685981441 -22.7169128562 -2.8700377988
33.8269535516 -22.3879584368 -2.8700374742
33.7528595720 -23.6556777193 -2.8700387251
33.8710962690 -23.1892870083 -2.8700382649
33.8896175002 -23.0227031246 -2.8700381005
33.8934604616 -22.7295372651 -2.8700378112
33.8923408868 -22.7086115689 -2.8700377906
33.8895448609 -22.6667941028 -2.8700377493
33.8644097233 -23.3593471271 -2.8700384327
33.9126197804 -23.0385902778 -2.8700381162
33.9006835455 -22.5386246461 -2.8700376228
33.9111454282 -23.2456177214 -2.8700383205
33.9562018406 -23.0926956335 -2.8700381696
33.9130828032 -23.4668669381 -2.8700385388
33.9904279494 -22.9573931432 -2.8700380361
33.9929248529 -22.8629055172 -2.8700379428
33.9910085163 -22.7465919327 -2.8700378281
34.0111308251 -22.6723075959 -2.8700377548
34.0083023967 -22.6357031815 -2.8700377186
33.9926264092 -22.4970924756 -2.8700375819
33.9872085054 -22.4607809142 -2.8700375460
33.7575227890 -24.0037282758 -2.8700390685
33.7810339698 -23.9574602022 -2.8700390229
34.0413074713 -22.8335962620 -2.8700379139
34.0386767509 -22.7298370917 -2.8700378115
