18.6511474080 -9.0853753905 -3.0000244622
18.6351579506 -8.9703461865 -3.0000243487
18.6062493418 -8.8379855758 -3.0000242181
18.5959860316 -8.8006516507 -3.0000241813
18.6617539148 -9.5234239520 -3.0000248945
18.6835397095 -9.2888800239 -3.0000246630
18.6819046205 -9.1710403464 -3.0000245468
18.5809403592 -8.6773293178 -3.0000240596
18.6999298450 -9.4186950329 -3.0000247911
18.7020377900 -9.1101891353 -3.0000244867
18.6599743076 -8.7612063325 -3.0000241424
18.7562014531 -9.2238141189 -3.0000245988
18.7462504573 -9.0652753022 -3.0000244424
18.7312744650 -8.9586932910 -3.0000243372
18.7332315943 -8.8476702838 -3.0000242277
18.7541045230 -8.7384937623 -3.0000241200
18.7295794511 -8.6622390795 -3.0000240447
18.6789949345 -8.4739606033 -3.0000238589
18.1300449937 -7.5884265354 -3.0000229851
18.0449724670 -7.5349133257 -3.0000229323
18.0296853600 -7.5259170729 -3.0000229234
18.0143190184 -7.5170568389 -3.0000229147
17.9885356616 -7.5025939365 -3.0000229004
17.9833534780 -7.4997472076 -3.0000228976
17.9781628958 -7.4969158210 -3.0000228948
17.9677567179 -7.4912991736 -3.0000228893
17.9573174922 -7.4857441909 -3.0000228838
17.9520856005 -7.4829898847 -3.0000228811
18.1927652341 -7.6021531745 -3.0000229987
18.1583328438 -7.5782990383 -3.0000229751
18.1533738666 -7.5749496874 -3.0000229718
18.1434262968 -7.5682950673 -3.0000229653
18.1032475513 -7.5422685817 -3.0000229396
18.0366776811 -7.5020251408 -3.0000228999
18.0314936042 -7.4990360015 -3.0000228969
17.9949606634 -7.4785432332 -3.0000228767
17.9844454931 -7.4728275262 -3.0000228711
17.9686097930 -7.4643708612 -3.0000228627
18.1968318524 -7.5754558401 -3.0000229723
18.1818985575 -7.5651103240 -3.0000229621
17.8877089642 -7.3972155541 -3.0000227964
17.8656901930 -7.3871211966 -3.0000227865
18.2505178771 -7.5842117342 -3.0000229810
18.2157016132 -7.5591656289 -3.0000229562
17.9145415192 -7.3831343788 -3.0000227825
17.9090062763 -7.3805070607 -3.0000227800
17.8756338139 -7.3650880469 -3.0000227647
17.9343553115 -6.9699119193 -3.0000223748
18.6039596289 -7.3388772932 -3.0000227389
18.4098771614 -7.1939626841 -3.0000225959
17.7191163614 -6.7696541930 -3.0000221772
17.4787005831 -6.6409276394 -3.0000220502
17.5454647675 -6.4073035692 -3.0000218196
15.6765962386 -3.7173131365 -3.0000191653
15.4351934827 -3.7313686054 -3.0000191792
14.8867607325 -3.8675359490 -3.0000193135
15.0225673427 -3.7898618291 -3.0000192369
14.9010957697 -3.8099452675 -3.0000192567
14.6617416262 -3.9094544066 -3.0000193549
14.8761547570 -3.7937527072 -3.0000192407
14.4055497068 -3.9761743560 -3.0000194207
14.1823432468 -3.9279569481 -3.0000193731
18.4665890829 -9.3924527125 -3.0000247652
18.4616727913 -9.2978722513 -3.0000246719
18.4554943946 -9.2459748070 -3.0000246207
18.4535665529 -9.2330506768 -3.0000246080
18.4820852922 -9.2624019248 -3.0000246369
18.4736304473 -9.2062900716 -3.0000245816
18.5038308713 -9.2425012881 -3.0000246173
18.4760949929 -9.1055651486 -3.0000244822
18.5230102455 -9.2081799380 -3.0000245834
18.5087115729 -9.1364960293 -3.0000245127
18.5046528319 -9.1195693741 -3.0000244960
18.4938940345 -9.0792049017 -3.0000244562
18.4919618909 -9.0725157188 -3.0000244496
18.4909809867 -9.0691754433 -3.0000244463
18.4879790477 -9.0591722315 -3.0000244364
18.5353887591 -9.1448958962 -3.0000245210
18.5263888939 -9.1068668936 -3.0000244834
18.5342228106 -9.0450706175 -3.0000244225
18.5110416774 -8.9764015361 -3.0000243547
18.4979380672 -8.9426112320 -3.0000243214
18.4965728559 -8.9392538463 -3.0000243181
18.5685680613 -9.0770923844 -3.0000244541
18.5271525376 -8.9507179833 -3.0000243294
18.4890002722 -8.8625502813 -3.0000242424
18.5075237654 -8.8453192141 -3.0000242254
18.5108750758 -8.7480886867 -3.0000241294
18.5492018010 -8.7674934758 -3.0000241486
18.5318786993 -8.7361227735 -3.0000241176
18.8756474379 -9.3260161028 -3.0000246997
18.9016379089 -9.3839658235 -3.0000247569
18.9010676492 -9.3566484386 -3.0000247299
18.9239319716 -9.3235778779 -3.0000246973
18.9151475934 -9.0711408284 -3.0000244482
18.0373398012 -7.5468493020 -3.0000229441
18.1008603281 -7.5451646899 -3.0000229424
18.0788325374 -7.5365558218 -3.0000229339
18.0289079272 -7.5181428252 -3.0000229158
17.9503214488 -7.4921594813 -3.0000228901
18.1595670925 -7.5432670458 -3.0000229406
18.1430366231 -7.5362650345 -3.0000229336
18.0986583148 -7.5183130068 -3.0000229159
17.8999880362 -7.4522997679 -3.0000228508
18.2078767212 -7.5381590720 -3.0000229355
18.1579490585 -7.5163102839 -3.0000229140
17.8771656966 -7.4211646070 -3.0000228201
18.3135182283 -7.1097383658 -3.0000225128
17.8650479495 -6.9716921523 -3.0000223766
14.4000514240 -3.7040011928 -3.0000191521
14.0807069886 -3.7975302405 -3.0000192444
13.9021418091 -3.7636640949 -3.0000192110
13.6744809737 -3.8807640528 -3.0000193266
18.4456040251 -9.3210306184 -3.0000246948
18.4381654345 -9.2138254733 -3.0000245890
18.4753154609 -9.1764191076 -3.0000245521
18.8847282558 -9.1835735560 -3.0000245591
18.8679915467 -9.1255472529 -3.0000245019
18.9333509420 -9.1785042059 -3.0000245541
18.9227636343 -9.0608460635 -3.0000244380
17.9709009684 -7.4796772330 -3.0000228778
18.1114060791 -7.4774596934 -3.0000228756
16.7215845478 -6.6700843134 -3.0000220789
18.8593738788 -9.1651997888 -3.0000245410
18.8583670713 -9.1629331240 -3.0000245388
18.8479319350 -9.1404340888 -3.0000245166
18.8424659357 -9.1293027849 -3.0000245056
18.8594642544 -9.1093866630 -3.0000244859
18.8523324800 -9.0958390807 -3.0000244726
18.8462064220 -9.0846475690 -3.0000244615
18.8542216949 -9.0501596767 -3.0000244275
18.8429788308 -8.9878855231 -3.0000243660
18.8485020916 -8.9538621447 -3.0000243325
18.8561809673 -8.9236959109 -3.0000243027
18.8492562055 -8.9147019471 -3.0000242938
18.8422255077 -8.9057905499 -3.0000242850
18.8592955476 -8.8884352981 -3.0000242679
18.0295392089 -7.5308662327 -3.0000229283
18.2027705996 -7.4603035770 -3.0000228587
18.1846259422 -7.4594066893 -3.0000228578
17.9606904006 -7.4615955171 -3.0000228600
17.9546479556 -7.4619947745 -3.0000228604
17.9365280774 -7.4632997696 -3.0000228617
17.8521542424 -7.4715132480 -3.0000228698
17.8461416108 -7.4722335317 -3.0000228705
17.8341228713 -7.4737274424 -3.0000228719
18.1673459608 -7.4345135628 -3.0000228332
18.0938365908 -7.4331660804 -3.0000228319
17.9591323096 -7.4374727553 -3.0000228362
18.1867984802 -7.4111094719 -3.0000228102
18.1682178817 -7.4103562650 -3.0000228094
17.8157241991 -7.4273703926 -3.0000228262
19.2435635844 -7.4149250584 -3.0000228139
18.0583926525 -7.0949866673 -3.0000224982
17.7781393367 -7.0909752052 -3.0000224943
18.2115136408 -7.0250725459 -3.0000224292
17.7953592709 -6.9914002987 -3.0000223960
17.7359764191 -6.9991385212 -3.0000224036
17.6472870159 -7.0133749591 -3.0000224177
17.2321228990 -7.0221079966 -3.0000224263
17.0582039123 -7.0894034586 -3.0000224927
17.5030500479 -6.9193965869 -3.0000223250
16.9784934590 -7.0452842152 -3.0000224492
18.3837406828 -6.7960937873 -3.0000222033
17.6089990848 -6.7992133561 -3.0000222064
17.2903967080 -6.7499026612 -3.0000221577
16.8368815882 -6.8177503632 -3.0000222247
16.5189741777 -6.7373944372 -3.0000221454
16.4045291166 -6.7488320022 -3.0000221566
15.0513816405 -6.3025229626 -3.0000217162
15.0013627448 -5.7032230047 -3.0000211249
11.5606424611 -6.1543596673 -3.0000215700
11.5692191017 -6.0853019910 -3.0000215019
11.5591332970 -6.1046143984 -3.0000215210
11.5567763144 -5.9545803521 -3.0000213729
11.5673975768 -5.8849927347 -3.0000213042
11.5152173036 -5.3565210160 -3.0000207828
25.9615724523 -6.1613878369 -3.0000215770
25.9516487506 -6.1381247272 -3.0000215540
26.0082327862 -6.0861406700 -3.0000215027
26.0100056883 -6.0296545702 -3.0000214470
25.9893092860 -5.9828735669 -3.0000214008
25.9797356218 -5.9028927747 -3.0000213219
26.0645774558 -6.0337926349 -3.0000214511
25.9910063453 -5.8694711417 -3.0000212889
25.9802189725 -5.8461222385 -3.0000212659
25.9911192251 -5.7555383276 -3.0000211765
26.0018021251 -5.7217599853 -3.0000211432
26.0010294792 -5.6644744652 -3.0000210867
25.9896356452 -5.6410968087 -3.0000210636
18.8353717125 -8.6797983775 -3.0000240620
18.8291432079 -8.6678509031 -3.0000240502
18.8334410059 -8.4941169216 -3.0000238788
18.0247580595 -7.4104417051 -3.0000228095
18.1118702525 -7.3642989039 -3.0000227640
18.0196390221 -7.3621024923 -3.0000227618
17.9069570386 -7.3660879139 -3.0000227657
18.1338458382 -7.3413275011 -3.0000227413
17.8328423649 -7.3484087934 -3.0000227483
17.5145367773 -6.6656854492 -3.0000220746
17.1563148678 -6.6409201707 -3.0000220502
11.4977013770 -5.4783416133 -3.0000209030
11.4599441336 -5.2516295385 -3.0000206793
11.4791195737 -5.0786012291 -3.0000205085
11.1468400948 -5.5713593968 -3.0000209948
26.0314350954 -4.9658017904 -3.0000203972
26.0406369767 -4.9309910311 -3.0000203629
26.0497027847 -4.8960897943 -3.0000203284
26.0460725024 -4.8373507350 -3.0000202705
26.0420273410 -4.7785080552 -3.0000202124
26.0163496782 -4.7311493050 -3.0000201657
18.4477862510 -8.8054189929 -3.0000241860
18.4341745315 -8.7631560945 -3.0000241443
18.4333925448 -8.7609536050 -3.0000241421
18.4301995480 -8.7521670686 -3.0000241334
18.4486060484 -8.7325132307 -3.0000241141
18.4450754669 -8.7235486720 -3.0000241052
18.4432704600 -8.7190822156 -3.0000241008
18.4414390596 -8.7146265164 -3.0000240964
18.4529153435 -8.6803419711 -3.0000240626
18.4706654048 -8.6610928133 -3.0000240436
18.4595185950 -8.6381400988 -3.0000240209
18.4501153733 -8.6200215838 -3.0000240030
18.4427830252 -8.6065814997 -3.0000239898
18.4834520784 -8.6319515215 -3.0000240148
18.4480946142 -8.5675953741 -3.0000239513
18.8665431048 -8.6871997071 -3.0000240693
18.8645156689 -8.6802403427 -3.0000240625
18.8613974029 -8.6698240912 -3.0000240522
18.8603374540 -8.6663582076 -3.0000240488
18.8866543501 -8.6698668627 -3.0000240522
18.8744208639 -8.6310986816 -3.0000240140
18.8741938028 -8.5597231909 -3.0000239436
18.9076000133 -8.5795703499 -3.0000239631
18.8820919097 -8.5153600524 -3.0000238998
18.9073701850 -8.5130385173 -3.0000238975
18.9152903644 -8.4708158402 -3.0000238558
18.8742133265 -8.3383799027 -3.0000237251
18.8979617455 -8.1125992685 -3.0000235023
18.1620264571 -7.4096319607 -3.0000228087
18.1380620970 -7.4028161636 -3.0000228020
18.1284485663 -7.4001892164 -3.0000227994
18.0946823545 -7.3914437542 -3.0000227907
18.0364010277 -7.3780844280 -3.0000227776
18.0021968521 -7.3712496243 -3.0000227708
17.9874959848 -7.3685375148 -3.0000227681
17.9481819844 -7.3619441064 -3.0000227616
17.9136625235 -7.3569394103 -3.0000227567
17.8889459872 -7.3538027755 -3.0000227536
17.8790468367 -7.3526505407 -3.0000227525
18.2074839002 -7.3982379451 -3.0000227975
18.1591000980 -7.3836220044 -3.0000227830
18.1493726400 -7.3808709253 -3.0000227803
18.0017199866 -7.3465657334 -3.0000227465
17.8365068520 -7.3241079511 -3.0000227243
17.8314705157 -7.3236797672 -3.0000227239
18.1778598850 -7.2382686342 -3.0000226396
18.5651684130 -6.7297529321 -3.0000221378
17.5088694342 -6.5750131779 -3.0000219851
17.3578439413 -6.5420460642 -3.0000219526
17.5847647396 -6.4738313392 -3.0000218853
16.8428953087 -6.5137107689 -3.0000219246
17.1404823589 -6.4077090529 -3.0000218200
11.7023615266 -4.9475824808 -3.0000203793
11.6820409904 -4.6409376932 -3.0000200767
11.6532292664 -4.3970376342 -3.0000198360
11.5866809298 -4.0525401964 -3.0000194961
18.4331490701 -8.7668085611 -3.0000239095
18.4525572546 -8.7202926263 -3.0000238636
18.4490575205 -8.6949716028 -3.0000238386
18.4470831935 -8.6823439212 -3.0000238261
18.4455044685 -8.6728889743 -3.0000238168
18.4396372509 -8.6414805334 -3.0000237858
18.4773388427 -8.7237511757 -3.0000238670
18.4714625121 -8.6816939364 -3.0000238255
18.4525591660 -8.5888914738 -3.0000237339
18.5021161784 -8.7274983255 -3.0000238707
18.5001002127 -8.7109291268 -3.0000238543
18.4806801711 -8.6025346078 -3.0000237474
18.4791642434 -8.5960323743 -3.0000237410
18.4776098729 -8.5895392234 -3.0000237346
18.4637977760 -8.5379481908 -3.0000236836
18.4609369616 -8.5283505975 -3.0000236742
18.4599644431 -8.5251570882 -3.0000236710
18.5227184699 -8.6976929562 -3.0000238413
18.5207711866 -8.6841934935 -3.0000238280
18.4810629077 -8.5115658404 -3.0000236576
18.4790087715 -8.5050629346 -3.0000236512
18.5308370909 -8.6052859920 -3.0000237501
18.5101901826 -8.5243435690 -3.0000236702
18.5559476635 -8.6070939033 -3.0000237519
18.4868204649 -8.3871214019 -3.0000235348
18.4830084122 -8.2173424111 -3.0000233673
18.5006171482 -8.1529341259 -3.0000233037
18.8907139906 -8.5549394277 -3.0000237004
18.9250253973 -8.6094046145 -3.0000237542
18.0945278583 -7.3832090951 -3.0000225442
17.9972673952 -7.3399158060 -3.0000225015
17.9521702225 -7.3223483044 -3.0000224841
17.9339891640 -7.3156961161 -3.0000224776
17.9294316999 -7.3140667196 -3.0000224760
17.9019875117 -7.3045740991 -3.0000224666
18.2049701033 -7.4141466750 -3.0000225747
17.8629043730 -7.2667082435 -3.0000224292
18.2083016686 -7.3882404696 -3.0000225492
18.4671317367 -8.8930253168 -3.0000242724
18.4691207436 -8.8735750569 -3.0000242532
18.4698357581 -8.8657870730 -3.0000242456
18.4705046839 -8.8579949952 -3.0000242379
18.4726955380 -8.6704674563 -3.0000240528
18.5207359008 -8.8336885801 -3.0000242139
18.5466533149 -8.6991298063 -3.0000240811
18.5715602418 -8.7695957319 -3.0000241506
18.6197483884 -8.7789810087 -3.0000241599
18.5416139045 -8.2755519834 -3.0000236631
18.0637983135 -7.4187492307 -3.0000228177
18.0559131837 -7.4133847323 -3.0000228124
18.0119875725 -7.3847205099 -3.0000227841
18.1012695232 -7.4154208960 -3.0000228144
18.2433212745 -7.4647070918 -3.0000228630
17.6038197427 -6.2341876927 -3.0000216488
14.8061936157 -3.8507822459 -3.0000192970
14.5256534241 -3.9402079944 -3.0000193852
14.4997865094 -3.9268231299 -3.0000193720
18.4709639184 -8.8582555983 -3.0000242381
18.4742166450 -8.9544921123 -3.0000243331
18.4871581899 -8.8996374222 -3.0000242790
18.4900886922 -8.8858546707 -3.0000242654
18.4910383308 -8.8812547079 -3.0000242608
18.5064864872 -8.7933715181 -3.0000241741
18.5151797484 -8.7234612365 -3.0000241051
18.5232263218 -8.5828285112 -3.0000239663
18.5290894816 -8.9335111337 -3.0000243124
18.5521442162 -8.8147563411 -3.0000241952
18.5713184211 -8.5979641928 -3.0000239813
18.5716051767 -8.5447275080 -3.0000239288
18.5713827273 -8.5302093127 -3.0000239144
18.5699425071 -8.4866745742 -3.0000238715
18.5640629698 -8.4046139050 -3.0000237905
18.5620803787 -8.3853558722 -3.0000237715
18.5580630511 -8.3517156270 -3.0000237383
18.1486016835 -7.4645895558 -3.0000228629
18.1021036211 -7.4153081384 -3.0000228143
18.0815587046 -7.3947849876 -3.0000227940
18.0641618893 -7.3779631010 -3.0000227774
18.0214095428 -7.3386547753 -3.0000227387
18.0105055403 -7.3290667511 -3.0000227292
18.5369636938 -9.0008849062 -3.0000243789
18.5432719032 -8.9771517225 -3.0000243554
18.5659109939 -8.8765426803 -3.0000242562
18.5947724479 -8.6230345194 -3.0000240060
18.5894802186 -8.4169525067 -3.0000238027
18.5820345693 -8.3486008887 -3.0000237352
18.5786903160 -8.3242724386 -3.0000237112
18.5757560633 -8.3048469526 -3.0000236921
18.0263871731 -7.3108428925 -3.0000227112
17.9543497223 -7.2515417736 -3.0000226527
18.5641617830 -8.9928311272 -3.0000243709
18.6190429027 -8.5043485609 -3.0000238889
18.5929837043 -8.2617911337 -3.0000236496
18.0460206024 -7.2958984062 -3.0000226965
18.6354224957 -8.7357112889 -3.0000241172
18.6293189106 -8.3373600104 -3.0000237241
18.6235162774 -8.2973434149 -3.0000236846
18.6176634089 -8.2624499582 -3.0000236502
18.5945867591 -8.1536917055 -3.0000235429
18.6288898250 -8.9304305020 -3.0000243093
18.6552400346 -8.3494270908 -3.0000237360
18.6473963845 -8.2935916461 -3.0000236809
18.7053080131 -8.7640157903 -3.0000241451
18.7137229589 -8.4589026560 -3.0000238441
18.7127332656 -8.4431266248 -3.0000238285
18.7341265372 -8.7189270876 -3.0000241006
18.7586695509 -8.7156287537 -3.0000240974
18.7170279879 -8.0501168193 -3.0000234407
18.7139651759 -8.0395860823 -3.0000234303
18.8190001616 -8.8279197021 -3.0000242082
18.8485243120 -8.3369579421 -3.0000237237
18.7554785224 -7.7965065568 -3.0000231904
18.6615333125 -7.5545846378 -3.0000229517
17.8711515043 -5.9272448017 -3.0000213459
16.2041911815 -3.8157496968 -3.0000192624
16.0222326424 -3.8473785233 -3.0000192936
15.8554635473 -3.8827640863 -3.0000193285
16.2994483928 -3.7776613623 -3.0000192248
15.6012446653 -3.9236512511 -3.0000193689
16.3104909571 -3.7518290178 -3.0000191993
16.8392485388 -3.6881677647 -3.0000191365
16.2359381951 -3.7376775600 -3.0000191854
15.4911553448 -3.9060985539 -3.0000193516
15.3540613913 -3.9508580176 -3.0000193957
15.4978428102 -3.8787372487 -3.0000193246
15.3462198832 -3.9279921908 -3.0000193732
15.3051535088 -3.9422792813 -3.0000193873
16.8091707079 -3.6404928205 -3.0000190895
16.5183555222 -3.6565786009 -3.0000191054
16.7061621325 -3.6200182135 -3.0000190693
16.4849559347 -3.6109857491 -3.0000190604
15.4064215676 -3.8315099246 -3.0000192780
15.7169572259 -3.6176012214 -3.0000190669
18.2173811674 -7.5585867435 -3.0000229557
18.2150286757 -7.5542753046 -3.0000229514
18.2126634402 -7.5499708436 -3.0000229472
18.2030754767 -7.5328235319 -3.0000229303
18.1982055761 -7.5242927202 -3.0000229218
18.1957517203 -7.5200381563 -3.0000229176
18.1908063053 -7.5115508981 -3.0000229093
18.1679341573 -7.4737264166 -3.0000228719
18.1107109263 -7.3879347524 -3.0000227873
18.1049854315 -7.3799529363 -3.0000227794
18.0038665118 -7.2533678930 -3.0000226545
17.9973467442 -7.2460205594 -3.0000226472
18.5338516808 -8.7945418505 -3.0000241753
18.5826800850 -8.6824755508 -3.0000240647
18.5855438970 -8.6662761254 -3.0000240487
18.5940496680 -8.6121062785 -3.0000239952
18.6086343691 -8.4703170667 -3.0000238553
18.6365624169 -8.3386249084 -3.0000237254
18.6357277044 -8.2941932631 -3.0000236815
18.6328638171 -8.2331573927 -3.0000236213
18.5369565915 -9.0267370700 -3.0000244044
18.6095327176 -8.7902275526 -3.0000241710
18.5041215062 -9.1665046787 -3.0000245423
18.5675189844 -9.0139605185 -3.0000243918
18.6262806720 -8.8234742610 -3.0000242038
18.6823289081 -8.4522046748 -3.0000238375
18.6712483836 -8.1223071802 -3.0000235119
18.5008489723 -9.2286411879 -3.0000246036
18.5717176675 -9.0707889657 -3.0000244478
18.5960972759 -9.0059921454 -3.0000243839
18.7091113220 -8.3438902984 -3.0000237306
18.6716790631 -7.9713200947 -3.0000233629
18.4870022094 -9.3066625077 -3.0000246806
18.5963815932 -9.1378117039 -3.0000245140
18.7537448690 -8.4736986445 -3.0000238587
18.7786663642 -8.2419246495 -3.0000236300
18.7000335972 -7.7828845577 -3.0000231770
18.7831543507 -8.0479047023 -3.0000234385
18.6060440604 -9.2884552875 -3.0000246626
18.8392555991 -8.1021576303 -3.0000234920
18.6318509120 -9.3437215527 -3.0000247172
18.6532128619 -9.3550353662 -3.0000247283
18.8744592599 -7.8786954521 -3.0000232715
18.9035591651 -7.8987683062 -3.0000232914
18.9599768260 -7.9342683775 -3.0000233264
18.9692969368 -8.9450463136 -3.0000243238
18.3182681067 -6.4205787993 -3.0000218327
18.4786252527 -6.5285332079 -3.0000219393
19.2248294264 -7.5973229243 -3.0000229939
18.3440432532 -6.2264142188 -3.0000216411
18.2221511744 -6.1407146615 -3.0000215566
18.0779511632 -5.9134115787 -3.0000213323
16.1327260754 -4.0046668535 -3.0000194488
15.9788416777 -4.0296233511 -3.0000194735
16.4800272885 -3.9444526362 -3.0000193894
16.4148731978 -3.9490570606 -3.0000193940
16.1939971486 -3.9719087406 -3.0000194165
16.0776055276 -3.9884947699 -3.0000194329
16.0131468556 -3.9990463502 -3.0000194433
16.0002742440 -4.0012710096 -3.0000194455
15.9745490453 -4.0058345178 -3.0000194500
15.9616966833 -4.0081733268 -3.0000194523
16.8460880219 -3.9123343261 -3.0000193577
16.5047238722 -3.9187473438 -3.0000193640
16.4391868889 -3.9229893080 -3.0000193682
16.3868069490 -3.9270805054 -3.0000193723
15.9831860279 -3.9797323111 -3.0000194242
15.9573336981 -3.9843972960 -3.0000194288
15.9444179962 -3.9867871248 -3.0000194312
16.0049841541 -3.9513943678 -3.0000193963
16.7673769568 -3.8631374304 -3.0000193092
16.4887029526 -3.8712596989 -3.0000193172
15.9486077277 -3.9368452343 -3.0000193819
16.9409170337 -3.8426346038 -3.0000192889
15.9968214526 -3.9037423853 -3.0000193492
16.8896210770 -3.7683051849 -3.0000192156
17.3658027810 -3.7824134362 -3.0000192295
17.2846110233 -3.7723589804 -3.0000192196
17.4775062808 -3.7741774358 -3.0000192214
17.5220622256 -3.7568900802 -3.0000192043
17.7572230240 -3.7774524183 -3.0000192246
17.8167117656 -3.7660328178 -3.0000192134
17.7351582584 -3.7479781288 -3.0000191955
15.9916277389 -3.7085146678 -3.0000191566
15.8639557828 -3.6329681228 -3.0000190821
18.2147676791 -7.5558894620 -3.0000229530
18.7177587695 -8.1767779033 -3.0000235657
18.6924081336 -8.5688957673 -3.0000239526
18.7097025158 -8.4828405774 -3.0000238677
18.8154187611 -8.0826793314 -3.0000234728
18.8766722935 -7.8812363704 -3.0000232741
18.8047069385 -8.8017140141 -3.0000241823
18.7376410915 -9.1600361545 -3.0000245359
16.6601662794 -4.0308934511 -3.0000194747
16.8665170072 -4.0137630406 -3.0000194578
16.8422878825 -4.0123966775 -3.0000194565
16.7210443324 -4.0077162165 -3.0000194518
17.0139713636 -4.0009044821 -3.0000194451
16.9288399118 -3.9936991482 -3.0000194380
16.6728061842 -3.9826772867 -3.0000194271
17.1139140329 -3.9872918398 -3.0000194317
17.0284792936 -3.9780200297 -3.0000194225
16.8326068434 -3.9634826343 -3.0000194082
17.1412856355 -3.9662793638 -3.0000194110
17.3163234173 -3.9674289647 -3.0000194121
17.0702626197 -3.9337055153 -3.0000193788
16.7364072671 -3.8872009465 -3.0000193329
17.5514869466 -3.9393873058 -3.0000193844
16.6621248736 -3.8133450156 -3.0000192600
17.7233956273 -3.9313973597 -3.0000193765
16.7134461207 -3.7899354466 -3.0000192369
17.7915546911 -3.9248402757 -3.0000193701
17.8104948004 -3.9050508659 -3.0000193505
16.9982476925 -3.7567619670 -3.0000192042
17.1424814286 -3.7472555256 -3.0000191948
17.9685864990 -3.8767841301 -3.0000193226
16.6900592021 -3.6444565929 -3.0000190934
16.6636482247 -3.6441406769 -3.0000190931
18.1251959063 -7.3679332093 -3.0000227675
18.7714393234 -8.3318881436 -3.0000237187
18.8232242387 -7.8955319619 -3.0000232882
18.7256271488 -8.5874479481 -3.0000239709
18.8478213359 -7.8208034859 -3.0000232144
18.7815269413 -8.4896347960 -3.0000238744
18.8336386615 -8.2676060397 -3.0000236553
18.8935074894 -7.9599520421 -3.0000233517
18.7965656108 -8.6040321526 -3.0000239873
18.9200376653 -7.8906020514 -3.0000232833
18.9929663881 -7.8556280470 -3.0000232488
18.7241921209 -6.7275648855 -3.0000221357
19.0446512911 -8.1694445386 -3.0000235584
18.6451527080 -9.2852478515 -3.0000246595
19.0462367236 -8.3143550598 -3.0000237014
19.0896769048 -7.8409228005 -3.0000232343
18.7507176457 -6.5257151926 -3.0000219365
18.5701187833 -6.2613016459 -3.0000216756
18.8512247674 -10.7497534408 -3.0000261046
17.3384010496 -4.0449992980 -3.0000194886
17.3271557857 -4.0426392405 -3.0000194863
17.4224042037 -4.0389079916 -3.0000194826
17.4111405531 -4.0362994642 -3.0000194800
17.3773039925 -4.0286739601 -3.0000194725
17.3660102651 -4.0261988921 -3.0000194701
17.4844402599 -4.0289918827 -3.0000194728
17.4731470042 -4.0261998849 -3.0000194701
17.4618455386 -4.0234413068 -3.0000194674
17.4505359622 -4.0207161725 -3.0000194647
17.5582735333 -4.0230936663 -3.0000194670
17.5356426240 -4.0171063712 -3.0000194611
17.5243139848 -4.0141629595 -3.0000194582
17.6552335548 -4.0251823987 -3.0000194691
17.6439282826 -4.0218851801 -3.0000194658
17.5986111415 -4.0090311645 -3.0000194531
17.7300689575 -4.0225949111 -3.0000194665
17.7713631340 -4.0103443969 -3.0000194544
17.9231458256 -4.0111825834 -3.0000194553
17.7569673638 -3.8537929387 -3.0000193000
17.5727261006 -3.7770234080 -3.0000192242
18.2505494584 -3.9867853724 -3.0000194312
18.2391279961 -3.9817272697 -3.0000194262
18.1519925492 -7.6967526818 -3.0000230920
18.1545253739 -7.6575433955 -3.0000230533
18.1554436561 -7.6379190203 -3.0000230340
18.1565833175 -7.5986445438 -3.0000229952
18.1567229836 -7.5888225698 -3.0000229855
18.1478386759 -7.3975869063 -3.0000227968
18.1456815003 -7.3780598497 -3.0000227775
18.1370777955 -7.3147967721 -3.0000227151
18.1783951546 -7.6637918181 -3.0000230595
18.1809658163 -7.5591972510 -3.0000229563
18.1809261142 -7.5542144121 -3.0000229514
18.1803783837 -7.5243218286 -3.0000229219
18.1639119195 -7.3307918883 -3.0000227309
18.1989742528 -7.7155538964 -3.0000231106
18.8551271580 -7.9273075522 -3.0000233195
18.8253590117 -8.1890195419 -3.0000235778
18.8577093435 -8.1603697769 -3.0000235495
18.8628544376 -8.1393923288 -3.0000235288
18.9080548879 -7.8989148870 -3.0000232915
18.8480043312 -6.9423346364 -3.0000223476
18.8417412230 -8.3061908265 -3.0000236934
18.9197834470 -8.1077764908 -3.0000234976
18.8834561618 -6.6595889311 -3.0000220686
18.9281017890 -8.4292242733 -3.0000238148
18.8482609228 -6.3989534924 -3.0000218114
18.9229689372 -6.2800233866 -3.0000216940
18.7421890685 -9.1956836340 -3.0000245711
19.0178927540 -6.3606817252 -3.0000217736
18.1930270723 -10.9023009286 -3.0000262551
18.2028768227 -10.8972677827 -3.0000262501
18.2127116411 -10.8922055216 -3.0000262451
18.2534105887 -10.8982217051 -3.0000262511
18.2632480078 -10.8930099518 -3.0000262459
18.3042042593 -10.8984425965 -3.0000262513
18.3238640552 -10.8876894955 -3.0000262407
18.3453951678 -10.9034083418 -3.0000262562
18.3650836218 -10.8924114546 -3.0000262453
18.0387058874 -4.0843321107 -3.0000195274
18.0283875282 -4.0797853064 -3.0000195230
18.0180557639 -4.0752690455 -3.0000195185
17.9973523817 -4.0663283120 -3.0000195097
18.4163621146 -10.8909967339 -3.0000262439
18.1001995384 -4.0855637782 -3.0000195287
18.0484860865 -4.0622259354 -3.0000195056
18.1619919245 -4.0878567007 -3.0000195309
18.1413604960 -4.0780641722 -3.0000195213
18.1310231460 -4.0732137244 -3.0000195165
18.2137662400 -4.0861247910 -3.0000195292
18.2658132306 -4.0851335926 -3.0000195282
18.2554962487 -4.0799149601 -3.0000195231
18.2348161977 -4.0695693676 -3.0000195129
18.1828514574 -4.0442422419 -3.0000194879
18.6040273762 -10.8902973136 -3.0000262433
18.6138398195 -10.8840484071 -3.0000262371
18.3706838661 -4.0853979583 -3.0000195285
18.3603672073 -4.0798690984 -3.0000195230
18.4028435044 -4.0753258855 -3.0000195186
18.4455463178 -4.0712633675 -3.0000195145
18.5419717352 -4.0706304753 -3.0000195139
19.2905923466 -10.5399861856 -3.0000258976
19.0047507255 -4.0834036703 -3.0000195265
18.1556744915 -7.6505507700 -3.0000230464
18.8014891663 -8.1823891685 -3.0000235712
18.8315186704 -8.1004691195 -3.0000234904
18.9899248604 -6.9392366819 -3.0000223445
18.6814803279 -5.8615869063 -3.0000212812
18.7288350186 -5.8018787166 -3.0000212222
17.6405521715 -10.9607619721 -3.0000263128
17.6622168503 -10.9540033226 -3.0000263061
17.7021094791 -10.9666146937 -3.0000263186
17.7238077072 -10.9594917480 -3.0000263115
17.7562750845 -10.9485669411 -3.0000263008
17.7966576764 -10.9601605739 -3.0000263122
17.8074925520 -10.9563354855 -3.0000263084
17.8699115466 -10.9593905240 -3.0000263114
17.9218527424 -10.9655905204 -3.0000263175
17.9958498186 -10.9623387639 -3.0000263143
18.0905452102 -10.9751838472 -3.0000263270
18.2511237794 -10.9823037183 -3.0000263340
18.3704605348 -10.9777678417 -3.0000263296
18.0949204697 -7.6836252560 -3.0000230791
18.1045497382 -7.6610346672 -3.0000230568
18.1245514487 -7.6108497529 -3.0000230072
18.1347701159 -7.5832096607 -3.0000229800
18.1638678856 -7.4945567599 -3.0000228925
18.1879395474 -7.4044092579 -3.0000228035
18.1890657368 -7.3996286282 -3.0000227988
18.1901777793 -7.3948446880 -3.0000227941
18.0901103942 -7.7521583630 -3.0000231467
18.1399618746 -7.6380238717 -3.0000230341
18.2137311169 -7.4002830304 -3.0000227995
18.7629984399 -7.1037076812 -3.0000225068
18.7557523852 -6.8251489179 -3.0000222320
18.7482144086 -6.7542200862 -3.0000221620
18.7363366981 -6.6707655435 -3.0000220796
18.7118228121 -6.5434291481 -3.0000219540
18.7014691060 -6.4992338382 -3.0000219104
18.7632577361 -6.6863290496 -3.0000220950
18.7580635029 -6.6539625822 -3.0000220630
18.7135557266 -6.4490203500 -3.0000218608
18.7048570426 -6.4174149522 -3.0000218296
18.7950363727 -7.3036228954 -3.0000227041
18.8102920729 -6.9133834136 -3.0000223190
18.8020373294 -6.8010273893 -3.0000222082
18.7953829742 -6.7417522908 -3.0000221497
18.7919194216 -6.7154689133 -3.0000221237
18.8369301469 -7.0461601077 -3.0000224500
18.6709291250 -6.1699188956 -3.0000215854
18.6684013553 -6.1637148968 -3.0000215793
18.6658552442 -6.1575184027 -3.0000215732
18.8556126621 -7.1817083570 -3.0000225838
18.8573506577 -7.1546815143 -3.0000225571
18.8612102173 -7.0328843349 -3.0000224369
18.7727774941 -6.3911429186 -3.0000218037
18.7404977451 -6.2877432197 -3.0000217017
18.7082667632 -6.1986084765 -3.0000216137
18.6696705841 -6.1046766027 -3.0000215210
18.8758754860 -7.2311419160 -3.0000226326
18.8829156712 -7.1287588848 -3.0000225315
18.8841222913 -6.9440721345 -3.0000223493
18.8327246357 -6.5304442079 -3.0000219412
18.7182914074 -6.1580870464 -3.0000215737
18.6207709888 -5.9469867352 -3.0000213654
18.9085025059 -6.9501750487 -3.0000223553
18.9057808090 -6.8880129354 -3.0000222940
18.7027450310 -6.0600404521 -3.0000214770
18.6485645358 -5.9480231600 -3.0000213664
18.6453804563 -5.9418862906 -3.0000213604
18.8424937256 -6.3711763315 -3.0000217840
18.6163824655 -5.8388920758 -3.0000212588
18.9578767565 -7.0051462465 -3.0000224096
18.9058116745 -6.4197677850 -3.0000218319
18.9003813826 -6.3990840675 -3.0000218115
18.8409202205 -6.2086158500 -3.0000216236
18.6216287148 -5.7535181881 -3.0000211745
18.7024867680 -8.1988006648 -3.0000235874
18.7045787049 -8.2922308914 -3.0000236796
18.9849367023 -6.4372820996 -3.0000218492
18.9626890104 -6.3520285160 -3.0000217651
18.6622150025 -8.4050317927 -3.0000237909
18.9918690800 -6.3669559407 -3.0000217798
18.7068331848 -8.3807097161 -3.0000237669
18.7148384565 -8.3680581102 -3.0000237544
18.7227687370 -8.3553593639 -3.0000237419
19.1028885036 -7.0415916971 -3.0000224455
18.9879968497 -6.2672163803 -3.0000216814
18.8601786378 -5.9397273740 -3.0000213583
18.7025254724 -8.4317227490 -3.0000238172
18.5096617212 -8.7236026134 -3.0000241053
19.1438616541 -7.2172528116 -3.0000226189
18.5408400331 -8.7613457409 -3.0000241425
18.7101338103 -8.5485899165 -3.0000239326
18.5118356691 -5.2490169613 -3.0000206767
18.5714562524 -5.2795257387 -3.0000207068
18.4799090115 -8.8975447325 -3.0000242769
18.7644882270 -8.5972384864 -3.0000239806
19.0993514006 -5.8810767156 -3.0000213004
19.3420287237 -4.3673926016 -3.0000198068
17.0691737031 -10.9711193962 -3.0000263230
17.0839430055 -10.9936077470 -3.0000263452
17.1309091931 -10.9872772667 -3.0000263389
17.1426387790 -10.9856078474 -3.0000263373
17.1543633751 -10.9839037371 -3.0000263356
17.1895061991 -10.9785834114 -3.0000263304
17.2012098106 -10.9767406896 -3.0000263286
17.2129079197 -10.9748633545 -3.0000263267
17.2362872217 -10.9710049102 -3.0000263229
17.2167735418 -10.9987252959 -3.0000263502
17.2402939514 -10.9948435636 -3.0000263464
17.2637909837 -10.9908227447 -3.0000263424
17.2989909009 -10.9845310379 -3.0000263362
17.1138935323 -11.0384247542 -3.0000263894
17.2797486029 -11.0125623787 -3.0000263639
17.3269253630 -11.0039137087 -3.0000263554
17.3504745411 -10.9993801905 -3.0000263509
17.3739964853 -10.9947074267 -3.0000263463
17.3857469873 -10.9923188787 -3.0000263439
17.4142168171 -11.0110898781 -3.0000263624
17.4260156054 -11.0085822794 -3.0000263600
17.4378069241 -11.0060397887 -3.0000263575
17.4495906701 -11.0034624283 -3.0000263549
17.1203516020 -11.0863375339 -3.0000264367
17.4547906547 -11.0270695340 -3.0000263782
17.1356741602 -11.1086456455 -3.0000264587
17.6024365684 -11.0166381430 -3.0000263679
17.1511334672 -11.1308984660 -3.0000264807
17.2643343294 -11.1378754845 -3.0000264876
17.7454620815 -11.0274106578 -3.0000263786
17.7573077003 -11.0239231043 -3.0000263751
17.5538372406 -11.1283338686 -3.0000264781
17.4245490477 -11.1817703453 -3.0000265309
17.1929983660 -11.2469852960 -3.0000265952
17.2179879812 -11.2432398807 -3.0000265915
17.5404794716 -11.1811561410 -3.0000265303
18.0366607163 -11.0334754433 -3.0000263845
17.2505450344 -11.2870932285 -3.0000266348
17.5140646993 -11.2367664205 -3.0000265851
17.7862194860 -11.1666044225 -3.0000265159
18.1250165346 -11.0519709867 -3.0000264028
17.1780991660 -11.3223933985 -3.0000266696
18.0615224513 -11.1015996804 -3.0000264518
18.0819405350 -11.1198603030 -3.0000264698
18.1905109583 -11.0782240103 -3.0000264287
18.2264500197 -11.0637047418 -3.0000264144
18.2503371985 -11.0538482872 -3.0000264046
17.5275904386 -11.3575690148 -3.0000267043
17.6299329077 -11.3337527071 -3.0000266808
18.5176111430 -11.0127696635 -3.0000263641
18.0265332470 -11.3188764054 -3.0000266662
19.2956636490 -10.6801926905 -3.0000260359
20.4829989204 -9.4154623131 -3.0000247880
18.7730434487 -11.0989946774 -3.0000264492
19.4904857934 -10.6206382474 -3.0000259772
17.8544081782 -11.5996751273 -3.0000269432
16.5128257279 -10.9884708699 -3.0000263401
16.6624243776 -11.0402530341 -3.0000263912
16.4898001705 -11.2294445583 -3.0000265779
18.0005444415 -7.7276560611 -3.0000231225
18.0386003252 -7.6893109994 -3.0000230847
18.1419606135 -7.5709898401 -3.0000229679
18.2007010264 -7.4922761451 -3.0000228902
18.2035148133 -7.4882505611 -3.0000228863
18.2146505090 -7.4720655179 -3.0000228703
18.0174226213 -7.7449610410 -3.0000231396
18.5635781251 -6.3483690073 -3.0000217615
18.5976928496 -6.5843971810 -3.0000219944
18.5981947586 -6.5220321895 -3.0000219329
18.5951167925 -6.4337372277 -3.0000218457
18.5858195052 -6.3302185801 -3.0000217436
18.5615085344 -6.1815106976 -3.0000215968
18.5525656524 -6.1409045845 -3.0000215568
18.5289486282 -6.0503905712 -3.0000214675
18.6180672213 -6.6639587376 -3.0000220729
18.6220984890 -6.5744853995 -3.0000219846
18.6189226546 -6.4270288664 -3.0000218391
18.6182286274 -6.4165136964 -3.0000218287
18.6178582875 -6.4112576972 -3.0000218235
18.5893427092 -6.1972512060 -3.0000216124
18.5851756904 -6.1765912456 -3.0000215920
18.5784675417 -6.1456973679 -3.0000215615
18.6362365895 -6.3456967883 -3.0000217589
18.6331800796 -6.3191698389 -3.0000217327
18.4571118970 -5.7338738408 -3.0000211551
18.6706181510 -6.5646239479 -3.0000219749
18.6087657511 -6.0667162726 -3.0000214836
18.6001038060 -6.0354210208 -3.0000214527
18.6944861248 -6.5814093240 -3.0000219914
18.6949455423 -6.5485116216 -3.0000219590
18.6925483808 -6.4443653365 -3.0000218562
18.6913044427 -6.2169321413 -3.0000216318
18.7382321348 -6.6780449787 -3.0000220868
18.6299913008 -5.8923536434 -3.0000213115
18.5726893491 -5.7517010835 -3.0000211727
18.5632515402 -5.7312693647 -3.0000211526
18.7423074773 -6.8495191848 -3.0000222560
18.7661644934 -6.8534150884 -3.0000222598
18.7870387486 -6.4048701652 -3.0000218172
18.7200342515 -7.2211292046 -3.0000226227
18.8317600331 -6.7204655295 -3.0000221287
18.8258358043 -6.3014835080 -3.0000217152
18.6866632960 -5.7713057388 -3.0000211921
18.7089817447 -5.7620201516 -3.0000211829
18.8462908777 -7.0586873257 -3.0000224624
18.9687399470 -6.8029831353 -3.0000222101
18.9520694832 -7.2147152759 -3.0000226164
18.0994083461 -8.7902406991 -3.0000241710
16.1365840885 -11.0209100728 -3.0000263721
15.9336613563 -11.0089290969 -3.0000263603
16.1728429682 -11.0508993937 -3.0000264017
16.1995481224 -11.0547751271 -3.0000264056
16.2797946184 -11.0654534255 -3.0000264161
16.6292477557 -11.0952148059 -3.0000264455
15.8890093742 -11.0243444447 -3.0000263755
15.9288511041 -11.0326186886 -3.0000263837
16.1693003452 -11.0748114221 -3.0000264253
16.6552262464 -11.1205426395 -3.0000264704
16.8450910567 -11.1484903655 -3.0000264980
16.4071244820 -11.1522804920 -3.0000265018
16.9136431551 -11.1720998833 -3.0000265213
16.2542202541 -11.1596936650 -3.0000265091
17.1755279381 -11.1848294477 -3.0000265339
16.9005495420 -11.2206358572 -3.0000265692
17.0804972752 -11.2148957838 -3.0000265636
16.2343188635 -11.2058790933 -3.0000265547
16.9982787575 -11.2425645335 -3.0000265909
16.2589640595 -11.2333775651 -3.0000265818
17.4035799723 -11.2358171838 -3.0000265842
17.4591146175 -11.2288349889 -3.0000265773
17.2805845845 -11.2731910486 -3.0000266211
17.5773636979 -11.2606708517 -3.0000266087
17.6231715554 -11.2778031331 -3.0000266256
16.2525194792 -11.4030646467 -3.0000267492
18.5043811120 -6.3243078778 -3.0000217377
18.5040577233 -6.3069532947 -3.0000217206
18.4935663041 -6.1641941365 -3.0000215798
18.4882914709 -6.1254983369 -3.0000215416
18.4827393897 -6.0912306151 -3.0000215078
18.5236690419 -6.4650131337 -3.0000218766
18.5276860420 -6.2887245043 -3.0000217026
18.5251326864 -6.2402736205 -3.0000216548
18.5196056561 -6.1787728328 -3.0000215941
18.5141009932 -6.1350099553 -3.0000215510
18.4937576229 -6.0221731639 -3.0000214396
18.5453217470 -6.4937752574 -3.0000219050
18.5470007090 -6.4759243819 -3.0000218874
18.5450530788 -6.1894830381 -3.0000216047
18.4866377950 -5.8999455716 -3.0000213190
18.5738476486 -6.4417200567 -3.0000218536
18.5123916799 -5.9015959318 -3.0000213206
18.5869242459 -6.5537073910 -3.0000219641
18.5898718043 -6.5307689174 -3.0000219415
18.6004083746 -6.3924514651 -3.0000218050
18.5381759479 -5.9035357649 -3.0000213225
18.6251698108 -6.3180745473 -3.0000217316
18.6140960991 -6.1541277221 -3.0000215698
18.6091862557 -6.1168750345 -3.0000215331
18.0341221880 -7.6099699614 -3.0000230064
18.0748159045 -7.5768773882 -3.0000229737
18.0820980192 -7.5707191482 -3.0000229676
18.0893435723 -7.5645179326 -3.0000229615
18.0929525589 -7.5614012767 -3.0000229585
18.6252951116 -6.6214723202 -3.0000220310
18.6269150948 -6.6120739816 -3.0000220217
18.6487898962 -6.2938598694 -3.0000217077
18.0299351862 -7.6437897343 -3.0000230397
18.0414402405 -7.6349319013 -3.0000230310
18.0490664094 -7.6289701070 -3.0000230251
18.0642122650 -7.6169116846 -3.0000230132
18.0792143796 -7.6046748936 -3.0000230012
18.0940706525 -7.5922614473 -3.0000229889
18.1124327369 -7.5764988679 -3.0000229733
18.1448892616 -7.5474485375 -3.0000229447
18.1484475108 -7.5441676421 -3.0000229414
18.1730813329 -7.5209086691 -3.0000229185
17.9647814045 -7.7202433670 -3.0000231152
17.9729136463 -7.7147336189 -3.0000231098
18.1096797888 -7.6107192409 -3.0000230071
18.2178210974 -7.5107108483 -3.0000229084
18.2383606425 -7.4895797588 -3.0000228876
18.2417472964 -7.4860226114 -3.0000228841
18.2627045253 -7.4990458128 -3.0000228969
18.2762981004 -7.4844686205 -3.0000228825
18.6563883225 -6.8087095584 -3.0000222157
18.7086356267 -6.5551765157 -3.0000219656
18.0859348863 -7.6921965853 -3.0000230875
18.6162603762 -6.9966064930 -3.0000224011
18.6961236537 -6.9228467181 -3.0000223284
18.0844018810 -8.6998194261 -3.0000240818
16.1767794891 -11.1662410819 -3.0000265155
15.8591382059 -11.1235195004 -3.0000264734
16.2586955532 -11.2046276281 -3.0000265534
15.8761488959 -11.1774164113 -3.0000265266
16.1061836215 -11.2269533622 -3.0000265755
15.3468294009 -11.0443657751 -3.0000263953
15.2134917344 -11.0202120035 -3.0000263714
15.3386490509 -11.0671125806 -3.0000264177
16.2433996591 -11.3001022328 -3.0000266476
16.3021104632 -11.3091522968 -3.0000266566
16.7006882526 -11.3520002485 -3.0000266988
16.5949230416 -11.3680305612 -3.0000267147
15.8827414637 -11.2783522523 -3.0000266262
15.9307629262 -11.3388728756 -3.0000266859
16.0344446640 -11.3607193316 -3.0000267074
15.4995409608 -11.2487321131 -3.0000265969
18.4648929539 -6.2662678423 -3.0000216805
18.4673642560 -6.2094815682 -3.0000216244
18.4671460448 -6.1526419637 -3.0000215684
18.4669296207 -6.1455396046 -3.0000215613
18.4666711805 -6.1384386502 -3.0000215543
18.4621227691 -6.0710971373 -3.0000214879
18.4610589096 -6.0604918997 -3.0000214774
18.4909626861 -6.1411097375 -3.0000215570
18.4901696771 -6.1230055554 -3.0000215391
18.4931312826 -6.4233435483 -3.0000218355
18.5059915427 -6.3430728553 -3.0000217563
18.5021966682 -6.4941413661 -3.0000219053
18.5334148978 -6.3161774474 -3.0000217297
18.5335711860 -6.4663680197 -3.0000218779
18.5485881907 -6.5959492837 -3.0000220058
18.6030856497 -6.0255899956 -3.0000214430
17.9770641728 -7.6326088660 -3.0000230287
18.0405484132 -7.5996689293 -3.0000229962
18.0820323645 -7.5761582835 -3.0000229730
18.0902446811 -7.5713094723 -3.0000229682
18.1065825352 -7.5614665156 -3.0000229585
18.1147075007 -7.5564727145 -3.0000229536
18.1187588685 -7.5539578095 -3.0000229511
18.1978526694 -7.5602074011 -3.0000229573
18.2140516253 -7.5490919538 -3.0000229463
17.9275014981 -7.7350754537 -3.0000231298
18.1697507064 -7.6075553869 -3.0000230040
15.5955690317 -11.2518069283 -3.0000266000
15.1591712277 -11.1914491508 -3.0000265404
15.0362968458 -11.1909006706 -3.0000265399
14.3173658232 -11.2008496791 -3.0000265497
18.4301482634 -6.1237524536 -3.0000215398
18.4468040771 -6.2021599657 -3.0000216172
18.4546552850 -6.2919439603 -3.0000217058
18.4583874951 -6.2753317741 -3.0000216894
18.4659452568 -6.2363316646 -3.0000216509
18.4695368124 -6.2139161000 -3.0000216288
18.4761870221 -6.1575603940 -3.0000215732
18.4784203104 -6.1264265156 -3.0000215425
18.4717671761 -6.4059466167 -3.0000218183
18.4727468435 -6.4031314408 -3.0000218155
18.4811879019 -6.3776679645 -3.0000217904
18.5010461569 -6.3058611008 -3.0000217195
18.5068877991 -6.2796787536 -3.0000216937
18.4851745584 -6.4397324357 -3.0000218516
18.4883878581 -6.4311579619 -3.0000218432
18.4915249377 -6.4225553096 -3.0000218347
18.4853243513 -6.5592061277 -3.0000219695
18.4870878866 -6.6076322960 -3.0000220173
18.5054404718 -6.5729943600 -3.0000219831
18.5141969582 -6.6576788775 -3.0000220667
18.5176365510 -6.6517902053 -3.0000220609
18.8624585818 -6.1796014935 -3.0000215950
18.8804147078 -6.2419941688 -3.0000216565
18.8846118887 -6.3629051900 -3.0000217758
18.9055893856 -6.3802276242 -3.0000217929
18.9529015137 -6.2466824554 -3.0000216611
18.9406266366 -6.4413152326 -3.0000218532
18.9427786862 -6.4329074459 -3.0000218449
18.9968712255 -6.2831025271 -3.0000216971
18.1402525874 -7.6137070959 -3.0000230101
18.1990157716 -7.5887445456 -3.0000229854
18.2034955626 -7.5867310424 -3.0000229834
18.2079693777 -7.5847042960 -3.0000229814
18.2213545764 -7.5785447753 -3.0000229754
18.1167812046 -7.6488156462 -3.0000230447
18.2225098844 -7.6046387606 -3.0000230011
18.7393481414 -8.1800815527 -3.0000235689
14.2980064961 -11.2337519168 -3.0000265822
13.0761161646 -11.0713515244 -3.0000264219
18.4356234582 -6.1888952735 -3.0000216041
18.4420414939 -6.1639745791 -3.0000215795
18.4330825101 -6.2710364372 -3.0000216852
18.4361314123 -6.2634193868 -3.0000216777
18.4368795384 -6.2615095288 -3.0000216758
18.4390899727 -6.2557667936 -3.0000216701
18.4454142958 -6.2384240632 -3.0000216530
18.4646039039 -6.1735409371 -3.0000215890
18.4445763192 -6.3055030987 -3.0000217192
18.4522227044 -6.2879966929 -3.0000217019
18.4639225104 -6.2583869928 -3.0000216727
18.4827154037 -6.2770309713 -3.0000216911
18.8503308888 -6.3211981593 -3.0000217347
18.8646567026 -6.2675481470 -3.0000216817
18.8561446635 -6.3820388134 -3.0000217947
18.8686929625 -6.3439973738 -3.0000217572
18.8735214626 -6.3280196378 -3.0000217414
18.8571723417 -6.4473879205 -3.0000218592
18.8696555749 -6.4156582978 -3.0000218279
18.8743851475 -6.4028653877 -3.0000218153
18.8755438625 -6.3996584858 -3.0000218121
18.8760411874 -6.5242350502 -3.0000219350
18.9292108690 -6.3925322482 -3.0000218051
18.8751953213 -6.5799763128 -3.0000219900
18.8785510931 -6.5735512024 -3.0000219837
18.8948632074 -6.5944988659 -3.0000220044
18.8867523084 -6.6583919165 -3.0000220674
18.8999518733 -6.6355620468 -3.0000220449
18.8976522269 -6.6871509160 -3.0000220958
17.8806851434 -7.6674395300 -3.0000230631
17.9051959366 -7.6659300484 -3.0000230616
17.9149935520 -7.6652247741 -3.0000230609
17.9443589626 -7.6627613383 -3.0000230585
18.1480473661 -7.6309991284 -3.0000230271
18.1863158103 -7.6220935399 -3.0000230183
18.2291020443 -7.6109955785 -3.0000230074
17.8670620289 -7.6923194448 -3.0000230876
17.9267363106 -7.6885558356 -3.0000230839
18.2450869431 -7.6316526310 -3.0000230278
18.2738045158 -7.6233359265 -3.0000230196
18.3428563891 -7.9808181704 -3.0000233723
17.3527801178 -8.5509587571 -3.0000239349
17.1620332193 -8.5604192089 -3.0000239442
25.1402666993 -7.7753270107 -3.0000231695
25.1454579881 -7.7535784929 -3.0000231481
25.1637708566 -7.7809741226 -3.0000231751
25.1488938997 -7.9393884889 -3.0000233314
25.1665168829 -7.9673480737 -3.0000233590
25.1891659513 -7.8799391475 -3.0000232728
25.1946664878 -7.8580455191 -3.0000232512
11.6659757868 -10.6818576530 -3.0000260376
11.7651380341 -11.5161473981 -3.0000268608
11.8790537826 -11.7081568236 -3.0000270503
11.9298583943 -11.7603966318 -3.0000271018
11.9983152216 -11.8293444618 -3.0000271699
12.0501906093 -11.8805211194 -3.0000272204
12.0507341810 -11.9148109430 -3.0000272542
12.2477090822 -12.1327336708 -3.0000274692
12.4029620761 -12.3651522115 -3.0000276986
18.8391109124 -6.3264509260 -3.0000217399
18.8480094631 -6.5128114132 -3.0000219238
18.8540634857 -6.5035496161 -3.0000219146
18.1139510842 -7.6562314761 -3.0000230520
17.8461882254 -7.6663213178 -3.0000230620
18.1892621173 -7.6766843357 -3.0000230722
18.1354864575 -7.7038840398 -3.0000230990
18.2262591152 -7.6978894515 -3.0000230931
18.1910841535 -7.9430675116 -3.0000233351
17.4813127280 -8.4083331610 -3.0000237942
17.1241643957 -8.3963857392 -3.0000237824
16.4649371422 -8.4337281638 -3.0000238192
11.5863806391 -9.5943645558 -3.0000249645
11.5554726265 -9.6875017272 -3.0000250564
11.5167459146 -10.1851483406 -3.0000255474
11.5088373343 -10.2175917723 -3.0000255795
26.0171807128 -9.3986536532 -3.0000247714
25.9788734812 -9.6627667650 -3.0000250320
26.0331189816 -9.6023902364 -3.0000249724
26.0117973729 -9.7066104579 -3.0000250752
26.0003701640 -9.7873816791 -3.0000251549
26.0221804340 -9.7978050856 -3.0000251652
26.0326801826 -9.8318052928 -3.0000251988
26.0430481861 -9.8659007927 -3.0000252324
26.0544595229 -9.8422931724 -3.0000252091
26.0300495823 -9.9472645169 -3.0000253127
26.0417016646 -9.9236949928 -3.0000252895
26.0399496663 -9.9816083262 -3.0000253466
26.0517033005 -9.9580093656 -3.0000253233
26.0352234400 -10.0977812622 -3.0000254612
18.8254500147 -6.8346186140 -3.0000222413
18.8317466858 -6.8227069244 -3.0000222295
18.8400928638 -6.8582041175 -3.0000222646
18.8454223561 -6.8485072836 -3.0000222550
18.8366727143 -6.9115031028 -3.0000223172
18.8231939441 -6.9750819708 -3.0000223799
18.8365082625 -6.9559930770 -3.0000223611
18.8445988992 -6.9439045553 -3.0000223491
18.8274724732 -7.0494043756 -3.0000224532
18.8425443049 -7.0301934265 -3.0000224343
18.8395704191 -7.2506769116 -3.0000226518
17.8022613834 -7.8042110772 -3.0000231980
17.9064001603 -7.8167110104 -3.0000232104
17.9440764014 -7.8193212715 -3.0000232130
18.1202087318 -7.8182181587 -3.0000232119
18.1369479524 -7.8169721215 -3.0000232106
18.2194895040 -7.8323020015 -3.0000232258
18.0368017809 -7.8698175258 -3.0000232628
18.0758455323 -7.8689376074 -3.0000232619
18.1969523378 -7.8595623145 -3.0000232527
18.2827099923 -7.8713100354 -3.0000232643
17.2017980297 -8.7708738986 -3.0000241519
17.1410670651 -8.8519576852 -3.0000242319
17.0149156061 -8.8551271656 -3.0000242350
17.1838231928 -8.9688788887 -3.0000243473
16.6096584035 -8.7877309278 -3.0000241685
16.3891932416 -8.7020064491 -3.0000240839
16.4867423601 -8.7970892346 -3.0000241778
11.5550126317 -9.3870067585 -3.0000247599
11.5419485270 -9.4163191371 -3.0000247888
11.5436929813 -9.5328793159 -3.0000249038
11.5283794952 -9.6116726900 -3.0000249816
11.5237126533 -9.7102240314 -3.0000250788
11.5083351157 -9.8897194000 -3.0000252559
11.5079243983 -10.0401471564 -3.0000254044
11.4984560678 -10.1217634648 -3.0000254849
11.4996416937 -10.1723951694 -3.0000255349
11.4899265123 -10.2038323949 -3.0000255659
11.4615573003 -10.2986842607 -3.0000256595
11.4580916108 -10.4332484474 -3.0000257923
25.9410856920 -10.2787427395 -3.0000256398
25.9512656595 -10.3128400571 -3.0000256734
25.9627971072 -10.2893705206 -3.0000256503
25.9613129929 -10.3470314260 -3.0000257072
26.0062199376 -10.3106260829 -3.0000256713
26.0025920330 -10.4265783045 -3.0000257857
25.9880571560 -10.5083068744 -3.0000258663
26.0310305633 -10.5304569848 -3.0000258882
18.4286891063 -6.6648750812 -3.0000220738
18.4292703346 -6.6629826786 -3.0000220719
18.4378088754 -6.7127426508 -3.0000221210
18.4385316647 -6.7108230608 -3.0000221191
18.4427488677 -6.6992613858 -3.0000221077
18.4474086603 -6.6856807245 -3.0000220943
18.4362004491 -6.7778668126 -3.0000221853
18.4633753850 -6.7133350193 -3.0000221216
