48.8973378111 -1.7808448379 -3.5000170160
48.8181871029 -0.9148293059 -3.5000161615
48.8264210896 -2.3015065058 -3.5000175298
48.9584002636 -1.5148243690 -3.5000167535
48.8701196997 -0.9200398325 -3.5000161666
48.9785152728 -1.6819087923 -3.5000169184
48.9005631456 -2.3795931135 -3.5000176069
45.7170815201 3.5733452051 -3.5000117328
45.5661789920 3.5414981928 -3.5000117642
45.7428705704 3.6029284861 -3.5000117036
45.8302834341 3.6432533286 -3.5000116638
45.4948539030 3.5745334279 -3.5000117316
45.3590455648 3.5401555937 -3.5000117655
45.7492375260 3.6533180199 -3.5000116539
45.4892344303 3.5980442086 -3.5000117084
45.4436554574 3.5869360369 -3.5000117194
45.2924705729 3.5469958089 -3.5000117588
48.4632278794 -1.8481283142 -3.5000170824
48.4646898110 -1.8225629197 -3.5000170572
48.4864321202 -1.8627084405 -3.5000170968
48.4883905002 -1.8323962097 -3.5000170669
48.4897208209 -1.8020499276 -3.5000170370
48.4905386670 -1.7499859931 -3.5000169856
48.5125280787 -1.8337048681 -3.5000170682
48.5064120085 -1.5958462964 -3.5000168335
48.5264687700 -1.9465840145 -3.5000171796
48.5346427339 -1.8663247727 -3.5000171004
48.5388524110 -1.7633345150 -3.5000169988
48.5551386122 -1.9089580232 -3.5000171425
48.5601782399 -1.6588177472 -3.5000168956
48.5358184654 -1.4646520301 -3.5000167040
48.5313885540 -1.4423175777 -3.5000166820
48.5825005370 -1.8745530856 -3.5000171085
48.5803681581 -1.6066139782 -3.5000168441
48.5799283656 -1.6020094779 -3.5000168396
48.5439875991 -1.3877819898 -3.5000166282
48.6017459921 -1.9278683298 -3.5000171611
48.6082531288 -1.8530061652 -3.5000170873
48.6101049681 -1.6886962164 -3.5000169251
48.5914224895 -1.5018589111 -3.5000167408
48.5455667286 -1.3004935138 -3.5000165421
48.6348302805 -1.8021354304 -3.5000170371
48.6351627953 -1.7163136810 -3.5000169524
48.6227431436 -1.5499545791 -3.5000167882
48.6195653817 -1.5263251465 -3.5000167649
48.5659925141 -1.2844712872 -3.5000165262
48.6593295685 -1.7157638113 -3.5000169518
48.5712586157 -1.2221842256 -3.5000164648
48.6976398747 -1.5655596712 -3.5000168036
48.7262838614 -1.8959059109 -3.5000171296
48.7445149317 -1.5499955590 -3.5000167883
48.5998481835 -0.9767425045 -3.5000162226
48.6652681967 -1.0619230784 -3.5000163066
48.0843848962 -0.2921444546 -3.5000155471
47.9133467224 -0.0445705835 -3.5000153028
47.6276373503 0.3794077077 -3.5000148844
44.5256627135 3.5550313734 -3.5000117508
48.4421850008 -1.8766955022 -3.5000171106
48.4664875265 -1.8826516687 -3.5000171165
48.4663511653 -1.8761195015 -3.5000171101
48.4662684928 -1.8728537491 -3.5000171068
48.4631295828 -1.8141421453 -3.5000170489
48.4623026977 -1.8043767234 -3.5000170393
48.4568703623 -1.7556808134 -3.5000169912
48.4504189180 -1.7137079472 -3.5000169498
48.4904328476 -1.8722062630 -3.5000171062
48.4898623779 -1.8555246256 -3.5000170897
48.4869534076 -1.8088822754 -3.5000170437
48.4816966665 -1.7590884690 -3.5000169946
48.5148258252 -1.8817856378 -3.5000171157
48.4836336326 -1.6353183670 -3.5000168724
48.4706811736 -1.5858426606 -3.5000168236
48.4687887172 -1.5792908771 -3.5000168172
48.5386631611 -1.8674313583 -3.5000171015
48.5132814551 -1.6568829185 -3.5000168937
48.4939245521 -1.5792033355 -3.5000168171
48.4817399667 -1.5392461305 -3.5000167776
48.4751177314 -1.5194360081 -3.5000167581
48.5603171657 -1.8170395752 -3.5000170518
48.5502141197 -1.7252429742 -3.5000169612
48.5431771309 -1.6831960049 -3.5000169197
48.5750764595 -1.6021371568 -3.5000168397
48.5281269596 -1.3897595652 -3.5000166301
48.6003650957 -1.4391130428 -3.5000166788
48.9016070555 -1.8794107232 -3.5000171133
48.8952904271 -1.5943000286 -3.5000168320
48.0836483570 -0.2738510845 -3.5000155290
48.1682428531 -0.2062948048 -3.5000154624
47.5966257628 0.4229438460 -3.5000148414
47.5346399730 0.4283565933 -3.5000148361
48.0703652005 0.3502416547 -3.5000149132
48.3281692352 0.3315672670 -3.5000149316
46.7455280342 0.5268442988 -3.5000147389
46.6889272967 0.5368532982 -3.5000147290
48.4234556230 -1.8326616407 -3.5000170672
48.4479936791 -1.8317402030 -3.5000170663
48.4441095510 -1.8146223420 -3.5000170494
48.4725663377 -1.8311038806 -3.5000170656
48.4691714212 -1.8156119992 -3.5000170504
48.4626078486 -1.7892294212 -3.5000170243
48.4436841041 -1.7286974723 -3.5000169646
48.4802489272 -1.7627336726 -3.5000169982
48.4427826189 -1.6620508484 -3.5000168988
48.4414419557 -1.6045504085 -3.5000168421
48.8748714712 -1.7472976986 -3.5000169829
48.8907775781 -1.7076984885 -3.5000169439
48.8873874356 -1.6938975267 -3.5000169303
48.9175779696 -1.7161895881 -3.5000169522
48.9081250726 -1.6774605241 -3.5000169140
48.9004613389 -1.6494976491 -3.5000168864
48.9427660578 -1.7180538361 -3.5000169541
48.8760611936 -1.5068785519 -3.5000167457
48.8894988373 -1.4767953165 -3.5000167160
48.9017092539 -1.2426967276 -3.5000164850
48.1688462737 -0.2628943277 -3.5000155182
47.9548190126 -0.1969330720 -3.5000154531
48.3564839257 -0.2710470859 -3.5000155262
48.4109208536 -0.2660798276 -3.5000155213
47.3299339851 -0.1015724548 -3.5000153590
48.0922598091 0.3694056964 -3.5000148943
48.8420624320 -1.6860292291 -3.5000169225
48.8593776935 -1.6651997723 -3.5000169019
48.8521896367 -1.6493965641 -3.5000168863
48.8468557308 -1.6382013632 -3.5000168753
48.8424697504 -1.6293027684 -3.5000168665
48.8462102367 -1.5846475525 -3.5000168224
48.1200163616 -0.2234524510 -3.5000154793
48.3174042532 -0.2131151869 -3.5000154691
48.0449972482 -0.1755164355 -3.5000154320
47.8669704700 -0.1888674199 -3.5000154452
47.6963743762 -0.2183262035 -3.5000154742
48.1814172499 -0.1528500603 -3.5000154096
47.7179484667 -0.1889866004 -3.5000154453
48.0599844948 -0.1026572577 -3.5000153601
47.9461147672 -0.0110628573 -3.5000152697
48.0938123844 0.0184878883 -3.5000152405
41.4511030238 1.5016911376 -3.5000137770
48.8518627147 -1.1589658654 -3.5000164024
48.8439949725 -1.1443519410 -3.5000163880
48.8281517473 -0.9869643041 -3.5000162327
47.7530487327 0.0920140846 -3.5000151680
48.1301651139 0.1831162863 -3.5000150781
47.9511008055 0.1847312679 -3.5000150765
47.8827329159 0.1805900532 -3.5000150806
48.2961824256 0.1898750610 -3.5000150714
47.9340986229 0.2081516590 -3.5000150534
48.2515730195 0.2204587549 -3.5000150413
48.1870007457 0.2273708903 -3.5000150344
48.2717322862 0.2909883679 -3.5000149717
47.5180670880 0.2634947311 -3.5000149988
47.0527743360 0.1239263434 -3.5000151365
47.2907507676 0.3677962303 -3.5000148959
48.1314424002 0.5219752841 -3.5000147437
48.4226517775 -1.3056651312 -3.5000165472
48.4490841961 -1.3099129036 -3.5000165514
48.4484404527 -1.3076661154 -3.5000165491
48.4477900657 -1.3054212413 -3.5000165469
48.4464693836 -1.3009373142 -3.5000165425
48.4444386779 -1.2942262700 -3.5000165359
48.4349538141 -1.2653631360 -3.5000165074
48.4545322595 -1.2483017106 -3.5000164906
48.4386464265 -1.2079657269 -3.5000164508
48.4599208792 -1.1962308635 -3.5000164392
48.4334187661 -1.1401904050 -3.5000163839
48.4706692195 -1.1610950618 -3.5000164045
48.4427868399 -1.1065837481 -3.5000163507
48.4439969001 -1.0608813101 -3.5000163056
48.4398359293 -1.0542016609 -3.5000162990
48.4687844758 -1.0550907145 -3.5000162999
48.4617283063 -1.0436126098 -3.5000162886
48.4547261687 -0.9892994159 -3.5000162350
48.8685331461 -1.1941731930 -3.5000164371
48.8675451884 -1.1906861053 -3.5000164337
48.8655383483 -1.1837207739 -3.5000164268
48.8614012176 -1.1698263397 -3.5000164131
48.8570999711 -1.1559818306 -3.5000163995
48.8537666967 -1.1456323784 -3.5000163892
48.8744246786 -1.1311009301 -3.5000163749
48.8708699179 -1.1205987107 -3.5000163645
48.8596484243 -1.0892871087 -3.5000163336
48.8985425288 -1.1270280735 -3.5000163709
48.8937322732 -1.1127470872 -3.5000163568
48.8932763209 -0.9807955234 -3.5000162266
48.8783252531 -0.9489369960 -3.5000161952
48.8766117995 -0.9454220145 -3.5000161917
48.9185597521 -0.9780815184 -3.5000162239
48.8670575400 -0.8747677724 -3.5000161220
47.7964788364 0.1062108953 -3.5000151540
47.7106286539 0.2062888390 -3.5000150552
48.1383851424 0.1972097849 -3.5000150642
48.0403850642 0.2444626011 -3.5000150176
47.6260882846 0.2778347173 -3.5000149846
48.4312583105 0.1458852349 -3.5000151148
48.3219586166 0.2416585765 -3.5000150203
48.1627669201 0.2907773724 -3.5000149719
48.1758353532 0.3872572714 -3.5000148767
47.0400418467 0.3639521332 -3.5000148997
48.1520192329 0.4924834920 -3.5000147728
47.3814941442 0.5462932301 -3.5000147197
47.2790950773 0.5531273478 -3.5000147130
46.5540208618 0.5991002770 -3.5000146676
41.5475339315 2.7113193845 -3.5000125834
48.4569597471 -1.2615920776 -3.5000165037
48.4551234486 -1.2425087250 -3.5000164848
48.4547844811 -1.2393314648 -3.5000164817
48.4490537058 -1.1949692021 -3.5000164379
48.4485741344 -1.1918101053 -3.5000164348
48.4470793788 -1.1823415205 -3.5000164255
48.4389956697 -1.1383471368 -3.5000163821
48.4773350280 -1.2237487750 -3.5000164663
48.4756992544 -1.2107844409 -3.5000164535
48.4752663507 -1.2075464526 -3.5000164503
48.4734390086 -1.1946077303 -3.5000164376
48.4729582612 -1.1913764990 -3.5000164344
48.4719681012 -1.1849183734 -3.5000164280
48.4676259170 -1.1591478401 -3.5000164026
48.4664451749 -1.1527218266 -3.5000163962
48.4639697398 -1.1398913186 -3.5000163836
48.4620136279 -1.1302881509 -3.5000163741
48.4606622403 -1.1238958466 -3.5000163678
48.4599723703 -1.1207027207 -3.5000163646
48.4585643078 -1.1143226609 -3.5000163584
48.4563815012 -1.1047684702 -3.5000163489
48.5051227206 -1.2573886140 -3.5000164995
48.5038830440 -1.2440931280 -3.5000164864
48.5032042321 -1.2374511184 -3.5000164799
48.4983073145 -1.1976939665 -3.5000164406
48.4902071627 -1.1482829959 -3.5000163919
48.4828780518 -1.1123020891 -3.5000163564
48.4628498217 -1.0347437760 -3.5000162798
48.4589786673 -1.0219640691 -3.5000162672
48.5212691658 -1.1875637835 -3.5000164306
48.5152015841 -1.1505515018 -3.5000163941
48.5079330460 -1.1137562183 -3.5000163578
48.5034649013 -1.0937914683 -3.5000163381
48.4925727920 -1.0508257004 -3.5000162957
48.4758517052 -0.9953292465 -3.5000162409
48.4704047771 -0.9791738484 -3.5000162250
48.4681591997 -0.9727345440 -3.5000162186
48.5337135251 -1.1189076825 -3.5000163629
48.4921116903 -0.9679927986 -3.5000162140
48.4814020767 -0.9385490285 -3.5000161849
48.4789159568 -0.9320453714 -3.5000161785
48.5323777598 -1.0141310769 -3.5000162595
48.5040070352 -0.9299845007 -3.5000161765
48.4975905533 -0.9134198220 -3.5000161601
48.4840261582 -0.8805842097 -3.5000161277
48.5595921161 -1.0211836346 -3.5000162664
48.5513508962 -0.9933854785 -3.5000162390
48.5653717137 -0.9581010161 -3.5000162042
48.4904952994 -0.7813087371 -3.5000160298
48.5718219104 -0.9042909172 -3.5000161511
48.5788258351 -0.8564884664 -3.5000161039
48.5058424430 -0.7085519237 -3.5000159580
48.4941829892 -0.6886881024 -3.5000159384
48.5146954966 -0.6299934837 -3.5000158804
48.5125443377 -0.6266426786 -3.5000158771
48.5349944720 -0.5729353702 -3.5000158241
48.5573020635 -0.4791901937 -3.5000157316
47.8804517054 0.0750461173 -3.5000151847
48.9250215826 -1.1094022138 -3.5000163535
47.8613144984 0.1324741615 -3.5000151281
48.9573422311 -1.1660669073 -3.5000164094
48.1199331411 0.2916401822 -3.5000149710
48.0954903693 0.3023906336 -3.5000149604
48.0751258581 0.3371773003 -3.5000149261
48.3151946917 0.2455101887 -3.5000150165
48.3843443910 0.2317751163 -3.5000150301
48.1241949446 0.3689869165 -3.5000148947
47.5172730989 0.5173977587 -3.5000147482
48.2105022264 0.3560706139 -3.5000149074
47.4879930052 0.5919328482 -3.5000146747
48.0729024320 0.5710554807 -3.5000146953
45.3025368715 1.3667365687 -3.5000139102
48.4443046218 -1.3789362828 -3.5000166195
48.4454084063 -1.3674727391 -3.5000166081
48.4457537216 -1.3636494367 -3.5000166044
48.4478540495 -1.3368600614 -3.5000165779
48.4495746118 -1.3061980837 -3.5000165477
48.4701721689 -1.3618927044 -3.5000166026
48.4743230198 -1.2916367907 -3.5000165333
48.4745531620 -1.2838194399 -3.5000165256
48.4746508883 -1.2799102882 -3.5000165217
48.4750111335 -1.2525405261 -3.5000164947
48.4749920174 -1.2408094565 -3.5000164832
48.4746414772 -1.2173501360 -3.5000164600
48.4902645567 -1.4035770302 -3.5000166438
48.4987069391 -1.2127938801 -3.5000164555
48.4968222414 -1.1690356701 -3.5000164123
48.5156216734 -1.3942704671 -3.5000166346
48.5226437184 -1.2932024265 -3.5000165349
48.5233557794 -1.2445694993 -3.5000164869
48.5232094550 -1.2283566897 -3.5000164709
48.5229738229 -1.2161988394 -3.5000164589
48.5211870568 -1.1716493209 -3.5000164149
48.5192956935 -1.1433391993 -3.5000163870
48.5122657894 -1.0747983796 -3.5000163194
48.5095431421 -1.0547153222 -3.5000162995
48.5065237565 -1.0346747306 -3.5000162798
48.4988399398 -0.9907564987 -3.5000162364
48.5467904187 -1.2032534720 -3.5000164461
48.5334723763 -1.0512908467 -3.5000162962
48.5168488872 -0.9579044739 -3.5000162040
48.5636946118 -1.3994021062 -3.5000166397
48.5607471433 -1.0728212291 -3.5000163174
48.5471050305 -0.9857733454 -3.5000162315
48.5905571939 -1.1249949668 -3.5000163689
48.5667467374 -0.9603513399 -3.5000162064
48.5404018654 -0.8525863584 -3.5000161001
48.5380332813 -0.8443857472 -3.5000160920
48.6188058032 -1.3093431016 -3.5000165508
48.5575322785 -0.8251294239 -3.5000160730
48.5373553558 -0.7632498441 -3.5000160119
48.5285191791 -0.7387589090 -3.5000159878
48.6310057898 -1.0507004313 -3.5000162956
48.5961779419 -0.8733504029 -3.5000161206
48.6453406555 -0.9854811474 -3.5000162312
47.9490549643 0.0405675400 -3.5000152188
48.6482708252 -0.7143860642 -3.5000159637
48.6436622140 -0.6350403039 -3.5000158854
48.7393208612 -0.6818398592 -3.5000159316
48.2151502333 0.1810970437 -3.5000150801
48.2741539669 0.1970076467 -3.5000150644
47.7479297394 0.5323462286 -3.5000147335
47.7320993861 0.5375545723 -3.5000147284
47.6949867321 0.5491595560 -3.5000147169
47.6522887120 0.5614781165 -3.5000147047
47.8253465124 0.5820500724 -3.5000146845
47.3045561040 0.7199110573 -3.5000145484
47.9768213151 0.0047840185 -3.5000152541
48.4530526782 -1.4395519211 -3.5000166793
48.4682829102 -1.3718681488 -3.5000166125
48.5185493091 -1.1860358669 -3.5000164291
48.4915890395 -1.4835179726 -3.5000167227
48.5430129752 -1.1831615553 -3.5000164263
48.5474822398 -1.0497572886 -3.5000162946
48.5435798379 -0.9497115143 -3.5000161959
48.5015937128 -1.5363574137 -3.5000167748
48.5622710861 -1.2379868507 -3.5000164804
48.5677440544 -1.3668899721 -3.5000166076
48.5933053712 -1.3615187627 -3.5000166023
48.5991407239 -1.3271299734 -3.5000165683
48.6194967898 -1.0192891657 -3.5000162646
48.6159210824 -0.9446358981 -3.5000161909
48.5911792143 -0.7519890135 -3.5000160008
48.6253290670 -1.3159414115 -3.5000165573
48.6204850263 -0.6578674874 -3.5000159079
48.6451959617 -0.6572779775 -3.5000159074
48.6152213669 -0.5469520586 -3.5000157985
48.7308707778 -0.8723402425 -3.5000161196
45.9248011176 3.6327007776 -3.5000116742
45.7312722182 3.5868260308 -3.5000117195
45.9336774872 3.6593168661 -3.5000116479
45.8918131747 3.6502396604 -3.5000116569
48.0504900391 0.0293835809 -3.5000152298
48.0478780522 0.0332009577 -3.5000152260
48.0452547842 0.0370105910 -3.5000152223
48.0426202581 0.0408124476 -3.5000152185
48.0399744969 0.0446064942 -3.5000152148
48.0678077780 0.0468809179 -3.5000152125
48.0629822879 0.0956162119 -3.5000151644
48.0710712141 0.1254183852 -3.5000151350
48.0652674248 0.1331654797 -3.5000151274
48.0415969948 0.1638064367 -3.5000150972
48.0231576868 0.2243627559 -3.5000150374
48.0252797712 0.2588833252 -3.5000150033
48.0566944944 0.2595401466 -3.5000150027
48.0132135375 0.3437210873 -3.5000149196
48.1779093428 0.2246716023 -3.5000150371
48.1609145562 0.2854999594 -3.5000149771
48.5644002862 -1.1461587082 -3.5000163898
48.4328263411 -0.1137307237 -3.5000153710
48.3608348268 0.0317380673 -3.5000152275
48.4956142097 -1.4993115159 -3.5000167382
48.6123720783 -0.8662081965 -3.5000161135
48.1739786155 0.3455132324 -3.5000149179
48.5709514176 -1.3438713369 -3.5000165849
48.6230413080 -1.0769465044 -3.5000163215
48.6327521160 -0.9718618875 -3.5000162178
48.6365098630 -0.8330677611 -3.5000160808
48.4962208412 -1.6255614736 -3.5000168628
48.6000496972 -1.3284533180 -3.5000165696
48.6250194586 -1.2187439304 -3.5000164614
48.6604070681 -0.8890912321 -3.5000161361
48.6590616388 -0.7709598469 -3.5000160195
48.6526017300 -0.6755365847 -3.5000159254
48.4792516182 -1.7177698351 -3.5000169538
48.5428688545 -1.5777357718 -3.5000168156
48.5881026034 -1.4547604585 -3.5000166943
48.6844549062 -0.8952635427 -3.5000161422
48.4876820789 -1.7543093693 -3.5000169899
48.5921882593 -1.5168488043 -3.5000167555
48.6429565266 -1.4420935924 -3.5000166818
48.7306033585 -0.9547255011 -3.5000162009
48.7319766209 -0.7795554285 -3.5000160280
48.7039520360 -0.5125387799 -3.5000157645
48.6875910754 -1.3755505460 -3.5000166161
48.6955674149 -0.3581077513 -3.5000156122
48.5762541043 -1.7398026171 -3.5000169755
48.7045086524 -1.4049483650 -3.5000166451
48.7436125012 -1.2420692876 -3.5000164844
48.7771011073 -0.9871157726 -3.5000162328
48.7804390487 -0.9213781014 -3.5000161680
48.7800630012 -0.7718097883 -3.5000160204
48.7699564473 -0.6345733252 -3.5000158850
47.8652540131 0.8417676761 -3.5000144282
48.6725469225 -1.5782108076 -3.5000168161
48.7828780966 -1.1572479542 -3.5000164007
48.7999231533 -1.0068547005 -3.5000162523
48.7388544559 -1.4593013805 -3.5000166988
48.8261229671 -0.9781235648 -3.5000162240
48.8281204002 -0.7637790372 -3.5000160125
48.8232110037 -0.6842826829 -3.5000159340
48.7206066162 -0.1874922362 -3.5000154438
48.5927854155 -1.8651160619 -3.5000170992
48.7850733560 -1.4734842715 -3.5000167128
48.8581817150 -1.1432518834 -3.5000163869
48.9063321138 -0.5553572948 -3.5000158068
48.9824571091 -0.5783049509 -3.5000158294
46.2615681509 3.5119496661 -3.5000117934
46.2977892552 3.5402309289 -3.5000117655
46.0517976650 3.5074012976 -3.5000117978
46.6359444821 3.5868288063 -3.5000117195
46.2691479254 3.5614525577 -3.5000117445
46.2560952337 3.5599849480 -3.5000117460
46.1778754488 3.5503690414 -3.5000117554
46.1648559436 3.5486314797 -3.5000117572
46.9257631971 3.6095746368 -3.5000116970
46.8597612990 3.6115569939 -3.5000116951
46.7673247485 3.6126918678 -3.5000116940
46.7277056459 3.6125922567 -3.5000116941
46.6880889873 3.6121410522 -3.5000116945
46.5560911677 3.6080984153 -3.5000116985
46.9664664318 3.6320638446 -3.5000116748
46.9133981913 3.6342078775 -3.5000116727
46.3959843903 3.6221905877 -3.5000116846
45.9616654263 3.5655342636 -3.5000117405
45.9486020056 3.5631570472 -3.5000117428
47.0475590410 3.6517942983 -3.5000116554
46.7540682580 3.6610437612 -3.5000116462
46.1287080851 3.6168497028 -3.5000116898
47.0357114302 3.6767569143 -3.5000116307
46.5259888334 3.6792450171 -3.5000116283
46.4723931594 3.6761738115 -3.5000116313
48.0572709045 -0.0479193145 -3.5000153061
48.0990698104 -0.0911639488 -3.5000153487
48.0831274545 -0.0477453933 -3.5000153059
48.0797852485 -0.0391193376 -3.5000152974
48.0586657327 0.0122080619 -3.5000152467
48.0549692501 0.0206883445 -3.5000152384
48.0668963729 0.1092347312 -3.5000151510
48.1871716273 -0.1269416870 -3.5000153841
48.0885421820 0.1199955038 -3.5000151404
48.2088225939 -0.1151373472 -3.5000153724
48.1454612264 0.0550872488 -3.5000152044
48.1133106661 0.2282270456 -3.5000150336
48.0879152806 0.2719270734 -3.5000149905
48.0612384667 0.3148568491 -3.5000149481
48.0474267755 0.3360211262 -3.5000149272
48.2862215773 0.0302541909 -3.5000152289
48.0871611882 0.4066266008 -3.5000148576
48.2209180647 0.4240737140 -3.5000148403
48.5670413464 -0.2599594357 -3.5000155153
48.1070786711 0.8021201391 -3.5000144673
48.6903420038 -0.4739021625 -3.5000157264
48.6028096057 -1.2960670925 -3.5000165377
48.6348779397 -1.1956999241 -3.5000164387
48.6646972371 -1.0817792905 -3.5000163262
48.6848112806 -0.9846715558 -3.5000162304
48.6891199166 -0.9602543759 -3.5000162063
48.7111536201 -0.7881467446 -3.5000160365
48.7421362284 -0.5459182294 -3.5000157975
48.6526048649 -1.2999415487 -3.5000165415
48.7656329868 -0.6910347969 -3.5000159407
48.6952741807 -1.2467402609 -3.5000164890
48.7686262053 -0.9217597735 -3.5000161683
48.7791493318 -0.3781775261 -3.5000156320
48.6301411109 -1.4907200521 -3.5000167298
48.7647204290 -0.1389029776 -3.5000153959
48.6777681454 -1.4400529015 -3.5000166798
48.6802195174 -1.4339722553 -3.5000166738
48.7126394227 -1.3481089076 -3.5000165890
48.8336686605 -0.7723774746 -3.5000160209
48.7651488045 -0.0381637684 -3.5000152964
48.6796972163 -1.4980307737 -3.5000167370
48.7902037873 -0.0383519845 -3.5000152966
48.8660569724 -1.0659357737 -3.5000163106
48.9086689330 -0.4800562228 -3.5000157325
48.9301393855 -0.4377351918 -3.5000156907
48.6045863268 -1.8482662330 -3.5000170826
48.7792701549 -1.5109821452 -3.5000167498
48.5434427234 -1.9829383521 -3.5000172155
48.7559795622 -1.6223501275 -3.5000168597
48.9344028685 -0.1231559670 -3.5000153803
48.8398700543 -1.4904558823 -3.5000167295
48.5288652248 -2.2366165789 -3.5000174658
46.7574369149 3.4912537271 -3.5000118138
46.7331800034 3.4919746139 -3.5000118131
46.7216251662 3.5164474227 -3.5000117889
46.9428766122 3.5294782501 -3.5000117761
47.2269450125 3.5221080152 -3.5000117833
47.1780293983 3.5289595422 -3.5000117766
46.7721467161 3.5633125362 -3.5000117427
46.7104301152 3.5650553197 -3.5000117410
47.4232271145 3.5624945146 -3.5000117435
47.3738198876 3.5716657153 -3.5000117344
47.5691433684 3.5814264669 -3.5000117248
46.7129482215 3.6858942257 -3.5000116217
49.9071386414 -3.4144316542 -3.5000186280
47.8709511619 3.5269309728 -3.5000117786
47.2858177302 3.6599125249 -3.5000116474
48.0003794529 3.5111503822 -3.5000117941
48.1541876610 3.4823271533 -3.5000118226
48.0325261235 3.5258125172 -3.5000117797
48.6835176615 3.2703961836 -3.5000120317
48.0831042388 -0.1259211308 -3.5000153830
48.0655646718 -0.0257022704 -3.5000152842
48.1101600886 -0.1458069741 -3.5000154027
48.1076902185 -0.1271822748 -3.5000153843
48.1035726489 -0.0993032806 -3.5000153568
48.0997638034 -0.0761295923 -3.5000153339
48.0892276062 -0.0207625520 -3.5000152793
48.0610055747 0.0931921027 -3.5000151668
48.1243883428 -0.0767334835 -3.5000153345
48.1046539826 0.0214242504 -3.5000152377
48.0978993960 0.0492259498 -3.5000152102
48.0967257030 0.0538477214 -3.5000152057
48.0943373266 0.0630807476 -3.5000151965
48.0893969076 0.0815036012 -3.5000151784
48.0689379679 0.1500362211 -3.5000151107
48.1630183151 -0.1830176176 -3.5000154394
48.1625313556 -0.1782021963 -3.5000154346
48.1177220360 0.0692037083 -3.5000151905
48.1006183257 0.1297501595 -3.5000151308
48.0934220143 0.1528550975 -3.5000151080
48.0731201314 0.2124054393 -3.5000150492
48.1889042540 -0.2001813428 -3.5000154563
48.1612129517 -0.0107527238 -3.5000152694
48.1550205391 0.0180578625 -3.5000152410
48.1320545571 0.1084933682 -3.5000151517
48.1103564111 0.1788916391 -3.5000150823
48.0747794141 0.2756851569 -3.5000149868
48.0673247302 0.2938617086 -3.5000149688
48.0615928596 0.3074355400 -3.5000149554
48.0934441047 0.2939569967 -3.5000149687
48.2422215474 -0.2766578965 -3.5000155318
48.2387125058 -0.2161085896 -3.5000154720
48.1700143578 0.1508026714 -3.5000151100
48.1685398670 0.1556373277 -3.5000151052
48.1655480122 0.1652934491 -3.5000150957
48.1000244204 0.3403563735 -3.5000149229
48.2332704986 -0.0011660754 -3.5000152599
48.2290805518 0.0189051977 -3.5000152401
48.1674886699 0.2357117143 -3.5000150262
48.1622689036 0.2501767344 -3.5000150119
48.2250662175 0.1349167584 -3.5000151257
48.1777113219 0.2779642033 -3.5000149845
48.2094745642 0.2618376030 -3.5000150004
48.3644101511 -0.3313206726 -3.5000155857
48.1629029964 0.5412986273 -3.5000147247
48.2771590837 0.4179499888 -3.5000148464
48.4460013315 -0.5863650454 -3.5000158374
48.0302507892 0.9443228414 -3.5000143270
48.7754093520 -0.6751933116 -3.5000159250
48.7885121875 -0.5688201010 -3.5000158201
48.7975142652 -0.4418708653 -3.5000156948
48.8057441608 -0.6317581643 -3.5000158822
48.8080886501 -0.0779253901 -3.5000153357
48.8296086292 -0.0547270568 -3.5000153128
48.8141531135 -0.8624161520 -3.5000161098
48.8860700747 -0.5644606985 -3.5000158158
48.8948869066 -0.2644277372 -3.5000155197
47.4618188358 3.4765574879 -3.5000118283
47.5242872819 3.4858358351 -3.5000118191
47.7074053878 3.4844075693 -3.5000118205
47.6620093280 3.4980125508 -3.5000118071
47.8470285159 3.4899782669 -3.5000118150
48.2896409197 3.3622894044 -3.5000119410
48.0650511185 3.4865219853 -3.5000118185
48.0825908865 -0.1443366337 -3.5000154012
48.0842256634 -0.0879997177 -3.5000153456
48.0834559719 -0.0175552158 -3.5000152761
48.0820273453 0.0152919041 -3.5000152437
48.0812069225 0.0293588508 -3.5000152298
48.0799188985 0.0481024010 -3.5000152113
48.1057332425 -0.1645138538 -3.5000154211
48.1067374935 -0.1454665245 -3.5000154023
48.1080695449 -0.1073428862 -3.5000153647
48.1083971589 -0.0882719150 -3.5000153459
48.1084438010 -0.0835036708 -3.5000153412
48.1083753339 -0.0501250190 -3.5000153083
48.1053324595 0.0308733624 -3.5000152283
48.1040248262 0.0499022712 -3.5000152095
48.1024921256 0.0689143753 -3.5000151908
48.0971185597 0.1210892903 -3.5000151393
48.1213419316 -0.2623389207 -3.5000155177
48.1258830704 -0.2190177278 -3.5000154749
48.1323407319 -0.1030622228 -3.5000153605
48.1321918260 -0.0304685960 -3.5000152889
48.1180727391 0.1479636348 -3.5000151128
48.1132094881 0.1814920377 -3.5000150797
48.1409552334 -0.2992769353 -3.5000155541
48.1459173610 -0.2603005242 -3.5000155156
48.1561468355 -0.1182788933 -3.5000153755
48.1568350668 -0.0642592637 -3.5000153222
48.1535835336 0.0339023857 -3.5000152253
48.1426775292 0.1463170945 -3.5000151144
48.1305936359 0.2239588893 -3.5000150378
48.1681530753 -0.2779122368 -3.5000155330
48.1704947388 -0.2581183885 -3.5000155135
48.1744746491 -0.2184545010 -3.5000154744
48.1761123385 -0.1985900153 -3.5000154548
48.1789370382 -0.1538333976 -3.5000154106
48.1427509529 0.2868907099 -3.5000149757
48.2019559864 -0.1752213445 -3.5000154317
48.2030801971 -0.1550347134 -3.5000154118
48.2046116859 -0.1146286123 -3.5000153719
48.2051670688 -0.0792520530 -3.5000153370
48.1988238985 0.0772542822 -3.5000151826
48.2250692284 -0.1920527775 -3.5000154483
48.2223318769 -0.3997912385 -3.5000156533
48.2413700629 -0.2765385596 -3.5000155317
48.2495403976 -0.1885685659 -3.5000154449
48.2516171354 -0.1522458691 -3.5000154090
48.2275678439 0.2308492864 -3.5000150310
48.2199611975 0.2717267923 -3.5000149907
48.2757637424 -0.1533757598 -3.5000154101
48.2573249258 0.1985891952 -3.5000150628
48.2513835772 0.2349900749 -3.5000150269
48.2436722774 0.2764299795 -3.5000149860
48.2948702571 -0.2290977909 -3.5000154849
48.2878648516 0.3017480000 -3.5000149610
48.2462840182 0.4642265043 -3.5000148007
48.3128279847 -0.5470547520 -3.5000157986
48.2991097993 -0.6771477362 -3.5000159270
48.8306678972 0.0486985450 -3.5000152107
48.8155085764 0.2208360153 -3.5000150409
48.8128351814 0.2414041024 -3.5000150206
48.8502271684 0.1196267711 -3.5000151407
48.8125249304 -0.6417902798 -3.5000158921
48.8175069774 -0.6212147018 -3.5000158718
48.8611121233 -0.3853841012 -3.5000156391
48.8100790451 -0.7439478662 -3.5000159929
48.8934473174 -0.3177925161 -3.5000155724
48.7937535314 -0.8741096782 -3.5000161213
48.8136920960 0.8852083858 -3.5000143853
48.8455862616 -1.0111764889 -3.5000162566
48.7749128034 1.2380599842 -3.5000140371
48.8918224462 -1.2070206456 -3.5000164498
48.2127288073 -3.3921992615 -3.5000186061
48.2337068799 -3.4085515354 -3.5000186222
48.2534277548 -3.3982154450 -3.5000186120
48.2943677563 -3.4037692220 -3.5000186175
47.9775459407 3.4158539324 -3.5000118882
48.1517006184 3.4170610815 -3.5000118870
48.1931408249 3.4239802815 -3.5000118802
48.2244704757 3.4355637620 -3.5000118687
49.0699674053 -3.1705117085 -3.5000183873
48.6179639300 -3.5240889530 -3.5000187362
48.6392657633 3.4274978777 -3.5000118767
49.3731815988 3.0868255485 -3.5000122129
48.0828696055 -0.0052662308 -3.5000152640
48.0888587126 0.0460498003 -3.5000152134
48.0948227921 0.1256667335 -3.5000151348
48.0693360699 -0.2002149660 -3.5000154564
48.0998351273 -0.0556257281 -3.5000153137
48.1020803221 -0.0414976405 -3.5000152997
48.1086572332 0.0057296072 -3.5000152531
48.1142749471 0.0578787995 -3.5000152017
48.1197994934 0.1435231958 -3.5000151172
48.1209282915 0.1959619485 -3.5000150654
48.1209462857 0.2007303869 -3.5000150607
48.0927350847 -0.2062830290 -3.5000154623
48.1020104048 -0.1686914617 -3.5000154252
48.1142491419 -0.1119189251 -3.5000153692
48.1338106951 0.0123595160 -3.5000152466
48.1343717621 0.0171668662 -3.5000152419
48.1359696035 0.0315985807 -3.5000152276
48.1391993938 0.0653235487 -3.5000151943
48.1017236625 -0.2644177162 -3.5000155197
48.1173599785 -0.2075950493 -3.5000154636
48.1221226432 -0.1885352390 -3.5000154448
48.1288429569 -0.1598431976 -3.5000154165
48.1309697636 -0.1502532355 -3.5000154071
48.1434069871 -0.0876309055 -3.5000153453
48.1560219604 -0.0051029387 -3.5000152638
48.1667363091 0.1122600275 -3.5000151480
48.1691669495 0.2251763668 -3.5000150366
48.1850685907 0.0364049115 -3.5000152229
48.1834158469 -0.1358529822 -3.5000153928
48.1909991697 -0.0961353327 -3.5000153537
48.1937871232 -0.2007170372 -3.5000154568
48.2321207354 0.0213846507 -3.5000152377
48.1930054133 -0.2967060121 -3.5000155516
48.2208684798 -0.1911924834 -3.5000154475
48.2596269011 0.0550474831 -3.5000152045
48.2645300317 0.1328495987 -3.5000151277
48.1991910082 -0.4958248673 -3.5000157480
48.2218374068 -0.5653280392 -3.5000158166
48.1947497467 -0.6764556277 -3.5000159263
48.4419453341 0.4645773906 -3.5000148004
48.3232958802 -0.7436267652 -3.5000159926
48.8680591196 0.1012505917 -3.5000151589
48.8697521714 0.6874544290 -3.5000145804
48.8071885776 0.9288561880 -3.5000143422
48.7571374842 1.3660841280 -3.5000139108
47.6621844254 -3.4540002066 -3.5000186670
47.7020770542 -3.4666115777 -3.5000186795
47.7237752823 -3.4594886320 -3.5000186725
47.7346084981 -3.4558790499 -3.5000186689
47.7640533969 -3.4714401812 -3.5000186842
47.9109575634 -3.4697507504 -3.5000186826
48.7028882752 -3.4881664789 -3.5000187008
49.3809063047 -3.2135765625 -3.5000184298
48.0744548632 0.1412260617 -3.5000151194
48.0906158737 0.1044121926 -3.5000151558
48.0875178616 0.0036518174 -3.5000152552
48.0876774067 -0.0713341073 -3.5000153292
48.0987410973 -0.0398423014 -3.5000152981
48.1105837018 -0.0035802155 -3.5000152623
48.0640640138 -0.2505094481 -3.5000155060
48.0901313750 -0.2521597472 -3.5000155076
48.0846304846 -0.3168170411 -3.5000155714
48.2172535057 0.0159382466 -3.5000152431
48.4485416806 0.3970011205 -3.5000148670
48.1561469655 -0.6177683750 -3.5000158684
48.7547383575 0.8654177913 -3.5000144048
48.7512203607 0.8847690907 -3.5000143857
48.6838702849 1.2280708412 -3.5000140470
48.8474159930 -0.1540940066 -3.5000154108
48.9566219047 0.5583483321 -3.5000147078
48.9563758061 0.5654007764 -3.5000147009
47.1309301740 -3.4872786509 -3.5000186999
47.1543843559 -3.4839051213 -3.5000186965
47.1932515591 -3.5024691897 -3.5000187149
47.3622599498 -3.4970625883 -3.5000187095
47.4024316433 -3.5135639470 -3.5000187258
47.4849164217 -3.4955227399 -3.5000187080
47.4966688462 -3.4928061292 -3.5000187053
47.5257674782 -3.5107797672 -3.5000187231
47.5906341583 -3.5196689757 -3.5000187318
47.3449442217 -3.5989174134 -3.5000188100
47.6678173279 -3.5242842565 -3.5000187364
47.7998698375 -3.5363687542 -3.5000187483
48.1946399132 -3.4199409525 -3.5000186334
48.0535424021 0.0811681508 -3.5000151787
48.0614206608 0.0421494351 -3.5000152172
48.0991982440 0.0646267317 -3.5000151950
48.0808053872 -0.0253005767 -3.5000152838
48.0898334449 -0.1072207321 -3.5000153646
48.0874556478 -0.1572613296 -3.5000154140
48.1493834485 -0.2395116744 -3.5000154951
48.0912376052 -0.4765336245 -3.5000157290
48.2084721005 -0.3246843860 -3.5000155792
48.6832625897 0.7262365498 -3.5000145422
48.6757908858 0.9033990632 -3.5000143674
48.6272135676 1.2007138028 -3.5000140740
48.5853544366 1.3485934652 -3.5000139281
48.5797959555 1.3654377963 -3.5000139114
48.7073735431 0.7142147500 -3.5000145540
48.6710145305 1.1128398010 -3.5000141607
48.6373480220 1.2585703329 -3.5000140169
48.6357778844 1.2643447830 -3.5000140112
48.6208799696 1.3160986338 -3.5000139601
48.7124855864 1.0098704943 -3.5000142623
48.6912411446 1.1352307622 -3.5000141386
48.6837450384 1.1707823360 -3.5000141035
48.6294515001 1.3692959918 -3.5000139076
48.5948907922 1.4662553650 -3.5000138120
48.7392449571 0.4694334721 -3.5000147956
48.7522520579 0.6097286497 -3.5000146571
48.7403863835 0.9827881398 -3.5000142890
48.7073528069 1.1759793106 -3.5000140984
48.5750986183 1.5767602602 -3.5000137029
48.7439603194 0.3439359708 -3.5000149194
48.5488963767 1.6872154667 -3.5000135939
48.7629432860 0.3148526893 -3.5000149481
48.8022501519 0.8199935798 -3.5000144497
48.7476020466 1.2169399370 -3.5000140580
48.6903863543 1.4157014709 -3.5000138618
48.5845082742 1.6702516788 -3.5000136107
48.5675333326 1.7038246666 -3.5000135775
48.5034864741 1.8188474185 -3.5000134640
48.7981663055 0.3724694997 -3.5000148913
48.8095479181 0.4477093976 -3.5000148170
48.8272214964 0.6625089890 -3.5000146051
48.5209670091 1.8366948069 -3.5000134464
48.8285724509 1.0517463353 -3.5000142210
48.8192656934 1.1087078205 -3.5000141648
48.7946586886 1.2280310854 -3.5000140470
48.7076834241 1.5096858180 -3.5000137691
48.8866535111 0.9809091887 -3.5000142909
48.8307251589 1.2836793104 -3.5000139921
48.7551472556 1.5209362255 -3.5000137580
48.6594178300 1.7365513541 -3.5000135452
48.5762913392 1.8853213816 -3.5000133984
48.7331761457 1.7513241533 -3.5000135307
49.0089961158 0.9739367401 -3.5000142978
46.4628995144 -3.4861448769 -3.5000186988
46.5752321553 -3.4905506607 -3.5000187031
46.6751509094 -3.4919552314 -3.5000187045
46.6499717796 -3.5159980076 -3.5000187282
46.7379101390 -3.5158033280 -3.5000187280
46.7881527738 -3.5148745457 -3.5000187271
46.8007114406 -3.5145494636 -3.5000187268
46.9011349474 -3.5106117366 -3.5000187229
46.4729798361 -3.5350687864 -3.5000187470
46.9402125695 -3.5326522366 -3.5000187446
46.7258126014 -3.5642864508 -3.5000187759
47.0810130862 -3.5461470027 -3.5000187580
46.7899220787 -3.5873720429 -3.5000187986
47.2229600220 -3.5549684423 -3.5000187667
47.1621729017 -3.5864895356 -3.5000187978
47.2514610357 -3.5756742010 -3.5000187871
47.2802257899 -3.5961918897 -3.5000188073
47.3696895099 -3.5829300936 -3.5000187943
46.8566175974 -3.6578044718 -3.5000188681
46.9085321455 -3.6554611467 -3.5000188658
47.1933069362 -3.6316087065 -3.5000188423
46.8445105802 -3.6824514698 -3.5000188925
47.6339450049 -3.5820859220 -3.5000187934
47.8305561919 -3.5590809016 -3.5000187707
47.9191335141 -3.5344320214 -3.5000187464
48.0199316180 0.0086552734 -3.5000152503
48.5592582085 1.1872501034 -3.5000140873
48.5313134007 1.3436235872 -3.5000139330
48.5166662852 1.4033631366 -3.5000138740
48.5140193282 1.4132675524 -3.5000138642
48.5969200326 1.0299239729 -3.5000142425
48.5951148851 1.0662611795 -3.5000142067
48.5796394275 1.2161463617 -3.5000140588
48.5387035595 1.4145585102 -3.5000138630
48.5184662490 1.4844476244 -3.5000137940
48.5105396341 1.5091966205 -3.5000137696
48.5072666378 1.5190629367 -3.5000137598
48.6150986169 0.7992766125 -3.5000144701
48.6223406835 0.9413181672 -3.5000143299
48.6192444285 1.0677104621 -3.5000142052
48.6091851478 1.1778840725 -3.5000140965
48.5942053305 1.2768552876 -3.5000139988
48.5127130524 1.5764481625 -3.5000137032
48.5034263432 1.6011020033 -3.5000136789
48.4669987599 1.6886578180 -3.5000135925
48.6335393619 0.7439772734 -3.5000145247
48.6386793656 0.7917650859 -3.5000144775
48.6428962046 0.8450017976 -3.5000144250
48.6465366321 0.9784352327 -3.5000142933
48.6331781723 1.1808285683 -3.5000140936
48.5768629191 1.4579226805 -3.5000138202
48.6494231063 0.6820981299 -3.5000145857
48.6555146665 0.7249628329 -3.5000145434
48.6594167354 0.7571993950 -3.5000145116
48.6578224876 1.1784003487 -3.5000140960
48.6544071868 1.2052439541 -3.5000140695
48.6207119602 1.3860633424 -3.5000138911
48.5844354848 1.5163787088 -3.5000137625
47.8672746053 -0.5829363254 -3.5000158340
48.5475643857 0.2365235144 -3.5000150254
48.6661157174 0.6351412440 -3.5000146321
48.6680112034 0.6459432980 -3.5000146214
48.6904059372 0.8309552063 -3.5000144388
48.6947869148 0.9350369151 -3.5000143361
48.6925464734 1.0556330707 -3.5000142171
48.6561752511 1.3381655176 -3.5000139384
48.6335252278 1.4342236224 -3.5000138436
48.5826516968 1.5963603844 -3.5000136836
48.6562699581 0.4790785161 -3.5000147861
48.6781966330 0.5709236054 -3.5000146954
48.6996711097 0.6912116397 -3.5000145767
48.7080725301 0.7573373501 -3.5000145115
48.7123672614 0.8015688223 -3.5000144678
48.7132772966 0.8126416032 -3.5000144569
48.7191163498 0.9513637559 -3.5000143200
48.6913025354 1.2830662659 -3.5000139927
48.6852936476 1.3158500899 -3.5000139604
48.6624432770 1.4188789067 -3.5000138587
48.6091376918 1.5941986573 -3.5000136857
48.5956461569 1.6306678665 -3.5000136497
48.5685993518 1.6976227502 -3.5000135837
48.7281455007 0.7211904691 -3.5000145472
48.5796067824 1.7329010310 -3.5000135488
48.6075668953 0.1924789194 -3.5000150689
48.7289644912 0.5776200804 -3.5000146888
48.7642100261 0.8486159051 -3.5000144214
48.7651309504 0.8656852699 -3.5000144046
48.7830794692 0.7781753750 -3.5000144909
48.7674850423 1.2670509665 -3.5000140085
48.6808461970 0.2433869597 -3.5000150186
48.8150888889 1.0151168696 -3.5000142571
48.6239106297 1.8100899189 -3.5000134727
48.8386872885 1.0335090919 -3.5000142390
48.7527063560 1.5451767261 -3.5000137341
48.8249049766 0.5642452634 -3.5000147020
48.8622611778 0.8728598746 -3.5000143975
48.7704997390 1.5693875539 -3.5000137102
47.7042754053 -0.9219752136 -3.5000161686
48.7478217357 0.1515049774 -3.5000151093
48.8769760569 0.5788255326 -3.5000146876
48.9366972073 0.9626537218 -3.5000143089
48.9588616279 0.8686506529 -3.5000144016
48.7543168569 1.9283998401 -3.5000133559
48.9888257384 1.4006869354 -3.5000138767
46.0175231890 -3.5005639817 -3.5000187130
46.3468009828 -3.5732644919 -3.5000187847
46.5618820045 -3.5915819926 -3.5000188028
46.2633585829 -3.5877544931 -3.5000187990
46.3172210850 -3.5942742702 -3.5000188055
46.5739409750 -3.6165204845 -3.5000188274
46.7094473916 -3.6224249762 -3.5000188332
46.8586331161 -3.6242876614 -3.5000188351
45.9641629562 -3.5642719736 -3.5000187759
46.6133785625 -3.6428561621 -3.5000188534
46.9677927812 -3.6467569807 -3.5000188572
46.2844705569 -3.6390897711 -3.5000188497
46.7628708143 -3.6720031300 -3.5000188822
46.8176952165 -3.6726065483 -3.5000188827
46.6798192477 -3.6940403059 -3.5000189039
46.0416189477 -3.6767492200 -3.5000188868
46.1166870438 -3.7379925290 -3.5000189473
48.5013094862 1.2537359380 -3.5000140217
48.4982167551 1.2926669512 -3.5000139832
48.4935663041 1.3358096947 -3.5000139407
48.4895526588 1.3659187837 -3.5000139110
48.4682584360 1.4811002479 -3.5000137973
48.4622816718 1.5064411676 -3.5000137723
48.5273390857 1.2200943538 -3.5000140549
48.5230758790 1.2861154131 -3.5000139897
48.5158882920 1.3518823790 -3.5000139248
48.5115370631 1.3824502172 -3.5000138947
48.4847020495 1.5164812293 -3.5000137624
48.5413307808 0.9705926669 -3.5000143011
48.5471581730 1.2882078747 -3.5000139876
48.5367612804 1.3772386060 -3.5000138998
48.5288037525 1.4258968907 -3.5000138518
48.5263591077 1.4391200905 -3.5000138387
48.5092363269 1.5179564396 -3.5000137609
48.4866377950 1.6000582596 -3.5000136799
48.5757544511 1.0946645822 -3.5000141786
48.5727098574 1.2721440076 -3.5000140035
48.6009694205 1.1306726365 -3.5000141431
48.5931505018 1.3154176314 -3.5000139608
48.5738600817 1.4481200130 -3.5000138299
48.5693869044 1.4708103712 -3.5000138075
48.6082343516 0.9244373353 -3.5000143466
48.5993319947 1.4433851280 -3.5000138345
48.6415337374 0.9966047788 -3.5000142754
48.6482139755 1.0917260677 -3.5000141815
48.6085819087 0.7000123882 -3.5000145681
48.6736901722 1.1488082302 -3.5000141252
48.6231020122 1.5608311512 -3.5000137186
48.6015802040 0.5998068526 -3.5000146669
48.6898355913 1.3203243473 -3.5000139560
48.6563883225 0.6912942728 -3.5000145767
48.6488113779 0.5883446323 -3.5000146782
48.7402466042 1.2999113925 -3.5000139761
48.6265773347 0.4658392161 -3.5000147991
48.7910898970 1.2676696514 -3.5000140079
48.6227377867 0.2930207187 -3.5000149697
48.5660136603 0.1515501706 -3.5000151092
48.5490756897 0.0839445521 -3.5000151760
48.6242324864 0.1985580995 -3.5000150629
47.6949735960 -0.6277733111 -3.5000158782
47.7890470026 -0.6950384378 -3.5000159446
45.6482410688 -3.5665366011 -3.5000187781
45.7463445104 -3.5942912878 -3.5000188055
45.8450016032 -3.6200087124 -3.5000188308
45.9583762317 -3.6468913428 -3.5000188574
46.0152941721 -3.6593246618 -3.5000188696
45.8960322831 -3.6573062805 -3.5000188677
45.1720555790 -3.5038362411 -3.5000187162
45.2689628471 -3.5414641793 -3.5000187533
45.2379059981 -3.5814078085 -3.5000187928
45.2716460716 -3.6198656132 -3.5000188307
45.0615519911 -3.6154419680 -3.5000188263
48.4666176245 1.2656564523 -3.5000140099
48.4675763706 1.3224883893 -3.5000139538
48.4674566304 1.3331461810 -3.5000139433
48.4665300218 1.3651073052 -3.5000139118
48.4621265838 1.4288989454 -3.5000138488
48.4896968135 1.2429576721 -3.5000140323
48.4909665008 1.3588863451 -3.5000139179
48.4861893648 1.4312049917 -3.5000138465
48.4902369822 1.0621560777 -3.5000142107
48.4945197799 1.0839133686 -3.5000141892
48.5077710404 1.1715995101 -3.5000141027
48.5114494725 1.2083731421 -3.5000140664
48.5150682734 1.2673903731 -3.5000140082
48.5159496867 1.3154253722 -3.5000139608
48.5158907220 1.3265127280 -3.5000139498
48.5151235348 1.3597655438 -3.5000139170
48.4965310765 0.9839734022 -3.5000142879
48.4984640205 0.9912559503 -3.5000142807
48.5399668091 1.3342826383 -3.5000139422
48.5310850409 1.4657816727 -3.5000138124
48.5630690815 1.2579027562 -3.5000140176
48.5642957239 1.3154679585 -3.5000139607
48.5612154862 1.4036910973 -3.5000138737
48.5156825136 0.8817359062 -3.5000143887
48.5452286092 0.9789915963 -3.5000142928
48.5665104185 1.0743835394 -3.5000141986
48.5883413720 1.2959379720 -3.5000139800
48.5858466171 1.3975520322 -3.5000138798
48.5398220162 0.8775897831 -3.5000143928
48.5568123003 0.9306797324 -3.5000143404
48.5816320768 1.0270596179 -3.5000142453
48.6033694099 1.1565984206 -3.5000141175
48.6123777332 1.2876391134 -3.5000139882
48.6117930763 1.0536597948 -3.5000142191
48.6278449202 1.1577920686 -3.5000141163
48.6287471964 1.1658484714 -3.5000141084
48.6309467660 1.4410057992 -3.5000138369
48.5385799205 0.7430199637 -3.5000145256
48.5983570423 0.9011133607 -3.5000143696
48.6385675604 1.0652777317 -3.5000142076
48.6751796198 1.0022560688 -3.5000142698
48.6316703708 0.7772931392 -3.5000144918
48.5672856898 0.5852549901 -3.5000146813
48.7031523139 0.9147752868 -3.5000143561
47.9695230383 -0.0552575977 -3.5000153133
47.9887785376 -0.0725149780 -3.5000153303
48.0734831767 -0.0250047464 -3.5000152835
48.0778968134 -0.0505342843 -3.5000153087
48.8711938618 1.4681017335 -3.5000138101
48.1443764072 -0.1233649327 -3.5000153805
48.9314013066 1.0576959562 -3.5000142151
48.1353065636 -0.1570060808 -3.5000154137
48.3426521521 -0.0129173617 -3.5000152715
48.9550870009 0.8285209269 -3.5000144412
48.4246854631 -0.1944978177 -3.5000154507
47.0658362267 -0.8200208681 -3.5000160679
44.3332291811 -3.5414616508 -3.5000187533
48.4301349119 1.3762491127 -3.5000139008
48.4495790268 1.3197946536 -3.5000139565
48.4501948658 1.3252927468 -3.5000139511
48.4504905843 1.3280431357 -3.5000139483
48.4513289053 1.3362993826 -3.5000139402
48.4707333832 1.2945122714 -3.5000139814
48.4732653727 1.3142141343 -3.5000139620
48.4753888763 1.3339642002 -3.5000139425
48.4554575438 1.1213252731 -3.5000141523
48.4747600644 1.1884110784 -3.5000140861
48.4768365859 1.1968882018 -3.5000140778
48.4788377958 1.2053834194 -3.5000140694
48.4962105693 1.3027182878 -3.5000139733
48.4982561772 1.3200533315 -3.5000139562
48.5009808323 1.3490169812 -3.5000139276
48.4960086396 1.1738893976 -3.5000141005
48.5125451153 1.2495850028 -3.5000140258
48.5212782947 1.3085484081 -3.5000139676
48.5216232350 1.3115091479 -3.5000139647
48.5014149120 1.1063165613 -3.5000141671
48.5224012969 1.1796627103 -3.5000140948
48.5018719472 0.8218747485 -3.5000144478
48.5183061044 0.6351451872 -3.5000146321
48.8729127918 1.2058514219 -3.5000140689
48.8862876670 1.1451713885 -3.5000141288
48.8850083818 1.0384176127 -3.5000142341
48.9082447067 1.1320770184 -3.5000141417
48.9321167636 1.2854195593 -3.5000139904
48.9344007322 1.3104938689 -3.5000139657
48.9518377052 1.2448481749 -3.5000140304
48.9573140224 1.1305332746 -3.5000141432
47.9332854273 -0.0815327334 -3.5000153392
47.9033083777 -0.1143364874 -3.5000153716
47.9169685559 -0.1108793767 -3.5000153682
48.0339346532 -0.0758772741 -3.5000153337
48.0687407652 -0.0892621021 -3.5000153469
48.1661653561 -0.0504043589 -3.5000153085
47.9803666315 -0.1435673476 -3.5000154005
48.0587161764 -0.1184701126 -3.5000153757
48.1669653012 -0.0764045978 -3.5000153342
48.1802784727 -0.0706091736 -3.5000153285
48.1810242818 -0.0966642093 -3.5000153542
48.0604783989 -0.1689804375 -3.5000154255
48.2630110239 -0.0854093556 -3.5000153431
48.1769948129 -0.1509018560 -3.5000154077
48.3276243744 -0.0794143252 -3.5000153372
48.3453881412 -0.0697596624 -3.5000153276
48.4494184497 -0.0647793228 -3.5000153227
48.2048542268 -0.2178560986 -3.5000154738
48.1545474593 -0.2637388175 -3.5000155190
47.4994649161 -0.4994587595 -3.5000157516
48.4306268091 1.2939997330 -3.5000139819
48.4383645471 1.2423114366 -3.5000140329
48.4405409667 1.2480671490 -3.5000140273
48.4531300775 1.2849444159 -3.5000139909
48.8503366108 1.1787964928 -3.5000140956
48.8763106645 1.1815953208 -3.5000140928
47.9983369844 -0.0837463949 -3.5000153414
47.9303971238 -0.1154810715 -3.5000153727
47.9541339151 -0.1132420991 -3.5000153705
48.0815642854 -0.0951052900 -3.5000153526
48.1428530643 -0.1073973792 -3.5000153648
48.1191134902 -0.1617618460 -3.5000154184
48.3543207163 -0.0970258580 -3.5000153545
48.1781716349 -0.1737527193 -3.5000154302
48.1978359103 -0.1690537622 -3.5000154256
48.3993833828 -0.1320432615 -3.5000153891
55.1819915177 -0.3084986579 -3.5000155632
55.1872807359 -0.2866265823 -3.5000155416
48.8509539236 1.1407332031 -3.5000141332
48.8520234788 1.1430499479 -3.5000141309
48.8431357000 1.0721410421 -3.5000142009
48.8444081974 1.0744349593 -3.5000141986
48.8466338095 1.0301101697 -3.5000142423
48.8642567939 1.0603837179 -3.5000142125
48.8668641880 1.0651004719 -3.5000142078
48.8629437052 1.0104782897 -3.5000142617
48.8472174400 0.9434856259 -3.5000143278
48.8554143195 0.9550669965 -3.5000143164
48.8634390094 0.9667683353 -3.5000143048
48.8634343116 0.9246608748 -3.5000143464
48.1072683192 -0.0838594130 -3.5000153415
48.1213532591 -0.0834513073 -3.5000153411
47.8132958671 -0.0882080715 -3.5000153458
47.8180053930 -0.0889555298 -3.5000153466
47.8983687826 -0.0995254162 -3.5000153570
47.9363479978 -0.1030982815 -3.5000153605
47.9601238922 -0.1048745428 -3.5000153623
48.0363401588 -0.1081927322 -3.5000153656
48.0554120940 -0.1084583675 -3.5000153658
48.1078612056 -0.1080251691 -3.5000153654
48.1221605797 -0.1076108503 -3.5000153650
48.1697882150 -0.1053136710 -3.5000153627
48.2078283980 -0.1024622435 -3.5000153599
48.2268205221 -0.1006991515 -3.5000153582
48.2836531263 -0.0940634187 -3.5000153516
47.7951447436 -0.1097158517 -3.5000153671
47.8573679635 -0.1190260912 -3.5000153762
47.8621684619 -0.1196430414 -3.5000153768
47.8765806132 -0.1214086503 -3.5000153786
47.9054490832 -0.1245558312 -3.5000153817
47.9343688629 -0.1271901537 -3.5000153843
48.0019966862 -0.1313380978 -3.5000153884
48.1423127529 -0.1310093582 -3.5000153881
48.1568147422 -0.1302883961 -3.5000153874
47.7139672966 -0.1186002528 -3.5000153758
47.7717583199 -0.1301547969 -3.5000153872
47.8007985288 -0.1351610050 -3.5000153922
47.9617796056 -0.1534339913 -3.5000154102
48.1139568062 -0.1562289561 -3.5000154130
48.1630260346 -0.1541531534 -3.5000154109
48.2901112693 -0.1419761886 -3.5000153989
47.7185506669 -0.1443145197 -3.5000154012
47.7380722590 -0.1483378592 -3.5000154052
47.8610209489 -0.1682243336 -3.5000154248
47.8857683224 -0.1711075873 -3.5000154276
47.9254449343 -0.1749585767 -3.5000154314
47.9851029278 -0.1789721116 -3.5000154354
48.0000367503 -0.1796444098 -3.5000154361
48.3081463067 -0.1638699511 -3.5000154205
47.7184771312 -0.1690029069 -3.5000154256
47.8229810399 -0.1874960775 -3.5000154438
47.9233945400 -0.1990444889 -3.5000154552
47.9485909328 -0.2010018419 -3.5000154571
