33.1652499577 -14.2478097553 -3.2800292893
33.9546584898 -15.1486548568 -3.2800301782
32.7810994212 -14.0138794816 -3.2800290584
31.2885474421 -11.3035174084 -3.2800263840
30.8970306932 -11.3733637098 -3.2800264529
30.7863603619 -11.3992518430 -3.2800264784
30.6626286000 -11.4314968598 -3.2800265103
31.2005043487 -11.2918592732 -3.2800263725
30.7113837254 -11.3933763843 -3.2800264726
31.1684699002 -11.2724227238 -3.2800263533
30.9659964597 -11.2845996920 -3.2800263653
30.9327981296 -11.2667582780 -3.2800263477
30.8337126406 -11.2885495237 -3.2800263692
30.7601579182 -11.2314578403 -3.2800263129
30.3148481287 -11.3365295612 -3.2800264165
33.3582164244 -14.9635294691 -3.2800299955
33.5050049039 -16.4735545852 -3.2800314855
33.5192315262 -16.4320581417 -3.2800314446
33.5259755918 -16.4111865743 -3.2800314240
33.5532490704 -16.3163375342 -3.2800313304
33.5624854742 -16.2790811701 -3.2800312936
33.5637419137 -16.2737434988 -3.2800312884
33.5916624334 -16.1283839983 -3.2800311449
33.6027015478 -16.0413525861 -3.2800310590
33.6043121781 -16.0249810049 -3.2800310429
33.4852539987 -16.5902741058 -3.2800316007
33.5163173184 -16.5129620768 -3.2800315244
33.5820928207 -16.3008536091 -3.2800313151
33.6064612826 -16.1867899819 -3.2800312026
33.6216778137 -16.0879753565 -3.2800311051
33.6255782026 -16.0548744076 -3.2800310724
33.6351398253 -15.7775390374 -3.2800307987
33.4725729684 -16.6766162695 -3.2800316859
33.5329277834 -16.5372464285 -3.2800315484
33.5409155269 -16.5162054369 -3.2800315276
33.5819704108 -16.3935054220 -3.2800314065
33.5942812565 -16.3502101376 -3.2800313638
33.6434604110 -16.1077530142 -3.2800311246
33.6489922015 -16.0630826900 -3.2800310805
33.6539499828 -16.0126883084 -3.2800310308
33.6589911253 -15.9340833928 -3.2800309532
33.6606836114 -15.8328311770 -3.2800308533
33.6606195331 -15.8272049704 -3.2800308477
33.6503868866 -15.6531428164 -3.2800306760
33.3610857837 -14.8268711903 -3.2800298607
33.4992663607 -16.6768173277 -3.2800316861
33.5041176915 -16.6665053561 -3.2800316759
33.5881045107 -16.4547634174 -3.2800314670
33.6674133619 -16.1110074611 -3.2800311278
33.6765136438 -16.0317608196 -3.2800310496
33.6848377443 -15.8724774906 -3.2800308924
33.6811096689 -15.7301067072 -3.2800307519
33.6755838760 -15.6619569721 -3.2800306847
33.6683966511 -15.5996942888 -3.2800306232
33.4929940062 -16.7440675255 -3.2800317525
33.5110998267 -16.7079670914 -3.2800317168
33.5759366203 -16.5600509035 -3.2800315709
33.5882226953 -16.5276874203 -3.2800315389
33.6315677408 -16.3962068482 -3.2800314092
33.6378797330 -16.3740085764 -3.2800313873
33.6525067992 -16.3181997665 -3.2800313322
33.6591996682 -16.2901392142 -3.2800313045
33.6630159154 -16.2732564470 -3.2800312879
33.6701981951 -16.2393926383 -3.2800312545
33.6905810903 -16.1199778133 -3.2800311366
33.7089615865 -15.8265828772 -3.2800308471
33.6959241644 -15.6251588964 -3.2800306484
33.6952455997 -15.6194293505 -3.2800306427
33.6938376382 -15.6079764059 -3.2800306314
33.6857828769 -15.5508476466 -3.2800305750
33.6760419117 -15.4939821217 -3.2800305189
33.3700136491 -14.7526842643 -3.2800297875
33.6026696440 -16.5579335204 -3.2800315688
33.6611697713 -16.3804823232 -3.2800313937
33.6891088548 -16.2670680398 -3.2800312818
33.7102929591 -16.1522001775 -3.2800311684
33.7153192637 -16.1175163550 -3.2800311342
33.7253434122 -15.6746406322 -3.2800306972
33.7199336053 -15.6223514012 -3.2800306456
33.6998049320 -15.4895488218 -3.2800305146
33.5963777785 -16.6378123812 -3.2800316476
33.6209812512 -16.5776100138 -3.2800315882
33.4827015371 -14.8403071247 -3.2800298739
33.6162407479 -16.6528183607 -3.2800316624
33.7257491179 -16.3239167106 -3.2800313379
33.7814507563 -15.8795051769 -3.2800308993
33.7657883797 -15.5989150412 -3.2800306225
33.7017038846 -15.2886304059 -3.2800303163
33.4693255652 -14.7718510884 -3.2800298064
33.5475351436 -16.8470326171 -3.2800318541
33.5591873985 -16.8257970975 -3.2800318331
33.7970185520 -15.6621081412 -3.2800306848
33.7591092566 -15.4168927421 -3.2800304429
33.4929914331 -14.7640729459 -3.2800297987
33.6748928216 -16.6380807455 -3.2800316479
33.6885481975 -16.6039486793 -3.2800316142
33.7607536643 -16.3827257475 -3.2800313959
33.7596499804 -15.3164895961 -3.2800303438
33.5102074514 -14.7460438702 -3.2800297809
33.2998216409 -14.4677953950 -3.2800295063
33.8135649852 -16.2621477966 -3.2800312769
33.8541105976 -15.8371132506 -3.2800308575
33.7661021307 -15.2506077598 -3.2800302788
33.7333497168 -15.1504617368 -3.2800301800
33.6312308108 -14.9111648525 -3.2800299438
33.6228105355 -14.8945845954 -3.2800299275
33.7756568376 -16.5033894762 -3.2800315150
33.8778332734 -15.8055979845 -3.2800308264
33.8728378283 -15.6991338288 -3.2800307214
33.8509982375 -15.5123636530 -3.2800305371
33.7540220500 -15.1364668705 -3.2800301661
33.8862562728 -16.1151421830 -3.2800311319
33.9018533384 -15.7987325014 -3.2800308196
33.8989962263 -15.7290358945 -3.2800307509
33.7544989579 -15.0689381321 -3.2800300995
33.8294037197 -16.4937983248 -3.2800315055
33.8667798615 -16.3577752328 -3.2800313713
33.1894887244 -14.2229003613 -3.2800292647
33.9428754498 -16.2278143816 -3.2800312430
33.8405822749 -15.0915099532 -3.2800301218
33.5324869276 -14.5228657175 -3.2800295607
33.0063652411 -13.9907423462 -3.2800290356
33.9388465835 -16.4646191122 -3.2800314767
33.5006342309 -14.4044879900 -3.2800294439
33.8467660422 -16.7891105341 -3.2800317969
33.9033108051 -16.6513331341 -3.2800316610
33.4796774455 -14.3062855879 -3.2800293470
34.0943921437 -15.1673377358 -3.2800301966
31.3003143703 -11.4838130097 -3.2800265619
31.1713242045 -11.4992831416 -3.2800265771
31.0300330283 -11.5206984179 -3.2800265983
31.4539537221 -11.4461794361 -3.2800265247
31.7016070299 -11.4118434676 -3.2800264909
31.5571903443 -11.4160526549 -3.2800264950
31.3083331566 -11.4343793338 -3.2800265131
31.9521564410 -11.3914945699 -3.2800264708
31.7937392080 -11.3874400184 -3.2800264668
31.6220770360 -11.3893951237 -3.2800264687
31.9399373901 -11.3667886048 -3.2800264464
31.5682609525 -11.3671733350 -3.2800264468
31.4224615464 -11.3757444905 -3.2800264552
32.1673433339 -11.3574931680 -3.2800264372
32.0475609483 -11.3482086605 -3.2800264281
30.9179948782 -11.4179664221 -3.2800264969
32.2096129137 -11.3372428925 -3.2800264173
32.1294188681 -11.3299518187 -3.2800264101
32.0625002227 -11.3249639588 -3.2800264051
32.2790916410 -11.3203900611 -3.2800264006
32.1448396010 -11.3069818710 -3.2800263874
31.5517039981 -11.2953120981 -3.2800263759
32.4431911228 -11.3178101878 -3.2800263981
32.2009186679 -11.2878081563 -3.2800263685
32.1739095339 -11.2852719623 -3.2800263660
30.9536265200 -11.3131229953 -3.2800263934
31.4097843305 -11.2070088481 -3.2800262887
31.0675563043 -11.2454880500 -3.2800263267
33.2655137309 -14.9832843774 -3.2800300150
33.3441126951 -15.0618807821 -3.2800300926
33.3782445749 -15.0907868269 -3.2800301211
33.4132296382 -15.0399293423 -3.2800300709
33.4275548530 -15.0058631002 -3.2800300373
33.4069981184 -14.9474872437 -3.2800299797
33.4010630450 -14.9316854082 -3.2800299641
33.4204718141 -14.8502309710 -3.2800298837
33.4472529929 -14.8516116696 -3.2800298851
33.4964616803 -14.8441510382 -3.2800298777
33.5278612021 -14.8575001691 -3.2800298909
33.5256317019 -14.8518699048 -3.2800298853
33.6166271378 -16.2549528619 -3.2800312698
33.6331335261 -16.2016646887 -3.2800312172
33.6604172455 -16.0998926631 -3.2800311168
33.7003102191 -15.8867381149 -3.2800309065
33.7148257860 -15.7387120007 -3.2800307604
33.7181346683 -15.6644058635 -3.2800306871
33.6297262372 -16.2921602663 -3.2800313065
33.6396205127 -16.2624120838 -3.2800312772
33.6509112481 -16.2265259660 -3.2800312418
33.6563173208 -16.2085091715 -3.2800312240
33.7357681942 -15.7839904275 -3.2800308051
33.7396950947 -15.7276975611 -3.2800307495
33.7414798580 -15.6901195253 -3.2800307125
33.6546884516 -15.0027130055 -3.2800300342
33.6965550697 -16.1542755886 -3.2800311705
33.7587697386 -15.7986299725 -3.2800308195
33.7367827152 -16.0919320381 -3.2800311090
33.7875939014 -15.7368220832 -3.2800307586
33.7913948345 -15.6022209325 -3.2800306257
33.7028422644 -14.9950473090 -3.2800300266
33.7086006375 -16.2847897495 -3.2800312993
33.7713189318 -16.0466214813 -3.2800310642
33.7763543286 -16.0211763896 -3.2800310391
33.8009717748 -15.8609769182 -3.2800308811
33.7546938017 -15.0002597528 -3.2800300317
33.7016688762 -14.8383002152 -3.2800298719
33.6717226357 -16.5162608714 -3.2800315277
33.8620133689 -15.5158820091 -3.2800305405
34.0083672457 -14.9202441701 -3.2800299528
34.1250112083 -15.4530770915 -3.2800304786
34.0833910222 -16.2019603647 -3.2800312175
34.1521404231 -15.5113890698 -3.2800305361
31.7574388223 -11.5087634773 -3.2800265865
31.7089211588 -11.5074652282 -3.2800265852
31.6603915304 -11.5067411536 -3.2800265845
32.0139789930 -11.5009242330 -3.2800265788
31.9288475412 -11.4937188991 -3.2800265717
32.0895315952 -11.4844820070 -3.2800265625
31.9918167334 -11.4746080806 -3.2800265528
32.1566135987 -11.4438717346 -3.2800265225
32.4186767378 -11.4612632036 -3.2800265396
32.3572526474 -11.4499553330 -3.2800265285
32.3449481353 -11.4478028500 -3.2800265263
32.4602113351 -11.4447843922 -3.2800265234
32.5144609473 -11.4313354785 -3.2800265101
32.4897326966 -11.4261371496 -3.2800265050
32.0779878015 -11.3616180063 -3.2800264413
32.7110423031 -11.4281815689 -3.2800265070
32.6366805109 -11.4095374696 -3.2800264886
32.7295590254 -11.4080410160 -3.2800264871
32.7980631573 -11.4015775353 -3.2800264807
32.5219923382 -11.3340941080 -3.2800264141
32.9910393955 -11.4348502009 -3.2800265136
32.3610554994 -11.2788789958 -3.2800263597
34.9806484643 -18.4772656626 -3.2800334627
33.0481250046 -11.4284436171 -3.2800265072
33.1426386495 -11.4361243432 -3.2800265148
33.7053842242 -11.6318389949 -3.2800267079
33.3759782572 -15.1287469918 -3.2800301585
33.3993289644 -15.1204078521 -3.2800301503
33.4281878848 -15.1622622137 -3.2800301916
33.4246423249 -15.1286899189 -3.2800301585
33.4333172837 -15.0187811469 -3.2800300500
33.4599983458 -15.0317555308 -3.2800300628
33.5199397632 -14.9553139958 -3.2800299874
33.5402167242 -14.8265192263 -3.2800298603
33.5152831614 -14.6602806286 -3.2800296963
33.7026178970 -15.3095174238 -3.2800303369
33.7269789344 -15.8086556858 -3.2800308294
33.7996009798 -15.3414188832 -3.2800303684
33.7699898940 -15.8385097156 -3.2800308589
33.7342561419 -16.0614829819 -3.2800310789
33.8280004204 -15.6483626215 -3.2800306713
33.7253706962 -16.1603559980 -3.2800311765
33.9824345099 -15.8853972726 -3.2800309052
32.3773039925 -11.5286817900 -3.2800266062
32.3660102651 -11.5262067221 -3.2800266037
32.5921524896 -11.5323332233 -3.2800266098
32.5808686237 -11.5292225786 -3.2800266067
32.7300689575 -11.5226027411 -3.2800266002
32.6734000885 -11.5053449454 -3.2800265831
32.7940299239 -11.5177342420 -3.2800265954
32.7713631340 -11.5103522268 -3.2800265881
32.8243419102 -11.5023327620 -3.2800265802
32.8129682816 -11.4985353903 -3.2800265764
32.9541687459 -11.4967903972 -3.2800265747
33.0082374476 -11.4912729304 -3.2800265692
33.0512127065 -11.4819971145 -3.2800265601
33.1629441054 -11.5014703909 -3.2800265793
33.1515664442 -11.4966713765 -3.2800265746
33.1952155614 -11.4889665532 -3.2800265670
33.6833030088 -11.7099286771 -3.2800267850
32.5843095932 -11.1802170213 -3.2800262623
36.0745681501 -14.1995511056 -3.2800292416
36.2008797228 -14.3134449408 -3.2800293540
33.3722332467 -14.9802070408 -3.2800300120
33.4382796004 -15.2533684335 -3.2800302815
33.4438889808 -15.1785784447 -3.2800302077
33.4457170421 -15.1382334293 -3.2800301679
33.4462446825 -15.1209327598 -3.2800301508
33.4710513207 -15.0806805121 -3.2800301111
33.8668115209 -14.8011802038 -3.2800298353
33.8907317024 -14.5136998006 -3.2800295516
33.2127135485 -18.3922066758 -3.2800333788
33.2435597026 -18.4034054890 -3.2800333898
33.3238659625 -18.3876906497 -3.2800333743
33.4053391550 -15.2515786035 -3.2800302797
33.4093113348 -15.2347318425 -3.2800302631
33.4289848784 -15.1386526788 -3.2800301683
33.4032081576 -15.3531525017 -3.2800303800
33.4288421812 -15.2572304209 -3.2800302853
33.4367334864 -15.2230842852 -3.2800302516
33.4485350214 -15.1658801062 -3.2800301952
33.5123953058 -15.3214320331 -3.2800303487
33.6167500582 -15.0194662794 -3.2800300507
33.5332244647 -15.6980623806 -3.2800307203
33.9141358864 -14.9435669178 -3.2800299758
32.6513818799 -18.4573907637 -3.2800334431
32.6730264705 -18.4505680557 -3.2800334364
32.7346332937 -18.4558742602 -3.2800334416
32.9326955036 -18.4613871529 -3.2800334470
33.3240612340 -15.1279802036 -3.2800301578
33.3858877949 -15.3617791083 -3.2800303885
33.4052679302 -15.3186319562 -3.2800303459
33.4076184926 -15.3132066683 -3.2800303405
33.4409386336 -15.2310225192 -3.2800302595
33.6975792834 -13.8922327783 -3.2800289384
34.1026768856 -14.4817145711 -3.2800295201
32.2990080670 -18.4845383910 -3.2800334699
32.6378694134 -18.5073474831 -3.2800334924
32.6796502192 -18.5210324348 -3.2800335059
32.8117378992 -18.5327262445 -3.2800335174
32.9021435438 -18.5291490916 -3.2800335139
33.4557903195 -15.1419759897 -3.2800301716
33.3828412746 -15.3232016690 -3.2800303504
33.6661770251 -14.0084223685 -3.2800290530
33.3677682147 -15.3913041535 -3.2800304176
33.4033807928 -15.3359477849 -3.2800303630
33.6988116286 -14.0825714855 -3.2800291262
33.6804914514 -13.9401563979 -3.2800289857
33.6764571535 -13.9165625029 -3.2800289624
33.5869859970 -13.5816546190 -3.2800286319
33.4334308400 -15.3332154372 -3.2800303603
33.7231569168 -14.4552626885 -3.2800294940
33.7265703898 -14.4130117462 -3.2800294523
33.7316161555 -14.2738507184 -3.2800293150
33.5948984216 -13.5337244076 -3.2800285846
33.5838100257 -13.5055500378 -3.2800285568
33.4759926861 -15.3089083181 -3.2800303363
33.5662367126 -15.1349253840 -3.2800301646
33.7539546639 -14.1820233427 -3.2800292243
33.7520797225 -14.1453088793 -3.2800291881
33.2787154777 -15.6292302159 -3.2800306524
33.2907213271 -15.6150293165 -3.2800306384
33.7784766353 -14.3483231529 -3.2800293884
33.7762093992 -14.1438618186 -3.2800291867
33.5946300739 -13.4076909791 -3.2800284603
33.7378739172 -14.7951548826 -3.2800298294
33.7872125350 -14.5366442075 -3.2800295743
33.7929500177 -14.4868134096 -3.2800295251
33.7950909239 -14.0736461389 -3.2800291174
33.7689303541 -14.7703780177 -3.2800298049
33.8282659109 -14.2550408490 -3.2800292964
33.8037251562 -13.9455430677 -3.2800289910
33.8479999189 -14.4086996817 -3.2800294480
33.5640494670 -15.3974954414 -3.2800304237
33.8315430729 -14.8191435003 -3.2800298530
33.4170208454 -15.7650129819 -3.2800307864
33.5288451757 -12.9138693545 -3.2800279730
34.1133529538 -14.4257975191 -3.2800294649
33.8467122728 -13.1518774505 -3.2800282078
34.0254918001 -15.0188446495 -3.2800300501
31.8258332437 -18.5137676272 -3.2800334987
31.9528307899 -18.5318570291 -3.2800335166
32.0683673511 -18.5472809021 -3.2800335318
31.9303587193 -18.5816373853 -3.2800335657
32.1468203765 -18.5638291553 -3.2800335481
32.2356430207 -18.5533367190 -3.2800335378
31.7134363126 -18.6127145103 -3.2800335964
31.8675692567 -18.6089528883 -3.2800335926
32.2642051611 -18.5739580760 -3.2800335581
32.3441643783 -18.5868879467 -3.2800335709
31.5968365615 -18.6602807030 -3.2800336433
32.4631525690 -18.5915886157 -3.2800335755
32.2350206521 -18.6508861621 -3.2800336340
32.5188080809 -18.6058109599 -3.2800335895
32.3940423212 -18.6524514979 -3.2800336356
32.5491567826 -18.6245096124 -3.2800336080
32.6134774550 -18.6112453166 -3.2800335949
32.4109385264 -18.6741844090 -3.2800336570
32.6958687256 -18.6176192171 -3.2800336012
31.6347344450 -18.7575723344 -3.2800337393
31.8471452147 -18.7549027292 -3.2800337367
33.0669679089 -18.5650620774 -3.2800335493
31.6476182624 -18.8060445065 -3.2800337871
33.1508044946 -18.5627258007 -3.2800335470
33.2519904465 -18.5268271387 -3.2800335116
33.3360597110 -18.5208700029 -3.2800335057
33.4237378917 -18.4857626053 -3.2800334711
33.5715754432 -13.9454325485 -3.2800289909
33.5652065461 -13.8636716380 -3.2800289102
33.5166720072 -13.5966459616 -3.2800286467
33.5318141400 -13.5603946294 -3.2800286110
33.5184719711 -13.5155614738 -3.2800285667
33.5022535610 -13.4661834264 -3.2800285180
33.4935983996 -13.4416797079 -3.2800284938
33.6071958285 -13.8064443859 -3.2800288537
33.4802246993 -13.2820291461 -3.2800283363
33.5860767235 -13.4887893946 -3.2800285403
33.7229284162 -13.3650507146 -3.2800284182
33.3842777020 -15.3472535020 -3.2800303741
33.6743244550 -15.0034660865 -3.2800300349
32.7970192342 -16.0921644768 -3.2800311092
31.1631162650 -18.5250115418 -3.2800335098
31.1896683650 -18.5289452975 -3.2800335137
31.2960955462 -18.5431074262 -3.2800335277
31.5214978166 -18.5889323362 -3.2800335729
31.7223885383 -18.6469689844 -3.2800336302
31.9814282952 -18.6463716650 -3.2800336296
31.7616494045 -18.7445209289 -3.2800337264
33.5035137510 -13.7895948935 -3.2800288371
33.4982014963 -13.7073280207 -3.2800287559
33.4935510453 -13.6641852772 -3.2800287134
33.4930158523 -13.6598789843 -3.2800287091
33.4889131563 -13.6297819001 -3.2800286794
33.4772020374 -13.5613524893 -3.2800286119
33.4653110178 -13.5062110037 -3.2800285575
33.4547264107 -13.4641290705 -3.2800285160
33.5268379803 -13.9165907570 -3.2800289624
33.5276050571 -13.8989638122 -3.2800289450
33.5285680826 -13.8592782741 -3.2800289059
33.5286542607 -13.8460458004 -3.2800288928
33.5278247025 -13.7931238896 -3.2800288406
33.5256989216 -13.7490674280 -3.2800287971
33.5244838643 -13.7314656887 -3.2800287798
33.5209891085 -13.6919225978 -3.2800287407
33.5140857344 -13.6350010960 -3.2800286846
33.5065385761 -13.5870735656 -3.2800286373
33.4992063862 -13.5480593586 -3.2800285988
33.4836171774 -13.4792344624 -3.2800285309
33.4685642288 -13.4239070488 -3.2800284763
33.5522065340 -13.8864319667 -3.2800289327
33.5528193213 -13.8371311004 -3.2800288840
33.5467483014 -13.7073220616 -3.2800287559
33.5123660155 -13.4951128814 -3.2800285465
33.5603946383 -14.0684750748 -3.2800291123
33.5629565318 -14.0504404392 -3.2800290945
33.5714581293 -13.9734997296 -3.2800290186
33.5732212064 -13.9507985526 -3.2800289962
33.5676424697 -13.6734404904 -3.2800287225
33.5571871270 -13.5967408439 -3.2800286468
33.5641611873 -14.1811603602 -3.2800292235
33.5699233241 -14.1540127561 -3.2800291967
33.5959295136 -13.9709402930 -3.2800290161
33.6010828191 -13.8600723286 -3.2800289067
33.5967999657 -13.7260436021 -3.2800287744
33.5655517752 -13.5110814986 -3.2800285623
33.5381606892 -13.4035269055 -3.2800284562
33.5757678240 -14.2366417876 -3.2800292782
33.6154849602 -14.0196673174 -3.2800290641
33.6192247963 -13.9822790448 -3.2800290273
33.6226537706 -13.9354364359 -3.2800289810
33.6242989119 -13.7851986507 -3.2800288328
33.6111154887 -13.6308222145 -3.2800286804
33.5840199650 -13.4830388216 -3.2800285346
33.5829485121 -13.4784656980 -3.2800285301
33.6138015261 -13.5054815860 -3.2800285568
33.6107446008 -13.4915066453 -3.2800285430
33.5928658045 -14.3508521255 -3.2800293909
33.6612621709 -14.0442745435 -3.2800290884
33.6733143228 -13.8076296795 -3.2800288549
33.6077571495 -13.3831467622 -3.2800284361
33.6693900114 -14.1491465915 -3.2800291919
33.6948763699 -13.7433155553 -3.2800287915
33.6620973657 -13.5001643208 -3.2800285515
33.6465120607 -13.4331980633 -3.2800284854
33.6140519869 -14.4363744183 -3.2800294753
33.6995540645 -13.5686264775 -3.2800286191
33.6804255318 -13.4708342804 -3.2800285226
33.2050712710 -15.0905149439 -3.2800301208
33.6084003542 -14.5152315709 -3.2800295531
33.6850788112 -14.2959219546 -3.2800293367
33.6941047282 -14.2617116898 -3.2800293030
33.7434311546 -13.7454601207 -3.2800287936
33.7182002088 -13.5348130108 -3.2800285857
33.6272945027 -14.5911457841 -3.2800296281
33.8045420714 -14.0673492542 -3.2800291112
33.7399753390 -14.4438328560 -3.2800294827
33.3111688004 -15.1563667402 -3.2800301858
33.6715837276 -14.6658171772 -3.2800297017
33.1453772099 -15.3592351196 -3.2800303860
33.1765355998 -15.3359718551 -3.2800303630
33.1984933644 -15.3189627027 -3.2800303462
33.2090099266 -15.3414347556 -3.2800303684
33.1420975052 -15.6520059034 -3.2800306749
32.9193403227 -15.7969732957 -3.2800308179
33.3226357725 -15.5588538002 -3.2800305829
33.5605117219 -15.3858666226 -3.2800304122
33.2401529700 -15.6757451641 -3.2800306983
33.5306747369 -15.4479352465 -3.2800304735
32.8367484413 -15.9360245622 -3.2800309551
31.0770788085 -18.6473746191 -3.2800336306
30.9015941340 -18.6337803865 -3.2800336171
30.9725766032 -18.6500577711 -3.2800336332
31.4751018569 -18.7343832432 -3.2800337164
30.5016178144 -18.5463505801 -3.2800335309
31.2693120447 -18.7307814325 -3.2800337129
30.8618375232 -18.6739506800 -3.2800336568
30.3329139320 -18.5393348033 -3.2800335239
30.9713252169 -18.7240355950 -3.2800337062
30.5069195421 -18.6750185052 -3.2800336578
30.1590879958 -18.5767352394 -3.2800335608
30.2065822426 -18.6212033865 -3.2800336047
30.1778113081 -18.7395890338 -3.2800337215
33.4676091535 -13.6881710968 -3.2800287370
33.4676028943 -13.6810654438 -3.2800287300
33.4606948242 -13.5569639391 -3.2800286076
33.4917112966 -13.6990940696 -3.2800287478
33.4917692397 -13.6918456291 -3.2800287407
33.4971677823 -13.9015420734 -3.2800289476
33.5045573294 -13.8540706860 -3.2800289007
33.5097538673 -13.8100283275 -3.2800288573
33.5115829775 -13.5812139892 -3.2800286315
33.4915181442 -14.0341828729 -3.2800290785
33.5203208419 -13.9094284343 -3.2800289554
33.5209772559 -13.9057187044 -3.2800289517
33.5367321412 -13.7786555354 -3.2800288263
33.5188830389 -14.0260040432 -3.2800290704
33.5562411262 -13.8301101403 -3.2800288771
33.5642623957 -13.6960495812 -3.2800287448
33.5131089402 -14.1256476470 -3.2800291687
33.5182276232 -14.1108675017 -3.2800291541
33.5207212920 -14.1034549749 -3.2800291468
33.5347584864 -14.0586818339 -3.2800291026
33.5854970824 -13.7743836991 -3.2800288221
33.5882474945 -13.6610509770 -3.2800287103
33.5858542465 -13.6024490193 -3.2800286525
33.5568199297 -14.0693213191 -3.2800291131
33.6069624903 -13.9701751698 -3.2800290153
33.6325504311 -13.7937982553 -3.2800288413
33.6366546766 -13.6642031368 -3.2800287134
33.5565011831 -14.2152952351 -3.2800292572
33.6153831215 -14.0394059861 -3.2800290836
33.6434377769 -13.9062619350 -3.2800289522
33.8736780070 -13.5604024020 -3.2800286110
33.8720832036 -13.5413954066 -3.2800285922
33.9018125893 -13.6310053616 -3.2800286806
33.9016437083 -13.6261683283 -3.2800286759
33.2657317385 -15.2182734763 -3.2800302469
33.1250717643 -15.3829549995 -3.2800304094
33.1649945488 -15.3621653421 -3.2800303889
33.2800598113 -15.3237136476 -3.2800303509
33.1682119596 -15.4423637715 -3.2800304680
33.7033976397 -15.2766907676 -3.2800303045
33.5712807390 -15.4170778130 -3.2800304430
30.1160479927 -18.7519520956 -3.2800337337
29.5191773641 -18.6213893772 -3.2800336049
33.4411275538 -13.7376736426 -3.2800287859
33.4537484618 -13.6333726077 -3.2800286830
33.4542442326 -13.6250887314 -3.2800286748
33.4750838615 -13.6688606814 -3.2800287180
33.4774907228 -13.6405864725 -3.2800286901
33.4733072547 -13.8172307682 -3.2800288644
33.4774853288 -13.8002828496 -3.2800288477
33.4801033151 -13.7889441934 -3.2800288365
33.4717271218 -13.9059458636 -3.2800289519
33.4715242542 -13.9737343201 -3.2800290188
33.4872851604 -13.9340185311 -3.2800289796
33.4825506957 -14.0088770799 -3.2800290535
33.5300270237 -13.8833212492 -3.2800289296
33.5318431513 -13.8773434858 -3.2800289237
33.5541695731 -13.7895767729 -3.2800288371
33.4854631516 -14.1104882474 -3.2800291538
33.5713338232 -13.9130904307 -3.2800289590
33.5065842769 -14.1222455153 -3.2800291654
33.5422729051 -14.1069933968 -3.2800291503
33.8728860889 -13.7941493912 -3.2800288416
33.8862609642 -13.8548294246 -3.2800289015
33.8999157960 -13.7776655093 -3.2800288253
33.9046355236 -13.8843225737 -3.2800289306
33.9107773884 -13.8555975200 -3.2800289022
34.0106531257 -13.8484316824 -3.2800288952
33.1265184822 -15.1191447441 -3.2800301491
33.0344553563 -15.4297591004 -3.2800304556
33.0399446522 -15.4282307861 -3.2800304540
33.4329598500 -15.4597158821 -3.2800304851
32.6456013832 -15.7619095917 -3.2800307833
33.4185302711 -13.6583996062 -3.2800287077
33.4440583660 -13.7422950409 -3.2800287904
33.4474290602 -13.7326090805 -3.2800287809
33.4531338922 -13.7150528209 -3.2800287636
33.4566765837 -13.7032669621 -3.2800287519
33.4346116461 -13.8266163131 -3.2800288736
33.8661737656 -13.7611934394 -3.2800288091
33.8669134177 -13.7580114764 -3.2800288060
33.8625971546 -13.8630763601 -3.2800289096
33.8735309993 -13.8280222225 -3.2800288750
33.9210466985 -13.9160226368 -3.2800289619
33.8802242461 -14.0703338148 -3.2800291141
33.8947661089 -14.0411366357 -3.2800290853
33.9437995505 -13.9909468128 -3.2800290358
32.9689474006 -15.4275288126 -3.2800304534
32.9972953232 -15.4246855900 -3.2800304506
33.0086221963 -15.4234309526 -3.2800304493
33.1765857920 -15.4214332864 -3.2800304473
33.2843195982 -15.4962841805 -3.2800305212
33.1931074778 -15.5660229059 -3.2800305900
33.4683619582 -15.4924501565 -3.2800305174
32.7927702225 -15.6775050075 -3.2800307000
40.5036517969 -15.3144366160 -3.2800303418
40.5271889530 -15.3199445706 -3.2800303472
26.5332438346 -18.6755076931 -3.2800336583
33.8398641954 -13.8822595370 -3.2800289286
33.8602744202 -13.9466654799 -3.2800289921
33.8599941431 -13.9942175106 -3.2800290390
32.9028715235 -15.4399068079 -3.2800304656
33.0238377503 -15.4464286804 -3.2800304720
33.1548270821 -15.5417985332 -3.2800305661
33.3769581096 -15.6424088559 -3.2800306654
32.0524322351 -15.6549313054 -3.2800306777
30.0435523554 -15.3927564927 -3.2800304190
26.5334551569 -17.0482432807 -3.2800320526
26.5337363705 -17.1489056186 -3.2800321519
26.4970981557 -17.3762510314 -3.2800323763
41.0190667393 -16.9552656982 -3.2800319609
33.8254671809 -14.3346202450 -3.2800293749
33.8220033251 -14.3892732840 -3.2800294289
33.8332874287 -14.3702369985 -3.2800294101
33.8401100300 -14.3582057485 -3.2800293982
33.8287721897 -14.5083759479 -3.2800295464
33.8305595941 -14.5059905445 -3.2800295440
33.8322094892 -14.6187698498 -3.2800296553
32.9619220751 -15.2960112633 -3.2800303236
33.0047776360 -15.5148133550 -3.2800305395
32.8646557225 -15.5799522752 -3.2800306038
32.8472896180 -15.6025228677 -3.2800306260
32.7823368753 -15.9358036013 -3.2800309549
32.5327230812 -15.9401461913 -3.2800309592
33.3274055750 -16.0250460529 -3.2800310430
32.6855276604 -16.0444258100 -3.2800310621
32.5171836871 -16.0606844277 -3.2800310781
33.3211495449 -16.1723006764 -3.2800311883
32.5030543770 -16.1814737261 -3.2800311973
31.8433396658 -15.9483352462 -3.2800309673
32.3392927910 -16.4145398903 -3.2800314273
31.4440685937 -16.1814473793 -3.2800311973
26.5336992787 -16.7812133739 -3.2800317891
26.5422420663 -16.8003981709 -3.2800318080
26.5021855606 -17.2211883351 -3.2800322233
26.4905182766 -17.2514907869 -3.2800322532
26.4767200210 -17.3817767208 -3.2800323817
29.4349638178 -22.1400303235 -3.2800370769
41.0457774840 -17.9483478089 -3.2800329408
41.0577093698 -17.9245981472 -3.2800329173
29.3765081615 -22.1407603716 -3.2800370777
33.4447860732 -14.1934569500 -3.2800292356
33.4454517695 -14.1915168216 -3.2800292337
33.4493251616 -14.1798354705 -3.2800292222
33.4416136459 -14.2663399675 -3.2800293075
33.4433705523 -14.2624752434 -3.2800293037
33.4459629633 -14.2566588370 -3.2800292980
33.4518104461 -14.2429994392 -3.2800292845
33.4542296879 -14.2371089004 -3.2800292787
33.4641055368 -14.2113438116 -3.2800292533
33.4531811345 -14.2981839120 -3.2800293390
33.4541565954 -14.2962184912 -3.2800293370
33.4663050806 -14.2704125096 -3.2800293116
33.4600907605 -14.3370533016 -3.2800293773
33.4696832037 -14.3690191510 -3.2800294089
33.4604489769 -14.4699144744 -3.2800295084
33.8655520960 -14.3067494572 -3.2800293474
33.8675406588 -14.3003758637 -3.2800293411
33.8649706149 -14.3815979315 -3.2800294213
33.8661910278 -14.3784139980 -3.2800294181
33.8686035709 -14.3720353701 -3.2800294118
33.8744694585 -14.3560273322 -3.2800293960
33.8772163848 -14.4161531682 -3.2800294554
33.8785389647 -14.4129328583 -3.2800294522
33.8798520126 -14.4097086501 -3.2800294490
33.8924557425 -14.3772583828 -3.2800294170
33.8736184014 -14.4838130410 -3.2800295221
33.8840776130 -14.4612499890 -3.2800294999
33.8898438208 -14.4482611300 -3.2800294871
33.9031131418 -14.4777875370 -3.2800295162
33.8708151499 -14.5928850469 -3.2800296298
33.9042415655 -14.5311405266 -3.2800295688
33.8783041772 -14.6276770175 -3.2800296641
33.8936223237 -14.6017219967 -3.2800296385
33.8992076291 -14.5918964993 -3.2800296288
33.8889034629 -14.6565481695 -3.2800296926
33.0494889860 -15.2881151417 -3.2800303158
33.8879163176 -14.7451660553 -3.2800297800
33.1103140363 -15.5717766761 -3.2800305957
33.1198001429 -15.5698491845 -3.2800305938
33.1529082294 -15.5626617215 -3.2800305867
32.8379530379 -16.0864853620 -3.2800311036
33.3576091527 -16.0094269068 -3.2800310275
33.4476281112 -15.9822063910 -3.2800310007
32.8582956951 -16.1342914129 -3.2800311508
33.3961575825 -16.0990249843 -3.2800311160
32.3418129001 -16.1874375417 -3.2800312032
26.6051689584 -18.1430774526 -3.2800331329
26.5813002648 -18.3215792914 -3.2800333091
26.5649214642 -18.7880395237 -3.2800337694
33.4348949394 -14.2799759182 -3.2800293210
33.4472464555 -14.2070372330 -3.2800292490
33.4417233982 -14.3511126715 -3.2800293912
33.4525840221 -14.3964626677 -3.2800294359
33.4625767520 -14.3657103610 -3.2800294056
33.4558727122 -14.4560811553 -3.2800294948
33.4948265303 -14.3408589753 -3.2800293811
33.4996279585 -14.3221003640 -3.2800293626
33.4599258304 -14.5068463759 -3.2800295449
33.4856020657 -14.4468544367 -3.2800294857
33.5203410337 -14.3388604591 -3.2800293791
33.4576647069 -14.6142540505 -3.2800296509
33.5251927982 -14.5926279594 -3.2800296295
33.8671653351 -14.3370753170 -3.2800293773
33.8759028297 -14.2840500908 -3.2800293250
33.8780306137 -14.4027143549 -3.2800294421
33.9024660101 -14.2681123681 -3.2800293093
33.8739712394 -14.5080159721 -3.2800295460
33.8938892984 -14.4391740958 -3.2800294781
33.8912105511 -14.6043548747 -3.2800296411
33.9672141349 -14.3263288591 -3.2800293667
33.9906291807 -14.4511619134 -3.2800294899
33.0551218460 -15.5928737001 -3.2800306165
33.0262778964 -15.6266780837 -3.2800306499
33.1290900961 -15.5935770710 -3.2800306172
33.1511275303 -15.5854605060 -3.2800306092
33.2391278951 -15.5756982767 -3.2800305996
33.1383318683 -15.6928195411 -3.2800307151
33.2118426711 -15.7175439963 -3.2800307395
33.0959215306 -16.4064045628 -3.2800314193
33.4418894466 -14.1767888582 -3.2800292192
33.4419139574 -14.1738081933 -3.2800292162
33.4417926133 -14.1499629246 -3.2800291927
33.4412235878 -14.1291056908 -3.2800291721
33.4591521607 -14.2866358328 -3.2800293276
33.4634496564 -14.2410576170 -3.2800292826
33.4657211535 -14.1953336350 -3.2800292375
33.4658004188 -14.1922823905 -3.2800292345
33.4654898190 -14.1312465831 -3.2800291742
33.4652601666 -14.1251463632 -3.2800291682
33.4771940723 -14.3327590179 -3.2800293731
33.4892043887 -14.2147272212 -3.2800292566
33.4894132872 -14.1241655221 -3.2800291673
33.4891762116 -14.3993334771 -3.2800294388
33.4973283013 -14.3586050846 -3.2800293986
33.5043492467 -14.3144286376 -3.2800293550
33.5092257878 -14.2731796635 -3.2800293143
33.5141319739 -14.1934664160 -3.2800292356
33.4922858973 -14.4835693287 -3.2800295219
33.5135117307 -14.4968892946 -3.2800295350
33.5154445029 -14.4904985617 -3.2800295287
33.5554206628 -14.4348709616 -3.2800294738
33.5863334070 -14.2054675897 -3.2800292475
33.5523818759 -14.5342510078 -3.2800295719
33.5730240258 -14.4641301374 -3.2800295027
33.5185845273 -14.6835183288 -3.2800297192
33.5696798398 -14.5586297739 -3.2800295960
33.1913013663 -15.3952130854 -3.2800304215
33.8983189241 -14.2592937544 -3.2800293006
33.9712404382 -14.2547642788 -3.2800292961
33.9362180444 -14.6019132292 -3.2800296387
33.9374979870 -14.5974683908 -3.2800296343
33.0907792161 -16.1569433661 -3.2800311731
33.8034948818 -15.7532343108 -3.2800307747
33.4610365762 -14.1520557105 -3.2800291948
33.4930802840 -14.3158718072 -3.2800293564
33.4933500285 -14.2874510858 -3.2800293284
33.5119694534 -14.4068212006 -3.2800294462
33.5143860689 -14.3779280325 -3.2800294177
33.5165912349 -14.3381230718 -3.2800293784
33.4984113943 -14.0746864925 -3.2800291184
33.5276234364 -14.1032508844 -3.2800291466
33.7151854943 -14.5290523188 -3.2800295668
33.8868404812 -14.0536910542 -3.2800290977
31.7333500314 -18.7438704847 -3.2800337258
31.0830286703 -18.6630202447 -3.2800336460
30.7678059248 -18.5890027843 -3.2800335730
30.9328335900 -18.6946319202 -3.2800336772
30.7564919525 -18.6619133671 -3.2800336449
30.4280053499 -18.5586368465 -3.2800335430
30.4891407301 -18.6633675146 -3.2800336463
30.5889607740 -18.7549900075 -3.2800337367
33.4458360673 -13.9948816943 -3.2800290397
33.5356956626 -14.2911777869 -3.2800293321
33.5611826847 -14.5605015132 -3.2800295978
33.5514090710 -14.2232299999 -3.2800292650
33.5507855783 -14.2191524958 -3.2800292610
33.5203585277 -14.0738784901 -3.2800291176
33.4546659571 -15.1935182084 -3.2800302224
33.6522050744 -14.6176473607 -3.2800296542
33.6420740471 -14.1782774385 -3.2800292207
33.6681349224 -14.8887033235 -3.2800299217
33.7816288491 -14.3328699771 -3.2800293732
33.5603524131 -15.9369454367 -3.2800309560
31.7238950109 -18.6063741545 -3.2800335901
31.3264919039 -18.5689445231 -3.2800335532
31.3632386464 -18.5762913968 -3.2800335604
31.4123329725 -18.5855794048 -3.2800335696
31.8830620976 -18.6446597307 -3.2800336279
32.2078094144 -18.6786340867 -3.2800336614
31.1015179498 -18.5914039378 -3.2800335753
31.5808591754 -18.7349580797 -3.2800337170
31.0208502643 -18.6951189215 -3.2800336777
31.1856072845 -18.7362527060 -3.2800337183
30.9252131168 -18.7436657874 -3.2800337256
30.9507444512 -18.7509709835 -3.2800337328
33.4144649280 -15.0831109451 -3.2800301135
33.5980845978 -14.6254678850 -3.2800296619
33.5984181461 -14.5985756612 -3.2800296354
33.5955580639 -14.5000208549 -3.2800295381
33.5862946089 -14.4018606883 -3.2800294413
33.5755569413 -14.3309567739 -3.2800293713
33.5689328090 -14.2957152282 -3.2800293365
33.5553408903 -14.2344552652 -3.2800292761
33.5026927624 -14.0631709256 -3.2800291071
33.6160515468 -14.7350779372 -3.2800297701
33.5611858704 -14.1627454350 -3.2800292053
33.5284993296 -14.0632567405 -3.2800291072
33.4155311423 -15.4115663210 -3.2800304376
33.6295695469 -14.8245415434 -3.2800298584
33.5559139915 -14.0679840269 -3.2800291118
33.4482718620 -15.4041157476 -3.2800304303
33.6482764057 -14.8605818796 -3.2800298939
33.6637522221 -14.7442090069 -3.2800297791
33.6461616359 -14.3137797979 -3.2800293544
33.5980829155 -14.1177564456 -3.2800291609
33.5818117528 -14.0687212163 -3.2800291125
33.5370795659 -13.9551199551 -3.2800290005
33.6521888885 -14.9627733041 -3.2800299948
33.6564516565 -14.9441819598 -3.2800299764
33.6736823097 -14.8552466665 -3.2800298887
33.6547572773 -14.2347664830 -3.2800292764
33.6768207254 -14.9636022823 -3.2800299956
33.6176080001 -14.0254275140 -3.2800290698
33.4496713700 -15.5362365546 -3.2800305606
33.6637265539 -15.1015845394 -3.2800301317
33.7434308194 -14.6039987761 -3.2800296407
33.7224775329 -14.3300698966 -3.2800293704
33.6741344785 -15.2163599448 -3.2800302450
33.7173104791 -15.0922720798 -3.2800301225
33.7858730780 -14.7355644865 -3.2800297706
33.8090778535 -14.7477919680 -3.2800297826
33.7738137241 -15.0714885861 -3.2800301020
33.8892074632 -14.1756666799 -3.2800292181
33.7001506022 -15.8876046530 -3.2800309073
33.5965263503 -16.0425427568 -3.2800310602
33.7649655259 -15.8832707539 -3.2800309031
33.7643481820 -16.1105173876 -3.2800311273
33.4876446605 -16.5214456283 -3.2800315328
31.6080790266 -18.4726453408 -3.2800334581
31.6655090472 -18.4792476330 -3.2800334647
31.9768907400 -18.5001818106 -3.2800334853
31.7439768370 -18.5111452762 -3.2800334961
31.8367825130 -18.5180743964 -3.2800335030
31.8948594304 -18.5212891064 -3.2800335061
32.0343878950 -18.5254973918 -3.2800335103
32.2447279184 -18.5466728177 -3.2800335312
32.3045273857 -18.5679863550 -3.2800335522
32.1164214088 -18.5981808170 -3.2800335820
32.3886241554 -18.5866532481 -3.2800335706
31.8069374742 -18.6130126841 -3.2800335966
32.4973075364 -18.6011514170 -3.2800335849
32.5565409444 -18.5945876193 -3.2800335785
32.3085599578 -18.6403932325 -3.2800336237
31.6234483983 -18.6448410377 -3.2800336281
32.6011908353 -18.6621674776 -3.2800336451
32.7692118693 -18.6372306326 -3.2800336205
31.9465757968 -18.7169227186 -3.2800336992
31.7864049591 -18.7327337316 -3.2800337148
32.2906184989 -18.7623717203 -3.2800337440
32.8664062613 -18.6933894464 -3.2800336760
32.9148664222 -18.6838346815 -3.2800336665
31.8325201056 -18.7842151196 -3.2800337656
31.9690035386 -18.7901508998 -3.2800337714
32.2670073374 -18.7876759864 -3.2800337690
33.4662714172 -18.5829348458 -3.2800335670
31.6896199416 -18.8460526641 -3.2800338266
33.4025595142 -15.1023609637 -3.2800301325
33.4675225228 -15.3692463876 -3.2800303958
33.4532880206 -15.4599249238 -3.2800304853
33.5298157675 -15.3435098503 -3.2800303705
33.6586656604 -14.7070111322 -3.2800297424
33.6580510968 -14.6925042445 -3.2800297281
33.5660654573 -15.3836196788 -3.2800304100
33.5732298620 -15.3653267663 -3.2800303920
33.5784608447 -15.3515521499 -3.2800303784
33.5918104089 -15.3145984969 -3.2800303419
33.7019116557 -14.9142692326 -3.2800299469
33.7035129779 -14.8944017822 -3.2800299273
33.7075645886 -14.8147842643 -3.2800298487
33.7081763172 -14.7749258970 -3.2800298094
33.7074771502 -14.7201197864 -3.2800297553
33.6744078155 -14.4333607118 -3.2800294724
33.7091245468 -14.4881838275 -3.2800295265
33.6135375612 -14.1429620504 -3.2800291858
33.5403210648 -13.9820032040 -3.2800290270
33.7565220747 -14.7750957659 -3.2800298096
33.7558028410 -14.7187166702 -3.2800297539
33.6902340305 -14.2942730332 -3.2800293351
33.6041846073 -14.0585319200 -3.2800291025
33.7395874113 -14.2911712311 -3.2800293321
33.8122267177 -15.0149081397 -3.2800300462
33.8218581324 -14.9300120617 -3.2800299624
33.4985283722 -13.7277719461 -3.2800287761
33.8345640895 -14.3728173533 -3.2800294126
33.6426248740 -13.7705841605 -3.2800288184
33.9869599271 -14.9799800830 -3.2800300117
33.6372557153 -16.3233936804 -3.2800313374
33.9604187388 -15.9427647809 -3.2800309618
33.6682484087 -16.6282401347 -3.2800316382
32.2289979137 -18.4541333355 -3.2800334399
32.2413142134 -18.4776414514 -3.2800334631
32.2961425434 -18.4740173121 -3.2800334595
32.3180578588 -18.4723406560 -3.2800334578
32.2206420134 -18.5030034518 -3.2800334881
32.2979152317 -18.4981252539 -3.2800334833
32.3309982637 -18.4955449741 -3.2800334807
32.3640570943 -18.4926712026 -3.2800334779
32.3750708764 -18.4916480968 -3.2800334769
32.3860815838 -18.4905924148 -3.2800334758
32.4410856284 -18.4848256935 -3.2800334702
32.2885839915 -18.5230331713 -3.2800335079
32.4548451685 -18.5075886337 -3.2800334926
32.2231882807 -18.5512824084 -3.2800335357
32.5797981517 -18.5154938362 -3.2800335004
32.6130242200 -18.5104113196 -3.2800334954
32.6572529947 -18.5031763395 -3.2800334883
32.5981181627 -18.5616333548 -3.2800335459
32.8102654000 -18.5233763586 -3.2800335082
32.2839978514 -18.6202723267 -3.2800336038
32.5112646292 -18.5981432080 -3.2800335820
32.4915129714 -18.6249578100 -3.2800336084
32.9322749873 -18.5454741883 -3.2800335300
32.9940323629 -18.5550392656 -3.2800335394
32.2772799961 -18.6933936315 -3.2800336760
32.4048229014 -18.6830663638 -3.2800336658
32.4511091862 -18.6782828315 -3.2800336611
32.5498858993 -18.7149963622 -3.2800336973
32.2954080375 -18.7890983806 -3.2800337704
33.2530768146 -18.6061424526 -3.2800335899
33.4529308368 -18.5621141199 -3.2800335464
32.8834300856 -18.7549534546 -3.2800337367
32.9892333747 -18.7306546386 -3.2800337127
33.1240965646 -18.7204316749 -3.2800337026
33.9673212491 -18.4084944855 -3.2800333948
33.5507731928 -15.2840378918 -3.2800303118
33.5883794219 -15.3366154121 -3.2800303636
33.6091816370 -15.2371440077 -3.2800302655
33.6848102273 -15.2248592258 -3.2800302534
33.6728669651 -14.4210125679 -3.2800294602
33.6598301118 -14.3815300146 -3.2800294212
33.7153544335 -14.4793803708 -3.2800295178
32.8548123364 -18.4675535081 -3.2800334531
32.9067131522 -18.4544973672 -3.2800334402
32.9817002436 -18.4843928243 -3.2800334697
33.0442366121 -18.4663787346 -3.2800334520
33.0546278294 -18.4632685962 -3.2800334489
33.0615933658 -18.4864163085 -3.2800334717
33.0824847999 -18.4800622672 -3.2800334655
33.1241530634 -18.4669839427 -3.2800334526
33.1733108022 -18.4763450570 -3.2800334618
33.2936784462 -18.4854330137 -3.2800334708
33.3753508816 -18.4803669638 -3.2800334658
33.4980097440 -18.4825832631 -3.2800334679
33.5084469119 -18.4781307108 -3.2800334635
33.9286122159 -18.5162988697 -3.2800335012
33.4006341607 -15.1503071821 -3.2800301798
33.4006922934 -15.1338077830 -3.2800301635
33.4495457517 -14.8746895748 -3.2800299078
33.5155222551 -15.2722943747 -3.2800303002
33.5881643223 -15.2740836381 -3.2800303019
33.6147815833 -15.2428860725 -3.2800302712
33.6177803525 -15.1761995970 -3.2800302054
33.7388628420 -15.1073693027 -3.2800301374
33.7431845970 -15.4021955726 -3.2800304284
33.7598406335 -15.2472134696 -3.2800302754
33.7428635441 -14.7410444527 -3.2800297760
33.7249354189 -15.6898993400 -3.2800307123
33.7577410318 -14.6993098048 -3.2800297348
33.7342047179 -15.7383569296 -3.2800307601
33.7058911746 -14.3971883790 -3.2800294367
33.8354118093 -15.5622292270 -3.2800305863
33.8225788254 -14.6601978458 -3.2800296962
33.8602229184 -15.5622187863 -3.2800305863
33.8842699009 -14.7087905781 -3.2800297441
33.6721303353 -14.1700511310 -3.2800292125
33.7391166169 -16.0323068543 -3.2800310501
33.9231072849 -14.7768441167 -3.2800298113
34.1041461054 -15.6839323814 -3.2800307064
33.4022535981 -18.4228737825 -3.2800334090
33.4119672711 -18.4187299058 -3.2800334049
33.4216686434 -18.4145573124 -3.2800334008
33.4410070255 -18.4325196227 -3.2800334185
33.4604784606 -18.4239737055 -3.2800334101
33.6673790758 -18.4330656087 -3.2800334191
33.7774295540 -18.4302571481 -3.2800334163
33.5042128482 -15.1356130926 -3.2800301653
33.5338493920 -15.1852317575 -3.2800302143
33.5705291762 -15.0859970611 -3.2800301163
33.6068770641 -15.1879861607 -3.2800302170
33.5989758601 -15.1144087734 -3.2800301444
33.5428060275 -14.8571301273 -3.2800298905
33.6153800662 -15.0601519322 -3.2800300908
33.6307904154 -15.0092949853 -3.2800300407
33.7033661484 -15.4546690268 -3.2800304801
33.7065964100 -15.2289378398 -3.2800302574
33.6952731751 -15.6733778645 -3.2800306959
33.7085707104 -15.6049000246 -3.2800306284
33.7190216724 -15.5359303471 -3.2800305603
33.7278597907 -15.4516906538 -3.2800304772
33.7293229272 -15.4318125489 -3.2800304576
33.7346395559 -15.0405163475 -3.2800300715
33.7768363827 -15.4453026973 -3.2800304709
33.6717675382 -15.9908938706 -3.2800310093
33.7087093669 -15.8937452667 -3.2800309134
33.6896210444 -16.1270923406 -3.2800311437
33.7324756344 -16.0336338542 -3.2800310514
33.7925697082 -15.8712776117 -3.2800308912
33.8036498029 -15.8350505016 -3.2800308555
33.7890099522 -15.9564125359 -3.2800309752
33.8860949414 -15.5632484028 -3.2800305873
33.7047238776 -16.2536662088 -3.2800312686
33.9179567353 -15.6696268962 -3.2800306922
33.7437633737 -14.4552831392 -3.2800294940
33.6384230607 -16.4057682606 -3.2800314186
33.9974349539 -15.3979140012 -3.2800304241
33.8683320806 -16.2018544201 -3.2800312174
34.0195561210 -15.7739549181 -3.2800307952
34.1439479504 -15.2922982601 -3.2800303199
34.1680628624 -15.3484302298 -3.2800303753
34.0282650639 -14.4952996706 -3.2800295335
34.2087924687 -15.6913294871 -3.2800307137
34.0167706454 -14.3526992427 -3.2800293928
33.9812678941 -14.2834586429 -3.2800293244
34.1775085887 -14.6196956930 -3.2800296562
34.1559200815 -14.5570359524 -3.2800295944
34.0423470065 -14.2958628750 -3.2800293367
33.9114204222 -14.0731612494 -3.2800291169
34.2093340294 -15.9964510449 -3.2800310147
34.2262268947 -16.0230440594 -3.2800310410
34.2513225584 -16.0239765500 -3.2800310419
34.1035288699 -18.2963340124 -3.2800332842
34.1349584528 -18.3039399582 -3.2800332917
34.1437819746 -18.2977553256 -3.2800332856
34.2832333781 -18.2859495375 -3.2800332739
34.3065999517 -18.2985946034 -3.2800332864
33.1710300051 -11.5490893369 -3.2800266263
33.1487116204 -11.5425151426 -3.2800266198
33.1263547313 -11.5360731065 -3.2800266134
33.2338931956 -11.5430384063 -3.2800266203
33.2227206904 -11.5395488694 -3.2800266169
33.2003449565 -11.5326690227 -3.2800266101
33.1779289107 -11.5259216787 -3.2800266034
33.2971793255 -11.5380275255 -3.2800266154
33.4781891644 -11.5251000922 -3.2800266026
33.5856593888 -11.5151651960 -3.2800265928
33.2379137909 -11.3672487332 -3.2800264469
33.6831126878 -11.5033657884 -3.2800265812
33.7492028712 -11.5058805901 -3.2800265837
33.8828911397 -11.5414796031 -3.2800266188
33.4124892699 -11.3473054637 -3.2800264272
33.3848459748 -11.3124279053 -3.2800263928
33.2777393349 -11.2782782223 -3.2800263591
34.3841416387 -11.7711132023 -3.2800268454
34.3894631898 -11.7168222199 -3.2800267918
34.1392115419 -11.5660150443 -3.2800266430
34.0047300932 -11.4941845223 -3.2800265721
33.5866400614 -16.0368402019 -3.2800310546
33.7088975450 -15.5643544447 -3.2800305884
33.6238195667 -14.8351336466 -3.2800298688
33.4989411261 -16.4997455018 -3.2800315114
33.7835513008 -14.0556042578 -3.2800290996
32.6844564426 -11.5211343751 -3.2800265987
32.7114382742 -11.5006116012 -3.2800265785
32.6996442007 -11.4988883722 -3.2800265768
32.5577512886 -11.4809355613 -3.2800265590
32.6793588404 -11.4716023637 -3.2800265498
32.8731491221 -11.4786609609 -3.2800265568
32.8375506991 -11.4721617496 -3.2800265504
33.0438756883 -11.4895994293 -3.2800265676
32.2413846904 -11.4658428638 -3.2800265441
32.2414649135 -11.4416699689 -3.2800265203
33.4789143847 -15.9030795141 -3.2800309226
33.4570558437 -16.1189319695 -3.2800311356
33.4659315293 -16.0895561068 -3.2800311066
33.4935282716 -15.9700045285 -3.2800309886
33.5092787483 -15.8311783504 -3.2800308517
33.4747222214 -16.1427856053 -3.2800311591
33.5135472546 -15.9947210983 -3.2800310130
33.5233382418 -15.9363604154 -3.2800309554
33.5326080692 -15.8463443225 -3.2800308666
33.5335956352 -15.8289658949 -3.2800308495
33.5343260596 -15.8115747617 -3.2800308323
33.5349731661 -15.7593631838 -3.2800307808
33.5073561502 -16.1199567500 -3.2800311366
33.5532432664 -15.8903830598 -3.2800309101
33.5549933091 -15.6704229781 -3.2800306930
33.5543779784 -15.6633440154 -3.2800306860
33.5717083033 -15.9395691191 -3.2800309586
33.5779962156 -15.8855733453 -3.2800309053
33.6070354877 -15.8066939555 -3.2800308275
33.6513465354 -15.6623346962 -3.2800306851
33.2934901695 -14.8028638866 -3.2800298370
33.6704350611 -16.1652568456 -3.2800311813
33.7638225537 -15.9620364741 -3.2800309808
33.9661876259 -15.8837582457 -3.2800309035
31.8717703559 -11.3817278221 -3.2800264611
31.7939473714 -11.3910521355 -3.2800264703
31.7421626193 -11.3980350701 -3.2800264772
31.5616426799 -11.4272896396 -3.2800265061
31.5231270483 -11.4345295491 -3.2800265132
31.3952335921 -11.4611257062 -3.2800265395
31.2622161479 -11.4680679060 -3.2800265463
32.3012598378 -11.3068743008 -3.2800263873
31.9847403262 -11.3221580720 -3.2800264024
31.4880635093 -11.3921270261 -3.2800264714
31.2562495564 -11.4446428112 -3.2800265232
32.3407839845 -11.2823720638 -3.2800263631
31.7715149846 -11.3208434379 -3.2800264011
31.9632085358 -11.2269533753 -3.2800263084
31.8289829471 -11.2406238227 -3.2800263219
32.0950195164 -11.1689917743 -3.2800262512
31.4819876423 -11.2208973719 -3.2800263024
33.4375266842 -16.0008140129 -3.2800310190
33.4581832265 -16.0265047292 -3.2800310444
33.4625831047 -15.9956025119 -3.2800310139
33.4642501624 -15.9815121643 -3.2800310000
33.4698990769 -15.8568672175 -3.2800308770
33.4697699751 -15.8511931940 -3.2800308714
33.4691812907 -15.8341770965 -3.2800308546
33.4865670440 -15.9986201165 -3.2800310169
33.4938559332 -15.8476636547 -3.2800308679
33.4864282335 -15.7519841192 -3.2800307735
33.5008134506 -16.0634616037 -3.2800310809
33.5081610303 -16.0193616784 -3.2800310373
33.5132475578 -15.9779451052 -3.2800309965
33.5184254327 -15.8797552846 -3.2800308996
33.5184308951 -15.8737937623 -3.2800308937
33.5142832062 -15.7844963762 -3.2800308056
33.4988878414 -15.6783501291 -3.2800307009
33.5414053389 -15.9256137659 -3.2800309448
33.5391463898 -15.7914274599 -3.2800308124
33.5281310489 -15.7036269117 -3.2800307258
33.5103943572 -15.6200489301 -3.2800306433
