18.6627460495 -29.2105082013 -2.1200299012
18.6666638603 -29.1619590244 -2.1200298533
18.6699488164 -28.9834625494 -2.1200296772
18.6629681321 -28.8700424184 -2.1200295653
18.6194465272 -28.6086829660 -2.1200293074
18.6651440168 -29.3702638658 -2.1200300589
18.6763785182 -28.6406221879 -2.1200293389
18.7090309754 -28.6795893780 -2.1200293774
18.7746177689 -29.2963541466 -2.1200299859
18.6829607443 -29.7511764611 -2.1200304347
18.8200303380 -32.1546668544 -2.1200328064
16.1896626430 -33.5289445348 -2.1200341625
15.8808336233 -33.4978867431 -2.1200341318
15.9468860505 -33.5116043676 -2.1200341454
15.9998695654 -33.5218741263 -2.1200341555
16.0795634037 -33.5361015055 -2.1200341695
16.0928697184 -33.5383351189 -2.1200341717
16.2530229761 -33.5620621987 -2.1200341952
16.3333902050 -33.5717902357 -2.1200342048
16.7101423925 -33.5982702768 -2.1200342309
16.6145737297 -33.6187210335 -2.1200342511
16.7636889021 -33.6236723316 -2.1200342559
16.8450691630 -33.6243272740 -2.1200342566
15.9106801714 -33.5535850845 -2.1200341868
16.4093875264 -33.6282237364 -2.1200342604
16.6269983658 -33.6435185220 -2.1200342755
16.8587246105 -33.6484688517 -2.1200342804
16.9132637353 -33.6479397316 -2.1200342799
17.0223041135 -33.6449457700 -2.1200342769
15.9326655915 -33.5827155207 -2.1200342155
16.0404371331 -33.6029439839 -2.1200342355
16.6806571930 -33.6698901412 -2.1200343016
16.9958575665 -33.6700957434 -2.1200343018
16.6522817578 -33.6930119271 -2.1200343244
16.9966639944 -33.6942553162 -2.1200343256
17.0654987350 -33.6914478986 -2.1200343228
17.1617815929 -33.6858078147 -2.1200343173
16.0593784961 -33.6552692510 -2.1200342871
17.3152367747 -33.6969694254 -2.1200343283
16.2619379463 -33.7093983305 -2.1200343405
16.4419254096 -33.7282191545 -2.1200343591
16.5668940759 -33.7371883545 -2.1200343680
17.1928795623 -33.7320412199 -2.1200343629
16.6773054118 -33.7665241418 -2.1200343969
17.2225870949 -33.7539732546 -2.1200343845
15.8401118502 -33.6869348726 -2.1200343184
15.9780217628 -33.7145134193 -2.1200343456
17.1684350393 -33.7822707411 -2.1200344124
15.9597354356 -33.7356974400 -2.1200343665
16.1130030113 -33.7618915151 -2.1200343923
17.1575864441 -33.8314588703 -2.1200344610
16.1762742203 -33.8200314380 -2.1200344497
16.9452145325 -33.8649399889 -2.1200344940
17.1876688819 -33.8536143148 -2.1200344828
17.8236149657 -33.7650444767 -2.1200343954
16.2156109362 -33.8497158444 -2.1200344790
15.8005665354 -33.8020321805 -2.1200344319
16.0149716993 -33.9174382910 -2.1200345458
16.0294063598 -33.9198613098 -2.1200345482
15.7314916593 -33.9104545512 -2.1200345389
16.2408983046 -33.9990660180 -2.1200346264
16.3708833455 -34.0373573632 -2.1200346642
17.2015464261 -34.0464999592 -2.1200346732
17.5149495802 -34.0384312860 -2.1200346652
18.1789093519 -33.9281039319 -2.1200345563
16.1932834390 -34.1393086911 -2.1200347648
15.7893518848 -34.2196267771 -2.1200348440
16.3771152420 -34.3049291907 -2.1200349282
16.4862483124 -34.3134111256 -2.1200349365
17.9629730324 -34.2049694528 -2.1200348295
15.6922043474 -34.2979651352 -2.1200349213
18.5264906546 -28.7622881750 -2.1200292205
18.5241647297 -28.7270782780 -2.1200291858
18.5186102376 -28.6700093585 -2.1200291295
18.5180921320 -28.6656289614 -2.1200291252
18.4983448131 -28.5437475258 -2.1200290049
18.4710355571 -28.4323913461 -2.1200288950
18.5509986775 -28.9177952505 -2.1200293740
18.5527568275 -28.8595536404 -2.1200293165
18.5525846586 -28.8147311965 -2.1200292723
18.5450549862 -28.6894848601 -2.1200291487
18.5436335997 -28.6761129133 -2.1200291355
18.5144152996 -28.5038550786 -2.1200289655
18.5070771961 -28.4733487088 -2.1200289354
18.4967171221 -28.4343609271 -2.1200288970
18.5679565820 -29.0097708262 -2.1200294647
18.5761609236 -28.7915190033 -2.1200292494
18.5712423744 -28.7097053170 -2.1200291687
18.5533965218 -28.5743026332 -2.1200290350
18.5760527494 -29.1222279848 -2.1200295757
18.5800149162 -29.0994428382 -2.1200295532
18.5982626986 -28.9386562909 -2.1200293946
18.6165200208 -29.0103393916 -2.1200294653
18.6174826471 -29.0009949257 -2.1200294561
18.6207798260 -28.9635650191 -2.1200294191
18.6252715641 -28.8603476949 -2.1200293173
18.6250911553 -28.8133800962 -2.1200292710
18.6194069625 -28.7055203938 -2.1200291645
18.6400486789 -29.0176287589 -2.1200294725
18.6495391493 -28.8415388363 -2.1200292987
18.6434892566 -28.7034279322 -2.1200291625
18.2006393973 -29.9937109376 -2.1200304356
18.6138816416 -29.2813724289 -2.1200297327
18.6574504668 -29.0730712122 -2.1200295272
18.6650997949 -29.0106220533 -2.1200294656
18.6657816495 -28.6820585739 -2.1200291414
18.6219025056 -28.4344860037 -2.1200288971
18.6206872274 -28.4298010799 -2.1200288925
18.6096527815 -29.3770056594 -2.1200298271
18.6792462360 -29.0910495902 -2.1200295449
18.6945915438 -28.7384240409 -2.1200291970
18.6226736666 -29.4130033121 -2.1200298626
18.6064219209 -29.5198861308 -2.1200299681
18.6521496999 -29.4021184735 -2.1200298519
18.6882743544 -28.4017145633 -2.1200288647
18.7509511766 -29.1018855964 -2.1200295556
18.7062153287 -28.3756952703 -2.1200288391
18.7940485674 -28.7998349192 -2.1200292576
18.7884252686 -28.6960518355 -2.1200291552
18.2391666764 -30.1577848548 -2.1200305975
18.7799359238 -29.2127807303 -2.1200296651
18.8129464473 -28.6992818478 -2.1200291584
16.0344972363 -33.6386723477 -2.1200340323
16.0913125300 -33.6502055660 -2.1200340437
16.2339129570 -33.6760906198 -2.1200340693
16.3054847046 -33.6874485075 -2.1200340805
16.3198187749 -33.6895929826 -2.1200340826
15.9016113001 -33.6337910679 -2.1200340275
15.9157884091 -33.6371305083 -2.1200340308
15.9299753347 -33.6404279956 -2.1200340341
15.9868187192 -33.6531978427 -2.1200340467
16.0152960795 -33.6593303150 -2.1200340527
16.0438092231 -33.6652941985 -2.1200340586
16.0723571521 -33.6710892841 -2.1200340643
16.1009388671 -33.6767153693 -2.1200340699
16.1152420817 -33.6794649749 -2.1200340726
16.1581996522 -33.6874597561 -2.1200340805
16.3162774940 -33.7135052098 -2.1200341062
16.3883936085 -33.7236408017 -2.1200341162
16.6781200645 -33.7534871634 -2.1200341456
15.5294887513 -33.5553661136 -2.1200339501
15.5853536806 -33.5728806588 -2.1200339674
15.6273862413 -33.5855820994 -2.1200339799
15.6976856770 -33.6059206520 -2.1200340000
15.9959639688 -33.6799164410 -2.1200340730
16.0676183295 -33.6947932678 -2.1200340877
16.4723575843 -33.7584087062 -2.1200341505
15.5361357362 -33.5828511996 -2.1200339772
15.5501637550 -33.5872720057 -2.1200339816
15.5782587180 -33.5959890293 -2.1200339902
15.6487174501 -33.6170530585 -2.1200340110
15.7905309478 -33.6560434895 -2.1200340495
16.0196502496 -33.7096553353 -2.1200341024
16.8949087367 -33.8129248551 -2.1200342043
15.4585553820 -33.5830597943 -2.1200339775
15.6561624379 -33.6443713313 -2.1200340380
15.7273282415 -33.6642778421 -2.1200340576
15.8274384233 -33.6903740504 -2.1200340833
16.0436521343 -33.7392824389 -2.1200341316
16.2910366964 -33.7830550950 -2.1200341748
15.1033253300 -33.4757402634 -2.1200338716
15.2134936418 -33.5202138255 -2.1200339154
15.6494787244 -33.6676019846 -2.1200340609
15.9226993303 -33.7379612343 -2.1200341303
16.0825448714 -33.7716417905 -2.1200341635
16.1409301577 -33.7825971781 -2.1200341743
16.1701703907 -33.7878156108 -2.1200341795
16.1994409859 -33.7928609570 -2.1200341845
15.3726638987 -33.6048239243 -2.1200339989
15.5712456982 -33.6696729433 -2.1200340629
15.9464506845 -33.7680723557 -2.1200341600
15.8244263657 -33.7643439977 -2.1200341563
16.0292253667 -33.8103520239 -2.1200342017
15.1591051620 -33.5767459208 -2.1200339712
15.2716479789 -33.6198712664 -2.1200340138
17.5384333179 -33.9111496707 -2.1200343012
17.6432669026 -33.8996925434 -2.1200342899
15.5936746810 -33.7520678840 -2.1200341442
16.7697517367 -33.9529964771 -2.1200343425
16.9664148879 -33.9595155330 -2.1200343489
15.2977492082 -33.6808484296 -2.1200340739
15.9106924538 -33.8591638876 -2.1200342499
15.5507397902 -33.7897392193 -2.1200341814
15.8309774890 -33.8654523518 -2.1200342561
17.4542531647 -33.9915233562 -2.1200343805
16.4752558008 -34.0019737159 -2.1200343908
16.9807568353 -34.0322184032 -2.1200344207
17.6700063454 -33.9938501251 -2.1200343828
17.8372520611 -33.9705478173 -2.1200343598
15.2587026678 -33.7438480469 -2.1200341361
15.8346859835 -33.9160414578 -2.1200343060
15.0481365026 -33.6883568329 -2.1200340814
16.1325811542 -34.0021009513 -2.1200343909
15.1401745471 -33.7510579605 -2.1200341432
15.6275764455 -33.9126211493 -2.1200343026
16.1088294555 -34.0469952722 -2.1200344352
15.6904486370 -33.9796857299 -2.1200343688
15.2769259459 -33.8786459924 -2.1200342691
14.9583177318 -33.7819067798 -2.1200341737
15.1497423050 -33.8581964068 -2.1200342489
16.4884484483 -34.1735307520 -2.1200345601
17.0903395838 -34.2498293623 -2.1200346354
17.1708968199 -34.2726233562 -2.1200346579
16.3983374763 -34.2608518303 -2.1200346463
15.0075319591 -33.9587124909 -2.1200343481
16.2115726511 -34.3088913263 -2.1200346937
15.5182277518 -34.1831942447 -2.1200345696
15.5274856159 -34.2109351889 -2.1200345970
14.8363856564 -34.0715362529 -2.1200344595
15.3907029957 -34.3221878916 -2.1200347068
14.7616799310 -34.4330449589 -2.1200348162
14.9804401675 -34.6712337994 -2.1200350512
18.4602954939 -28.5534246974 -2.1200292529
18.4914859332 -28.6592211987 -2.1200293573
18.4910872425 -28.6447294011 -2.1200293430
18.4877789405 -28.5868398069 -2.1200292858
18.4850983708 -28.5579699310 -2.1200292573
18.5059896353 -28.8430703858 -2.1200295387
18.5077653183 -28.8283941030 -2.1200295242
18.5097405159 -28.8100208891 -2.1200295061
18.5101029326 -28.8063428531 -2.1200295024
18.5120488092 -28.7842535881 -2.1200294806
18.5133706829 -28.7658218480 -2.1200294624
18.5136023350 -28.7621332667 -2.1200294588
18.5153183809 -28.7252159800 -2.1200294224
18.5159417537 -28.6882640886 -2.1200293859
18.5159155877 -28.6771766068 -2.1200293750
18.5152467717 -28.6439216671 -2.1200293422
18.5112551606 -28.5775241051 -2.1200292766
18.5203074905 -28.9094209959 -2.1200296041
18.5240812090 -28.8871343826 -2.1200295821
18.5289986847 -28.8535876631 -2.1200295490
18.5322049349 -28.8274122658 -2.1200295232
18.5369882821 -28.7748903916 -2.1200294714
18.5383716999 -28.7523289148 -2.1200294491
18.5390714208 -28.7372758248 -2.1200294343
18.5399610870 -28.6657109748 -2.1200293637
18.5391322556 -28.6355842134 -2.1200293339
18.5365530145 -28.5904519313 -2.1200292894
18.5274855948 -28.9925394074 -2.1200296862
18.5383515705 -28.9438345949 -2.1200296381
18.5642126801 -28.6998808354 -2.1200293974
18.5621765552 -28.6116274259 -2.1200293103
18.5380054122 -29.0474054580 -2.1200297403
18.5411655555 -29.0361080312 -2.1200297291
18.5596566549 -28.9601296990 -2.1200296542
18.5672087985 -28.9217636133 -2.1200296163
18.5753242926 -28.8715838942 -2.1200295668
18.5866514826 -28.7548594701 -2.1200294516
18.5875304457 -28.7353275428 -2.1200294324
18.5485862834 -29.0959468142 -2.1200297882
18.6048843346 -28.5414128591 -2.1200292410
18.5416851265 -29.1873020262 -2.1200298783
18.5764594916 -29.0878438155 -2.1200297802
18.6367658113 -28.6966218318 -2.1200293942
18.6352174311 -28.6196331058 -2.1200293182
18.6153697701 -29.0393985477 -2.1200297324
18.6378191089 -28.9387733604 -2.1200296331
18.6407179651 -28.9225305103 -2.1200296171
18.6796354385 -28.9768697694 -2.1200296707
18.6213029922 -29.3086366149 -2.1200299981
18.7424130558 -29.2713168754 -2.1200299612
18.9020940698 -28.6406733828 -2.1200293390
18.2019128139 -30.0574440517 -2.1200307370
18.6020457321 -29.7515122938 -2.1200304351
18.3606976971 -32.0838485763 -2.1200327365
18.4442839816 -32.1325187154 -2.1200327845
17.8715796411 -32.3510876546 -2.1200330002
18.2813860421 -32.3096222889 -2.1200329593
18.2634045805 -32.4147886024 -2.1200330631
17.2582607323 -32.6907491777 -2.1200333354
16.2763073095 -33.8783461811 -2.1200345072
16.5695745485 -33.9257758717 -2.1200345540
16.7871270733 -33.9501406505 -2.1200345781
16.0413669714 -33.8528290727 -2.1200344821
16.1639819712 -33.8803747567 -2.1200345092
15.7310224869 -33.7944923262 -2.1200344245
17.1923782819 -34.0197582711 -2.1200346468
16.0302126549 -33.8998707813 -2.1200345285
16.7625013082 -34.0449665314 -2.1200346717
17.3350154587 -34.0681853818 -2.1200346946
15.3916729937 -33.7573271544 -2.1200343878
17.6726551519 -34.1017649801 -2.1200347277
17.6886751673 -34.1005400403 -2.1200347265
16.5152816313 -34.0891593788 -2.1200347153
16.7717799453 -34.1186544318 -2.1200347444
15.0362949385 -33.6908982011 -2.1200343223
17.7408973146 -34.1447455543 -2.1200347701
14.7765756753 -33.5940162287 -2.1200342267
14.7365162501 -33.6006912377 -2.1200342333
17.5329918357 -34.2072352517 -2.1200348318
14.5805544890 -33.5448637703 -2.1200341782
14.8725744094 -33.6951843819 -2.1200343265
14.5688600582 -33.5660197522 -2.1200341991
14.5977810683 -33.5818949585 -2.1200342147
16.0443099454 -34.1264018285 -2.1200347520
14.4419386079 -33.5216896172 -2.1200341553
14.4705995673 -33.5383165093 -2.1200341717
14.5137741957 -33.5629381818 -2.1200341960
14.5716770264 -33.5951692274 -2.1200342278
14.7476167422 -33.6877204578 -2.1200343191
16.6267873467 -34.2495131709 -2.1200348735
16.8742193237 -34.2724167099 -2.1200348961
14.3867563312 -33.5171963808 -2.1200341509
14.6627194613 -33.6713436521 -2.1200343030
15.4654239293 -34.0396763339 -2.1200346664
14.6701348153 -33.7296469482 -2.1200343605
14.2203844075 -33.5001041695 -2.1200341340
14.4515826375 -33.6388380503 -2.1200342709
14.5879996719 -33.7412918956 -2.1200343720
14.6029668394 -33.7491935019 -2.1200343798
14.9688673106 -33.9253858042 -2.1200345537
14.3394861834 -33.6296984493 -2.1200342619
14.6369440980 -33.7941248035 -2.1200344241
14.4603791987 -33.7269884144 -2.1200343579
14.7220502577 -33.8909125619 -2.1200345196
14.0354074812 -33.7262054886 -2.1200343571
14.4364929873 -33.9892656440 -2.1200346167
14.1610320085 -33.8610255603 -2.1200344902
14.1485941032 -33.8817531698 -2.1200345106
13.9832253402 -33.8076081217 -2.1200344374
18.4639527166 -28.7475025821 -2.1200294444
18.4686905790 -28.7195244383 -2.1200294168
18.4722454525 -28.6942340598 -2.1200293918
18.4759356905 -28.6603833979 -2.1200293584
18.4807787955 -28.7861020811 -2.1200294825
18.4861017166 -28.7604663135 -2.1200294572
18.4912133238 -28.7318273851 -2.1200294289
18.4775219378 -28.8890093457 -2.1200295840
18.5037303995 -28.7942403223 -2.1200294905
18.5229306268 -28.6766362209 -2.1200293744
18.5069607320 -28.8762232350 -2.1200295714
18.5113322446 -28.8616014977 -2.1200295570
18.5170880349 -28.8410258488 -2.1200295367
18.5224165557 -28.8203354328 -2.1200295162
18.5021207525 -28.9628717917 -2.1200296569
18.5055387642 -28.9541460355 -2.1200296483
18.5066608766 -28.9512307519 -2.1200296454
18.5136271667 -28.9983736684 -2.1200296919
18.5148800770 -28.9954342643 -2.1200296890
18.5463910908 -28.9117262403 -2.1200296064
18.5112852516 -29.0613028850 -2.1200297540
18.5344958875 -29.3440247004 -2.1200300330
18.8638849536 -28.6597398617 -2.1200293578
18.8836166399 -28.7137985467 -2.1200294111
18.9096243755 -28.6957452612 -2.1200293933
18.9353909962 -28.6769529051 -2.1200293748
18.9310137587 -28.8771140611 -2.1200295723
18.9315240689 -28.9748112258 -2.1200296687
18.0649505804 -30.0649240330 -2.1200307443
18.2628659955 -31.9911470802 -2.1200326450
17.7405814450 -32.2334260956 -2.1200328841
17.1839432513 -32.3944397162 -2.1200330430
17.3424349815 -32.4051019387 -2.1200330535
17.8977750432 -32.3906537351 -2.1200330393
16.6182027934 -34.1006937673 -2.1200347266
16.9749079263 -34.1957994059 -2.1200348205
16.4413161301 -34.1427793062 -2.1200347682
15.8161500253 -34.0096255534 -2.1200346368
16.0733846340 -34.1586329596 -2.1200347838
15.7270746634 -34.2350034488 -2.1200348592
14.5339524727 -33.9015271972 -2.1200345301
12.9508234879 -33.6213119364 -2.1200342536
18.4406455478 -28.6697556198 -2.1200291292
18.4621049324 -28.6834960195 -2.1200291428
18.4646556282 -28.7564034436 -2.1200292147
18.4661041691 -28.7524128871 -2.1200292108
18.4675290752 -28.7484138304 -2.1200292068
18.4682326496 -28.7464111582 -2.1200292049
18.4827671104 -28.6998133691 -2.1200291589
18.4727869580 -28.8014244574 -2.1200292592
18.4886191605 -28.8254507354 -2.1200292829
18.4941155181 -28.8130175204 -2.1200292706
18.8623249571 -28.7770755821 -2.1200292351
18.8631115907 -28.7739049069 -2.1200292320
18.8676989331 -28.8471927508 -2.1200293043
18.8798832362 -28.8055430492 -2.1200292632
18.8708521543 -28.9124738286 -2.1200293687
18.8782066306 -28.9597966053 -2.1200294154
18.8795337166 -28.9565781498 -2.1200294123
18.8860260184 -28.9404277612 -2.1200293963
18.9095860040 -28.8749192727 -2.1200293317
18.8651518651 -29.0466021947 -2.1200295011
18.8760411874 -29.0242435480 -2.1200294790
18.9017071400 -29.0814036651 -2.1200295354
18.0771996495 -30.0713316623 -2.1200305122
18.0392477673 -30.1022843501 -2.1200305428
17.7729728042 -32.0553290671 -2.1200324700
17.6876854145 -32.1022383973 -2.1200325162
17.7619029741 -32.1277773142 -2.1200325414
16.9715756965 -32.2074268799 -2.1200326200
16.5627030251 -32.3470869728 -2.1200327579
16.2845930915 -32.2727380059 -2.1200326845
14.3832619947 -34.0387639042 -2.1200344271
13.4047562583 -33.9061204185 -2.1200342962
11.8659165416 -33.0850495377 -2.1200334860
12.1387029411 -34.4990725941 -2.1200348813
12.2517992297 -34.7014627476 -2.1200350810
11.1922911785 -33.6364793192 -2.1200340302
12.0952986670 -34.6899636919 -2.1200350697
12.3024933770 -34.9065569689 -2.1200352834
12.5964475594 -35.1781372417 -2.1200355514
11.2217972117 -33.8675817457 -2.1200342582
12.4832500087 -35.1194284848 -2.1200354935
12.5618324588 -35.1817681914 -2.1200355550
12.7614673377 -35.3335116133 -2.1200357047
12.6264622020 -35.2623750330 -2.1200356345
12.8080555337 -35.3974616183 -2.1200357678
26.0685340075 -30.4466334377 -2.1200308826
12.8143424713 -35.4317988638 -2.1200358017
12.8002319860 -35.4514261277 -2.1200358211
11.5828995540 -34.4231824930 -2.1200348064
12.5274080127 -35.3081587987 -2.1200356797
13.0520658420 -35.7126845955 -2.1200360789
12.5790785573 -35.4085385304 -2.1200357788
12.7088761419 -35.5345596747 -2.1200359031
18.8391109124 -28.8264451186 -2.1200295223
18.8400834366 -28.8241635343 -2.1200295200
18.8506628709 -28.9140362562 -2.1200296087
18.8567521151 -28.9024194261 -2.1200295972
18.8626688758 -28.8907138045 -2.1200295857
18.8521743684 -28.9606440954 -2.1200296547
18.8687154158 -28.9800816147 -2.1200296739
18.8634332874 -29.0332283773 -2.1200297263
18.8656706026 -29.1888797622 -2.1200298799
17.9363422758 -30.1030949940 -2.1200307820
17.4700543521 -31.9669864363 -2.1200326212
17.5214489258 -31.9754553968 -2.1200326296
17.3740925253 -32.0230111825 -2.1200326765
17.4577345894 -32.0384513996 -2.1200326917
17.3983152059 -32.1260643056 -2.1200327782
17.0461155562 -32.3939892940 -2.1200330426
16.2130712420 -32.1004885231 -2.1200327529
15.8880328622 -31.9423041980 -2.1200325968
11.6017959727 -31.8153439455 -2.1200324716
11.6116418666 -31.8344585700 -2.1200324904
11.6215442619 -31.8535439849 -2.1200325093
11.6100958413 -31.8838279240 -2.1200325391
11.6201442869 -31.9029176963 -2.1200325580
11.6293549533 -31.9714879095 -2.1200326256
11.6606256578 -32.1279037889 -2.1200327800
11.7815100886 -32.5158717594 -2.1200331628
11.5982118143 -32.6330592182 -2.1200332785
25.9525806976 -31.9263308838 -2.1200325811
25.9827076298 -31.8562274268 -2.1200325119
25.9645381234 -31.9593472549 -2.1200326137
25.9848870126 -31.9125699679 -2.1200325675
25.9450333043 -32.0625061395 -2.1200327155
25.9763690127 -31.9924642990 -2.1200326463
25.8690624264 -32.2814768978 -2.1200329315
25.9670547237 -32.0724757119 -2.1200327253
25.9996492204 -32.0589985632 -2.1200327120
12.0677291684 -34.8552432390 -2.1200354712
12.2198769697 -34.9954563121 -2.1200356096
12.3241070089 -35.1517586405 -2.1200357638
12.1746603097 -35.0847934936 -2.1200356977
25.9633569665 -32.4725482930 -2.1200331201
25.9750841517 -32.4491759471 -2.1200330970
25.9492537235 -32.5535196940 -2.1200332000
25.9731182039 -32.5068224357 -2.1200331539
12.4829073395 -35.4103337930 -2.1200360189
25.9586775895 -32.5879426426 -2.1200332339
25.9707461526 -32.5645836342 -2.1200332109
25.9557268240 -32.6458072835 -2.1200332910
26.0162332258 -32.5286956160 -2.1200331755
26.0633870732 -32.4343699315 -2.1200330824
12.5767848962 -35.5465161767 -2.1200361533
25.9647780633 -32.6804389807 -2.1200333252
26.0257956911 -32.5631896537 -2.1200332095
25.9611792341 -32.7385275064 -2.1200333825
26.0593482477 -32.5505687962 -2.1200331971
26.0567158691 -32.6088393951 -2.1200332546
25.9656038006 -32.8316694851 -2.1200334744
25.9783933215 -32.8082889213 -2.1200334514
25.9739009536 -32.8667069056 -2.1200335090
25.9900797047 -32.9370420019 -2.1200335784
26.0676426292 -32.7957457514 -2.1200334390
25.9653547549 -33.0779828488 -2.1200337175
26.0144127460 -33.2329879635 -2.1200338704
26.0196613010 -33.3645433955 -2.1200340002
26.0171542063 -33.4605237490 -2.1200340950
26.0522062490 -33.8511502439 -2.1200344804
18.8305014575 -29.3250555989 -2.1200300143
18.8346490072 -29.3677961182 -2.1200300564
16.8171416890 -32.3142935834 -2.1200329639
16.7584239983 -32.3187500652 -2.1200329683
16.7805948523 -32.3525828150 -2.1200330017
16.5304754464 -32.3575403295 -2.1200330066
16.1814269826 -32.3501138119 -2.1200329993
11.5550126317 -31.8869656652 -2.1200325422
25.8862260156 -32.7807230810 -2.1200334242
25.8976628615 -32.7574460839 -2.1200334012
25.9085357073 -33.0562564853 -2.1200336960
25.9264662529 -33.1256189241 -2.1200337645
25.9054458487 -33.2654597445 -2.1200339025
25.9778004306 -33.1833434979 -2.1200338215
25.9085103771 -33.3590237241 -2.1200339948
25.8895930694 -33.4409045450 -2.1200340756
25.8977295610 -33.5706432912 -2.1200342036
25.9926904389 -33.4065955824 -2.1200340417
25.9868799743 -33.4656837623 -2.1200341001
26.0003426174 -33.4421060155 -2.1200340768
25.8973641164 -33.6653612882 -2.1200342971
25.9038884398 -33.7012047825 -2.1200343325
25.9594162467 -33.7028919513 -2.1200343341
26.0133177582 -33.8002903215 -2.1200344302
18.4558077107 -29.2331769139 -2.1200299236
18.4929144863 -29.2699186889 -2.1200299599
18.8785332427 -29.4129397250 -2.1200301010
18.8824437443 -29.4032555182 -2.1200300914
17.5230142098 -32.5274908471 -2.1200331743
12.1581009008 -34.6409297249 -2.1200352597
12.2262383828 -34.7748915441 -2.1200353919
12.4935531056 -35.0837410229 -2.1200356967
12.4596062118 -35.0862764938 -2.1200356992
12.5379416057 -35.2169180416 -2.1200358281
26.0582578248 -31.4938007395 -2.1200321543
26.0738519948 -31.6061386756 -2.1200322651
26.0816214393 -31.5816198170 -2.1200322409
26.0893183185 -31.5570780823 -2.1200322167
26.0810848291 -31.6625791509 -2.1200323208
26.1176508982 -32.4023291158 -2.1200330508
26.1194754080 -32.4608911635 -2.1200331086
26.1219162059 -32.5784370254 -2.1200332246
18.4621830759 -29.2670219053 -2.1200297186
18.4654629174 -29.2489549515 -2.1200297008
18.4593634026 -29.3759871449 -2.1200298261
18.4671583909 -29.3501928800 -2.1200298007
18.4678958477 -29.3476010194 -2.1200297981
18.4798525015 -29.3005984937 -2.1200297517
18.4952123523 -29.2130446963 -2.1200296653
18.4903987979 -29.3568425990 -2.1200298072
18.4824814965 -29.4547634476 -2.1200299038
18.4818088066 -29.5170949730 -2.1200299653
18.5220848374 -29.4173292490 -2.1200298669
18.5310751821 -29.3896617508 -2.1200298396
18.5376757770 -29.3673438412 -2.1200298176
18.5229122896 -29.4837121826 -2.1200299324
18.5255823883 -29.5376184881 -2.1200299856
18.5374649345 -29.6207742952 -2.1200300677
18.5002484200 -29.7268679467 -2.1200301723
18.8603881171 -29.3709404523 -2.1200298211
18.8711750268 -29.3143816357 -2.1200297653
18.8789700439 -29.2612096869 -2.1200297129
18.8771245514 -29.4065060554 -2.1200298562
18.8897764975 -29.4545492272 -2.1200299036
18.8938854837 -29.4391609353 -2.1200298884
18.9068272343 -29.3849417176 -2.1200298349
18.9124533752 -29.3576427628 -2.1200298080
18.9466984402 -29.4273536316 -2.1200298768
18.9622210925 -29.3547551569 -2.1200298052
18.4634198760 -32.4616275592 -2.1200328709
18.4994982920 -32.4771000626 -2.1200328861
18.1325033771 -32.6038686519 -2.1200330112
17.8002698998 -32.6634603413 -2.1200330700
18.6201305105 -32.5937979762 -2.1200330013
17.0530694345 -32.8486884635 -2.1200332528
17.7017702483 -32.9097089478 -2.1200333130
16.5117693608 -34.0767370551 -2.1200344646
16.6252831566 -34.1246283882 -2.1200345118
17.4817619612 -34.2396564884 -2.1200346254
17.8936307362 -34.2561461996 -2.1200346416
15.9147727899 -34.0108821952 -2.1200343996
16.0754453325 -34.0628289085 -2.1200344509
16.9146426556 -34.2448596369 -2.1200346305
16.9390749389 -34.2967429967 -2.1200346817
16.8280974723 -34.3060400369 -2.1200346909
16.6350920378 -34.3232269081 -2.1200347078
16.6814864221 -34.3315075686 -2.1200347160
16.2856223711 -34.2968674009 -2.1200346818
15.0363663476 -34.1917637816 -2.1200345781
15.6467869876 -34.5317575601 -2.1200349136
18.4661094649 -29.1648222640 -2.1200296177
18.4660112205 -29.1526136304 -2.1200296057
18.4899681037 -29.1928822236 -2.1200296454
18.4900399880 -29.1897592686 -2.1200296423
18.4901026338 -29.1866361147 -2.1200296393
18.4902772676 -29.1710183167 -2.1200296239
18.4902506458 -29.1585232847 -2.1200296115
18.4989886223 -29.3491716096 -2.1200297996
18.5106803652 -29.2572773515 -2.1200297090
18.5143525634 -29.1519385806 -2.1200296050
18.5032845378 -29.5286731187 -2.1200299768
18.5623787429 -29.1979954430 -2.1200296505
18.5628035323 -29.1679545597 -2.1200296208
18.5829458362 -29.2633369912 -2.1200297149
18.5840050845 -29.2497389988 -2.1200297015
18.5868845704 -29.1816134416 -2.1200296343
18.5627566136 -29.5010281459 -2.1200299495
18.5730259331 -29.4641379578 -2.1200299131
18.5942959730 -29.3654772348 -2.1200298157
18.5290486461 -29.6609644881 -2.1200301073
18.6198735606 -29.3590399483 -2.1200298094
18.2374748346 -30.2771764838 -2.1200307154
18.8960962108 -29.2895954298 -2.1200297409
18.8988411738 -29.2506383515 -2.1200297024
18.4350318077 -32.5686753142 -2.1200329765
18.3503259031 -32.6174733916 -2.1200330247
18.4418541277 -32.5918656405 -2.1200329994
18.9364993962 -32.5647745918 -2.1200329727
16.7755352083 -33.9488278967 -2.1200343384
16.0437175510 -33.8145870943 -2.1200342059
17.3011518355 -34.0163379223 -2.1200344050
16.1199053083 -33.8618133875 -2.1200342525
16.8404430153 -34.0060343518 -2.1200343948
16.8547602915 -34.0077699307 -2.1200343965
16.9239020193 -34.0398536273 -2.1200344282
15.6423199947 -33.7789487913 -2.1200341707
15.5788540949 -33.7798490775 -2.1200341716
15.7299114547 -33.8377729297 -2.1200342288
18.0786743926 -34.1214766843 -2.1200345087
15.4374863718 -33.7731785914 -2.1200341651
15.7272973481 -33.8882599569 -2.1200342786
15.2747689434 -33.8060492799 -2.1200341975
17.6268081759 -34.2804467030 -2.1200346656
17.8534411614 -34.2668744164 -2.1200346522
18.1542580599 -34.2331682267 -2.1200346190
18.1692414907 -34.2310163094 -2.1200346168
18.3336059582 -34.2044248957 -2.1200345906
14.9410415482 -33.6908393248 -2.1200340838
15.5208718668 -33.9649443560 -2.1200343543
16.5481840060 -34.2558405720 -2.1200346413
14.5476929126 -33.6531644405 -2.1200340466
14.8061501752 -33.8370644646 -2.1200342281
14.2835761554 -33.5613241837 -2.1200339560
14.3620633179 -33.6165517344 -2.1200340105
14.2304438507 -33.5527095357 -2.1200339475
14.3748252075 -33.6546232074 -2.1200340481
18.4933492792 -29.2910002926 -2.1200299807
18.5151121029 -29.3670759435 -2.1200300557
18.5165874202 -29.3381194481 -2.1200300272
18.5174963925 -29.2982638158 -2.1200299878
18.5173427221 -29.2692701686 -2.1200299592
18.5172752701 -29.2656464563 -2.1200299556
18.5127677266 -29.1824246641 -2.1200298735
18.5062989082 -29.1248025819 -2.1200298167
18.5020437128 -29.0961224755 -2.1200297884
18.4876578037 -29.0213956870 -2.1200297146
18.5328682273 -29.4385139236 -2.1200301262
18.5414848717 -29.3132038955 -2.1200300026
18.5410589875 -29.2503825151 -2.1200299406
18.5406559229 -29.2393023312 -2.1200299297
18.5593534272 -29.4189153139 -2.1200301069
18.5657884809 -29.2759758523 -2.1200299658
18.5845153642 -29.4098946262 -2.1200300980
18.5858404744 -29.3945965336 -2.1200300829
18.5859680925 -29.1875181310 -2.1200298786
18.6105409732 -29.3887428097 -2.1200300771
18.6156600021 -29.5365706932 -2.1200302230
18.6379324754 -29.2552566773 -2.1200299454
18.5906288604 -29.8619065970 -2.1200305440
18.6961561378 -29.0862205595 -2.1200297786
18.2998358063 -30.3894858686 -2.1200310646
18.7459490635 -32.5244068516 -2.1200331712
18.7754599378 -32.5641305406 -2.1200332104
18.5422680258 -32.7630049845 -2.1200334067
16.1668525864 -33.6603816913 -2.1200342922
16.2056792835 -33.6701975977 -2.1200343019
16.2835863584 -33.6887938096 -2.1200343202
16.3226606003 -33.6975726504 -2.1200343289
16.4141254903 -33.7167056054 -2.1200343477
16.4534422934 -33.7243248856 -2.1200343553
16.4928251650 -33.7315949511 -2.1200343624
16.5059669348 -33.7339406033 -2.1200343648
16.5454330722 -33.7407441635 -2.1200343715
16.6509552308 -33.7571720293 -2.1200343877
16.8364476437 -33.7798965760 -2.1200344101
16.8896030225 -33.7849765061 -2.1200344151
16.0571753246 -33.6557854251 -2.1200342876
16.1738256100 -33.6871188381 -2.1200343186
16.6342377141 -33.7791725455 -2.1200344094
16.7406443474 -33.7934882424 -2.1200344235
15.8956152234 -33.6322102456 -2.1200342644
15.9213281033 -33.6403976980 -2.1200342725
16.0505942895 -33.6790453748 -2.1200343106
16.1286828239 -33.7003926692 -2.1200343317
16.4047170224 -33.7641273500 -2.1200343945
16.8315636307 -33.8279953030 -2.1200344576
17.1546168790 -33.8492493096 -2.1200344785
15.7214315867 -33.5980106539 -2.1200342306
15.8495315254 -33.6425893222 -2.1200342746
16.7213045794 -33.8398062349 -2.1200344692
17.2623781314 -33.8754040222 -2.1200345043
17.2759419474 -33.8754725683 -2.1200345044
17.3437608046 -33.8752134313 -2.1200345042
15.7259671222 -33.6253733281 -2.1200342576
15.8160649905 -33.6568767874 -2.1200342887
16.0900006609 -33.7401033295 -2.1200343708
16.4086872698 -33.8141828687 -2.1200344439
17.2622202186 -33.8995765344 -2.1200345282
17.4530844340 -33.8968709204 -2.1200345255
15.4502463126 -33.5419488790 -2.1200341753
15.5259961955 -33.5739728511 -2.1200342069
15.7048682670 -33.6434308869 -2.1200342754
15.7745018727 -33.6937733223 -2.1200343251
15.8267125438 -33.7114247173 -2.1200343425
15.9185705777 -33.7408237120 -2.1200343715
15.9845464007 -33.7606553506 -2.1200343911
16.1573862884 -33.8076304634 -2.1200344375
16.3049565637 -33.8421637049 -2.1200344715
16.5350197140 -33.8860423669 -2.1200345148
15.3173228426 -33.5352388740 -2.1200341687
15.5589072370 -33.6394835265 -2.1200342715
15.5846690410 -33.6496629291 -2.1200342816
15.6883049473 -33.6888511200 -2.1200343203
15.9114409789 -33.7639214197 -2.1200343943
15.9511965908 -33.7759998836 -2.1200344063
17.3863901801 -33.9712490755 -2.1200345989
15.2567768696 -33.5333672966 -2.1200341668
16.0916797636 -33.8406311935 -2.1200344700
16.2403584781 -33.8772846805 -2.1200345062
15.4632957239 -33.6526190484 -2.1200342845
15.6848949074 -33.7390459071 -2.1200343698
17.4153400494 -34.0189403755 -2.1200346460
17.9865521362 -33.9693204949 -2.1200345970
15.3250659591 -33.6186187280 -2.1200342510
15.5844403631 -33.7273684031 -2.1200343583
16.2982085884 -33.9396194277 -2.1200345677
17.6687501774 -34.0297887730 -2.1200346567
15.1240356015 -33.5486351794 -2.1200341819
15.8829225837 -33.8563122507 -2.1200344855
16.6551672537 -34.0262170014 -2.1200346532
17.4872374934 -34.0649096191 -2.1200346913
15.1638616379 -33.5956629311 -2.1200342283
15.3960212283 -33.7028426707 -2.1200343341
15.7945670526 -33.8535461325 -2.1200344828
16.3716146911 -34.0039803449 -2.1200346312
17.3319940860 -34.0928953401 -2.1200347190
16.2411952994 -34.0013928035 -2.1200346287
15.2589636566 -33.6946922844 -2.1200343260
16.1939548718 -34.0154243110 -2.1200346425
15.3939223941 -33.7807799633 -2.1200344110
16.2025340829 -34.0422141926 -2.1200346689
18.2634894188 -34.0678723920 -2.1200346943
18.2776182107 -34.0649786277 -2.1200346914
16.2395537458 -34.0753067937 -2.1200347016
15.1495529775 -33.7232013383 -2.1200343542
18.5848326607 -34.0412505158 -2.1200346680
15.1522201200 -33.7513154885 -2.1200343819
18.5487577526 -34.0759143205 -2.1200347022
15.5613189721 -33.9512128401 -2.1200345791
15.8681045245 -34.0539207161 -2.1200346805
16.4259337579 -34.1862012886 -2.1200348110
15.4976061771 -33.9529639535 -2.1200345809
17.7026198824 -34.2695683386 -2.1200348933
15.2692671599 -33.8849512627 -2.1200345138
17.9408705838 -34.2685504019 -2.1200348923
16.0197737266 -34.1716402315 -2.1200347967
17.2742138385 -34.3589300396 -2.1200349815
15.6184745994 -34.1002062243 -2.1200347262
16.9579889866 -34.3721489483 -2.1200349945
19.0821147046 -34.0840958134 -2.1200347103
15.2624004113 -34.0137690166 -2.1200346409
15.0443519552 -33.9408392788 -2.1200345689
15.1171131718 -34.0019513856 -2.1200346292
15.4424739881 -34.1389338225 -2.1200347644
15.8499686220 -34.2753578099 -2.1200348990
16.5243791699 -34.4226922078 -2.1200350444
15.2642157915 -34.2504268858 -2.1200348744
14.8699168959 -34.3397756064 -2.1200349626
15.1021261837 -34.4709981736 -2.1200350920
15.0987675757 -34.5220402314 -2.1200351424
18.5588631600 -29.2804974505 -2.1200299703
18.5284488208 -29.1058752085 -2.1200297980
18.4609034812 -28.8981870688 -2.1200295931
18.5857814831 -29.3071035980 -2.1200299966
18.4880027689 -28.9005851313 -2.1200295954
18.6524253364 -29.2480884748 -2.1200299383
18.6109804364 -32.9619069066 -2.1200336029
16.6991999064 -33.6036525742 -2.1200342362
16.7733143200 -33.6113994696 -2.1200342438
16.0712864619 -33.5084360166 -2.1200341422
16.2775946968 -33.5586488350 -2.1200341918
16.3142519352 -33.5664299988 -2.1200341995
16.3632329244 -33.5762982634 -2.1200342092
16.6097002301 -33.6169109506 -2.1200342493
16.6840640530 -33.6262442140 -2.1200342585
16.7585818111 -33.6342561848 -2.1200342664
16.8955195714 -33.6455050198 -2.1200342775
16.9204531311 -33.6470712412 -2.1200342790
15.9682765848 -33.5044116904 -2.1200341383
16.1257401000 -33.5477075572 -2.1200341810
16.2601970757 -33.5795912680 -2.1200342124
17.0319495866 -33.6764524722 -2.1200343080
17.1448321016 -33.7028679641 -2.1200343341
17.2080034335 -33.7028131562 -2.1200343340
17.2459034112 -33.7023317874 -2.1200343336
16.2746431886 -33.6321948753 -2.1200342644
17.0557473046 -33.7255391129 -2.1200343565
17.3859983504 -33.7218331261 -2.1200343528
17.4509811264 -33.7423321131 -2.1200343730
17.4892222445 -33.7396928974 -2.1200343704
16.5299798115 -33.7276605613 -2.1200343586
16.6063217952 -33.7383912726 -2.1200343691
16.9132326962 -33.7677205155 -2.1200343981
17.5056491831 -33.7869431471 -2.1200344171
16.0773975336 -33.6850475816 -2.1200343165
16.5099797502 -33.7735328915 -2.1200344038
16.0966892875 -33.7148978480 -2.1200343460
17.5093344731 -33.8351485386 -2.1200344646
17.6524106908 -33.8218658167 -2.1200344515
17.3144575077 -33.8699071080 -2.1200344989
16.5774699505 -33.8564829383 -2.1200344857
16.7874750000 -33.8796907952 -2.1200345086
16.8006338582 -33.8808109362 -2.1200345097
17.1966516878 -33.9446257454 -2.1200345726
16.2898232195 -33.8821271767 -2.1200345110
16.6337122273 -34.0584355201 -2.1200346850
16.7570622581 -34.0711444147 -2.1200346975
15.8723512667 -34.0804846300 -2.1200347067
16.7066269559 -34.3092381098 -2.1200349324
16.4116165336 -34.3209159380 -2.1200349440
16.7603403792 -34.3625894625 -2.1200349851
16.2363838105 -34.4626199032 -2.1200350838
18.4191607363 -29.9925824625 -2.1200304345
18.3898075563 -30.1455404283 -2.1200305855
18.4085866723 -30.0988189646 -2.1200305394
18.3765149476 -30.5142672497 -2.1200309493
18.6729117015 -29.8599402721 -2.1200303037
18.6504171947 -29.2161854138 -2.1200296684
18.5759483323 -28.9849177543 -2.1200294402
18.5269222417 -28.8762833584 -2.1200293330
18.5117679688 -28.8465430306 -2.1200293037
18.5734757889 -28.9179987886 -2.1200293742
18.7275864686 -29.3640594151 -2.1200298143
18.8340625427 -29.7395815254 -2.1200301849
18.8399620213 -29.6202072213 -2.1200300671
16.7000231655 -33.4827907290 -2.1200338785
16.7575933367 -33.4880321902 -2.1200338837
16.8037013615 -33.4916119259 -2.1200338872
16.8844806730 -33.4965628203 -2.1200338921
16.7092323363 -33.5079706309 -2.1200339034
16.7208145141 -33.5090596829 -2.1200339044
16.9064916080 -33.5218186483 -2.1200339170
16.9413626784 -33.5232318836 -2.1200339184
17.0692979280 -33.5257650737 -2.1200339209
17.1274633138 -33.5255401177 -2.1200339207
16.8119204077 -33.5406539097 -2.1200339356
17.0106927793 -33.5492986887 -2.1200339441
17.0809173964 -33.5499619328 -2.1200339448
17.1160313540 -33.5498261287 -2.1200339447
17.1862487402 -33.5486197219 -2.1200339435
16.9043195443 -33.5701158871 -2.1200339647
17.1515579799 -33.5735481743 -2.1200339681
17.1633322125 -33.5733284601 -2.1200339679
16.8913984852 -33.5937147100 -2.1200339880
17.1401269055 -33.5979036409 -2.1200339921
17.2940525999 -33.5927530045 -2.1200339870
17.3295379113 -33.5907240600 -2.1200339850
17.4476664622 -33.5816882060 -2.1200339761
17.5920435527 -33.5902187652 -2.1200339845
17.0329003459 -33.6463429365 -2.1200340399
17.4640057541 -33.6287247157 -2.1200340225
16.6834350228 -33.6511868761 -2.1200340447
17.1290968393 -33.6705690864 -2.1200340638
17.5981493705 -33.6381777072 -2.1200340318
17.6698588973 -33.6284006670 -2.1200340222
17.6937221158 -33.6248590070 -2.1200340187
17.2749061167 -33.6905170647 -2.1200340835
17.6613267754 -33.6540502321 -2.1200340475
17.8408889024 -33.6244071929 -2.1200340183
17.8528105691 -33.6221480906 -2.1200340160
17.8932809877 -33.6388618236 -2.1200340325
17.7045805761 -33.6965605508 -2.1200340895
17.8618819933 -33.6696354615 -2.1200340629
17.9940930752 -33.6421427018 -2.1200340358
17.1548800293 -33.7669038622 -2.1200341589
16.6345229299 -33.7676527142 -2.1200341596
16.7705726737 -33.7800393276 -2.1200341718
17.3414336045 -33.7837420658 -2.1200341755
18.1254537467 -33.6602610451 -2.1200340536
18.1374802305 -33.6571599917 -2.1200340506
17.1057485234 -33.8158055286 -2.1200342071
17.6536193839 -33.7771568889 -2.1200341690
17.8754891295 -33.7408665178 -2.1200341332
17.9122659691 -33.7336718178 -2.1200341261
18.1314547638 -33.6836773445 -2.1200340767
18.1677140019 -33.6742133451 -2.1200340674
17.4970227174 -33.8441139783 -2.1200342350
16.5610772097 -33.8565355305 -2.1200342473
17.5120093020 -33.8669233760 -2.1200342576
18.3572599917 -33.6950661272 -2.1200340880
17.2978381792 -33.9072203574 -2.1200342973
17.5551728110 -33.9110091467 -2.1200343011
17.5679435483 -33.9095939903 -2.1200342997
17.5807100434 -33.9081410620 -2.1200342982
18.4937254465 -33.7013128353 -2.1200340941
17.1329083990 -34.0089700133 -2.1200343977
16.8181007448 -34.0255039708 -2.1200344140
17.1725805004 -34.0325228700 -2.1200344210
17.3300784532 -34.0265529461 -2.1200344151
18.4739885005 -34.3163644376 -2.1200347010
18.6830001746 -29.7109969168 -2.1200303951
18.6824200818 -29.6962739168 -2.1200303806
18.6787939669 -29.6374507823 -2.1200303225
18.7043526697 -29.6554137070 -2.1200303403
18.6626139425 -29.3798275686 -2.1200300683
18.6308785178 -29.2645492242 -2.1200299546
18.6939503641 -29.4087492469 -2.1200300969
18.7080090560 -30.1762005356 -2.1200308541
18.7399445425 -29.5298067467 -2.1200302163
18.7010011457 -29.3338349322 -2.1200300229
18.7547411446 -30.0699418465 -2.1200307493
18.5586148223 -28.9139557009 -2.1200296086
18.7906135053 -29.5440242899 -2.1200302303
18.7845801564 -30.1672415195 -2.1200308453
18.7015414520 -29.1025615873 -2.1200297947
18.7568918723 -30.3548383628 -2.1200310304
18.8516979325 -29.6942690994 -2.1200303786
18.5151478419 -28.7094070367 -2.1200294068
18.5898511805 -28.7773549045 -2.1200294738
18.7770187541 -29.0964902044 -2.1200297887
18.7800160717 -30.4991533247 -2.1200311728
17.2303424507 -33.4782624573 -2.1200341125
17.2413142134 -33.4776349666 -2.1200341118
17.2742176919 -33.4755577957 -2.1200341098
17.3180578588 -33.4723341713 -2.1200341066
17.3399628710 -33.4705278862 -2.1200341048
17.3727993936 -33.4675755437 -2.1200341019
17.2206420134 -33.5029969670 -2.1200341369
17.3309982637 -33.4955384894 -2.1200341295
17.3750708764 -33.4916416121 -2.1200341257
17.4080933890 -33.4883768743 -2.1200341224
17.4190942942 -33.4872235199 -2.1200341213
17.4300917394 -33.4860376280 -2.1200341201
17.4630623531 -33.4822848316 -2.1200341164
17.3773423593 -33.5157076805 -2.1200341494
17.3995029461 -33.5135498892 -2.1200341473
17.4105783552 -33.5124218368 -2.1200341462
17.4548451685 -33.5075821490 -2.1200341414
17.5762490397 -33.4915762852 -2.1200341256
17.4798676547 -33.5289630389 -2.1200341625
17.6019538917 -33.5121317676 -2.1200341459
17.6462038753 -33.5050276558 -2.1200341389
17.2244614143 -33.5754154020 -2.1200342083
17.5833472637 -33.5393984176 -2.1200341728
17.6724105023 -33.5250997636 -2.1200341587
17.6835188839 -33.5231643508 -2.1200341568
17.7057182283 -33.5191949859 -2.1200341529
17.7278937001 -33.5150943517 -2.1200341488
17.7721699218 -33.5064998542 -2.1200341403
17.3276342985 -33.5928193316 -2.1200342255
17.3954522426 -33.5868229045 -2.1200342196
17.5868963757 -33.5633094838 -2.1200341964
17.6317529719 -33.5563799568 -2.1200341895
17.7880395258 -33.5279577018 -2.1200341615
17.8102654000 -33.5233698738 -2.1200341570
17.8324637421 -33.5186506304 -2.1200341523
17.8710140664 -33.5349091976 -2.1200341684
17.8821505972 -33.5323862366 -2.1200341659
17.8932796158 -33.5298303427 -2.1200341633
17.9377186226 -33.5192778906 -2.1200341529
17.6053578222 -33.6094277953 -2.1200342419
17.6734267916 -33.5984996654 -2.1200342311
17.7976728873 -33.5753342727 -2.1200342082
17.8651064670 -33.5609982707 -2.1200341941
17.8251356329 -33.5943479952 -2.1200342270
18.0275930626 -33.5462726108 -2.1200341796
18.0387625233 -33.5432864111 -2.1200341766
17.9209466686 -33.5978479065 -2.1200342305
18.0787021374 -33.5574166787 -2.1200341906
18.1010972137 -33.5511086775 -2.1200341843
18.1122806587 -33.5479050181 -2.1200341812
17.4188135545 -33.7059675560 -2.1200343372
18.1077197917 -33.5743568332 -2.1200342073
18.1862803951 -33.5510956670 -2.1200341843
18.1974634289 -33.5476400204 -2.1200341809
18.2086361914 -33.5441513074 -2.1200341775
17.5615565464 -33.7134160837 -2.1200343445
18.1821213350 -33.5776451723 -2.1200342105
18.2383259457 -33.5600951925 -2.1200341932
18.2907462110 -33.5683893798 -2.1200342014
18.3019799456 -33.5646246287 -2.1200341977
18.3853849789 -33.5868762747 -2.1200342196
18.4079489806 -33.5787533192 -2.1200342116
18.4192128609 -33.5746418158 -2.1200342076
17.5746202931 -33.8092216318 -2.1200344390
17.6104532921 -33.8041734990 -2.1200344341
18.3251252701 -33.6333509809 -2.1200342655
17.3124030998 -33.8606098102 -2.1200344897
17.3849762364 -33.8548415291 -2.1200344841
17.3970613114 -33.8537549561 -2.1200344830
18.0772644420 -33.7331688711 -2.1200343640
18.2520708456 -33.6825330293 -2.1200343140
18.4699774328 -33.6073487082 -2.1200342398
17.4235642191 -33.8755338282 -2.1200345045
17.6415561192 -33.8484324219 -2.1200344777
17.7584433365 -33.8781305484 -2.1200345070
17.9760988141 -33.8332024668 -2.1200344627
18.3401368851 -33.7557531095 -2.1200343863
18.7550356639 -33.6203963582 -2.1200342527
18.7419997817 -33.6526780782 -2.1200342846
18.1573147420 -33.8868051315 -2.1200345156
18.6120724275 -33.7336540646 -2.1200343645
18.2136810394 -33.9463273243 -2.1200345743
18.9670871180 -33.6535047365 -2.1200342854
18.5235196050 -33.8968305835 -2.1200345255
18.5929979242 -33.8967915018 -2.1200345254
18.6919402300 -29.5867855200 -2.1200300341
18.7734778370 -30.0952331048 -2.1200305358
18.7298257846 -29.5354968253 -2.1200299835
18.8027423418 -30.0011960841 -2.1200304430
18.8006153896 -29.8517188270 -2.1200302955
18.7919682671 -29.5928928772 -2.1200300401
18.6358558188 -29.0334201469 -2.1200294881
18.8780712876 -30.3714778347 -2.1200308084
18.6494136425 -28.9604912952 -2.1200294161
17.8235811530 -33.4750136416 -2.1200338708
17.8444093178 -33.4700679599 -2.1200338660
17.9067131522 -33.4544927898 -2.1200338506
17.9544380886 -33.4668210020 -2.1200338628
17.9648310208 -33.4639765019 -2.1200338599
17.9752154928 -33.4611012701 -2.1200338571
17.9855914140 -33.4581953317 -2.1200338542
17.8931834143 -33.5327726604 -2.1200339278
18.0790777629 -33.5063771664 -2.1200339018
18.1837309370 -33.4728484728 -2.1200338687
18.1941406962 -33.4693256566 -2.1200338652
18.2019233744 -33.4922115737 -2.1200338878
18.2123903335 -33.4886348563 -2.1200338843
18.2936784462 -33.4854284363 -2.1200338811
17.8621864702 -33.6397621114 -2.1200340334
17.9817038066 -33.6096963955 -2.1200340037
18.3857820299 -33.4762726909 -2.1200338721
18.5284547078 -33.4958347330 -2.1200338914
18.2377355409 -33.6332103497 -2.1200340269
18.5906112213 -33.4948598982 -2.1200338904
18.6010843140 -33.4901333603 -2.1200338858
18.6425902711 -33.4976971654 -2.1200338932
18.7791862728 -33.5123607039 -2.1200339077
18.5626516601 -33.6652098216 -2.1200340585
19.1151917070 -33.5496986704 -2.1200339445
18.7358328603 -30.0305480080 -2.1200307104
18.7630807380 -30.1641272020 -2.1200308422
18.7259568357 -29.7768873527 -2.1200304601
18.7574031639 -30.4629889452 -2.1200311371
18.7072906981 -29.6087857231 -2.1200302942
18.8075259813 -30.0154279419 -2.1200306955
18.8003537344 -29.9356481533 -2.1200306168
18.8411758123 -30.4005118536 -2.1200310755
18.6713912872 -29.3225286870 -2.1200300118
18.7465994147 -30.8426210247 -2.1200315117
18.7486787177 -30.8374697893 -2.1200315066
18.8203937836 -30.7087844533 -2.1200313797
18.8730671571 -30.5016805508 -2.1200311753
18.9731732568 -29.9632561985 -2.1200306440
18.8259049260 -29.3704213012 -2.1200300590
18.9733799989 -29.5705175415 -2.1200302565
18.4313538152 -33.4103590909 -2.1200340455
18.4701913179 -33.4196606363 -2.1200340546
18.4702549998 -33.4460828643 -2.1200340807
18.5681871301 -33.4277766290 -2.1200340626
18.5779145716 -33.4231418582 -2.1200340581
18.5981226431 -33.4402545395 -2.1200340750
18.6370950996 -33.4211880038 -2.1200340561
18.8377020435 -33.4248217933 -2.1200340597
19.2543248697 -33.1853830067 -2.1200338235
18.9492158561 -33.4164974345 -2.1200340515
19.0841549580 -33.4188659391 -2.1200340539
18.8014777068 -26.6110850634 -2.1200273362
18.8542955518 -26.6111628163 -2.1200273363
18.8438569650 -26.6057115106 -2.1200273309
18.8655170594 -26.5897522336 -2.1200273152
19.3203958781 -33.4356123562 -2.1200340704
18.9828666711 -26.5982944281 -2.1200273236
19.1010625564 -26.6106000397 -2.1200273358
19.0801616541 -26.5982683849 -2.1200273236
19.0696839349 -26.5921489828 -2.1200273176
19.1238921037 -26.5960657904 -2.1200273214
19.4892558847 -33.4625707860 -2.1200340970
19.2433159567 -26.6128748246 -2.1200273380
19.2328807321 -26.6062727187 -2.1200273315
19.2224260230 -26.5997015110 -2.1200273250
19.2772025354 -26.6058397262 -2.1200273311
19.4007861611 -26.6005157030 -2.1200273258
19.4248492385 -26.5876380227 -2.1200273131
19.5363259328 -26.6065653160 -2.1200273318
19.5960667879 -26.5901108143 -2.1200273156
19.7381251612 -26.5756653436 -2.1200273013
18.4444425422 -29.7282644325 -2.1200304121
18.7537802827 -30.4284086994 -2.1200311030
18.7810119626 -30.2762705880 -2.1200309529
18.8275680379 -30.2277166579 -2.1200309050
18.8685028393 -30.5063162266 -2.1200311799
19.3477343041 -33.2975852908 -2.1200339342
18.1151678141 -26.5329095387 -2.1200272591
18.2003506786 -26.5326768431 -2.1200272589
18.1891476457 -26.5292865934 -2.1200272555
18.2971850475 -26.5380353459 -2.1200272642
18.2747990097 -26.5307150035 -2.1200272569
18.2635898476 -26.5271045307 -2.1200272534
18.3496774320 -26.5302105563 -2.1200272564
18.3272441813 -26.5225797883 -2.1200272489
18.4361539436 -26.5352659173 -2.1200272614
18.3912964523 -26.5191136533 -2.1200272455
18.4669682476 -26.5208957826 -2.1200272473
18.4444778349 -26.5125712457 -2.1200272390
18.5429970700 -26.5241743490 -2.1200272505
18.7492085933 -26.5058884105 -2.1200272324
18.9040180006 -26.4979990500 -2.1200272247
19.0157443518 -26.4726714828 -2.1200271997
18.4583492041 -30.1794069184 -2.1200308573
18.4495307090 -29.9839675225 -2.1200306645
18.4364951872 -29.7311567279 -2.1200304150
18.6569715851 -30.6165115123 -2.1200312886
18.6435405202 -30.8512194622 -2.1200315202
18.6864192656 -30.5123204402 -2.1200311858
18.6866132658 -30.4938197354 -2.1200311676
18.6864937862 -30.4660676120 -2.1200311402
18.6845455252 -30.4059719424 -2.1200310809
18.6491070664 -30.9249813108 -2.1200315930
18.6774065047 -30.1627360772 -2.1200308409
18.7162731190 -30.7315130574 -2.1200314021
18.7183831785 -30.7173641561 -2.1200313881
18.6476067713 -31.0804368347 -2.1200317464
18.6595742387 -31.0487416499 -2.1200317151
