33.8726721513 0.9928083902 -3.0000145176
33.8631456750 1.0138534913 -3.0000144968
33.8334509906 1.0764699733 -3.0000144350
33.7568355502 -1.4092716101 -3.0000168878
33.8991189287 -1.1330747790 -3.0000166153
34.0078019439 -0.8420124979 -3.0000163281
33.8342422336 1.1287967321 -3.0000143834
33.9990844048 -0.9459778702 -3.0000164307
33.9477677451 0.9404904827 -3.0000145692
33.8449209545 1.1607170917 -3.0000143519
33.8189319670 1.2090786341 -3.0000143041
33.8074883298 1.2296383047 -3.0000142839
34.0902964118 -0.7266633130 -3.0000162142
34.0933999570 0.5740350154 -3.0000149308
34.0622701909 0.6885936342 -3.0000148177
33.9996674710 -1.0815128683 -3.0000165644
34.0161156270 0.8995679577 -3.0000146096
34.0920780094 0.7562233484 -3.0000147510
33.8091271262 1.3691879179 -3.0000141462
33.8957399033 1.2699469332 -3.0000142441
33.8285195017 1.6010225003 -3.0000139174
33.8649338663 -1.7317013603 -3.0000172060
33.8844286476 -1.7035609460 -3.0000171782
34.1815585353 -1.2108492876 -3.0000166920
34.2471978501 -1.0419569027 -3.0000165254
33.8570982717 1.8425118048 -3.0000136791
33.7382725233 2.0514685066 -3.0000134729
33.9649874373 -2.0414641604 -3.0000175116
33.1930308870 -3.4022955716 -3.0000188544
33.2127154558 -3.3922001646 -3.0000188445
33.2238102452 -3.4136766851 -3.0000188657
33.2435616099 -3.4033989779 -3.0000188555
33.2534144034 -3.3982163482 -3.0000188504
33.2632518225 -3.3930045948 -3.0000188453
33.2448518007 -3.4299960446 -3.0000188818
33.3042080740 -3.3984372395 -3.0000188506
33.3552513422 -3.3979191017 -3.0000188501
33.3650874365 -3.3924060976 -3.0000188447
33.3749071793 -3.3868640206 -3.0000188392
33.0490145658 3.4110959382 -3.0000121313
33.0387097021 3.4156732462 -3.0000121268
33.0180595786 3.4247363115 -3.0000121178
33.3868194720 -3.4078981017 -3.0000188600
33.3966849478 -3.4022916697 -3.0000188544
33.4163659293 -3.3909913769 -3.0000188433
33.0795594404 3.4238684826 -3.0000121187
33.0692166595 3.4285360920 -3.0000121141
33.0484899012 3.4377794215 -3.0000121050
33.4284644186 -3.4119189148 -3.0000188639
33.4482018019 -3.4004304355 -3.0000188526
33.4678708701 -3.3888253843 -3.0000188411
33.4776795708 -3.3829792710 -3.0000188354
33.1516872669 3.4170601784 -3.0000121254
33.1413643107 3.4219411847 -3.0000121206
33.1103094414 3.4364006831 -3.0000121063
33.5097740933 -3.3918726670 -3.0000188442
33.2240688494 3.4087854056 -3.0000121336
33.2137700547 3.4138805659 -3.0000121285
33.2034562326 3.4189452383 -3.0000121236
33.1931274735 3.4239793784 -3.0000121186
33.1724255056 3.4339558856 -3.0000121087
33.1516648757 3.4438097385 -3.0000120990
33.2555000633 3.4200903969 -3.0000121224
33.2451676889 3.4252784870 -3.0000121173
33.2348200124 3.4304359894 -3.0000121122
33.6040311909 -3.3902919567 -3.0000188426
33.3181263952 3.4151160592 -3.0000121273
33.3078084618 3.4204894311 -3.0000121220
33.2767599216 3.4364260851 -3.0000121063
33.6465480286 -3.3917512073 -3.0000188440
33.3706876808 3.4146073987 -3.0000121278
33.3500380531 3.4256345757 -3.0000121170
33.3293235463 3.4365393897 -3.0000121062
33.4131772316 3.4190249391 -3.0000121235
33.4028473191 3.4246794715 -3.0000121179
33.3925007246 3.4303034214 -3.0000121123
33.3717578522 3.4414593770 -3.0000121013
33.4558918759 3.4229611167 -3.0000121196
33.4455501325 3.4287419895 -3.0000121139
33.4351913336 3.4344922442 -3.0000121082
33.7653817105 -3.3998737950 -3.0000188520
33.4988264016 3.4264122923 -3.0000121162
33.8086304899 -3.3994626865 -3.0000188516
33.7295427976 3.4566931282 -3.0000120863
33.4737364025 3.6062114665 -3.0000119388
34.0813004315 -3.3786140740 -3.0000188311
33.6165694692 3.5817492810 -3.0000119629
33.4966361184 3.6487901482 -3.0000118968
34.3382650841 3.0858248257 -3.0000124523
34.6244944245 2.8380039284 -3.0000126968
33.5083998140 3.6973367987 -3.0000118488
34.7565758528 3.0151916092 -3.0000125220
34.8733167814 2.9235308224 -3.0000126124
32.9335475657 -0.0241149172 -3.0000155210
33.8217623293 0.1717533492 -3.0000153277
33.8423878869 0.3372684823 -3.0000151644
33.8695435646 0.1431352262 -3.0000153560
33.8411313415 0.5746785035 -3.0000149301
33.8929526533 0.2906735383 -3.0000152104
33.9119799706 0.3840668916 -3.0000151182
33.8866023664 0.5963325164 -3.0000149088
33.8006939886 0.9492220967 -3.0000145606
33.7962474299 0.9627673979 -3.0000145472
33.7603575117 1.0634784652 -3.0000144478
33.8099674391 0.9976562695 -3.0000145128
33.9666146442 0.2496846231 -3.0000152508
33.9505029507 0.4889993383 -3.0000150147
33.9366274423 0.5898396130 -3.0000149152
33.8495014046 -0.6222439800 -3.0000161112
33.9586896133 -0.1960191270 -3.0000156906
33.8009238242 1.1575375975 -3.0000143550
33.9459087588 -0.3815759686 -3.0000158737
33.9745655135 -0.3653698553 -3.0000158577
34.0343020134 0.0415330713 -3.0000154562
33.7290442052 1.4189565683 -3.0000140970
34.0183936921 -0.2746892477 -3.0000157683
34.0600118174 0.3420884172 -3.0000151597
33.7502511108 1.4305583974 -3.0000140856
33.9763782139 -0.5457370927 -3.0000160357
34.1119817257 0.1830551519 -3.0000153166
34.0652316625 0.6960061814 -3.0000148104
33.9154698814 1.1968329465 -3.0000143162
33.8592412678 1.3235031143 -3.0000141912
33.9391445825 -0.7939675332 -3.0000162807
34.0973689968 0.6547035483 -3.0000148512
33.6955494619 1.7040918271 -3.0000138157
33.9306950712 -0.9889269666 -3.0000164730
33.8736491446 1.5071700843 -3.0000140100
34.0406546072 -0.8008272162 -3.0000162874
33.7541567852 -1.3802958514 -3.0000168592
33.8259316247 1.8964137565 -3.0000136259
33.9894602508 -1.2847313696 -3.0000167649
33.5739697277 3.3217149446 -3.0000122195
33.7254726121 3.3054625935 -3.0000122355
32.6296973026 -3.4640908618 -3.0000189154
32.6513818799 -3.4573963299 -3.0000189088
32.6622092209 -3.4540009831 -3.0000189055
32.6730264705 -3.4505736219 -3.0000189021
32.6803618597 -3.4736068012 -3.0000189248
32.7238000778 -3.4594894085 -3.0000189109
32.7346332937 -3.4558798264 -3.0000189073
32.7423085501 -3.4788019930 -3.0000189299
32.7531988151 -3.4751375750 -3.0000189263
32.7749465869 -3.4677121733 -3.0000189190
32.7858039035 -3.4639512546 -3.0000189153
32.7966500470 -3.4601582345 -3.0000189115
32.8074849227 -3.4563331461 -3.0000189078
32.8291204911 -3.4485868986 -3.0000189001
32.8807361944 -3.4553464013 -3.0000189068
33.9022671433 3.2943984500 -3.0000122464
33.8839439560 3.3085036477 -3.0000122325
32.9326955036 -3.4613927191 -3.0000189128
32.9632431606 -3.4753867803 -3.0000189266
32.9741223561 -3.4710688127 -3.0000189223
32.9849887307 -3.4667186814 -3.0000189180
32.9958421893 -3.4623364244 -3.0000189137
33.0376060661 -3.4713172473 -3.0000189225
33.0484728979 -3.4667793186 -3.0000189181
34.0204660938 3.2931676461 -3.0000122477
33.0905375808 -3.4751815078 -3.0000189264
33.1014156121 -3.4704869811 -3.0000189217
33.1122797086 -3.4657602959 -3.0000189171
33.1328718847 -3.4831244810 -3.0000189342
33.1763910420 -3.4636521132 -3.0000189150
32.9652675530 -3.5783838978 -3.0000190282
33.1973028432 -3.4806801451 -3.0000189318
33.3595521657 -3.4832558580 -3.0000189343
33.3813373559 -3.4722429242 -3.0000189235
33.4250522561 -3.4769249250 -3.0000189281
33.4689968365 -3.4811189110 -3.0000189322
33.5232931137 -3.4517268984 -3.0000189032
33.5575540549 -3.4880280935 -3.0000189390
33.8038488475 -3.3402133724 -3.0000187932
33.3347598763 -3.6299079276 -3.0000190790
33.7150297291 1.1336746947 -3.0000143786
33.9418011728 1.2960157988 -3.0000142184
33.6022472952 -1.1120903582 -3.0000165946
32.0691908693 -3.4711207373 -3.0000189224
32.0808729274 -3.4696340135 -3.0000189209
32.1042235940 -3.4665569256 -3.0000189178
32.1275556469 -3.4633417413 -3.0000189147
32.1543805413 -3.4839050782 -3.0000189350
32.1814680623 -3.5042881519 -3.0000189551
32.2285537835 -3.4968031653 -3.0000189477
32.2403111175 -3.4948449047 -3.0000189458
32.2520626073 -3.4928518724 -3.0000189438
32.2638081499 -3.4908240858 -3.0000189418
32.2755476425 -3.4887615626 -3.0000189398
32.3269425291 -3.5039150498 -3.0000189547
32.3387204709 -3.5016657064 -3.0000189525
32.3740136515 -3.4947087678 -3.0000189456
32.4142339832 -3.5110912192 -3.0000189618
32.4731521976 -3.4982045299 -3.0000189491
32.3284455586 -3.5774209014 -3.0000190272
32.7691601166 -3.5204018657 -3.0000189710
32.0840125749 -3.6885091792 -3.0000191369
32.4513339015 -3.6267709078 -3.0000190759
32.8784086315 -3.5369398345 -3.0000189873
32.2143514388 -3.7193459148 -3.0000191673
32.2670437948 -3.8089318754 -3.0000192557
32.2923986033 -3.8047473999 -3.0000192516
32.5147760061 -3.8603769044 -3.0000193065
33.6464784289 0.9536165571 -3.0000145562
33.6267826100 1.0864840223 -3.0000144251
33.5876047789 1.2572222364 -3.0000142566
33.6828176169 0.7735339209 -3.0000147339
33.6556717978 1.0617224124 -3.0000144496
33.6313178852 1.1834549582 -3.0000143294
33.6286050474 1.1949647704 -3.0000143181
33.6011395073 1.2977736115 -3.0000142166
33.7049668442 0.6304777843 -3.0000148751
33.7074495490 0.7321667179 -3.0000147747
33.6851431832 1.0302663928 -3.0000144806
33.6276808885 1.2931457791 -3.0000142212
33.7112335398 0.4424752623 -3.0000150606
33.7188712426 0.5025456834 -3.0000150013
33.7261382345 0.5809277866 -3.0000149240
33.7313764087 0.7624613184 -3.0000147448
33.6683778370 1.2355918920 -3.0000142780
33.5652073092 1.5391584471 -3.0000139784
33.5628074564 1.5447182361 -3.0000139730
33.5327333361 1.6108662176 -3.0000139077
33.7557683451 0.7199480237 -3.0000147868
33.7723946627 0.5526742377 -3.0000149519
33.7783601604 0.8127812976 -3.0000146952
33.7765732209 0.8499296955 -3.0000146585
33.7024315679 1.2954242967 -3.0000142189
33.7347287486 0.1926857290 -3.0000153071
33.7497443314 0.2535603661 -3.0000152470
33.8015402599 0.6256882231 -3.0000148798
33.5034960108 1.8188472232 -3.0000137025
33.7949136877 0.3537261606 -3.0000151482
33.8017745248 1.0669686105 -3.0000144444
33.7987067826 1.0857445539 -3.0000144258
33.7437799438 1.3267521984 -3.0000141880
33.7070432980 1.4414901281 -3.0000140748
33.5580237269 1.8215759036 -3.0000136998
33.5249380599 1.8765113839 -3.0000136456
33.8695437605 0.9071859356 -3.0000146020
33.7060585019 1.5785339217 -3.0000139396
33.5657288804 1.8560774190 -3.0000136657
33.8674461420 0.3474303180 -3.0000151544
33.8948960494 0.5685492263 -3.0000149362
33.8976059067 0.8502619691 -3.0000146582
33.8621551004 1.1429331120 -3.0000143694
33.5195524462 1.9735330977 -3.0000135498
33.5047179749 1.9951586998 -3.0000135285
33.9247373259 0.7654636133 -3.0000147419
33.8003250377 1.5381746709 -3.0000139794
34.0182949851 0.8567833496 -3.0000146518
34.0056058136 0.1799637781 -3.0000153196
34.0534798983 1.1718988475 -3.0000143408
34.0804134354 -0.0053102325 -3.0000155024
33.3048638654 -1.2444424884 -3.0000167252
34.2224892927 0.4384638355 -3.0000150646
34.3022789058 0.5074971916 -3.0000149964
31.4629090511 -3.4861450722 -3.0000189372
31.5003397400 -3.4879459527 -3.0000189390
31.5128200058 -3.4884724197 -3.0000189395
31.6002178272 -3.4911236781 -3.0000189421
31.6127070563 -3.4913546738 -3.0000189423
31.6626691666 -3.4919091769 -3.0000189429
31.7251252928 -3.4917709103 -3.0000189427
31.5746159478 -3.5147157836 -3.0000189654
31.7379196757 -3.5158035233 -3.0000189664
31.4982306817 -3.5362459837 -3.0000189866
31.5108538370 -3.5367784784 -3.0000189871
31.7255898564 -3.5401147342 -3.0000189904
31.7508565967 -3.5397971787 -3.0000189901
31.8771377985 -3.5359675918 -3.0000189863
31.8897584724 -3.5353792119 -3.0000189858
31.5225668812 -3.5614294609 -3.0000190115
31.5606633275 -3.5626979470 -3.0000190127
31.7004109481 -3.5644556609 -3.0000190144
32.1086925354 -3.5677828785 -3.0000190177
31.4693972020 -3.6074990435 -3.0000190569
31.7134382199 -3.6127349329 -3.0000190621
32.2514705725 -3.5756743964 -3.0000190255
32.3824564895 -3.5808846183 -3.0000190307
32.4079529419 -3.5766801056 -3.0000190265
31.4929580359 -3.6569960614 -3.0000191058
32.4631544764 -3.5916090384 -3.0000190412
32.5014817105 -3.5845291488 -3.0000190343
32.5142433065 -3.5820936342 -3.0000190319
32.1311857313 -3.6627056751 -3.0000191114
31.4777274043 -3.7047036825 -3.0000191528
31.5170970947 -3.7063644519 -3.0000191545
32.3551182712 -3.6585956873 -3.0000191073
32.7215790550 -3.6115802204 -3.0000190610
31.9532456524 -3.7498195223 -3.0000191974
32.0724236748 -3.7410788468 -3.0000191887
31.7818220830 -3.8051723265 -3.0000192520
31.9171717468 -3.8244523206 -3.0000192710
31.4438769692 -3.8482406651 -3.0000192945
32.6570822551 -3.7502370315 -3.0000191978
31.4970906551 -3.8749208894 -3.0000193208
33.0184923427 -3.6814959398 -3.0000191299
33.0315385219 -3.6775305900 -3.0000191260
31.6057154760 -3.9022366694 -3.0000193478
32.5194956112 -3.8270602756 -3.0000192736
33.1430830891 -3.6673662856 -3.0000191160
33.1820558516 -3.6542494278 -3.0000191031
31.4400705528 -3.9206597836 -3.0000193659
31.4388017474 -3.9447994898 -3.0000193898
33.5557285198 1.2126342647 -3.0000143006
33.5484201894 1.2581844727 -3.0000142557
33.5335537400 1.3336174006 -3.0000141813
33.5245491653 1.4645650325 -3.0000140520
33.5851795051 1.3234064894 -3.0000141913
33.5761135857 1.3645712674 -3.0000141507
33.6391776177 0.7970821920 -3.0000147107
33.6438597013 0.8609940404 -3.0000146476
33.5996577042 1.3700493842 -3.0000141453
33.4688482346 1.7421370394 -3.0000137781
33.6702516273 1.0057251102 -3.0000145048
33.6578282096 1.1783996765 -3.0000143344
33.6408226711 1.2907547731 -3.0000142236
33.5286840963 1.7282830784 -3.0000137918
33.6899359778 1.4083852232 -3.0000141075
33.6375661768 1.7207615302 -3.0000137992
33.6892133369 0.2652031439 -3.0000152355
33.8143151642 1.0384674499 -3.0000144725
34.0117440788 -0.1403015940 -3.0000156357
30.8466075541 -3.4655951800 -3.0000189169
30.8990537780 -3.4770547685 -3.0000189282
30.8413078209 -3.4891800928 -3.0000189402
31.4407967319 -3.5825316392 -3.0000190323
31.5214978166 -3.5889239102 -3.0000190386
31.5062738071 -3.6120664399 -3.0000190614
31.6678742717 -3.6452311549 -3.0000190942
31.8041887651 -3.6483449393 -3.0000190972
31.2708710507 -3.6374231789 -3.0000190865
30.8066700798 -3.5804790399 -3.0000190303
30.8148091548 -3.6071046566 -3.0000190565
32.0666681261 -3.7155852381 -3.0000191636
32.4145306372 -3.7101424889 -3.0000191582
30.7798226875 -3.6983246999 -3.0000191465
31.6897635121 -3.8153026013 -3.0000192620
32.6371899574 -3.7754716875 -3.0000192227
32.6791914399 -3.7682219542 -3.0000192155
32.7629931283 -3.7526057258 -3.0000192001
31.3463782740 -3.8406132973 -3.0000192869
31.7025031054 -3.8640559975 -3.0000193101
31.4582281099 -3.8750774337 -3.0000193210
31.2381373154 -3.9013039696 -3.0000193468
40.1698109361 -3.6434424472 -3.0000190924
40.1496725565 -3.7290549958 -3.0000191769
33.4913338736 1.3530248482 -3.0000141621
33.4819731459 1.4130469068 -3.0000141029
33.5251174276 1.2597299558 -3.0000142542
33.5140857344 1.3649936209 -3.0000141503
33.4965318273 1.4648950081 -3.0000140517
33.4867880176 1.5079130151 -3.0000140093
33.4846867907 1.5164809743 -3.0000140008
33.4722266615 1.5633718364 -3.0000139545
33.5453064883 1.0062283189 -3.0000145043
33.5494149784 1.0553615178 -3.0000144558
33.5499901021 1.0643079195 -3.0000144470
33.5509815114 1.0822101478 -3.0000144293
33.5527396614 1.1404517579 -3.0000143719
33.5492330658 1.2613946709 -3.0000142525
33.5081469835 1.5223080353 -3.0000139951
33.5617022601 0.9405331706 -3.0000145691
33.5663988178 0.9766599115 -3.0000145335
33.5725562698 1.0401125841 -3.0000144709
33.5746483315 1.0719209348 -3.0000144395
33.5759169905 1.0992148026 -3.0000144126
33.5271116537 1.5457873385 -3.0000139719
33.5807497177 0.9051264823 -3.0000146041
33.5829245698 0.9188313160 -3.0000145905
33.5976520589 1.0521172622 -3.0000144590
33.5594210132 1.5159799578 -3.0000140013
33.5954547470 0.8503846801 -3.0000146581
33.6082190928 0.9244370804 -3.0000145850
33.6102214925 0.9383849289 -3.0000145713
33.6114876248 0.9476931297 -3.0000145621
33.6248235904 1.1161770404 -3.0000143958
33.6104810872 1.3738264262 -3.0000141416
33.5911407064 1.4848580870 -3.0000140320
33.5840170915 0.7021878579 -3.0000148043
33.6448658549 1.0346042768 -3.0000144763
33.6350718117 1.3724020333 -3.0000141430
33.5928658045 0.6491425914 -3.0000148567
33.6230867535 1.5608308962 -3.0000139571
33.6247435103 0.6697314160 -3.0000148363
33.6896244738 0.9917926263 -3.0000145186
33.6809511550 1.3934545496 -3.0000141222
33.6591002612 0.7008795913 -3.0000148056
33.7045907054 0.9152022673 -3.0000145941
33.7215341671 1.1983904297 -3.0000143147
33.6500923864 0.5226692017 -3.0000149815
33.6538173348 0.5322205678 -3.0000149720
33.7902439319 1.0339549550 -3.0000144769
33.7938372728 1.1066263037 -3.0000144052
33.7735760483 1.4277828225 -3.0000140883
33.8291874793 0.9348990395 -3.0000145747
33.8518131548 0.9211867527 -3.0000145882
32.8864794957 -1.3036940756 -3.0000167836
33.1394070335 -1.2279638788 -3.0000167089
31.1482431466 -3.6610603136 -3.0000191098
30.6482258100 -3.5665368561 -3.0000190165
31.2299306693 -3.6999308310 -3.0000191481
30.5155380403 -3.5508788884 -3.0000190011
30.7117640664 -3.6098580649 -3.0000190593
31.1394677202 -3.7086032734 -3.0000191567
31.2115307513 -3.7213542318 -3.0000191693
31.9537084669 -3.8142596878 -3.0000192609
30.9857690120 -3.7271736464 -3.0000191750
31.2034594636 -3.7690217831 -3.0000192163
31.2764091081 -3.7808196702 -3.0000192279
30.1996483002 -3.5147919834 -3.0000189654
30.2550562911 -3.5362119911 -3.0000189866
30.5356834783 -3.6333985873 -3.0000190825
31.5032434459 -3.8834174918 -3.0000193292
31.0789987042 -3.8694204138 -3.0000193154
30.3263850524 -3.6910517864 -3.0000191394
30.0168860148 -3.8061584284 -3.0000192530
39.1941074712 -5.7581061448 -3.0000211790
33.4635850819 1.2160128495 -3.0000142973
33.4666290686 1.2656557205 -3.0000142483
33.4658565810 1.3793013098 -3.0000141362
33.4656591194 1.3828486501 -3.0000141327
33.4647643638 1.3970317041 -3.0000141187
33.4645144573 1.4005757358 -3.0000141152
33.4841764213 1.1779614879 -3.0000143349
33.4867388862 1.2032016829 -3.0000143099
33.4917730544 1.3081546907 -3.0000142064
33.4916895715 1.3299002933 -3.0000141849
33.4891242458 1.3950802683 -3.0000141206
33.4858497201 1.4348115550 -3.0000140814
33.4826571849 1.4636293083 -3.0000140530
33.5159589198 1.3117287927 -3.0000142029
33.5109469693 1.4261502755 -3.0000140899
33.5091653501 1.0351790357 -3.0000144757
33.5099856750 1.0388559968 -3.0000144721
33.5107951191 1.0425353685 -3.0000144685
33.5146788849 1.0609672578 -3.0000144503
33.5228844285 1.1054222286 -3.0000144064
33.5348856808 1.1988167892 -3.0000143143
33.5454482324 1.0938870909 -3.0000144178
33.5613823602 1.2272387983 -3.0000142862
33.5559884863 1.4610298446 -3.0000140555
33.5279423800 0.9188696268 -3.0000145905
33.5635917629 1.0590182989 -3.0000144522
33.5784349719 1.1516660887 -3.0000143608
33.5882513092 1.3389493428 -3.0000141760
33.5878674084 1.3545860378 -3.0000141606
33.5332347085 0.8588051746 -3.0000146498
33.5799209478 1.0192836613 -3.0000144914
33.5573475619 0.8544410369 -3.0000146541
33.6273873559 1.1537651726 -3.0000143587
33.6031645647 0.9168996863 -3.0000145925
33.5571810739 0.7254693935 -3.0000147813
33.5756558377 0.7677693398 -3.0000147396
33.6720138345 0.4766281274 -3.0000150269
33.9314127506 1.0576952244 -3.0000144535
33.9336246300 1.0724796293 -3.0000144389
32.7570094081 -1.1928707654 -3.0000166743
30.1443877109 -3.6851977939 -3.0000191336
29.9570454217 -3.7080895943 -3.0000191562
29.5949577853 -3.5527953789 -3.0000190029
29.5256730795 -3.5418939332 -3.0000189922
29.6122938342 -3.5897754458 -3.0000190394
29.4154088390 -3.5341569471 -3.0000189846
29.7645321372 -3.8040513167 -3.0000192509
38.2123289956 -5.5501175030 -3.0000209738
38.2439818098 -5.5866611822 -3.0000210099
38.2643700188 -5.5689488043 -3.0000209924
33.4292596917 1.3628020558 -3.0000141525
33.4420797224 1.2677764092 -3.0000142462
33.4510270890 1.3335464611 -3.0000141813
33.4571323248 1.2191250521 -3.0000142942
33.4728981283 1.3113964174 -3.0000142032
33.4774869081 1.3594143241 -3.0000141558
33.4711017658 1.1743245448 -3.0000143384
33.4854982335 1.2366765124 -3.0000142769
33.4968961041 1.3084925513 -3.0000142060
33.5043337134 1.2086670388 -3.0000143046
33.5004325458 1.1034164826 -3.0000144084
33.8803708388 1.2580073809 -3.0000142559
33.8822709128 1.2741091301 -3.0000142400
33.9309679823 1.1228840654 -3.0000143892
33.9572835049 1.1305332580 -3.0000143817
33.9768556205 1.2504152281 -3.0000142634
29.1388998836 -3.7468531608 -3.0000191944
36.8488897100 -6.8854400285 -3.0000222914
36.7575279206 -7.2025201181 -3.0000226043
36.8085067405 -7.1773017530 -3.0000225794
36.7694899141 -7.4921034192 -3.0000228901
36.8167768144 -7.5230796914 -3.0000229206
33.4366865080 1.3149160195 -3.0000141997
33.4429569922 1.3398742490 -3.0000141751
33.4283540542 1.2176006434 -3.0000142957
33.4487409770 1.2712753517 -3.0000142428
33.4572504852 1.2986996474 -3.0000142157
33.4442502766 1.1392901336 -3.0000143730
33.8623383086 1.2229265975 -3.0000142905
33.8684629068 1.0811459709 -3.0000144304
33.8927991470 1.1520907113 -3.0000143604
33.9004967998 1.1782599627 -3.0000143346
33.8741816812 1.0305739591 -3.0000144803
33.8959281537 1.0856096173 -3.0000144260
33.8994771876 1.0954320530 -3.0000144163
33.9098299368 1.0540325088 -3.0000144571
33.9198431987 1.0806322222 -3.0000144309
33.8900090714 0.9490843475 -3.0000145607
32.3008123506 -1.1644602498 -3.0000166462
40.2833499676 -0.4983629710 -3.0000159890
40.3007043418 -0.4317933753 -3.0000159233
40.3067139142 -0.5045646869 -3.0000159951
40.3241224052 -0.4377875050 -3.0000159292
40.4147476094 -0.2698635168 -3.0000157635
26.9643804409 -4.2265430756 -3.0000196678
26.3408115933 -3.5517614369 -3.0000190019
26.4619324466 -3.7029797780 -3.0000191511
27.1221256062 -4.5166512111 -3.0000199540
27.1936010231 -4.5833062652 -3.0000200198
27.2335200867 -4.6850478500 -3.0000201202
27.2701535474 -4.7178191017 -3.0000201525
41.0627809650 -0.4711095571 -3.0000159621
41.0685473589 -0.4466312581 -3.0000159379
41.0742413164 -0.4221360081 -3.0000159138
41.0685180079 -0.5502266787 -3.0000160401
41.0745184195 -0.5257310623 -3.0000160160
41.0858982769 -0.5805599132 -3.0000160701
35.7151779416 -6.6720389269 -3.0000220809
35.6991045242 -6.7034344682 -3.0000221118
35.7233307308 -6.6947956251 -3.0000221033
35.6582245408 -7.1519297327 -3.0000225544
35.4447953351 -7.5730338818 -3.0000229699
35.5589196189 -7.5641142241 -3.0000229611
33.8562139530 1.1523478878 -3.0000143601
40.9866626143 -1.9690592233 -3.0000174402
41.0221670826 -2.2978029398 -3.0000177646
41.0326668312 -2.3318031470 -3.0000177981
34.4080766042 -7.2585809051 -3.0000226596
41.0416883131 -2.4236928471 -3.0000178888
41.0322330076 -2.6560331214 -3.0000181181
33.8254709956 0.6653848431 -3.0000148406
33.8332912434 0.6297680896 -3.0000148758
33.8401138447 0.6417993396 -3.0000148639
33.8290831554 0.5765255197 -3.0000149283
33.8232149249 0.5249214863 -3.0000149792
33.8376422280 0.5036087182 -3.0000150003
33.8390419376 0.3172571994 -3.0000151842
32.5314373246 -0.1299228074 -3.0000156254
32.5512892781 -0.1893210670 -3.0000156840
32.5306979331 -0.2332567849 -3.0000157274
32.5230387286 -0.3588462595 -3.0000158513
31.8738305222 -1.3990994912 -3.0000168778
30.0219497039 -2.0427021175 -3.0000175129
26.5288065718 -1.8294835904 -3.0000173025
26.5374921878 -1.8486826610 -3.0000173214
26.5462345603 -1.8678559539 -3.0000173403
26.5242548899 -1.8779172349 -3.0000173503
26.5406409823 -2.0817992911 -3.0000175514
26.5379208500 -2.1308682701 -3.0000175999
26.5306007922 -2.3285501014 -3.0000177949
26.4972144255 -2.5208541985 -3.0000179847
26.4976614470 -2.5712466359 -3.0000180344
26.4875047006 -2.6024421408 -3.0000180652
26.4996626745 -2.6723917123 -3.0000181342
26.4847415424 -2.8374339497 -3.0000182971
26.4572054445 -3.0687556528 -3.0000185253
34.1453513377 -7.4517707896 -3.0000228503
34.2123470547 -7.5647248747 -3.0000229617
40.9411066728 -2.7787392824 -3.0000182391
34.1217894893 -7.6741305174 -3.0000230697
40.9628180880 -2.7893670635 -3.0000182496
40.9496319612 -2.8704928628 -3.0000183297
41.0337792093 -2.9720569819 -3.0000184299
33.4333589046 0.7757805860 -3.0000147317
33.4362061711 0.7221282999 -3.0000147846
33.4442404234 0.7394601273 -3.0000147675
33.4453847361 0.6374280373 -3.0000148682
33.4500140405 0.6452191702 -3.0000148605
33.4556705007 0.6550342197 -3.0000148509
33.4473465545 0.5953359693 -3.0000149098
33.4714529995 0.5879956273 -3.0000149170
33.4589596643 0.5281013785 -3.0000149761
33.8572218251 0.6678762866 -3.0000148382
33.8645436826 0.6900673135 -3.0000148163
33.8709783338 0.6343565472 -3.0000148713
33.8721515216 0.6375581828 -3.0000148681
33.8733152332 0.6407632749 -3.0000148649
33.8744694585 0.6439717955 -3.0000148618
33.8767494098 0.6503990095 -3.0000148554
33.8731915689 0.5742087015 -3.0000149306
33.8785389647 0.5870662694 -3.0000149179
33.9018442020 0.6489605171 -3.0000148568
33.8826120780 0.5355126558 -3.0000149688
33.8826687668 0.4797650045 -3.0000150238
33.9046179341 0.5255087775 -3.0000149787
33.8744964949 0.4135238202 -3.0000150892
33.8684200664 0.3562870694 -3.0000151456
33.8821912321 0.3787767661 -3.0000151234
33.8917412054 0.3950130278 -3.0000151074
33.9065186479 0.4212796587 -3.0000150815
33.9010950954 0.0756257337 -3.0000154226
33.8990339657 0.0366647530 -3.0000154610
32.2797221520 -1.4954926328 -3.0000169729
32.0887844165 -1.4995743729 -3.0000169769
32.2606173065 -1.5902785462 -3.0000170664
31.9702870343 -1.5653366414 -3.0000170418
31.6773420843 -1.5333214517 -3.0000170102
31.8462757716 -1.6257620415 -3.0000171014
26.6739279476 -2.9404777269 -3.0000183987
26.6731384371 -3.0708949546 -3.0000185274
26.6623817220 -3.1840898769 -3.0000186391
26.6550098269 -3.2159591445 -3.0000186706
35.4579862022 -7.2170118817 -3.0000226186
35.4823782139 -7.2090812367 -3.0000226108
35.4630597551 -7.3169559929 -3.0000227172
35.5370516242 -7.2928988036 -3.0000226935
35.4951876963 -7.3320094073 -3.0000227321
35.5673565898 -7.3847191367 -3.0000227841
35.6171073446 -7.3681357183 -3.0000227677
33.4321350874 0.7075722400 -3.0000147990
33.4574215152 0.7098471060 -3.0000147968
33.4636383436 0.7407041271 -3.0000147663
33.4683717793 0.7691674321 -3.0000147382
33.4462529473 0.5857732983 -3.0000149192
33.4883710314 0.7416554033 -3.0000147654
33.4650556121 0.5670633479 -3.0000149377
33.4698900440 0.5800220180 -3.0000149249
33.4996279585 0.6779041877 -3.0000148283
33.5058111048 0.7048656844 -3.0000148017
33.5161855909 0.7620133738 -3.0000147453
33.4892997901 0.4431789747 -3.0000150599
33.5268778431 0.4651384125 -3.0000150382
33.8514342390 0.7156616676 -3.0000147910
33.8734069410 0.5782930810 -3.0000149266
33.8752901244 0.5858837040 -3.0000149191
33.9154179463 0.6579984596 -3.0000148479
33.9175168775 0.6697582245 -3.0000148363
33.8970047962 0.4846543758 -3.0000150190
36.7090026526 -6.7024898852 -3.0000221109
36.7094933100 -6.8120124443 -3.0000222190
33.4412235878 0.8708931984 -3.0000146379
33.4572707879 0.6982182302 -3.0000148082
33.4640662363 0.7680772848 -3.0000147393
33.4653138427 0.7924630215 -3.0000147152
33.4654292062 0.7955131145 -3.0000147122
33.4901007265 0.8133705949 -3.0000146946
33.4902487385 0.8414834249 -3.0000146669
33.4899316030 0.8602231956 -3.0000146484
33.5052026808 0.6919035829 -3.0000148145
33.5092257878 0.7268192258 -3.0000147800
33.5144535038 0.8352874509 -3.0000146730
33.5139128578 0.8672346276 -3.0000146415
33.5155184424 0.6082439516 -3.0000148970
33.5384942925 0.8157388571 -3.0000146923
33.5548003204 0.6988377859 -3.0000148076
33.5182979227 0.4410577879 -3.0000150620
33.5217333804 0.4506930658 -3.0000150525
33.5715973619 0.6453312106 -3.0000148604
33.5284880066 0.2299356291 -3.0000152703
33.6343686173 0.4854903857 -3.0000150181
33.8755778055 0.7677955400 -3.0000147396
33.8768448238 0.8573984077 -3.0000146512
33.8974423314 0.7277164512 -3.0000147791
33.9011553618 0.8187540214 -3.0000146893
33.9131934288 0.6426030728 -3.0000148631
33.9253635231 0.8229302765 -3.0000146852
33.9241085061 0.3582580298 -3.0000151437
33.9460886541 0.4337476566 -3.0000150692
34.0604965392 0.6529181940 -3.0000148529
32.8460367648 -1.6883241450 -3.0000171632
31.0021111657 -3.8525062703 -3.0000192987
30.9394313408 -3.8582638715 -3.0000193044
31.0229279449 -3.8840562015 -3.0000193298
30.4511190497 -3.7790586791 -3.0000192262
30.3657858284 -3.9001455165 -3.0000193457
37.7221226871 -6.0384220123 -3.0000214556
37.8432447776 -5.9434905216 -3.0000213620
37.5930533678 -6.1658958874 -3.0000215814
37.6755062471 -6.1043651956 -3.0000215207
37.5866116555 -6.2006265301 -3.0000216157
37.7311437520 -6.0924358540 -3.0000215089
37.7605148213 -6.1308374349 -3.0000215468
37.6653718964 -6.3526376674 -3.0000217657
37.7077929073 -6.3215631484 -3.0000217350
33.4691551828 0.7020622361 -3.0000148044
33.4531886692 0.9030984559 -3.0000146061
33.4924366568 0.6628350430 -3.0000148432
33.4910823489 0.7835728633 -3.0000147240
33.4908587227 0.7871186503 -3.0000147205
33.4903800082 0.7942081620 -3.0000147135
33.5105049098 0.5787695337 -3.0000149261
33.4984113943 0.9253273575 -3.0000145841
33.5324280526 0.5578272199 -3.0000149468
33.5463879922 0.4878298463 -3.0000150158
33.5554833554 0.5474117272 -3.0000149570
33.5658642701 0.7051978934 -3.0000148014
33.5536875283 0.4047220110 -3.0000150978
33.5824954595 0.4218927644 -3.0000150809
33.6089440004 0.5917813642 -3.0000149133
33.9253741061 0.8103179761 -3.0000146976
33.9637003944 0.4999720988 -3.0000150039
31.5363461893 -3.7146773046 -3.0000191627
31.3879563371 -3.7114221461 -3.0000191595
31.5717805170 -3.7450749494 -3.0000191927
31.2520418380 -3.7062675031 -3.0000191544
32.3300016479 -3.8511630768 -3.0000192974
30.8753104327 -3.6510390132 -3.0000190999
30.2612668639 -3.5890384289 -3.0000190387
30.3864806989 -3.7250414691 -3.0000191729
38.5893227938 -5.2856650360 -3.0000207129
38.5622950035 -5.6239030134 -3.0000210466
33.4998257949 0.7931160937 -3.0000147146
33.5426742020 0.5955682212 -3.0000149095
33.5395581851 0.6643981126 -3.0000148416
33.5314687645 0.7450494384 -3.0000147620
33.5162905010 0.8370153408 -3.0000146713
33.4916507604 0.9394559350 -3.0000145702
33.4848509548 0.9628060182 -3.0000145472
33.5639553655 0.6619830165 -3.0000148440
33.5423685244 0.8296160525 -3.0000146786
33.5137947838 0.9499772148 -3.0000145598
33.4686669163 1.0827025080 -3.0000144288
33.5903721791 0.5168210123 -3.0000149872
33.5904337512 0.6175136281 -3.0000148879
33.5046041380 1.0563423277 -3.0000144549
33.4848454546 1.1071880773 -3.0000144047
33.5911109352 0.3040370619 -3.0000151972
33.5914327352 0.8302965159 -3.0000146779
33.5670871036 0.9385306775 -3.0000145711
33.6279048557 0.7532368795 -3.0000147539
33.6454973615 1.0932186252 -3.0000144185
31.4940361681 -3.5507238951 -3.0000190009
31.1376684338 -3.5008528969 -3.0000189517
31.8847240813 -3.6205496995 -3.0000190698
30.9512059576 -3.4740742426 -3.0000189253
30.9871255043 -3.4847553384 -3.0000189358
31.2288380758 -3.5477676858 -3.0000189980
31.2410174921 -3.5505418564 -3.0000190007
31.7959006184 -3.6377650718 -3.0000190868
31.8706052511 -3.6437905016 -3.0000190927
30.9924011540 -3.5114654534 -3.0000189622
31.4079838747 -3.6093633397 -3.0000190588
30.9614304358 -3.5275913660 -3.0000189781
32.1448416384 -3.7028671553 -3.0000191510
32.2711765815 -3.7018232171 -3.0000191500
32.2971369724 -3.7253288810 -3.0000191732
31.1326559882 -3.6242142761 -3.0000190734
30.9902338073 -3.6114171540 -3.0000190608
32.8265258450 -3.7504386729 -3.0000191980
31.3946493934 -3.7543511932 -3.0000192018
31.0713783968 -3.7084559672 -3.0000191565
31.5580424012 -3.8050076175 -3.0000192518
32.4311425262 -3.8404286089 -3.0000192868
31.4897122677 -3.8193232581 -3.0000192659
31.5807025152 -3.8325249308 -3.0000192790
31.0977318322 -3.7649849175 -3.0000192123
31.3383472303 -3.8422828573 -3.0000192886
32.1301439356 -3.9203134571 -3.0000193656
31.7833126877 -3.9278557087 -3.0000193730
30.8662294005 -3.8019114576 -3.0000192488
39.4656326520 -4.0313902789 -3.0000194752
39.4860790597 -4.0442852273 -3.0000194879
39.5065254674 -4.0571801757 -3.0000195006
39.3934118886 -4.4468880974 -3.0000198852
39.4082153422 -4.4255060480 -3.0000198641
39.3002369467 -4.7013755329 -3.0000201363
39.4275474525 -4.5666296886 -3.0000200033
39.4166902504 -4.6235431742 -3.0000200595
39.3044176320 -4.9364457922 -3.0000203683
32.9328050281 -0.5092016415 -3.0000159997
33.5980807831 0.3745339248 -3.0000151276
33.5392204803 0.8261912367 -3.0000146820
33.6225923984 0.4104487510 -3.0000150922
33.4928057767 1.0254522259 -3.0000144853
33.6658085561 0.2791868817 -3.0000152217
33.6707822901 0.4293513268 -3.0000150735
33.6663180766 0.5278706566 -3.0000149763
33.6598833675 0.7419515915 -3.0000147651
33.5723080296 1.0238948769 -3.0000144869
33.6916773147 0.1074560207 -3.0000153912
33.4883120051 1.2449051022 -3.0000142688
33.4688263402 -1.8253208514 -3.0000172984
31.7460579423 -3.4870605182 -3.0000189381
31.7806267955 -3.4898987459 -3.0000189409
31.7921551758 -3.4907766341 -3.0000189417
31.6051368830 -3.4966373115 -3.0000189475
31.7323846040 -3.5101229575 -3.0000189608
31.8367786983 -3.5180725866 -3.0000189687
31.8832365300 -3.5207130813 -3.0000189713
31.9994893325 -3.5249079061 -3.0000189754
31.7418881023 -3.5352264145 -3.0000189856
31.9521735092 -3.5478024541 -3.0000189980
32.0457883576 -3.5497946044 -3.0000190000
32.1633169538 -3.5733369497 -3.0000190232
31.5963218966 -3.5686186532 -3.0000190186
31.6551727120 -3.5753842833 -3.0000190252
32.0097919242 -3.5976451224 -3.0000190472
32.1282648178 -3.5980630917 -3.0000190476
32.6663656185 -3.6044876462 -3.0000190540
32.7019403312 -3.5991540354 -3.0000190487
31.6594184627 -3.6487593672 -3.0000190976
31.7915866319 -3.6603984698 -3.0000191091
32.5981341117 -3.6381861968 -3.0000190872
31.9958892857 -3.6940808013 -3.0000191424
32.1050870506 -3.6949506057 -3.0000191432
32.6973263438 -3.6487680112 -3.0000190976
32.8289453462 -3.6266395084 -3.0000190758
31.7394550555 -3.7048417728 -3.0000191530
31.8977880943 -3.7150160928 -3.0000191630
31.8231486048 -3.7352024519 -3.0000191829
31.8721765722 -3.7379890238 -3.0000191857
32.9367325058 -3.7287026433 -3.0000191765
31.8045537695 -3.8308989983 -3.0000192774
31.5640002797 -3.8325502395 -3.0000192790
31.5890906195 -3.8355475473 -3.0000192820
31.7903620283 -3.8541724575 -3.0000193003
33.2418493691 -3.7542514267 -3.0000192017
33.4495506418 -3.6907458095 -3.0000191391
34.0014973048 -3.5439724529 -3.0000189942
34.0705996240 -3.5367538766 -3.0000189871
40.0289510309 -3.0633338348 -3.0000185200
40.1933408140 -2.6595279858 -3.0000181215
40.2068202029 -2.6921215562 -3.0000181537
40.0850227715 -3.1160438446 -3.0000185720
40.2793234724 -2.6367362120 -3.0000180990
40.1884916716 -2.9349208464 -3.0000183933
39.9871312324 -3.4422532634 -3.0000188939
40.0650824630 -3.3351902307 -3.0000187882
39.9367905665 -3.6503988639 -3.0000190993
39.9582671131 -3.6614936027 -3.0000191102
40.0058534155 -3.5680268332 -3.0000190180
40.1419308082 -3.2843401383 -3.0000187380
33.6568114343 0.9420148530 -3.0000145677
33.7564637927 -0.2757999403 -3.0000157694
32.2303462654 -3.4782707233 -3.0000189294
32.2961463581 -3.4740190934 -3.0000189252
32.3071052558 -3.4731969728 -3.0000189244
32.2427339567 -3.5017747562 -3.0000189526
32.3750746911 -3.4916498781 -3.0000189426
32.4630661678 -3.4822930976 -3.0000189334
32.5872624883 -3.4899337481 -3.0000189409
32.6202614155 -3.4847860302 -3.0000189358
32.5687167486 -3.5171242392 -3.0000189677
32.6351531233 -3.5068610295 -3.0000189576
32.3257228253 -3.5687305656 -3.0000190187
32.4603875902 -3.5556181670 -3.0000190057
32.5869001904 -3.5633177499 -3.0000190133
32.6653437079 -3.5508430261 -3.0000190010
32.6740182059 -3.6719460894 -3.0000191205
32.8217601058 -3.6937839662 -3.0000191421
33.3356174558 -3.5531394849 -3.0000190033
32.9122373958 -3.7733981397 -3.0000192206
33.8576378335 -3.5457662321 -3.0000189960
40.5898802704 -1.2582422224 -3.0000167388
40.5657675485 -1.5157998167 -3.0000169929
40.6266106636 -1.1860925175 -3.0000166676
40.6466288580 -1.0586973172 -3.0000165419
40.5279277681 -1.7983957827 -3.0000172718
40.6504622719 -1.1900213932 -3.0000166715
40.4317736023 -2.3365590819 -3.0000178028
40.4542280704 -2.2618411467 -3.0000177291
40.7534861573 -0.9955764563 -3.0000164796
40.7697203133 -1.2096657717 -3.0000166909
40.5394588980 -2.3144609483 -3.0000177810
40.3967593280 -2.8218167877 -3.0000182816
40.4146742213 -2.7722255995 -3.0000182327
40.5268067239 -2.6712163060 -3.0000181330
33.7593800034 0.4441514323 -3.0000150589
33.6424920656 0.7929445873 -3.0000147148
33.8501206681 -0.0299101509 -3.0000155267
32.8077088828 -3.4538872803 -3.0000189053
32.8339969856 -3.4725549409 -3.0000189238
32.8444074105 -3.4700666967 -3.0000189213
32.8652059504 -3.4649978752 -3.0000189163
32.8859741375 -3.4598060912 -3.0000189112
32.9170679167 -3.4517882594 -3.0000189033
32.9336253009 -3.4724164444 -3.0000189236
32.9648291134 -3.4639752387 -3.0000189153
32.9855895067 -3.4581940685 -3.0000189096
33.0442347047 -3.4663728940 -3.0000189177
33.1137486438 -3.4702938924 -3.0000189215
33.1241511561 -3.4669781020 -3.0000189183
33.1837290296 -3.4728472095 -3.0000189241
33.2936765389 -3.4854271731 -3.0000189365
33.3249816360 -3.4737902022 -3.0000189250
33.3649057736 -3.4844199435 -3.0000189355
33.3961991272 -3.4721508928 -3.0000189234
32.9552746678 -3.6416787377 -3.0000190907
33.4260563668 -3.4862300282 -3.0000189373
33.2971741447 -3.6639149395 -3.0000191126
33.4384737329 -3.7409929618 -3.0000191886
40.7128001113 -0.6545935757 -3.0000161431
40.6763067887 -1.1977006067 -3.0000166790
40.6799534696 -1.1720233451 -3.0000166537
40.7002346094 -1.2011349451 -3.0000166824
40.7109762345 -1.1238588785 -3.0000166062
40.7566574471 -0.7103100818 -3.0000161981
40.7766879906 -0.4249540522 -3.0000159165
40.7780483082 -0.3989832260 -3.0000158909
40.6133349936 -1.8204157661 -3.0000172935
40.7450166598 -1.0494996513 -3.0000165328
40.7977110642 -0.7926046051 -3.0000162793
40.8070400365 -0.6884242545 -3.0000161765
40.8370796194 -0.0616886535 -3.0000155581
40.8264431376 -0.9802205911 -3.0000164644
40.7532528396 -1.7425608971 -3.0000172167
40.7738252484 -1.6388400941 -3.0000171143
40.7822080878 -1.7214267140 -3.0000171958
33.7391079226 -0.1432498669 -3.0000156386
33.7323860045 0.0154586539 -3.0000154820
33.7496248557 -0.3558646484 -3.0000158484
33.7736098532 -0.3588738308 -3.0000158513
33.7868600184 -0.0907351494 -3.0000155867
33.8100472201 -0.2129101540 -3.0000157073
33.7681960990 -0.6299251239 -3.0000161188
33.7869745177 -0.6522589551 -3.0000161408
33.8190292197 -0.5246454957 -3.0000160149
33.8183178656 0.2536692051 -3.0000152469
33.7860299483 0.3812238576 -3.0000151210
33.7724398028 -0.7751867741 -3.0000162621
33.6881969086 0.6980627846 -3.0000148084
33.9264487068 0.0154549822 -3.0000154820
33.7608163502 0.6577968882 -3.0000148481
33.9301566594 0.1833895268 -3.0000153162
33.8354576443 0.5397231665 -3.0000149646
33.9396322918 -0.5384802584 -3.0000160286
33.9991995533 0.0153054375 -3.0000154821
33.7044093370 0.9170459483 -3.0000145923
34.3440258239 -0.8966511143 -3.0000163820
34.4159148271 -0.6224978023 -3.0000161115
34.4033755793 -0.8691611203 -3.0000163549
34.3504952961 -1.1526500169 -3.0000166346
34.4368769289 0.6494923149 -3.0000148563
34.4030390101 0.8148211087 -3.0000146932
34.2644704926 -1.7452774445 -3.0000172194
34.3088058010 -1.8078435396 -3.0000172811
34.3070743734 -1.8911715951 -3.0000173633
34.3746897621 1.5244517923 -3.0000139930
33.4022535981 -3.4228737160 -3.0000188747
33.4119672711 -3.4187298394 -3.0000188707
33.4507490631 -3.4282609977 -3.0000188801
33.5190391105 -3.4240652004 -3.0000188759
33.5876320747 -3.4184752137 -3.0000188704
33.7062616575 -3.4131800805 -3.0000188652
33.7871634268 -3.4250033344 -3.0000188768
33.9177848554 3.3823641769 -3.0000121596
33.9606682595 3.3864012265 -3.0000121557
34.0037729369 3.3899526657 -3.0000121522
34.0261723048 3.4050271641 -3.0000121373
34.0696877496 3.4078541356 -3.0000121345
34.8490068166 3.0503875266 -3.0000124872
40.7379938420 -0.5815720264 -3.0000160711
40.7404704046 -0.5299045810 -3.0000160201
40.7436119894 -0.4523782009 -3.0000159436
40.7445062779 -0.4265302555 -3.0000159181
40.7467303146 -0.3489721301 -3.0000158416
40.7492953989 -0.1420854954 -3.0000156374
40.7491716138 -0.0903588780 -3.0000155864
40.7451234287 -0.8415820450 -3.0000163276
40.7528468888 -0.7381308435 -3.0000162256
40.7545864449 -0.7122543294 -3.0000162000
40.7607789769 -0.6087002108 -3.0000160978
40.7667958683 -0.4791664170 -3.0000159700
40.7677692998 -0.4532497723 -3.0000159445
40.7686660609 -0.4273303614 -3.0000159189
40.7694861437 -0.4014084111 -3.0000158933
40.7732856700 -0.1939686162 -3.0000156886
40.7650585795 0.2468019419 -3.0000152537
40.7599023791 0.3504128319 -3.0000151514
40.7732441134 -0.7916675694 -3.0000162784
40.7909504948 -0.4801094462 -3.0000159710
40.7928258438 -0.4281304672 -3.0000159197
40.7854458521 0.3257888421 -3.0000151757
40.7739782890 0.5074690956 -3.0000149965
40.8140492372 -0.5071090264 -3.0000159976
40.8178102319 -0.4028656778 -3.0000158947
40.8109200309 0.3010179833 -3.0000152002
40.7941081394 0.5612454312 -3.0000149434
40.7898224280 0.6132248664 -3.0000148921
40.8269493320 -0.7170114407 -3.0000162047
40.8392597476 -0.4819955047 -3.0000159728
40.8323092378 0.3544457406 -3.0000151475
40.8275990931 0.4327523143 -3.0000150702
40.8093019678 0.6673780838 -3.0000148387
40.7936365815 0.8234887203 -3.0000146846
40.7847654664 0.9014336256 -3.0000146077
40.7718619801 1.0052318685 -3.0000145053
40.8176664469 0.8261156680 -3.0000146820
40.7816628867 1.1122775166 -3.0000143997
40.7741173023 1.1641736775 -3.0000143485
40.8018499683 1.1417093085 -3.0000143706
40.7941299022 1.1937243879 -3.0000143193
40.7901545006 1.2197145720 -3.0000142937
40.8567822855 0.9099539133 -3.0000145993
40.8744207840 0.9652801182 -3.0000145447
40.8496929568 1.1486655709 -3.0000143638
40.9047934983 0.9156341051 -3.0000145937
33.7087126064 -0.2878381937 -3.0000157812
33.7231700813 -0.5013017073 -3.0000159919
33.7260519155 0.2048423374 -3.0000152951
33.8246536352 -0.4541095697 -3.0000159453
33.8086901922 -0.0443469951 -3.0000155410
33.7771259628 -1.2216948275 -3.0000167027
34.1035250552 -3.2963377160 -3.0000187499
33.1598718600 3.4542105622 -3.0000120888
33.1487078057 3.4574811538 -3.0000120855
33.2338893809 3.4569578902 -3.0000120860
33.2003411418 3.4673272737 -3.0000120758
33.2971755108 3.4619687709 -3.0000120811
33.2859879056 3.4656454976 -3.0000120775
33.2635803108 3.4728995861 -3.0000120703
33.3720556070 3.4620302033 -3.0000120810
33.3608674925 3.4659284387 -3.0000120772
33.3496678952 3.4697935604 -3.0000120734
33.2596695201 3.4995184502 -3.0000120440
33.4249480012 3.4688260093 -3.0000120743
33.4137395520 3.4728806801 -3.0000120703
33.4025191574 3.4769021766 -3.0000120664
33.3912869156 3.4808904635 -3.0000120624
33.3575200902 3.4926557195 -3.0000120508
33.5006010012 3.4663724054 -3.0000120768
33.4781853497 3.4748962042 -3.0000120683
33.4557196609 3.4832872354 -3.0000120601
33.5205151870 3.4846041741 -3.0000120588
33.6943864000 3.4917788901 -3.0000120517
33.7304204856 3.7390085348 -3.0000118077
40.6187711583 0.6278573864 -3.0000148777
40.6121663328 1.0398489491 -3.0000144711
40.6081117899 1.0651753395 -3.0000144461
40.6789602492 0.7380050718 -3.0000147690
40.6725609019 0.7890462056 -3.0000147186
40.6360410474 1.0436348815 -3.0000144674
40.6558386113 1.0728884225 -3.0000144385
40.5326100830 1.8924041409 -3.0000136299
40.6293115417 1.5951712726 -3.0000139232
40.7107685177 1.3194841608 -3.0000141952
40.6803399116 1.4729624644 -3.0000140438
40.6261782800 1.9167835794 -3.0000136058
40.5941329501 2.1257760675 -3.0000133996
40.6173742249 2.1324227529 -3.0000133930
40.5877785793 2.2336399345 -3.0000132932
40.5168236325 2.4600507969 -3.0000130697
40.5479956057 2.4424556989 -3.0000130871
40.5315144481 2.4926921712 -3.0000130375
33.6517372499 -0.8151312299 -3.0000163015
33.7343293418 -0.5321768383 -3.0000160223
32.5056758371 3.4758122021 -3.0000120674
32.4352887282 3.4819796430 -3.0000120614
32.6374950092 3.4852376178 -3.0000120581
32.5079994557 3.4998732926 -3.0000120437
32.7232271985 3.4976366281 -3.0000120459
32.8333147475 3.5040455987 -3.0000120396
32.7742128330 3.5141147235 -3.0000120296
32.5924441573 3.6124928536 -3.0000119326
32.8220189117 3.6532058596 -3.0000118924
33.3006691849 3.5684342829 -3.0000119760
32.6186747917 3.7311253530 -3.0000118155
32.6017499378 3.8060563132 -3.0000117416
33.7530981053 3.5914714256 -3.0000119533
40.4149976086 1.7866485784 -3.0000137342
40.2308110233 2.5859331807 -3.0000129455
40.3325563048 2.3769720047 -3.0000131517
40.3120080079 2.5063793477 -3.0000130240
40.1290091032 3.5377125560 -3.0000120064
40.1938027713 3.5702824520 -3.0000119742
40.2342590684 3.6509136210 -3.0000118947
33.5295371080 -1.0670975955 -3.0000165502
33.5915790131 -0.7701279655 -3.0000162571
33.5953337052 -0.7216349668 -3.0000162093
33.5005039902 -1.2092415924 -3.0000166904
33.5472725007 -1.0902774423 -3.0000165730
33.6213381808 -0.5993808188 -3.0000160887
33.6174002770 -0.9240575756 -3.0000164090
33.6424964668 -0.7412606333 -3.0000162287
33.6671913631 -0.7344682234 -3.0000162219
33.6701139246 -0.6619801881 -3.0000161504
33.6856166533 -0.8008852953 -3.0000162875
33.6919171132 -0.5539113763 -3.0000160438
33.7184544314 -0.6627126729 -3.0000161511
33.8151523780 -0.6172097003 -3.0000161062
33.8021754622 -0.2952895650 -3.0000157886
32.0326698004 3.5054287155 -3.0000120382
31.8367484044 3.4915665647 -3.0000120519
32.1919917327 3.5340276593 -3.0000120100
32.1672966877 3.5337443400 -3.0000120103
32.0315348001 3.5295750828 -3.0000120144
31.9452398517 3.5246228780 -3.0000120193
31.7730500247 3.5093641205 -3.0000120343
32.3408100820 3.5568235223 -3.0000119875
31.8940604414 3.5450877739 -3.0000119991
32.5285910236 3.5717790997 -3.0000119727
32.4163613465 3.5783008123 -3.0000119663
32.5428440387 3.5949763901 -3.0000119499
32.1913743103 3.6065441149 -3.0000119384
32.7708734701 3.5961689657 -3.0000119487
32.8368999107 3.6115978599 -3.0000119335
32.7865489349 3.6185105447 -3.0000119266
32.9493231756 3.6675096468 -3.0000118783
31.9321620339 3.7175643944 -3.0000118289
33.1193131118 3.6602435431 -3.0000118854
32.1122007066 3.7502216445 -3.0000117967
31.9953683600 3.7455955917 -3.0000118012
32.8540474241 3.7312404310 -3.0000118154
33.2828652817 3.6728449801 -3.0000118730
33.2701021299 3.6759479774 -3.0000118700
32.6095726528 3.7836160534 -3.0000117637
31.8466175123 3.8079752497 -3.0000117397
33.0868787848 3.7653979424 -3.0000117817
32.6689837253 3.8509571391 -3.0000116973
31.8824094862 3.8593849523 -3.0000116889
31.8291933985 3.8549863164 -3.0000116933
32.0672989486 3.9181320111 -3.0000116310
31.7577732856 3.8966920067 -3.0000116521
31.6907234469 3.8892478484 -3.0000116595
33.8988351670 3.6296779394 -3.0000119156
34.0087457743 3.6112290590 -3.0000119338
31.7799281105 3.9475094250 -3.0000116020
33.8652839447 3.6943801101 -3.0000118518
39.7129703537 3.5899136381 -3.0000119548
39.6495877164 3.7001634762 -3.0000118461
39.6730514620 3.8030211610 -3.0000117446
39.6598752657 3.8250269152 -3.0000117228
39.6272041144 4.0165875907 -3.0000115338
39.5855870465 4.0820721600 -3.0000114692
39.6199063549 4.0732809240 -3.0000114779
39.5665093668 4.2873125654 -3.0000112667
39.6647536815 4.2266017169 -3.0000113266
39.7052080825 4.2530740150 -3.0000113005
33.4473974882 -1.1480530184 -3.0000166301
33.4485084689 -1.1448292688 -3.0000166269
33.4757089389 -1.0533395242 -3.0000165366
33.4884947946 -0.9968065866 -3.0000164808
33.4904552577 -0.9867667891 -3.0000164709
33.5092749336 -0.8311702225 -3.0000163174
33.5108522692 -0.7698210500 -3.0000162568
33.4644226089 -1.1723684889 -3.0000166540
33.5101064833 -1.0117767437 -3.0000164956
33.5233344271 -0.9363522874 -3.0000164212
33.5281011477 -0.8983572446 -3.0000163837
33.5335918205 -0.8289577669 -3.0000163152
33.5345423773 -0.8046074751 -3.0000162912
33.5346370027 -0.8011274378 -3.0000162877
33.5322289199 -0.6897926736 -3.0000161779
33.4987704409 -1.1470440322 -3.0000166291
33.5073523355 -1.1199486221 -3.0000166023
33.5462473976 -0.9467832596 -3.0000164315
33.5521319399 -0.9009756997 -3.0000163863
33.5588358977 -0.7413569514 -3.0000162287
33.5388535740 -0.5507524606 -3.0000160407
33.5194365490 -1.1614923480 -3.0000166433
33.5414465353 -1.0886458806 -3.0000165714
33.5503417879 -1.1445945948 -3.0000166266
33.6310812316 -0.8111442570 -3.0000162976
33.6531665453 -0.5055743886 -3.0000159961
33.6372110244 -0.4370284601 -3.0000159284
33.5985826166 -0.3139571107 -3.0000158070
33.7014672738 -0.8571855969 -3.0000163430
33.7023944456 -0.8412851677 -3.0000163274
