52.8950535230 -18.9369972500 -1.7700197400
54.4547172373 -18.6630731694 -1.7700194697
54.0637478778 -18.6771651953 -1.7700194836
53.6465268033 -18.7269898543 -1.7700195327
53.3619859623 -18.7821061067 -1.7700195871
52.8874152451 -18.9140627347 -1.7700197173
53.6282623190 -18.7054992830 -1.7700195115
53.1868709364 -18.7998374868 -1.7700196046
52.6877022314 -18.9595480299 -1.7700197622
53.7110531767 -18.6680235536 -1.7700194746
52.6928119307 -18.9317737602 -1.7700197348
52.6381407126 -18.9527191064 -1.7700197555
52.5973020351 -18.9688518426 -1.7700197714
54.4991232886 -18.5909228322 -1.7700193985
53.6638939673 -18.6507658974 -1.7700194575
53.6893566799 -18.6223844598 -1.7700194295
52.9130609272 -18.8039764691 -1.7700196087
52.6343555597 -18.9023272671 -1.7700197058
55.1801386610 -18.5976905568 -1.7700194052
55.1507519909 -18.5933723526 -1.7700194009
55.1213402873 -18.5892280854 -1.7700193968
54.2911545583 -18.5200652998 -1.7700193286
53.3011044002 -18.6472186169 -1.7700194540
53.1273710503 -18.6905784215 -1.7700194968
55.3057139782 -18.5690712877 -1.7700193769
52.7771570331 -18.7728089733 -1.7700195780
52.6362145483 -18.8239564054 -1.7700196284
54.6362089786 -18.4736051271 -1.7700192827
52.6276332678 -18.8013578013 -1.7700196061
54.9542021100 -18.4718286580 -1.7700192810
54.1076371800 -18.4559975634 -1.7700192653
53.8212909956 -18.4824834893 -1.7700192915
53.1378262848 -18.6127757852 -1.7700194200
52.9340057241 -18.6707503197 -1.7700194772
54.0454028030 -18.4361320307 -1.7700192457
53.9393402610 -18.4453098747 -1.7700192548
52.7166719958 -18.6915232012 -1.7700194977
52.7957559099 -18.6388485510 -1.7700194458
52.5503257873 -18.7275035050 -1.7700195333
53.7026435955 -18.4005598738 -1.7700192106
52.4805488669 -18.6770961907 -1.7700194835
55.7160279046 -18.4087776655 -1.7700192187
52.5945336326 -18.5814360193 -1.7700193891
52.4771802406 -18.6263958264 -1.7700194335
54.3459563598 -18.2286740685 -1.7700190410
52.9169780902 -18.3982228202 -1.7700192083
56.1841726100 -18.4459460961 -1.7700192554
54.8880434756 -18.1743668514 -1.7700189874
53.3132598232 -18.2731593058 -1.7700190849
53.2351507952 -18.2903373310 -1.7700191019
52.6815520277 -18.4478024598 -1.7700192573
52.7193731305 -18.4095033979 -1.7700192195
53.2874431647 -18.2292391791 -1.7700190416
53.1301999682 -18.2655314218 -1.7700190774
53.2032510688 -18.2232500367 -1.7700190357
52.3907387376 -18.4526687662 -1.7700192621
55.8792840388 -18.2263885994 -1.7700190388
53.4928222259 -18.0909884877 -1.7700189052
56.3167406475 -18.3130761992 -1.7700191243
52.4714377333 -18.3435526151 -1.7700191544
56.8910576108 -18.4484438826 -1.7700192579
53.5180582684 -17.9396926055 -1.7700187559
52.7751454773 -18.0368912825 -1.7700188518
53.0100415369 -17.9218041958 -1.7700187382
56.0934019889 -23.7521535359 -1.7700244913
56.1354870035 -23.4163812600 -1.7700241600
56.1601948896 -23.3047004532 -1.7700240498
56.1549997492 -23.2035674407 -1.7700239500
56.0789826554 -23.9817521130 -1.7700247179
55.8468239395 -22.2616002736 -1.7700230205
55.9686216625 -24.2899156577 -1.7700250220
55.9741426711 -24.2797829996 -1.7700250120
56.1617585750 -23.7788854662 -1.7700245177
56.2070313928 -23.4419394118 -1.7700241852
56.2052325947 -23.2285787011 -1.7700239747
56.1945481816 -23.1136995123 -1.7700238613
56.2120348780 -23.6406465586 -1.7700243813
56.1078020738 -24.1105447137 -1.7700248450
56.2574635110 -23.3555207809 -1.7700241000
56.2541936942 -23.2373311144 -1.7700239833
56.2370580369 -23.0667767441 -1.7700238150
56.0264101278 -24.3352765878 -1.7700250667
56.1928875169 -24.3833874198 -1.7700251142
56.4979347810 -23.2764675023 -1.7700240220
55.9412936953 -21.6606409330 -1.7700224275
56.3640759931 -21.4384723254 -1.7700222083
56.8179854027 -20.2395695802 -1.7700210253
54.1757926070 -18.9364256368 -1.7700197394
54.1627318576 -18.9366903273 -1.7700197397
53.6939914266 -18.9719070933 -1.7700197744
53.4360072742 -19.0129633047 -1.7700198149
54.1884715348 -18.9120295828 -1.7700197153
54.1490749207 -18.9128279985 -1.7700197161
54.0047181502 -18.9187456965 -1.7700197220
53.8344733630 -18.9317895529 -1.7700197348
53.4831803058 -18.9797306638 -1.7700197821
54.3993660141 -18.8895159083 -1.7700196931
54.3861655190 -18.8891194334 -1.7700196927
54.3465578052 -18.8881643281 -1.7700196918
54.0824802404 -18.8907813370 -1.7700196944
53.8058791701 -18.9103286705 -1.7700197137
54.4664664318 -18.8679367896 -1.7700196718
53.4486020056 -18.9368435870 -1.7700197398
54.6008259801 -18.8519390534 -1.7700196560
54.4008889006 -18.8411938435 -1.7700196454
54.3608552943 -18.8401099636 -1.7700196444
54.1873238923 -18.8395195803 -1.7700196438
54.7096110064 -18.8372405678 -1.7700196415
53.9991864538 -18.8222119467 -1.7700196267
53.5324489264 -18.8732929731 -1.7700196771
53.4662913383 -18.8845249534 -1.7700196882
54.8326696268 -18.8268619802 -1.7700196313
54.7120132944 -18.8131872043 -1.7700196178
54.6448376936 -18.8069795463 -1.7700196117
54.5102478091 -18.7975480672 -1.7700196024
54.3619492896 -18.7917762869 -1.7700195967
54.2540182140 -18.7906108429 -1.7700195955
54.8222526908 -18.8011942068 -1.7700196060
54.1176351928 -18.7444226051 -1.7700195499
54.5552945524 -18.7275889908 -1.7700195333
54.4183956669 -18.7208407116 -1.7700195267
53.4089458747 -18.7966813151 -1.7700196015
55.1711406272 -18.7841548047 -1.7700195892
55.1894535091 -18.7631832439 -1.7700195685
55.3085008129 -18.7393513281 -1.7700195449
53.6954610747 -18.6550543403 -1.7700194618
53.5429579542 -18.6758665051 -1.7700194823
53.6646636805 -18.6344855026 -1.7700194415
53.9639739755 -18.4610609561 -1.7700192703
53.7041025203 -18.4836805082 -1.7700192927
53.4172322325 -18.5249930900 -1.7700193334
53.3744312569 -18.5326510628 -1.7700193410
54.6610170608 -18.4444741174 -1.7700192540
53.3987354683 -18.5037021118 -1.7700193124
55.9048425993 -18.6856898582 -1.7700194920
53.9610653572 -18.4128024742 -1.7700192227
53.8734562127 -18.4188635765 -1.7700192287
55.0735559046 -18.4468876677 -1.7700192564
54.7528521912 -18.4042800253 -1.7700192143
54.0624382246 -18.3835435455 -1.7700191938
54.0910233460 -18.3583097078 -1.7700191689
54.9378911609 -18.3530744511 -1.7700191638
53.4954060353 -18.3652357312 -1.7700191758
55.1485081078 -18.3616816429 -1.7700191723
54.2834809726 -18.2830351965 -1.7700190947
54.2684869049 -18.2829841841 -1.7700190946
53.6105239109 -18.3245944992 -1.7700191357
56.2341145382 -18.6575028025 -1.7700194642
54.5094826784 -18.2649780886 -1.7700190769
55.1162857088 -18.2824787758 -1.7700190941
54.1773776572 -18.2110995590 -1.7700190237
54.6503017001 -18.2011452506 -1.7700190139
54.5893308028 -18.1968726728 -1.7700190096
53.9784868652 -18.1938909676 -1.7700190067
53.4016838796 -18.2578813617 -1.7700190698
55.2036719765 -18.0523119445 -1.7700188670
56.2408876234 -23.4433396702 -1.7700240674
56.1424375703 -23.8980724387 -1.7700245161
56.1454818805 -23.9549629387 -1.7700245723
56.3772795395 -23.3293472324 -1.7700239549
56.3824054523 -22.9479795967 -1.7700235786
56.0757695158 -21.7800547534 -1.7700224262
54.2204711280 -19.0318817085 -1.7700197144
54.1842910658 -19.0311813042 -1.7700197137
54.3544053627 -19.0130612468 -1.7700196958
54.5382673826 -19.0032860898 -1.7700196862
54.4410123240 -18.9946198359 -1.7700196776
54.3557663998 -18.9889265652 -1.7700196720
57.0886401286 -20.2046731317 -1.7700208716
54.6261045892 -18.9887600382 -1.7700196718
54.5651194921 -18.9817763282 -1.7700196649
54.5529104508 -18.9804878716 -1.7700196637
54.4795810254 -18.9735160707 -1.7700196568
54.3816379437 -18.9662468641 -1.7700196496
54.7147199483 -18.9761216073 -1.7700196594
54.6045087193 -18.9618463396 -1.7700196453
54.3091581128 -18.9381679850 -1.7700196219
54.8040727401 -18.9653967650 -1.7700196488
54.3474483353 -18.9158415748 -1.7700195999
54.8941215039 -18.9566105979 -1.7700196401
54.8326315874 -18.9456663308 -1.7700196293
54.7091998086 -18.9265119619 -1.7700196104
54.2613808523 -18.8879423817 -1.7700195724
54.5129047259 -18.8794106845 -1.7700195639
55.0638172986 -18.9421501336 -1.7700196258
55.0020949443 -18.9286975818 -1.7700196126
55.1062841314 -18.9271276658 -1.7700196110
54.2764479864 -18.8158957793 -1.7700195013
55.2233975347 -18.9313966660 -1.7700196152
55.2110365810 -18.9281611244 -1.7700196120
55.1118154347 -18.9035959857 -1.7700195878
54.2517678699 -18.7909034090 -1.7700194766
55.2419737554 -18.9113109771 -1.7700195954
55.0797840639 -18.8714106118 -1.7700195560
54.6495264625 -18.7967994331 -1.7700194824
54.1625620242 -18.7650002252 -1.7700194510
54.3564757898 -18.7468713588 -1.7700194332
55.3669933172 -18.8962062162 -1.7700195805
55.4985608813 -18.9118585478 -1.7700195960
55.4238644597 -18.8881139836 -1.7700195725
54.7230851377 -18.7332043423 -1.7700194197
54.3851404508 -18.7000651983 -1.7700193870
54.6873043350 -18.7040779478 -1.7700193909
55.0935086807 -18.7506227591 -1.7700194369
54.7950017687 -18.6947556503 -1.7700193817
55.6591740777 -18.8906755873 -1.7700195751
55.6341941067 -18.8816635964 -1.7700195662
55.0598410990 -18.7185445465 -1.7700194052
54.8059102742 -18.6230617032 -1.7700193110
55.7849649461 -18.8606603809 -1.7700195454
54.5304303967 -18.5411903882 -1.7700192302
54.3409890395 -18.5282567976 -1.7700192174
54.4510256312 -18.5105748502 -1.7700192000
54.2194914831 -18.4999213787 -1.7700191895
56.0333807773 -18.8336774493 -1.7700195188
55.9083931805 -18.6235092080 -1.7700193114
56.1178012792 -18.2649550171 -1.7700189576
55.7806539892 -22.4915730145 -1.7700232475
55.9580833276 -22.5203715042 -1.7700232759
55.9509978876 -22.2763195352 -1.7700230351
56.2023397710 -22.2777284802 -1.7700230364
56.2728424790 -23.3252775554 -1.7700240701
56.3199165755 -22.7128083460 -1.7700234658
56.2979030152 -23.3236553964 -1.7700240685
56.3146238607 -23.2362979387 -1.7700239823
56.2978586668 -23.4296094027 -1.7700241731
56.2298005992 -22.0421823543 -1.7700228040
56.3377268352 -23.3677716515 -1.7700241121
56.3989321304 -23.1648608367 -1.7700239118
56.3734852723 -22.0130674967 -1.7700227753
56.4271246631 -23.5931142377 -1.7700243344
56.2754619231 -24.0215356996 -1.7700247572
56.5572329871 -25.7352180764 -1.7700264481
54.9111138502 -19.0363068768 -1.7700198380
54.9956985041 -19.0318246883 -1.7700198335
54.9731203013 -19.0262072975 -1.7700198280
54.9505092593 -19.0207235851 -1.7700198226
55.0808419208 -19.0292221613 -1.7700198310
55.1665023208 -19.0285204585 -1.7700198303
55.1212620215 -19.0153985564 -1.7700198173
55.0019223327 -18.9586255763 -1.7700197613
55.2940032210 -19.0177338246 -1.7700198196
55.3583679971 -19.0139260971 -1.7700198159
55.3129415787 -18.9985349729 -1.7700198007
55.2673362256 -18.9836824327 -1.7700197860
55.4117712644 -19.0071003057 -1.7700198091
55.3890395019 -18.9990217214 -1.7700198012
55.3662603416 -18.9910777672 -1.7700197933
55.4768858699 -19.0052537717 -1.7700198073
55.5537094259 -19.0089746611 -1.7700198110
55.5423544427 -19.0044986708 -1.7700198066
55.5196050026 -18.9956475580 -1.7700197978
55.5082107448 -18.9912725130 -1.7700197935
55.6081588695 -19.0048450414 -1.7700198069
55.5854103270 -18.9956046015 -1.7700197978
55.5626075130 -18.9864989113 -1.7700197888
55.2615978736 -18.8805257018 -1.7700196842
55.1082602256 -18.8362960512 -1.7700196406
55.0369398840 -18.8178781385 -1.7700196224
55.6629174025 -19.0014699736 -1.7700198036
55.3978297195 -18.8996844474 -1.7700197032
55.2214708391 -18.8431130151 -1.7700196473
55.7065891210 -18.9938943060 -1.7700197961
55.6723448479 -18.9792110752 -1.7700197816
55.8175495134 -18.9906484726 -1.7700197929
55.2541234141 -18.7771739703 -1.7700195823
55.9181771084 -18.9849338989 -1.7700197873
55.9631520501 -18.9801678397 -1.7700197826
55.5788592537 -18.7336921588 -1.7700195394
56.2028738310 -18.9702465847 -1.7700197728
56.1914014429 -18.9638504181 -1.7700197665
56.5208825533 -18.9349543879 -1.7700197380
55.8017691222 -22.5904355098 -1.7700232258
55.9947348650 -22.6162598886 -1.7700232513
56.2096160586 -22.4508849757 -1.7700230881
56.2779425969 -22.3861866174 -1.7700230243
56.2025650190 -21.9601247010 -1.7700226038
56.3239919300 -22.7828002365 -1.7700234156
56.3515082250 -22.7432309879 -1.7700233766
56.3552823101 -22.6804791543 -1.7700233147
56.3216738426 -23.2027666428 -1.7700238300
56.3830085483 -23.0479730140 -1.7700236773
56.3984649266 -22.9629743631 -1.7700235934
56.3664043846 -23.2224732680 -1.7700238495
56.3480157115 -21.7752349555 -1.7700224214
56.3741884649 -23.3629718450 -1.7700239881
56.4877463164 -22.2949003485 -1.7700229342
56.4785164609 -22.2213370082 -1.7700228616
56.4078205546 -21.8024280071 -1.7700224482
56.5224479860 -22.9526233217 -1.7700235832
56.3807693481 -21.6525116908 -1.7700223003
56.3377196492 -21.5476547273 -1.7700221968
56.4946909910 -23.2103145458 -1.7700238375
56.5200078742 -23.2088534283 -1.7700238360
56.4371119014 -21.5975183563 -1.7700222460
56.5205993560 -21.7582914297 -1.7700224047
56.5921563522 -21.8275421026 -1.7700224730
56.7353398130 -22.7959017605 -1.7700234285
56.6975549583 -23.1945822517 -1.7700238219
56.8412639012 -22.5516484195 -1.7700231875
56.3039721225 -20.9062101240 -1.7700215639
55.6930442384 -25.9022806846 -1.7700264938
55.7127288073 -25.8921852776 -1.7700264838
55.7225486076 -25.8870939454 -1.7700264788
55.7730871328 -25.8877488764 -1.7700264794
55.4878516039 -19.0885284196 -1.7700197703
55.4775459407 -19.0841320838 -1.7700197659
55.8651007880 -25.8923912106 -1.7700264840
55.8749205308 -25.8868491336 -1.7700264786
55.8847238361 -25.8812780324 -1.7700264731
55.5284046943 -19.0797650624 -1.7700197616
55.4973695479 -19.0663080680 -1.7700197484
55.5795727918 -19.0761166304 -1.7700197580
55.5485032527 -19.0622056915 -1.7700197443
55.5381194567 -19.0576300522 -1.7700197398
55.9776929222 -25.8829643840 -1.7700264747
55.6517006184 -19.0829249346 -1.7700197648
55.6413776621 -19.0780439283 -1.7700197599
55.7137834061 -19.0861045471 -1.7700197679
55.7034695841 -19.0810398747 -1.7700197629
55.6827972191 -19.0710021709 -1.7700197530
55.6620658295 -19.0610869475 -1.7700197432
55.7658303967 -19.0851133486 -1.7700197669
55.7451810403 -19.0747066260 -1.7700197566
55.7974880295 -19.0741528559 -1.7700197561
55.7871384859 -19.0688406224 -1.7700197509
55.7767732731 -19.0635590279 -1.7700197456
56.1661756276 -25.8789579381 -1.7700264708
55.8707010322 -19.0853777143 -1.7700197672
55.8500514045 -19.0743505373 -1.7700197563
55.9028606705 -19.0753056415 -1.7700197572
55.9352046850 -19.0654928688 -1.7700197476
56.0543010878 -26.0342909223 -1.7700266240
56.2850552856 -25.8863773237 -1.7700264781
56.0091743717 -19.0795112841 -1.7700197614
56.0419889014 -19.0706102314 -1.7700197526
56.0749787763 -19.0619760102 -1.7700197441
56.7805506615 -25.5823971237 -1.7700261781
56.8510517481 -25.5156748378 -1.7700261123
56.1289097997 -19.0661648719 -1.7700197482
56.2814748458 -19.0767049321 -1.7700197586
56.5813137829 -25.8785991870 -1.7700264704
56.3392086038 -19.0568964540 -1.7700197391
56.6802513987 -19.0631109183 -1.7700197452
57.6327746937 -19.6593449865 -1.7700203335
55.7812921084 -22.6393943720 -1.7700232741
55.8245553268 -22.5210873186 -1.7700231574
56.3199209858 -22.1982731640 -1.7700228388
56.3161383663 -21.9222839669 -1.7700225665
56.3127348052 -21.9018240299 -1.7700225463
56.4179473363 -22.2369510782 -1.7700228770
56.4096613851 -22.0875114834 -1.7700227295
56.3961676766 -21.9670977427 -1.7700226107
56.4400308578 -22.1788039775 -1.7700228196
56.2979588079 -21.4683973209 -1.7700221186
56.3710328273 -22.9757165485 -1.7700236060
56.3055021861 -21.4192848876 -1.7700220702
56.4616172745 -21.9136225346 -1.7700225580
56.3254590699 -21.4038107390 -1.7700220549
56.3606998243 -23.4115248020 -1.7700240360
56.5353673284 -21.4909941683 -1.7700221409
56.6023308282 -21.5450934814 -1.7700221943
56.5302427070 -21.2645402481 -1.7700219175
56.3700294317 -20.5820495146 -1.7700212440
55.1513570843 -25.9573951147 -1.7700265482
55.1621844254 -25.9539997679 -1.7700265448
55.1838087385 -25.9471130612 -1.7700265380
55.1912122319 -25.9701244403 -1.7700265607
55.2129314360 -25.9630657130 -1.7700265538
55.2237752823 -25.9594881933 -1.7700265502
56.3089426598 -19.1955356391 -1.7700198759
55.3074601271 -25.9563319309 -1.7700265471
55.3182836401 -25.9524748077 -1.7700265433
56.3417609828 -19.1898691991 -1.7700198703
55.1619118278 -26.0300505267 -1.7700266199
55.3481789354 -25.9673743161 -1.7700265580
55.3590349356 -25.9633966910 -1.7700265541
55.3782960715 -25.9820472923 -1.7700265725
56.4353965810 -19.2007904560 -1.7700198811
55.4632183650 -25.9753855652 -1.7700265659
55.4740975606 -25.9710675976 -1.7700265617
55.4958173937 -25.9623352092 -1.7700265530
55.5066578413 -25.9579208649 -1.7700265487
55.5267010624 -25.9758217950 -1.7700265663
55.5484481023 -25.9667781034 -1.7700265574
55.5593014625 -25.9622080485 -1.7700265529
55.5701412562 -25.9576059074 -1.7700265484
55.6122549131 -25.9657590807 -1.7700265564
55.6754461610 -25.9906029061 -1.7700265809
55.6972780477 -25.9806789299 -1.7700265711
55.7081718778 -25.9756685483 -1.7700265662
55.7728727954 -25.9719287904 -1.7700265625
55.7942615442 -25.9884581195 -1.7700265788
55.8269635484 -25.9724694263 -1.7700265630
56.7171365531 -19.2148956503 -1.7700198950
55.9141289686 -25.9825755840 -1.7700265730
55.9250274606 -25.9769237098 -1.7700265674
56.0131410677 -25.9848199671 -1.7700265752
55.7791044028 -26.1292947366 -1.7700267178
56.0465973425 -25.9940706682 -1.7700265844
56.0575292594 -25.9880268783 -1.7700265784
56.1469417784 -25.9929403150 -1.7700265832
56.1578699125 -25.9865996931 -1.7700265770
56.7053519436 -26.0340653354 -1.7700266238
55.7884819452 -22.4986358544 -1.7700231352
56.1792359870 -22.7093660121 -1.7700233432
56.2688790536 -21.7252747183 -1.7700223721
56.2101533384 -21.4363725758 -1.7700220870
56.3233217536 -21.7720096775 -1.7700224182
56.0799569146 -23.1701537083 -1.7700237978
56.1456405624 -20.9957676834 -1.7700216523
56.2410535546 -20.9164396922 -1.7700215740
56.5976449342 -19.3295386570 -1.7700200081
54.5575082790 -25.9725813528 -1.7700265632
54.5808767421 -25.9696424691 -1.7700265603
54.5925543510 -25.9681211941 -1.7700265587
54.5957125044 -25.9920870313 -1.7700265824
54.6309301740 -25.9872870635 -1.7700265777
54.6543843559 -25.9839135339 -1.7700265743
54.7012307914 -25.9767504864 -1.7700265673
54.7363082026 -25.9710147069 -1.7700265616
54.6814718770 -26.0042966076 -1.7700265944
54.7638119646 -25.9908325415 -1.7700265812
54.7755514572 -25.9887700183 -1.7700265791
54.7088208258 -26.0244970308 -1.7700266144
54.8975113530 -25.9899053779 -1.7700265802
54.5932257191 -26.0655427678 -1.7700266549
54.6410423110 -26.0590976631 -1.7700266485
54.8716800805 -26.0444904302 -1.7700266341
55.1024575492 -26.0166479398 -1.7700266066
54.6876018949 -26.1256108123 -1.7700267142
55.2573286811 -26.0239329011 -1.7700266138
55.2809887092 -26.0168527462 -1.7700266068
54.6947679067 -26.1734228338 -1.7700267613
54.8295240018 -26.1509783285 -1.7700267392
55.3472918591 -26.0215727624 -1.7700266115
55.4573596356 -26.0359890274 -1.7700266257
55.1386648066 -26.1570940315 -1.7700267452
55.5129187907 -26.0420778694 -1.7700266317
54.9218192898 -26.2316739999 -1.7700268188
55.5688147995 -26.0474108232 -1.7700266370
55.6131073170 -26.0565559635 -1.7700266460
55.6935042765 -26.0510030580 -1.7700266405
54.9614751268 -26.2975761407 -1.7700268838
55.7384218792 -26.0588039770 -1.7700266482
55.2757525861 -26.2702559584 -1.7700268569
56.1081093183 -26.0758964117 -1.7700266651
55.8339355784 -26.2547211623 -1.7700268416
56.2489010013 -26.1119526444 -1.7700267007
55.7846602704 -22.6053213653 -1.7700232405
56.2072407224 -21.7977645058 -1.7700224436
56.0808009929 -21.0648306300 -1.7700217204
56.1606834662 -21.2351333316 -1.7700218885
56.2527694758 -21.6575752723 -1.7700223053
56.2364327399 -21.4868444512 -1.7700221368
56.2658522386 -21.5265908490 -1.7700221761
56.2636160955 -21.5081299274 -1.7700221578
56.2226427636 -21.2825862106 -1.7700219353
56.1955984556 -21.1807503037 -1.7700218348
56.1787613609 -20.9190138127 -1.7700215765
56.3738947661 -22.1137784571 -1.7700227555
56.3891240193 -21.9967680373 -1.7700226400
56.3097467243 -21.1405110916 -1.7700217951
56.6648775693 -22.4754109360 -1.7700231123
56.4110829862 -23.4209838272 -1.7700240454
56.9129757800 -24.8643489296 -1.7700254696
53.9641683199 -25.9620169510 -1.7700265527
54.1126975195 -25.9913662587 -1.7700265817
54.1251873774 -25.9915603079 -1.7700265819
54.1376777546 -25.9917174091 -1.7700265820
54.0118273847 -26.0126370339 -1.7700266027
54.0871655420 -26.0150339960 -1.7700266050
54.1248476076 -26.0157309479 -1.7700266057
54.1374094874 -26.0158889484 -1.7700266059
54.2253480378 -26.0159544072 -1.7700266059
54.3132690907 -26.0141990125 -1.7700266042
54.3383809016 -26.0133631144 -1.7700266034
54.0487224442 -26.0381634668 -1.7700266279
54.0992427595 -26.0394716766 -1.7700266292
54.3518819684 -26.0370439213 -1.7700266268
54.3645059025 -26.0365302198 -1.7700266263
54.3401322383 -26.0616774389 -1.7700266511
54.5050447340 -26.0525218131 -1.7700266420
54.5430430274 -26.0495088455 -1.7700266391
54.5810130862 -26.0461587830 -1.7700266358
54.6189519198 -26.0424718894 -1.7700266321
54.5068485236 -26.0766274478 -1.7700266658
54.6975952596 -26.0580906915 -1.7700266475
54.7483059380 -26.0517197417 -1.7700266412
54.4573784634 -26.1042649081 -1.7700266931
54.6238416297 -26.0905700376 -1.7700266796
54.7769289551 -26.0722565165 -1.7700266615
54.0843942556 -26.1358673607 -1.7700267243
54.4975702978 -26.1257837794 -1.7700267143
54.8058145954 -26.0926036641 -1.7700266816
54.7577712311 -26.1236184605 -1.7700267122
54.9887034289 -26.0869384865 -1.7700266760
54.5531312404 -26.1699522347 -1.7700267579
54.9931295903 -26.1107028375 -1.7700266994
55.0316249876 -26.1033560995 -1.7700266922
55.0700536708 -26.0956680257 -1.7700266846
54.9846393324 -26.1368531374 -1.7700267252
55.1263100232 -26.1085103832 -1.7700266973
55.1647807193 -26.0999818299 -1.7700266889
54.0285335323 -26.2551688226 -1.7700268420
54.1081735558 -26.2572310794 -1.7700268440
55.2400948518 -26.1320001844 -1.7700267205
56.6018141252 -25.5513758888 -1.7700261475
53.9743399736 -26.2771556386 -1.7700268637
54.8396562343 -26.2342486225 -1.7700268214
54.3354760538 -26.3037153978 -1.7700268899
55.4656948011 -26.1467721219 -1.7700267350
54.4454835083 -26.3471417626 -1.7700269327
55.3941785167 -26.1921374754 -1.7700267798
55.5503852394 -26.1464201201 -1.7700267347
55.5054249537 -26.1854342642 -1.7700267732
55.5835946886 -26.1612953715 -1.7700267494
54.4071706232 -26.3975674433 -1.7700269825
54.0501954048 -26.4251540941 -1.7700270097
54.3532672639 -26.4240348724 -1.7700270086
54.6718465147 -26.4258359082 -1.7700270104
54.3411054768 -26.4728329263 -1.7700270568
54.8401701006 -26.4295447369 -1.7700270141
55.2912569592 -26.3434560820 -1.7700269291
54.1880152413 -26.4996097606 -1.7700270832
55.3241232331 -26.3602893728 -1.7700269457
54.3848774011 -26.5195613937 -1.7700271029
54.9303610839 -26.4649219681 -1.7700270490
55.1379150050 -26.4272167471 -1.7700270118
55.3026263163 -26.3904462814 -1.7700269755
54.1315076094 -26.5476628143 -1.7700271306
54.2021867829 -26.5479245090 -1.7700271309
54.7942349525 -26.5089026203 -1.7700270924
55.9411503837 -26.2133816845 -1.7700268008
55.9805196664 -26.1976177504 -1.7700267852
54.1312393423 -26.5718343537 -1.7700271545
54.2164834250 -26.5720238909 -1.7700271547
55.1476094813 -26.4745808501 -1.7700270585
55.5472238819 -26.3747594735 -1.7700269600
54.4449831357 -26.5892718082 -1.7700271717
56.0119141231 -26.2370332165 -1.7700268241
55.2694939651 -26.4975953693 -1.7700270812
55.3253650307 -26.4844266804 -1.7700270682
56.1136424019 -26.2204176709 -1.7700268077
54.9063314626 -26.6886707290 -1.7700272698
56.3488889135 -26.2455436123 -1.7700268325
55.2106969745 -26.7083874173 -1.7700272892
55.6943978002 -26.6079333867 -1.7700271901
55.6716749212 -26.7412562419 -1.7700273216
56.0061490320 -26.8089986033 -1.7700273885
57.1230489839 -26.3370612713 -1.7700269228
56.0731131993 -21.2427965602 -1.7700220152
56.0105396341 -20.9908101530 -1.7700217666
56.1211876511 -21.6060944745 -1.7700223737
56.1221935337 -21.5692256277 -1.7700223373
56.0446514637 -21.0184250129 -1.7700217938
56.0181096899 -20.9384158973 -1.7700217149
56.1421788551 -21.6656619250 -1.7700224325
56.1453435668 -21.6070038813 -1.7700223746
56.1150833046 -21.2031090527 -1.7700219761
56.0121875270 -20.8554724995 -1.7700216330
56.0101579650 -20.8505326382 -1.7700216282
55.9688425126 -20.7578690619 -1.7700215367
56.1685570941 -21.6295408348 -1.7700223968
56.1529299587 -21.2840400147 -1.7700220559
56.1325080951 -21.1667607079 -1.7700219402
56.1291333849 -21.1508792079 -1.7700219245
56.1907823095 -21.6635809439 -1.7700224304
56.1921259203 -21.6416880351 -1.7700224088
56.1922581985 -21.4388977305 -1.7700222087
56.2055329442 -21.7647439505 -1.7700225303
56.1863355230 -21.1896131681 -1.7700219627
56.1796336748 -22.0271308397 -1.7700227892
56.0827065794 -20.7158562146 -1.7700214953
55.8885336686 -22.8043573347 -1.7700235561
56.8363252876 -22.2811277302 -1.7700230398
56.2878864232 -23.5467656839 -1.7700242887
56.6836793942 -24.8471805133 -1.7700255719
53.6498433367 -26.0229834471 -1.7700267321
53.9830361185 -26.0618153728 -1.7700267704
53.4601204788 -26.0142290099 -1.7700267235
53.5264059649 -26.0267721634 -1.7700267358
53.6195018790 -26.0426826478 -1.7700267515
53.6594971994 -26.0489106612 -1.7700267577
53.7396457716 -26.0603006818 -1.7700267689
53.8870588093 -26.0774809223 -1.7700267859
54.1562051995 -26.0963978860 -1.7700268045
54.2101423925 -26.0982687148 -1.7700268064
53.5621562868 -26.0576484801 -1.7700267663
53.6156765658 -26.0665510843 -1.7700267751
53.8711569615 -26.1001630382 -1.7700268083
54.0604012443 -26.1157163982 -1.7700268236
54.1823330836 -26.1215715789 -1.7700268294
54.2365663143 -26.1231314881 -1.7700268309
54.3043775795 -26.1241787954 -1.7700268319
53.4775531339 -26.0668536126 -1.7700267754
54.0453118438 -26.1389886352 -1.7700268466
54.2496466693 -26.1475894384 -1.7700268550
54.3178182463 -26.1484406069 -1.7700268559
53.4326655915 -26.0827139587 -1.7700267910
53.5809703387 -26.1098697177 -1.7700268178
53.8934777845 -26.1509843631 -1.7700268584
53.9207711640 -26.1535529841 -1.7700268609
53.9344234331 -26.1547767293 -1.7700268621
54.5369490831 -26.1685400125 -1.7700268757
54.5506429906 -26.1679409264 -1.7700268751
54.3313506109 -26.1968357836 -1.7700269036
54.6480343503 -26.1867340287 -1.7700268937
53.5048124222 -26.1456927292 -1.7700268532
54.7324931911 -26.2046460980 -1.7700269114
53.3639059941 -26.1425826639 -1.7700268501
53.4321004046 -26.1565348270 -1.7700268639
53.9835545520 -26.2315769719 -1.7700269379
54.3312475670 -26.2451817298 -1.7700269513
54.4286932809 -26.2443804872 -1.7700269506
54.8730492774 -26.2150518944 -1.7700269216
53.7173258005 -26.2280333492 -1.7700269344
54.2052773866 -26.2674099591 -1.7700269733
54.9868480792 -26.2251059594 -1.7700269315
54.9901471190 -26.2490528092 -1.7700269552
55.0597383798 -26.2389405914 -1.7700269452
55.0214421705 -26.2690583623 -1.7700269749
53.3299314069 -26.2341953430 -1.7700269405
55.1931717105 -26.2657286812 -1.7700269716
55.2490399102 -26.2553177863 -1.7700269614
54.6164222739 -26.3582093757 -1.7700270629
55.2956374223 -26.2707720375 -1.7700269766
53.2497211895 -26.2658298560 -1.7700269717
53.9010274292 -26.3702124930 -1.7700270747
53.5270826438 -26.3459360817 -1.7700270508
53.6553320533 -26.3659068943 -1.7700270705
54.9637552254 -26.3745016060 -1.7700270790
53.6161590936 -26.4335002152 -1.7700271372
53.7321800051 -26.4492883965 -1.7700271528
54.2868235835 -26.4866230347 -1.7700271896
55.1178850993 -26.4255949366 -1.7700271294
54.3748049439 -26.5109826879 -1.7700272136
53.3325952244 -26.4323876583 -1.7700271361
53.3713902438 -26.4648640976 -1.7700271681
55.8087969871 -26.3401651112 -1.7700270451
53.8537634808 -26.5600022975 -1.7700272620
54.8964600992 -26.5529711078 -1.7700272551
55.8728420019 -26.3454966235 -1.7700270503
53.2688487471 -26.5177675372 -1.7700272203
54.4060558382 -26.6557238611 -1.7700273565
53.8052106513 -26.8952782476 -1.7700275928
54.2647621390 -27.0181950672 -1.7700277141
55.1640434660 -27.0299479061 -1.7700277257
56.8908321914 -26.4712540502 -1.7700271744
55.5889209681 -26.9740564814 -1.7700276706
56.0283252162 -21.3107718696 -1.7700219631
56.0264887473 -21.2622885204 -1.7700219153
56.0128448477 -21.1262801598 -1.7700217810
56.0050142662 -21.0783981197 -1.7700217338
55.9847020495 -20.9835247694 -1.7700216402
56.0517762826 -21.3998828900 -1.7700220510
56.0426181982 -21.1672058628 -1.7700218214
56.0303682801 -21.0829364022 -1.7700217383
56.0154100704 -21.0082256521 -1.7700216646
56.0769264990 -21.3598186706 -1.7700220115
56.0586324542 -21.1057467845 -1.7700217608
56.0492552317 -21.0519128605 -1.7700217077
56.0665420796 -21.0156140436 -1.7700216718
56.1223885065 -21.4401360423 -1.7700220907
56.0639880739 -20.9057676507 -1.7700215635
56.1341794638 -21.5649497485 -1.7700222139
56.1421858235 -21.1891822328 -1.7700218431
56.1302854052 -21.0945721634 -1.7700217498
56.1186356791 -21.0288426988 -1.7700216849
56.1085819087 -21.7999936104 -1.7700224458
56.1125759402 -21.7860338399 -1.7700224321
56.1339249139 -21.7015810882 -1.7700223487
56.1353996115 -20.9909724911 -1.7700216475
56.2104531231 -21.5403406325 -1.7700221896
56.2692563638 -21.2799341860 -1.7700219327
56.2766732913 -21.0927831836 -1.7700217480
56.1744860515 -23.6399993403 -1.7700242615
56.5994641192 -24.7200089495 -1.7700253272
56.6590757755 -24.6828823125 -1.7700252905
56.0034790899 -25.2514043555 -1.7700258515
55.8216144340 -25.5429224600 -1.7700261392
53.3450016032 -26.1200147110 -1.7700267086
53.4583762317 -26.1468973414 -1.7700267352
53.4725918620 -26.1500687979 -1.7700267383
53.5010509567 -26.1562854846 -1.7700267444
53.5580769945 -26.1682131992 -1.7700267562
53.6438706922 -26.1848375372 -1.7700267726
53.0713661728 -26.0685643592 -1.7700266579
53.1273843340 -26.0855824448 -1.7700266747
53.6394829790 -26.2086090170 -1.7700267961
53.9432841363 -26.2549789745 -1.7700268418
53.9868989302 -26.2600595760 -1.7700268468
54.1034077379 -26.2717136005 -1.7700268583
54.1325754838 -26.2741960396 -1.7700268608
54.1763533643 -26.2775960298 -1.7700268641
54.2055546360 -26.2796467952 -1.7700268661
54.3078438982 -26.2854632542 -1.7700268719
53.0081173309 -26.0738855376 -1.7700266631
53.2762965315 -26.1523337775 -1.7700267405
53.6930123113 -26.2427168099 -1.7700268297
53.9842085436 -26.2840824214 -1.7700268705
54.1159398425 -26.2970623424 -1.7700268833
54.4243132952 -26.3136823119 -1.7700268997
54.4831370914 -26.3146745389 -1.7700269007
52.7360521954 -26.0030428226 -1.7700265932
54.2613177576 -26.3315019501 -1.7700269173
54.2760759685 -26.3322973526 -1.7700269181
54.5272102261 -26.3391348734 -1.7700269248
54.6454389192 -26.3379812222 -1.7700269237
52.6720555790 -26.0038422397 -1.7700265940
52.7550715499 -26.0362177347 -1.7700266259
54.7201846285 -26.3599965845 -1.7700269454
52.7047087516 -26.0427351499 -1.7700266324
52.8867557246 -26.1097285588 -1.7700266985
54.8254065191 -26.3792736309 -1.7700269645
53.8660811442 -26.3913750670 -1.7700269764
55.1582210683 -26.3978790335 -1.7700269828
53.6236587558 -26.3777349456 -1.7700269629
54.3151090648 -26.4551724263 -1.7700270393
54.3907449615 -26.4579036438 -1.7700270420
53.6642693957 -26.4094689422 -1.7700269943
53.3755948796 -26.3759628433 -1.7700269612
55.2579524995 -26.4578779430 -1.7700270420
53.5154893736 -26.4555374338 -1.7700270397
55.0810054889 -26.5283049180 -1.7700271115
53.3140355887 -26.4359654916 -1.7700270204
55.5278687153 -26.4864109907 -1.7700270702
53.4907520791 -26.4998712627 -1.7700270835
55.2714373314 -26.5536251301 -1.7700271365
52.9939514904 -26.4240951223 -1.7700270087
55.2314840238 -26.6078640696 -1.7700271900
53.7647466454 -26.6701473583 -1.7700272515
52.4248241199 -26.3202373736 -1.7700269062
53.3836412375 -26.6255210794 -1.7700272074
54.4783727644 -26.7497629582 -1.7700273300
53.6942603233 -26.7083896340 -1.7700272892
52.8901386891 -26.5437414798 -1.7700271267
53.5156180930 -26.7018576225 -1.7700272828
53.8823112682 -26.7589374736 -1.7700273391
52.5919988081 -26.4655804226 -1.7700270496
53.0314557720 -26.6366939433 -1.7700272185
53.8218080330 -26.8487943186 -1.7700274278
52.6891642485 -26.6296499003 -1.7700272115
52.8621414108 -26.6869880888 -1.7700272681
54.8074963058 -26.9369631790 -1.7700275148
53.1107290566 -26.7836560660 -1.7700273635
52.9917659892 -26.7761958835 -1.7700273561
52.9138064444 -26.8038656002 -1.7700273834
56.7668403259 -26.6121666402 -1.7700271943
55.9645030132 -21.0994155836 -1.7700218737
55.9887667388 -21.2715017947 -1.7700220436
55.9917766681 -21.1845879721 -1.7700219578
55.9916266900 -21.1664670510 -1.7700219399
55.9899827617 -21.1193822059 -1.7700218934
55.9858382760 -21.0651797644 -1.7700218400
55.9854765176 -21.0615735237 -1.7700218364
55.9843272576 -21.0507614435 -1.7700218257
56.0024705133 -21.3686980550 -1.7700221395
56.0077710404 -21.3283925410 -1.7700220997
56.0085937286 -21.3210467774 -1.7700220924
56.0131338424 -21.2695081659 -1.7700220416
56.0138287966 -21.2584424543 -1.7700220307
56.0146025927 -21.2436794070 -1.7700220161
56.0102521459 -21.0664810131 -1.7700218412
56.0075176711 -21.0407554486 -1.7700218159
56.0091539060 -21.4648122836 -1.7700222343
56.0222495181 -21.3982844999 -1.7700221687
56.0228729844 -21.3945690907 -1.7700221650
56.0317858163 -21.3311540293 -1.7700221024
56.0388193888 -21.1280546850 -1.7700219020
56.0339499841 -21.0604253277 -1.7700218353
56.0335739507 -21.0566767847 -1.7700218316
56.0306314715 -21.0304704252 -1.7700218057
56.0632303156 -21.2382538175 -1.7700220107
56.0642797748 -21.1922017974 -1.7700219653
56.0641913506 -21.1691690719 -1.7700219426
56.0634376028 -21.1384681099 -1.7700219123
56.0625976556 -21.1192923407 -1.7700218934
56.0325218354 -21.5661691927 -1.7700223343
56.0358487264 -21.5549197413 -1.7700223232
56.0442310381 -21.5247814428 -1.7700222935
56.0554615521 -21.4792232104 -1.7700222485
56.0820616923 -21.0556708911 -1.7700218306
56.0521825094 -21.5845520146 -1.7700223525
56.0686109035 -21.5271326318 -1.7700222958
56.1115366611 -21.2402129268 -1.7700220127
56.1116921325 -21.2362340817 -1.7700220087
56.0888562713 -21.5450133635 -1.7700223134
56.1201968047 -21.3984256181 -1.7700221688
56.1231955210 -21.3783819232 -1.7700221490
56.0596043823 -21.7076454410 -1.7700224739
56.0855525995 -21.6380884047 -1.7700224053
56.1552412234 -21.3121367644 -1.7700220836
56.1566404558 -21.2956967006 -1.7700220674
56.1600657388 -21.1349513150 -1.7700219088
56.0829525677 -22.0295073476 -1.7700227915
55.7481248107 -22.8148761086 -1.7700235665
55.7557141182 -22.8385150246 -1.7700235898
55.9189447223 -23.2189750437 -1.7700239652
56.4158762266 -24.7556741112 -1.7700254816
56.1670322076 -24.8862842363 -1.7700256105
56.0981934932 -24.9372688214 -1.7700256608
55.6253015277 -25.1965544989 -1.7700259166
56.2209104430 -25.0984314278 -1.7700258198
55.8027357668 -25.2542753383 -1.7700259736
56.0844903994 -25.1973838709 -1.7700259174
55.8265986029 -25.3479766167 -1.7700260660
55.5957434684 -25.4246744886 -1.7700261417
55.0171654093 -25.5703704348 -1.7700262855
56.1762954072 -25.7010041916 -1.7700264144
54.5598712319 -25.9356241992 -1.7700266459
56.1574214861 -25.8331596061 -1.7700265448
53.8880796529 -26.3739020185 -1.7700270784
53.9457773601 -26.4078135605 -1.7700271118
54.3650488140 -26.4566545436 -1.7700271600
53.4955652915 -26.3417509516 -1.7700270466
54.5043136841 -26.4896192303 -1.7700271925
54.5670908693 -26.4923512530 -1.7700271952
53.3675719409 -26.3335576112 -1.7700270386
54.2199204009 -26.4921889670 -1.7700271951
54.7239435675 -26.5201023594 -1.7700272226
53.0579214794 -26.2647392479 -1.7700269706
53.0729537693 -26.2697715643 -1.7700269756
53.2696741677 -26.3311275687 -1.7700270362
53.2849019197 -26.3355331920 -1.7700270405
54.9298040084 -26.5419596051 -1.7700272442
52.9000606555 -26.2346522961 -1.7700269410
52.9749412645 -26.2617066551 -1.7700269677
54.0568311831 -26.5216222377 -1.7700272241
54.6917115291 -26.5680980879 -1.7700272700
52.6980752501 -26.1814913897 -1.7700268885
52.9518201889 -26.2791553232 -1.7700269849
53.1642607201 -26.3499241686 -1.7700270547
53.5814048745 -26.4613038718 -1.7700271646
54.6593893373 -26.5917291792 -1.7700272933
52.6148345584 -26.1725459060 -1.7700268797
52.8081556422 -26.2515870716 -1.7700269577
53.2957575757 -26.4140185322 -1.7700271179
53.9550153889 -26.5559881821 -1.7700272580
55.1566373051 -26.6029409624 -1.7700273044
52.5166962715 -26.1555923305 -1.7700268629
52.3746397202 -26.1156861990 -1.7700268236
52.5659523125 -26.2040041581 -1.7700269107
53.5813303506 -26.5355890792 -1.7700272379
53.7400864281 -26.5683053815 -1.7700272702
52.3640878314 -26.1374345995 -1.7700268450
52.4081265963 -26.1585604320 -1.7700268659
52.2074873289 -26.0856349443 -1.7700267939
52.2365219721 -26.1006896757 -1.7700268088
52.2656451760 -26.1155723648 -1.7700268235
52.6972473779 -26.3117288333 -1.7700270170
52.1817496635 -26.0994368164 -1.7700268075
52.1268012172 -26.0975972186 -1.7700268057
52.2437727335 -26.1586877610 -1.7700268660
52.8869156125 -26.4613224279 -1.7700271646
51.9441325378 -26.0509320010 -1.7700267597
52.1185826520 -26.1480379545 -1.7700268555
52.6456319657 -26.3951392980 -1.7700270993
55.8789620490 -26.6992565068 -1.7700273994
52.1219567197 -26.1772097202 -1.7700268843
51.8764370739 -26.0672943868 -1.7700267758
51.9198725868 -26.0927506082 -1.7700268009
54.7883652849 -26.8586533832 -1.7700275567
55.3244819110 -26.8311963205 -1.7700275296
55.4245918982 -26.8204054545 -1.7700275190
51.7919306947 -26.0446304055 -1.7700267535
52.0399414894 -26.1880173958 -1.7700268949
51.7648877248 -26.0563885635 -1.7700267651
52.9423066943 -26.6084086529 -1.7700273098
54.2476687520 -26.8834602405 -1.7700275812
55.3965667621 -26.8722519026 -1.7700275701
55.4470072036 -26.8664372496 -1.7700275644
55.7650552830 -26.8192433870 -1.7700275178
56.0469813331 -26.7619302432 -1.7700274613
51.9870047651 -26.2141100638 -1.7700269207
53.0477484847 -26.6680852537 -1.7700273687
54.9245949561 -26.9290411586 -1.7700276262
52.6225948065 -26.5422491791 -1.7700272445
54.4986786008 -26.9491640119 -1.7700276460
54.5839522514 -26.9524960375 -1.7700276493
56.1739606832 -26.7811088622 -1.7700274802
52.3927519397 -26.4709399458 -1.7700271741
52.4397492487 -26.4917982675 -1.7700271947
53.4632067248 -26.8310546321 -1.7700275295
54.3094016764 -26.9614943963 -1.7700276582
51.7582341796 -26.1655980530 -1.7700268728
52.1190732277 -26.3664555875 -1.7700270710
54.0848443638 -26.9636531578 -1.7700276603
52.0314198511 -26.3480913560 -1.7700270529
53.3012595087 -26.8411579898 -1.7700275394
52.0201027425 -26.3694515605 -1.7700270740
52.5200544623 -26.6571807073 -1.7700273579
51.9396890487 -26.4086507205 -1.7700271127
52.5597169963 -26.6993440862 -1.7700273995
51.7590676914 -26.3347879971 -1.7700270398
52.1477427314 -26.5429306366 -1.7700272452
51.4877418286 -26.3677973172 -1.7700270723
51.6335675933 -26.5134032374 -1.7700272160
51.6848211148 -26.5710822991 -1.7700272729
52.4945553085 -27.0114841838 -1.7700277075
52.0221713311 -26.8850236299 -1.7700275827
51.9631160568 -26.9638738190 -1.7700276605
51.6027216968 -26.8301698246 -1.7700275286
51.4082575056 -26.7449383580 -1.7700274445
51.6815321195 -27.0926939079 -1.7700277876
51.4618868413 -27.0004976935 -1.7700276967
51.1867939296 -27.2321410627 -1.7700279252
55.9732653727 -21.1857843542 -1.7700219590
55.9739138134 -21.1801460269 -1.7700219534
55.9751105644 -21.1688583567 -1.7700219423
55.9764185474 -21.1547301523 -1.7700219283
55.9768832058 -21.1490737133 -1.7700219227
55.9780762805 -21.1320892882 -1.7700219060
55.9711322834 -21.3256739271 -1.7700220970
55.9820053615 -21.2804179818 -1.7700220523
55.9855287511 -21.2633219595 -1.7700220355
55.9954603669 -21.2030501431 -1.7700219760
56.0002534177 -21.1596788879 -1.7700219332
55.9793573948 -21.3833427140 -1.7700221539
55.9937272617 -21.3347554497 -1.7700221060
56.0169067152 -21.2239443236 -1.7700219966
56.0226054847 -21.1796011802 -1.7700219529
56.0235088183 -21.1707046530 -1.7700219441
56.0237923801 -21.1677374057 -1.7700219412
56.0248388148 -21.1558604178 -1.7700219294
55.9807586808 -21.4511169893 -1.7700222208
55.9965700057 -21.4081537000 -1.7700221784
56.0042189266 -21.3849650242 -1.7700221555
56.0194088841 -21.3321724099 -1.7700221034
56.0389124059 -21.2396176475 -1.7700220121
56.0433842388 -21.2094253792 -1.7700219823
55.9901553898 -21.4917325959 -1.7700222609
56.0088639464 -21.4453906354 -1.7700222151
56.0153110696 -21.4277919372 -1.7700221978
56.0617446826 -21.2496755248 -1.7700220220
56.0006067117 -21.5275592716 -1.7700222962
56.0559349582 -21.3812382681 -1.7700221518
56.0715951267 -21.3225905172 -1.7700220940
56.0155611643 -21.5524922684 -1.7700223208
56.0396512107 -21.4988585585 -1.7700222679
56.0066109797 -21.6222431907 -1.7700223896
56.0161972687 -21.6046566222 -1.7700223723
56.0576359602 -21.5765378888 -1.7700223445
56.1052251693 -21.5300105451 -1.7700222986
56.0663607586 -21.7569353706 -1.7700225226
56.1266001625 -21.9997870963 -1.7700227622
55.6569928513 -22.7110545063 -1.7700234640
55.6779747711 -22.9608906011 -1.7700237106
55.7685933110 -24.9587605535 -1.7700256820
55.8259780022 -24.9472722654 -1.7700256706
55.8831865002 -24.9349364922 -1.7700256585
55.8193651151 -24.9733192179 -1.7700256963
55.5908079493 -25.0376534452 -1.7700257598
55.9148058693 -25.0764860795 -1.7700257981
55.9857131401 -25.0599848021 -1.7700257819
55.0610135553 -25.2232947510 -1.7700259430
55.2710211924 -25.2401456453 -1.7700259596
55.1359897645 -25.2702513980 -1.7700259893
55.5691267519 -25.2358496203 -1.7700259554
55.4730653914 -25.2716981359 -1.7700259908
55.7943151116 -25.2245194504 -1.7700259442
54.7843556569 -25.3378186757 -1.7700260560
55.4176244386 -25.3501398124 -1.7700260682
55.6355488473 -25.3487015359 -1.7700260667
55.9399690988 -25.3679133596 -1.7700260857
55.6104999536 -25.4498161177 -1.7700261665
54.7590658488 -25.5542888636 -1.7700262696
55.1041398147 -25.5611363332 -1.7700262764
55.5085078672 -25.7298049722 -1.7700264428
54.1142925761 -26.6245512831 -1.7700273257
54.5766744041 -26.6805016245 -1.7700273809
53.6360628770 -26.5499192464 -1.7700272521
55.0254821821 -26.7222172602 -1.7700274221
54.8073890688 -26.7423848651 -1.7700274420
54.9919395138 -26.7463200717 -1.7700274458
53.8540957373 -26.6498682895 -1.7700273507
53.6840197860 -26.6364307126 -1.7700273374
55.3976190400 -26.7823020174 -1.7700274814
55.4859142892 -26.8242896854 -1.7700275228
55.6558089114 -26.8080103838 -1.7700275067
52.9153564952 -26.4712527319 -1.7700271744
53.6171370765 -26.6947097492 -1.7700273949
55.2826095812 -26.8613297130 -1.7700275593
54.6129011552 -26.8771291723 -1.7700275749
55.0772606450 -26.8911545505 -1.7700275888
55.9000019908 -26.8245838293 -1.7700275231
53.3388274374 -26.6683121734 -1.7700273689
54.7664935302 -26.9100753712 -1.7700276074
54.5748982682 -26.9228219144 -1.7700276200
53.6784008818 -26.8090011262 -1.7700275077
52.4228999334 -26.3871561446 -1.7700270914
52.7739770295 -26.5448454695 -1.7700272470
53.4736942810 -26.8323342280 -1.7700275307
53.6736208304 -26.9071599041 -1.7700276046
51.9886107616 -26.2641880715 -1.7700269701
51.9333224569 -26.2877603394 -1.7700269934
53.2277064960 -26.9124551798 -1.7700276098
51.5037546653 -26.1852971581 -1.7700268923
51.4295784033 -26.1630782359 -1.7700268703
51.2962782200 -26.1265502052 -1.7700268343
51.2370668792 -26.1126309820 -1.7700268206
51.2977871250 -26.1875829809 -1.7700268945
51.3738356085 -26.2420852314 -1.7700269483
52.2656027849 -26.7944605670 -1.7700274934
51.9699285639 -26.6699649373 -1.7700273705
50.7746584869 -26.0519480901 -1.7700267607
50.5172754851 -26.0184093449 -1.7700267276
50.8037945033 -26.3888799745 -1.7700270931
55.9500184232 -21.2248313367 -1.7700218783
55.9543342111 -21.2111374693 -1.7700218648
55.9555151220 -21.2072088038 -1.7700218609
55.9655679756 -21.1695609798 -1.7700218238
55.9665027095 -21.1655665793 -1.7700218198
55.9505695524 -21.2919133422 -1.7700219445
55.9804733819 -21.2079870335 -1.7700218617
55.9810573088 -21.2059462635 -1.7700218597
55.9572598151 -21.3353335081 -1.7700219873
55.9666034619 -21.3154815113 -1.7700219677
55.9675054376 -21.3134813007 -1.7700219658
55.9701758080 -21.3074647823 -1.7700219598
55.9753558475 -21.2953618379 -1.7700219479
55.9917778747 -21.2523178203 -1.7700219054
55.9611978495 -21.3801133295 -1.7700220315
55.9655353278 -21.3721560376 -1.7700220237
55.9707455422 -21.4120925737 -1.7700220631
55.9742909047 -21.4060434181 -1.7700220571
55.9865885981 -21.4326693893 -1.7700220834
56.0001032429 -21.5005848303 -1.7700221504
56.0058634723 -21.4921587580 -1.7700221421
55.6128286997 -22.7368246658 -1.7700233703
55.6068926240 -22.7624886804 -1.7700233956
55.7032289879 -24.9447725894 -1.7700255490
55.2119037913 -24.9897054353 -1.7700255933
55.2354529730 -24.9901031063 -1.7700255937
55.5414688795 -24.9825952236 -1.7700255863
55.1048557416 -25.0103391076 -1.7700256137
55.5311650426 -25.0074485767 -1.7700256108
54.7259486897 -25.0722626555 -1.7700256748
54.7589082458 -25.1010874939 -1.7700257032
55.0870502071 -25.1304888109 -1.7700257322
55.1167692959 -25.3012076233 -1.7700259007
55.3073099450 -25.3047071656 -1.7700259041
55.5231967893 -25.2984518983 -1.7700258980
53.4147308531 -25.2198840502 -1.7700258204
53.4299649985 -25.2530482150 -1.7700258531
54.0199006982 -25.7413371001 -1.7700263350
52.8634462387 -25.4316512754 -1.7700260294
54.3245453909 -26.8203532733 -1.7700273997
54.4278283683 -26.8365889299 -1.7700274157
53.7672298912 -26.7497259290 -1.7700273300
53.2314891864 -26.6829851321 -1.7700272641
53.4171598520 -26.7469830082 -1.7700273273
53.3926233981 -26.7643714266 -1.7700273445
53.2149931143 -26.7284298318 -1.7700273090
52.5149181907 -26.7742210052 -1.7700273542
52.0914738679 -26.7172807221 -1.7700272980
51.2006757816 -26.6635794558 -1.7700272450
50.6371165329 -26.4663523780 -1.7700270504
49.3640761186 -25.5030803452 -1.7700260999
49.3773946579 -25.5205932821 -1.7700261171
49.3715890228 -25.5527847352 -1.7700261489
49.3850545639 -25.5702752301 -1.7700261662
49.3740514639 -25.6349115120 -1.7700262300
49.7496824789 -27.1670819114 -1.7700277418
49.8439912840 -27.2827110625 -1.7700278559
49.7405054211 -27.2884596007 -1.7700278616
48.7623136956 -26.3024563434 -1.7700268887
48.8227614901 -26.4139369152 -1.7700269987
50.0135259150 -27.5817319195 -1.7700281510
49.8248103777 -27.4573554128 -1.7700280283
50.1956521148 -27.7542359341 -1.7700283212
50.1610945036 -27.7583784573 -1.7700283253
49.1354047390 -26.9430317360 -1.7700275207
50.1025826129 -27.8353571762 -1.7700284013
50.5816044773 -28.2608682336 -1.7700288211
49.9425501099 -27.8339783071 -1.7700283999
50.4266013883 -28.2162168266 -1.7700287771
48.7513494138 -26.7760582574 -1.7700273560
50.6945276902 -28.4184468082 -1.7700289766
50.8366044662 -28.5328305637 -1.7700290895
55.2368086583 -24.8908614622 -1.7700256150
55.2713815447 -24.8936501316 -1.7700256177
55.2829111716 -24.8945114927 -1.7700256186
54.9885982301 -24.9105926911 -1.7700256344
54.8572466704 -24.9134439437 -1.7700256373
54.8804327769 -24.9175823700 -1.7700256413
55.0550398943 -24.9442365326 -1.7700256676
55.2541309420 -24.9650475319 -1.7700256882
54.7831016568 -24.9239105350 -1.7700256476
54.8412747314 -24.9350947029 -1.7700256586
55.0754298106 -24.9711934816 -1.7700256942
54.8838217351 -24.9672434324 -1.7700256903
54.5283946942 -24.9143145760 -1.7700256381
54.7383805556 -24.9641092658 -1.7700256872
55.0100384226 -25.0113539064 -1.7700257339
55.1528786198 -25.0286386175 -1.7700257509
54.9232038842 -25.0228019766 -1.7700257452
54.9913639385 -25.0575502171 -1.7700257794
55.1117307584 -25.0728385731 -1.7700257945
54.3455889408 -24.9371606935 -1.7700256607
54.7115891660 -25.0325752484 -1.7700257548
55.0363391890 -25.0880640466 -1.7700258096
54.5273381811 -25.0139994992 -1.7700257365
54.9724113144 -25.1036707568 -1.7700258250
54.0171151590 -24.8719246536 -1.7700255963
54.0196695044 -24.8989649074 -1.7700256230
54.0312203302 -24.9035290358 -1.7700256275
54.5454653500 -25.0934388200 -1.7700258149
54.5697218233 -25.0994186991 -1.7700258208
54.4666433346 -25.0979851143 -1.7700258193
53.9811834457 -24.9616925571 -1.7700256849
54.5951558917 -25.1551934880 -1.7700258758
54.9300603350 -25.2195811377 -1.7700259393
54.9515853901 -25.2472059478 -1.7700259666
53.6713151992 -24.8770185610 -1.7700256013
53.8102311218 -24.9419002170 -1.7700256653
