24.8492949700 0.4397589335 -3.0000150633
24.8060324526 0.4261810309 -3.0000150767
24.8174325809 0.6572619389 -3.0000148487
24.5845813478 0.5780820110 -3.0000149268
24.5450389910 0.5883862032 -3.0000149166
24.7578583216 0.7404115603 -3.0000147666
24.7497422865 0.7379301325 -3.0000147691
24.0553532980 0.7553437394 -3.0000147519
24.0471961646 0.7507841093 -3.0000147564
23.9741437286 0.7646607344 -3.0000147427
22.5459966671 0.4049842376 -3.0000150976
19.0463019586 1.5260693836 -3.0000139914
19.0567173217 1.5956881163 -3.0000139227
19.0359229144 1.6578693817 -3.0000138613
19.0476831496 1.7278869206 -3.0000137922
19.0377894589 1.7592684245 -3.0000137612
19.0197850821 2.0595195978 -3.0000134650
18.9992246387 2.0722319323 -3.0000134524
19.0029739619 2.1240031640 -3.0000134013
18.9947685773 2.1563728035 -3.0000133694
33.5060675064 1.3575156950 -3.0000141577
33.5183081112 1.3904281302 -3.0000141252
33.5082308789 1.4138588531 -3.0000141021
33.4893073787 1.5171259563 -3.0000140002
33.4788554781 1.5404703355 -3.0000139771
33.5009034776 1.5503809864 -3.0000139674
33.5021726065 1.7210796511 -3.0000137989
33.4911173177 1.7444611956 -3.0000137759
33.4905758414 1.8016197307 -3.0000137195
33.5113476295 1.8695254350 -3.0000136524
26.3413942179 -1.1918396472 -3.0000166733
26.3398611473 -1.1370984136 -3.0000166192
26.3330005553 -1.1250887866 -3.0000166074
24.3829166972 0.7713265625 -3.0000147361
23.9310274255 0.7031090809 -3.0000148034
23.8927505221 0.8814676190 -3.0000146274
22.4659551152 0.5137981471 -3.0000149902
19.0600978821 1.3395002678 -3.0000141755
19.0425501592 1.4171259552 -3.0000140989
19.0295971150 1.4465390294 -3.0000140698
19.0318168047 1.5634166219 -3.0000139545
19.0209968085 1.8101344677 -3.0000137111
19.0295760523 1.9290071541 -3.0000135938
19.0191800475 1.9097786155 -3.0000136127
19.0000903565 2.1731934125 -3.0000133528
18.9791576433 2.1852829451 -3.0000133409
18.9644209843 2.3506917736 -3.0000131777
18.9704346236 2.4534440629 -3.0000130763
33.4400800460 2.3399951421 -3.0000131882
33.4716333225 2.3850425072 -3.0000131438
33.5461528522 2.4520874042 -3.0000130776
33.5341459652 2.4757992365 -3.0000130542
33.5528909477 2.5452746315 -3.0000129856
33.5496741744 2.6039072254 -3.0000129278
33.5372181615 2.6276288102 -3.0000129044
33.5334141343 2.6863568735 -3.0000128464
25.9226651289 -1.3056656246 -3.0000167856
25.9302167141 -1.2521698104 -3.0000167328
25.9789454125 -1.2447131633 -3.0000167254
25.9456033438 -1.1646064513 -3.0000166464
25.9595815204 -0.9547066307 -3.0000164393
26.4150811481 -1.1810638649 -3.0000166626
26.3796499689 -1.0737794877 -3.0000165568
26.3742109690 -1.0597259328 -3.0000165429
26.3938679722 -1.0437325944 -3.0000165271
26.3950370252 -0.6909638587 -3.0000161790
25.9317087104 -1.2512539206 -3.0000164935
25.9513017360 -1.2107864137 -3.0000164535
25.9508689412 -1.2076205695 -3.0000164504
25.9724584206 -1.1881479126 -3.0000164312
25.9670307616 -1.1559351688 -3.0000163994
25.9563719645 -1.1047696789 -3.0000163489
25.9942505306 -1.1712977925 -3.0000164146
25.9599510917 -1.0251558961 -3.0000162704
25.9659010932 -0.8997551675 -3.0000161466
26.0513403186 -1.0862769066 -3.0000163307
26.0173687171 -0.8977912911 -3.0000161447
25.9898614495 -0.8346712151 -3.0000160824
26.0555016234 -0.8038428984 -3.0000160520
25.9476089536 -1.3406894722 -3.0000168201
25.9488260163 -1.3215339405 -3.0000168012
25.9495955926 -1.3061978619 -3.0000167861
25.9675697158 -1.3891386060 -3.0000168679
25.9717213428 -1.3424006026 -3.0000168218
25.9731532160 -1.1782767316 -3.0000166599
25.9902855375 -1.4035768084 -3.0000168822
25.9935729661 -1.3718925776 -3.0000168509
25.9970733862 -1.1730106720 -3.0000166547
25.9927819483 -1.1174337340 -3.0000165998
25.9877979304 -1.0739194537 -3.0000165569
26.0204960497 -1.3377347668 -3.0000168172
26.0214303633 -1.1756963869 -3.0000166573
26.0147120836 -1.0949192874 -3.0000165776
25.9988609207 -0.9907562768 -3.0000164748
25.9980916075 -0.9867765626 -3.0000164709
26.0420875897 -1.3722044623 -3.0000168512
26.0434501943 -1.3557613222 -3.0000168350
26.0653984957 -1.3827009276 -3.0000168616
26.0709853979 -1.2947678405 -3.0000167748
26.0711150903 -1.2905734389 -3.0000167707
26.0574225914 -1.0478661494 -3.0000165312
26.0340852304 -0.9241979544 -3.0000164092
26.0909382089 -1.1292474463 -3.0000166115
26.0894226134 -1.1122432915 -3.0000165947
26.0659081640 -0.9561706563 -3.0000164407
26.0585873234 -0.9228222269 -3.0000164078
26.0515357828 -0.8937914824 -3.0000163792
26.1107922934 -1.0840584498 -3.0000165669
26.0954319446 -0.9810733441 -3.0000164653
26.0895786419 -0.9512672132 -3.0000164359
26.0728048558 -0.8794372915 -3.0000163650
26.0660252183 -0.8542992638 -3.0000163402
26.0402249599 -0.7714476427 -3.0000162584
26.1401893246 -1.3587779146 -3.0000168380
26.1321731006 -1.0594472664 -3.0000165426
26.0481128571 -0.7220911072 -3.0000162097
26.1628296357 -1.1187702824 -3.0000166012
26.1588323983 -1.0786280310 -3.0000165615
26.1125899123 -0.8412965561 -3.0000163274
26.1916164996 -1.1939614395 -3.0000166754
26.1463685905 -0.8744126545 -3.0000163600
26.0884591101 -0.6922531401 -3.0000161803
26.1813855077 -0.9180782221 -3.0000164031
26.0551565113 -0.5565309174 -3.0000160464
26.1248823728 -0.6529412985 -3.0000161415
26.0933987249 -0.3294889101 -3.0000158223
24.9242893206 1.3643693915 -3.0000141509
23.5502936556 3.8469329602 -3.0000117012
23.2679222344 3.8276548765 -3.0000117203
23.2529111386 3.8235348975 -3.0000117243
22.7305075290 3.7531645614 -3.0000117938
22.3455467036 3.6411552777 -3.0000119043
22.7345168627 3.8322955866 -3.0000117157
25.9851460562 -1.2715352335 -3.0000167519
25.9632315205 -1.4953115970 -3.0000169727
25.9871524678 -1.3996362302 -3.0000168783
26.0036394175 -1.3119419825 -3.0000167918
26.0141942824 -1.2328027311 -3.0000167137
26.0169676072 -1.2047580994 -3.0000166860
25.9770593189 -1.5339193510 -3.0000170108
25.9851827646 -1.5064863680 -3.0000169837
25.9999627556 -1.4512095220 -3.0000169292
26.0097551207 -1.4094266698 -3.0000168880
26.0275123599 -1.3157390738 -3.0000167955
26.0418696260 -1.1974223022 -3.0000166788
26.0462719703 -1.1260366764 -3.0000166083
26.0600716153 -1.2572227826 -3.0000167378
26.0617354067 -1.2427985226 -3.0000167235
26.0684432093 -1.1656571212 -3.0000166474
26.0714936863 -1.0882847423 -3.0000165711
26.0653945742 -0.9190708953 -3.0000164041
26.0503716553 -1.4485514379 -3.0000169266
26.0620756443 -1.3958104606 -3.0000168745
26.0752582447 -1.3233332563 -3.0000168030
26.0807343299 -0.8388624021 -3.0000163250
26.0733989230 -0.7903001746 -3.0000162770
26.0655715117 -0.7467966323 -3.0000162341
26.1116892789 -0.8949873122 -3.0000163803
26.1094376680 -1.4055150904 -3.0000168841
26.1642666265 -1.1819812214 -3.0000166635
26.1157573944 -1.5763329575 -3.0000170527
26.1121320855 -0.5370240959 -3.0000160271
26.1373254633 -1.5884383110 -3.0000170646
26.2142992354 -0.9694234291 -3.0000164538
26.1500902364 -0.4971436884 -3.0000159878
26.2785642507 -1.2613174468 -3.0000167418
25.1648375214 1.5117335528 -3.0000140055
23.3831638208 3.6235454731 -3.0000119217
22.9299395905 3.5490505477 -3.0000119952
24.4113471170 3.8127248791 -3.0000117350
22.5927589834 3.5032678644 -3.0000120403
22.8721291525 3.6318001186 -3.0000119135
23.3552142511 3.8154471723 -3.0000117323
23.4177248094 3.8782441018 -3.0000116703
23.2575189339 3.8425138703 -3.0000117056
22.5646273729 3.7780460664 -3.0000117692
26.0517433213 -1.2153634683 -3.0000166965
26.0559648296 -1.3057099070 -3.0000167856
26.0686077036 -1.2523537621 -3.0000167330
26.1278499028 -1.0327683174 -3.0000165163
26.1361212295 -0.8941699216 -3.0000163795
26.0467407355 -1.5003608883 -3.0000169777
26.0803577068 -1.3988939078 -3.0000168776
26.1182107192 -1.2518095588 -3.0000167324
26.1539480754 -1.0126857237 -3.0000164965
26.1578811469 -0.9565596770 -3.0000164411
26.1503849792 -0.6531402317 -3.0000161417
26.0695245663 -1.6390291341 -3.0000171145
26.1735770511 -0.3697397751 -3.0000158621
26.2457317819 -1.0679500907 -3.0000165510
26.1066293563 -1.6747384869 -3.0000171498
26.0919809867 -1.8156731764 -3.0000172888
26.3286042133 -0.7760241023 -3.0000162630
26.3451822129 -0.3592451866 -3.0000158517
26.3711862589 -1.3390450598 -3.0000168185
23.7615681509 3.5119492920 -3.0000120318
23.5172224842 3.4771295659 -3.0000120661
23.4788359556 3.4703785562 -3.0000120728
23.9409208826 3.5529022557 -3.0000119914
23.8107833284 3.5415749124 -3.0000120025
23.6258290653 3.5431874444 -3.0000120010
24.5195055880 3.6292916595 -3.0000119160
24.3337575518 3.6362458363 -3.0000119091
23.6978886846 3.6016953717 -3.0000119432
24.7072087183 3.6387063287 -3.0000119067
24.1472838378 3.6596692240 -3.0000118860
24.7896630173 3.6540464685 -3.0000118916
24.6962545139 3.6640736992 -3.0000118817
24.4284763211 3.6820425764 -3.0000118639
24.3077261933 3.6849543601 -3.0000118611
24.7924918303 3.6780534071 -3.0000118679
24.4573909061 3.7292596710 -3.0000118173
23.9152155157 3.7206784613 -3.0000118258
25.1576250780 3.7185245181 -3.0000118279
24.5155796456 3.7989971877 -3.0000117485
24.1712521564 3.8052622574 -3.0000117424
23.9632390709 3.8209224367 -3.0000117269
25.1396198250 3.7712542282 -3.0000117759
24.6987137603 3.8338182762 -3.0000117142
24.4904404763 3.8487227710 -3.0000116995
23.4093351386 3.7771409505 -3.0000117701
25.4985636749 3.7132310281 -3.0000118332
25.4037777268 3.7379239372 -3.0000118088
25.5048995168 3.7365589597 -3.0000118101
23.4156244358 3.9010924378 -3.0000116478
26.1331354335 -1.2016482757 -3.0000166829
26.2323750510 -0.9933551894 -3.0000164774
26.3154946051 -0.5891670009 -3.0000160786
24.2453128070 3.4916313182 -3.0000120518
24.5139809004 3.4990921800 -3.0000120445
24.4653525199 3.5034253828 -3.0000120402
24.4166762713 3.5071828887 -3.0000120365
24.3557740291 3.5110694034 -3.0000120326
24.6017306287 3.5141376518 -3.0000120296
24.5529180802 3.5195080969 -3.0000120243
24.9064073149 3.5410874455 -3.0000120030
24.7833349331 3.5624294867 -3.0000119820
24.9649760310 3.5789312007 -3.0000119657
25.1062917608 3.5728683027 -3.0000119717
24.3283818501 3.7061352638 -3.0000118402
25.2543920489 3.5853578583 -3.0000119593
24.4064988131 3.7259404634 -3.0000118206
24.5368602521 3.7397372786 -3.0000118070
24.3951797923 3.7508849668 -3.0000117960
24.3822832285 3.7516696704 -3.0000117952
24.2149665212 3.7825645591 -3.0000117647
24.2975450442 3.9010241637 -3.0000116479
26.0942799984 3.5049609131 -3.0000120387
26.2834260134 -0.6154344872 -3.0000161045
26.2857354348 -0.5954700888 -3.0000160848
26.2274336811 -1.0022943742 -3.0000164862
26.2527582347 -0.9109570564 -3.0000163961
26.3199971413 -0.4767136635 -3.0000159676
26.2811665292 -0.8970200203 -3.0000163823
26.2668942156 -1.1161819010 -3.0000165986
26.3634714330 -0.7375798649 -3.0000162250
26.4372805510 -0.5334393162 -3.0000160236
26.2128418975 -1.4317214641 -3.0000169100
26.3031870856 -1.2277172719 -3.0000167087
26.3150089442 -1.2635249587 -3.0000167440
26.3874244695 -1.0578336218 -3.0000165410
26.4854789045 -0.5372155382 -3.0000160273
26.2150065705 -1.5818737005 -3.0000170581
26.1769446764 0.9562381936 -3.0000145536
26.2542584398 -1.5611096850 -3.0000170376
26.5589016772 -0.5279506604 -3.0000160182
26.4988137455 -1.0205164607 -3.0000165042
26.1160768734 1.1778091654 -3.0000143350
26.6558911057 -0.5271803038 -3.0000160174
26.6351693875 -0.9758335331 -3.0000164601
26.0639043727 1.6488248013 -3.0000138702
26.3512247674 -3.2497550502 -3.0000187039
26.6073881818 -3.2231879334 -3.0000186777
24.8384010496 3.4549990927 -3.0000120880
24.9111405531 3.4636989264 -3.0000120794
24.8885903488 3.4688159645 -3.0000120743
24.8547092653 3.4762411468 -3.0000120670
25.0070017467 3.4653223513 -3.0000120778
24.9957252070 3.4681811149 -3.0000120750
24.9844402599 3.4710065080 -3.0000120722
24.9731470042 3.4737985058 -3.0000120694
24.9505359622 3.4792822182 -3.0000120640
25.0808686237 3.4707836420 -3.0000120724
25.0469625065 3.4799151086 -3.0000120634
25.0243139848 3.4858354312 -3.0000120575
25.0129766879 3.4887453178 -3.0000120547
25.1778145906 3.4681212981 -3.0000120750
25.1665290237 3.4714853448 -3.0000120717
25.1552335548 3.4748159920 -3.0000120684
25.1326133062 3.4813769717 -3.0000120619
25.1212887244 3.4846072468 -3.0000120588
25.1099546365 3.4878040076 -3.0000120556
25.2187557036 3.4809220635 -3.0000120624
25.2074320907 3.4844071654 -3.0000120590
25.1847541839 3.4912768013 -3.0000120522
25.2827019883 3.4859797494 -3.0000120574
25.2713631340 3.4896539938 -3.0000120538
25.2259005158 3.5040150698 -3.0000120396
24.9962143653 3.5676987793 -3.0000119768
25.3470552188 3.4899778629 -3.0000120535
24.8734013481 3.6205509212 -3.0000119246
25.1074999399 3.6138530895 -3.0000119312
25.5082374476 3.5087332902 -3.0000120350
24.9718022217 3.6729653473 -3.0000118729
25.6515664442 3.5033348441 -3.0000120403
25.6401746365 3.5081001804 -3.0000120356
25.1740595675 3.6706521236 -3.0000118752
25.6952155614 3.5110396674 -3.0000120327
25.7832987688 3.5250251449 -3.0000120189
25.8734661567 3.5098137030 -3.0000120339
25.8506262796 3.5206233754 -3.0000120232
25.2436657444 3.7763660053 -3.0000117709
25.2070413445 3.7869301716 -3.0000117604
26.1103529026 3.4428467202 -3.0000121000
25.9860120134 3.5083624066 -3.0000120353
25.3482070794 3.7696389690 -3.0000117775
25.5979161995 3.7073427172 -3.0000118390
25.3310522759 3.8004082546 -3.0000117471
25.6427170005 3.7157886397 -3.0000118306
25.4487765848 3.7873083631 -3.0000117601
25.6516150876 3.7382643894 -3.0000118085
25.3206555721 3.8542318204 -3.0000116940
25.8171730511 3.6952073452 -3.0000118509
25.6847769906 3.7510510372 -3.0000117958
25.4598167033 3.8601564392 -3.0000116882
25.8585806273 3.7561818140 -3.0000117908
26.3271815257 -0.6821223661 -3.0000161703
26.3229507221 -0.7851953511 -3.0000162720
26.3302774993 0.9082456962 -3.0000146010
26.3789343790 -1.0574152379 -3.0000165406
26.4043723521 -0.9936443670 -3.0000164777
25.7127135485 -3.3922001721 -3.0000188445
25.7534124960 -3.3982163556 -3.0000188504
25.7349031273 -3.4351532130 -3.0000188869
25.8042061666 -3.3984372470 -3.0000188506
25.8238659625 -3.3876841459 -3.0000188400
25.4775306819 3.4158530218 -3.0000121266
25.8749052720 -3.3868640281 -3.0000188392
25.5283894356 3.4202200431 -3.0000121223
25.6002014458 3.4144415713 -3.0000121280
25.5795575331 3.4238684752 -3.0000121187
25.5692147522 3.4285360846 -3.0000121141
25.6413624033 3.4219411773 -3.0000121206
25.9999370366 -3.3978136902 -3.0000188500
25.7137681473 3.4138805585 -3.0000121285
26.0715155540 -3.3822175909 -3.0000188346
25.7554981560 3.4200903894 -3.0000121224
25.8284264808 3.4097121810 -3.0000121327
25.8078065544 3.4204894236 -3.0000121220
25.8603691147 3.4201362511 -3.0000121224
25.8500361457 3.4256345683 -3.0000121170
25.9234884644 3.4133398663 -3.0000121291
26.1495877173 3.4211430934 -3.0000121214
26.1392505045 3.4274969671 -3.0000121151
26.1933566867 3.4223600428 -3.0000121202
26.4930884688 -3.3853479336 -3.0000188377
26.8962716008 3.1311520851 -3.0000124075
26.3812470608 0.7485862997 -3.0000147585
26.3712155925 0.7906033698 -3.0000147171
26.3948498832 -1.0065569827 -3.0000164904
25.1513818799 -3.4573963597 -3.0000189088
25.1622092209 -3.4540010129 -3.0000189055
25.1730264705 -3.4505736517 -3.0000189021
25.1838335341 -3.4471143061 -3.0000188987
25.2858039035 -3.4639512844 -3.0000189153
25.3699039172 -3.4593882143 -3.0000189108
25.4001073364 -3.4738827506 -3.0000189251
25.4218451130 -3.4655882107 -3.0000189169
25.1985453245 -3.5692749025 -3.0000190192
25.4849887307 -3.4667187112 -3.0000189180
25.4958421893 -3.4623364542 -3.0000189137
25.5267258579 -3.4758230400 -3.0000189270
25.5376060661 -3.4713172771 -3.0000189225
24.6042235940 -3.4665569554 -3.0000189178
24.6158919983 -3.4649666184 -3.0000189163
24.5604498099 -3.4965658471 -3.0000189475
24.7129250859 -3.4748647254 -3.0000189260
24.8224430597 -3.4801644995 -3.0000189313
24.8622561351 -3.4970625751 -3.0000189479
24.8857641535 -3.4923202496 -3.0000189433
25.5010145628 -3.5463129994 -3.0000189965
25.5944424892 -3.7696365607 -3.0000192169
26.1793280192 0.8562310467 -3.0000146523
26.1698187352 0.9622196650 -3.0000145477
26.1669400752 0.9856941083 -3.0000145246
26.1612348084 1.0266864946 -3.0000144841
26.1244063229 1.2121989511 -3.0000143011
26.0853620660 1.3485933294 -3.0000141665
26.2108059424 1.0218634806 -3.0000144889
26.0905130802 1.4775446336 -3.0000140392
26.0746400317 1.5168490895 -3.0000140005
26.0455475553 1.5834346433 -3.0000139347
26.2342922855 0.4330072105 -3.0000150699
26.2495534615 0.8913461614 -3.0000146177
26.2445446428 0.9462607607 -3.0000145635
26.0751062477 1.5767601244 -3.0000139413
26.2647598449 0.4786872079 -3.0000150249
26.2653747176 0.3271563643 -3.0000151744
26.2999544715 0.8638232182 -3.0000146448
26.2476096760 1.2169398012 -3.0000142964
25.9805727609 1.8562767684 -3.0000136655
26.2651726593 1.2471404551 -3.0000142666
26.1886907323 1.5573417484 -3.0000139605
25.9613441471 1.9728369431 -3.0000135505
26.2394266973 1.4941109314 -3.0000140229
26.0590358228 1.8671874723 -3.0000136548
26.4007833908 0.7454211156 -3.0000147617
26.3059968484 1.3720629854 -3.0000141433
26.4672528413 0.3576938554 -3.0000151443
26.1185828567 1.9992899835 -3.0000135244
26.5164061779 0.5735007656 -3.0000149313
26.4998590582 1.0494323763 -3.0000144617
26.6818487614 0.5177647617 -3.0000149863
24.0758655290 -3.4663858688 -3.0000189177
24.1376853840 -3.4917057645 -3.0000189427
24.1501761712 -3.4918259162 -3.0000189428
24.0243882360 -3.5131177377 -3.0000189638
24.0369428595 -3.5135729491 -3.0000189642
24.0494987747 -3.5139910197 -3.0000189647
24.1751047911 -3.5161283354 -3.0000189668
24.2127932090 -3.5160449000 -3.0000189667
24.2881604032 -3.5148746814 -3.0000189655
24.3509424720 -3.5128778107 -3.0000189636
24.4402201989 -3.5326523724 -3.0000189831
24.4654390332 -3.5310651109 -3.0000189815
24.0479613724 -3.5623126248 -3.0000190123
24.4162966912 -3.5582282186 -3.0000190083
24.5303875485 -3.5505389908 -3.0000190007
24.5557106280 -3.5484179560 -3.0000189986
24.6568641697 -3.5384368106 -3.0000189888
24.2004983094 -3.5886284644 -3.0000190383
24.6595223504 -3.5624632410 -3.0000190125
24.7102875705 -3.5565425709 -3.0000190066
24.7259809016 -3.5789530648 -3.0000190288
24.8569337008 -3.5849381523 -3.0000190347
24.2007661151 -3.6611470539 -3.0000191099
24.7963981448 -3.6183482428 -3.0000190676
24.9631525690 -3.5916089788 -3.0000190412
25.1884074590 -3.6441729444 -3.0000190931
24.2415631963 -3.8058568924 -3.0000192527
24.6726913223 -3.8041914048 -3.0000192510
25.4138168266 -3.6616132512 -3.0000191103
23.9574213917 -3.8489325231 -3.0000192952
24.4590319878 -3.8463381695 -3.0000192926
24.5285016288 -3.8658834199 -3.0000193119
25.6690759764 -3.6586600774 -3.0000191074
25.7467449493 -3.6316210278 -3.0000190807
25.2451522657 -3.8295411859 -3.0000192760
26.2955872513 -3.4753809211 -3.0000189266
26.3811298088 -3.4586599849 -3.0000189101
26.0388809636 1.3085471282 -3.0000142060
26.0205324565 1.3884767324 -3.0000141271
26.0013905542 1.4576356393 -3.0000140589
26.0973032714 1.0195349469 -3.0000144912
26.0964867846 1.0403088817 -3.0000144707
26.0912375877 1.1180884151 -3.0000143939
26.0897738987 1.1336120842 -3.0000143786
26.0845571099 1.1800966024 -3.0000143327
26.0022535610 1.5338248208 -3.0000139837
26.1213838098 0.8991770356 -3.0000146099
26.1223704637 0.9781998742 -3.0000145320
26.1003769180 1.2404909141 -3.0000142731
26.0807683198 1.3440155186 -3.0000141710
26.1419728078 1.0904745520 -3.0000144212
26.1242503246 1.2442850857 -3.0000142694
26.1225426389 1.2548287551 -3.0000142590
26.1690659996 0.8812774671 -3.0000146276
26.1701110848 1.0111351529 -3.0000144995
26.1521732832 1.2213239858 -3.0000142921
26.1463931801 1.2587641034 -3.0000142551
26.1256235902 1.3649776405 -3.0000141503
26.0893019373 1.5008864405 -3.0000140162
25.9952958112 1.7428251178 -3.0000137775
26.1944174053 1.0063169248 -3.0000145042
26.1939415625 1.0227606584 -3.0000144880
26.1491997070 1.3703163665 -3.0000141450
26.0147990241 1.7581103140 -3.0000137624
26.2077390529 1.1675909072 -3.0000143451
26.1183164567 1.5679812089 -3.0000139500
26.2409932084 0.8668795861 -3.0000146418
26.1261375764 1.6182152109 -3.0000139004
26.0486470070 1.7991628123 -3.0000137219
26.2918739961 0.6542215431 -3.0000148517
26.2919537037 1.3965801947 -3.0000141191
26.1571416590 1.8524290542 -3.0000136693
23.3204362089 -3.4596330487 -3.0000189110
23.3335174721 -3.4626335587 -3.0000189140
23.3859295670 -3.4742482425 -3.0000189254
23.5175289110 -3.5005648327 -3.0000189514
23.6498490588 -3.5229775246 -3.0000189735
23.8227523802 -3.5462458679 -3.0000189965
23.3413078209 -3.4891802716 -3.0000189402
23.3544763987 -3.4921189103 -3.0000189431
23.7262795540 -3.5584952399 -3.0000190086
24.1292515704 -3.5952172497 -3.0000190448
23.3492464572 -3.5157193975 -3.0000189664
23.3624935078 -3.5186344361 -3.0000189692
23.6424809937 -3.5707588258 -3.0000190207
23.3041186788 -3.5302924837 -3.0000189807
23.3174090367 -3.5333409547 -3.0000189837
23.9773155950 -3.6341021031 -3.0000190832
24.2496523913 -3.6475835159 -3.0000190965
23.2986795021 -3.5538456287 -3.0000190040
23.3387865740 -3.5629203717 -3.0000190129
24.4278009825 -3.6960368498 -3.0000191443
23.4096139103 -3.6273794993 -3.0000190765
23.7786666453 -3.6870863436 -3.0000191355
24.1503257589 -3.7413106822 -3.0000191890
24.3869387076 -3.7449650377 -3.0000191926
23.3725836461 -3.6691085606 -3.0000191177
24.8340556803 -3.7436225148 -3.0000191912
24.9452425772 -3.7306445796 -3.0000191784
23.5293022664 -3.7482145791 -3.0000191958
24.3735066527 -3.8175969381 -3.0000192642
24.5995579549 -3.8107209028 -3.0000192575
25.0354370315 -3.7670196958 -3.0000192143
24.2884255545 -3.8415877284 -3.0000192879
25.0389484563 -3.7909363255 -3.0000192379
24.2881595130 -3.8657592924 -3.0000193118
24.3452747482 -3.8660499868 -3.0000193120
23.5109404398 -3.9412643556 -3.0000193863
25.4067476650 0.1292358908 -3.0000153697
25.4856042777 0.1677258621 -3.0000153317
26.0031743267 1.2190721830 -3.0000142943
26.0015757638 1.2494055176 -3.0000142644
25.9977958142 1.2969871731 -3.0000142174
25.9919091689 1.3487237129 -3.0000141664
25.9653129252 1.4937839516 -3.0000140232
25.9477816923 1.5609582804 -3.0000139569
26.0222728965 1.2949018385 -3.0000142195
26.0209910158 1.3080723575 -3.0000142065
26.0170017995 1.3431327757 -3.0000141719
26.0146963359 1.3606251291 -3.0000141546
25.9769360015 1.5463680263 -3.0000139713
25.9722285688 1.5633720748 -3.0000139545
26.0481079006 1.0374799434 -3.0000144735
26.0523304375 1.1180437675 -3.0000143940
26.0521292994 1.2031986971 -3.0000143099
26.0436183409 1.3238927234 -3.0000141909
26.0420783418 1.3372515296 -3.0000141777
26.0123679229 1.5048820739 -3.0000140123
26.0070619373 1.5266569279 -3.0000139908
26.0629584392 0.9495545161 -3.0000145602
26.0738342971 1.0582837580 -3.0000144529
26.0753451239 1.0855652924 -3.0000144260
26.0767029405 1.1265271261 -3.0000143856
26.0759867549 1.2130378075 -3.0000143002
26.0733506114 1.2630596244 -3.0000142509
26.0726965059 1.2721439911 -3.0000142419
26.0699841431 1.3039054612 -3.0000142106
26.0571890344 1.4032541114 -3.0000141125
26.0641630947 0.8188345951 -3.0000146892
26.0822150413 0.9142611386 -3.0000145951
26.1009070643 1.1861751737 -3.0000143267
26.0991316853 1.2370219759 -3.0000142766
26.0944813751 1.3016065502 -3.0000142128
26.0493285106 1.5563656383 -3.0000139615
26.0381625965 1.5964680498 -3.0000139219
26.0867411421 0.8090217129 -3.0000146989
26.1068173345 0.9151488628 -3.0000145942
26.1248254977 1.1161772788 -3.0000143958
26.1224898914 1.2523274896 -3.0000142615
26.1084972268 1.3877768908 -3.0000141278
26.1001588601 1.4387639095 -3.0000140775
26.0750721328 1.5534495778 -3.0000139643
26.0943493382 0.7389096192 -3.0000147681
26.1191745526 0.8457162373 -3.0000146627
26.1395097130 0.9776372514 -3.0000145325
26.1494872582 1.1680036642 -3.0000143447
26.1125625887 0.7139721421 -3.0000147927
26.1226060863 0.7513658001 -3.0000147558
26.1306661611 0.7842723376 -3.0000147233
26.1640641191 0.9797575670 -3.0000145304
26.1660479845 0.9990154685 -3.0000145114
26.1662352483 1.3131298453 -3.0000142015
26.1450981911 1.4616198801 -3.0000140549
26.1015668526 0.5998068361 -3.0000149053
26.1014286053 0.5311052752 -3.0000149731
26.2053007283 0.9201349323 -3.0000145893
26.2098485716 0.9547175478 -3.0000145551
26.2159757456 1.0141956310 -3.0000144964
26.2220222643 1.1485648676 -3.0000143639
26.1804274392 1.5291606750 -3.0000139883
26.1064066621 0.4801195060 -3.0000150234
26.1123522046 0.4940687499 -3.0000150097
26.2169087112 0.8419323352 -3.0000146664
26.2187436237 0.8518734102 -3.0000146566
26.2393581992 1.3099824313 -3.0000142046
26.2258093217 1.4203333135 -3.0000140957
26.1610992876 0.5513888159 -3.0000149531
26.2637053959 1.0049888660 -3.0000145055
26.1316951564 0.4182676494 -3.0000150845
26.1989129664 0.5147881597 -3.0000149892
26.2274396391 0.5941112539 -3.0000149110
26.3278055184 0.6762060296 -3.0000148300
26.3215840926 0.4307127286 -3.0000150722
23.6055221072 -3.6529781273 -3.0000191018
23.7768206501 -3.6830267597 -3.0000191315
23.8054694458 -3.6874428708 -3.0000191358
23.2603921165 -3.5980902192 -3.0000190476
24.1490587813 -3.7512688957 -3.0000191988
23.0294734925 -3.5553604768 -3.0000190055
23.2117659737 -3.6098578265 -3.0000190593
23.4673498936 -3.6736635964 -3.0000191222
24.0742418380 -3.7690526565 -3.0000192163
24.1763400129 -3.7775900477 -3.0000192248
22.9522325709 -3.5554510662 -3.0000190056
23.0221055976 -3.5783832788 -3.0000190282
24.3507934646 -3.8114573764 -3.0000192582
22.8329158394 -3.5393398479 -3.0000189897
23.4713271243 -3.7240406397 -3.0000191719
23.8020971118 -3.8091484821 -3.0000192559
24.2154940214 -3.8529710997 -3.0000192991
22.6215716898 -3.5094587982 -3.0000189602
23.0712304394 -3.6696673066 -3.0000191183
23.3446909222 -3.7444180991 -3.0000191920
23.4610095668 -3.7712729288 -3.0000192185
22.6262693149 -3.5374948476 -3.0000189878
22.7940861927 -3.6023706668 -3.0000190519
22.8505238470 -3.6226671330 -3.0000190719
23.5733326147 -3.8190993643 -3.0000192657
23.7357383606 -3.8478357205 -3.0000192941
23.1874229127 -3.7536075945 -3.0000192011
22.7065841500 -3.6212084312 -3.0000190705
23.0501507211 -3.7390550794 -3.0000191867
22.9050615545 -3.7435922263 -3.0000191912
22.4636084188 -3.8103372071 -3.0000192571
22.5817336410 -3.8580228739 -3.0000193041
25.9657741655 1.2479121169 -3.0000142658
25.9670099031 1.2763072418 -3.0000142378
25.9674033286 1.3366977584 -3.0000141782
25.9660397333 1.3757534010 -3.0000141397
25.9636980356 1.4112031781 -3.0000141047
25.9614354304 1.4359694261 -3.0000140803
25.9590882467 1.4571565265 -3.0000140594
25.9876731733 1.2140341269 -3.0000142993
25.9984233802 1.1057425125 -3.0000144061
26.0064631863 1.1605895804 -3.0000143520
26.0154432564 1.2784710666 -3.0000142357
26.0070911957 1.4629061361 -3.0000140537
26.0022081123 1.0058539847 -3.0000145047
26.0123775225 1.0499012147 -3.0000144612
26.0222571475 1.1017068195 -3.0000144101
26.0228806138 1.1054222286 -3.0000144064
26.0252644904 1.1203018207 -3.0000143917
26.0364515341 1.2175878926 -3.0000142957
26.0375072644 1.2326202098 -3.0000142809
26.0373613521 1.3982669076 -3.0000141175
26.0339576135 1.4395659916 -3.0000140767
26.0115677968 0.9481395706 -3.0000145616
26.0247259887 0.9962757334 -3.0000145141
26.0352211522 1.0411281744 -3.0000144699
26.0508593560 1.1280088781 -3.0000143841
26.0599488916 1.2080979590 -3.0000143051
26.0857537245 1.2295185629 -3.0000142840
26.0884740326 1.3115781474 -3.0000142030
26.0808638758 1.4559894153 -3.0000140605
26.1030970938 1.4744053552 -3.0000140423
26.0691286474 0.8889644475 -3.0000146200
26.1269026248 1.1497404133 -3.0000143627
26.1793222501 1.1856621081 -3.0000143273
26.1356914460 0.6650117046 -3.0000148410
26.3771116140 1.3824823491 -3.0000141330
23.0506871656 -3.7367827731 -3.0000191845
23.1406053904 -3.7664413872 -3.0000192138
22.8343123809 -3.6839552199 -3.0000191324
22.5511244223 -3.6974810081 -3.0000191457
22.3577791824 -3.6880876786 -3.0000191364
25.9416095754 1.2650510746 -3.0000142489
25.9443323035 1.2814234570 -3.0000142328
25.9467640228 1.2978415840 -3.0000142166
25.9482231153 1.3088098621 -3.0000142057
25.9495523239 1.3197946371 -3.0000141949
25.9507514625 1.3307943708 -3.0000141840
25.9510309037 1.3335464611 -3.0000141813
25.9527588763 1.3528325525 -3.0000141623
25.9537484618 1.3666281889 -3.0000141487
25.9533057114 1.2025352377 -3.0000143106
25.9552577325 1.2108216465 -3.0000143024
25.9606715253 1.2357802366 -3.0000142778
25.9628639829 1.2469174194 -3.0000142668
25.9663831437 1.2664670966 -3.0000142475
25.9718417718 1.3029494656 -3.0000142115
25.9761469678 1.3424411557 -3.0000141725
25.9855020482 1.2366765124 -3.0000142769
25.9996989036 1.3345250646 -3.0000141804
25.9687382130 1.0856269657 -3.0000144260
25.9707391308 1.0912426674 -3.0000144204
25.9820438204 1.1251765056 -3.0000143869
25.9863973235 1.1394301795 -3.0000143729
25.9880796143 1.1451494169 -3.0000143672
25.9897280388 1.1508785071 -3.0000143616
25.9944695428 1.1681228880 -3.0000143446
26.0043375281 1.2086670388 -3.0000143046
26.0062331233 1.2174060849 -3.0000142959
26.0068477448 1.2203227961 -3.0000142931
25.9773418255 1.0403753811 -3.0000144706
26.0138092148 1.1472001439 -3.0000143652
26.0186122101 1.1648725013 -3.0000143478
26.0329376906 1.2273383668 -3.0000142861
26.0373701987 1.2513503127 -3.0000142624
25.9760041035 0.9769431581 -3.0000145332
25.9985834776 1.0284312553 -3.0000144824
26.0309395083 1.1196670860 -3.0000143924
26.0362284670 1.1376478117 -3.0000143746
25.9794680921 0.9294143820 -3.0000145801
26.0358924159 1.0580796430 -3.0000144531
26.0540686499 1.1126401313 -3.0000143993
25.9963778270 0.9096067841 -3.0000145997
25.9994196556 0.9153890917 -3.0000145939
26.0445878115 1.0132277308 -3.0000144974
26.0552299997 1.0406343593 -3.0000144704
25.9812664402 0.8345573226 -3.0000146737
26.0036299382 0.8247801937 -3.0000146834
26.0258662677 0.7695149304 -3.0000147379
26.3835746782 1.2861995798 -3.0000142280
26.3882203205 1.3427525088 -3.0000141722
26.3974018749 1.2060284253 -3.0000143072
26.4033244631 1.2468484988 -3.0000142669
25.2515594732 0.0269930217 -3.0000154706
26.4307812771 1.2728985769 -3.0000142412
26.3997590777 1.0031540416 -3.0000145073
26.4361406506 1.1479641291 -3.0000143645
26.4377645804 1.1563440496 -3.0000143562
26.4189909955 0.9836309729 -3.0000145266
26.4854703579 1.3498305136 -3.0000141653
26.4048782584 0.8725328988 -3.0000146362
26.4827179116 1.1342993804 -3.0000143779
26.4955644711 1.2081685845 -3.0000143050
26.4303938743 0.8083719549 -3.0000146995
26.4340270461 0.8167238190 -3.0000146913
26.5498891452 0.9171550680 -3.0000145922
25.3739599714 -1.0302680721 -3.0000165138
25.2768304738 -1.0908905585 -3.0000165736
24.9547662574 -1.1272259304 -3.0000166095
25.1066964435 -1.1508074838 -3.0000166328
24.9819600411 -1.3453618222 -3.0000168248
22.9062089310 -2.1445100772 -3.0000176133
22.2780950547 -3.7866061897 -3.0000192337
21.8871424876 -3.7601587827 -3.0000192076
21.6957829158 -3.7261460600 -3.0000191740
21.2813195751 -3.6155124418 -3.0000190648
25.9226054788 1.2695482160 -3.0000142445
25.9329100969 1.3015821352 -3.0000142129
25.9406550846 1.3302465598 -3.0000141846
25.9346277643 1.2327612603 -3.0000142808
25.9419673136 1.2519139528 -3.0000142619
25.9447439601 1.2596344124 -3.0000142543
25.9474290602 1.2673871861 -3.0000142466
25.9610737336 1.3125380583 -3.0000142021
25.9514056941 1.2100418591 -3.0000143032
25.9594098869 1.2297007414 -3.0000142838
25.9774671496 1.2818380425 -3.0000142324
25.9421575695 1.1354308465 -3.0000143768
26.3548337249 1.1944991826 -3.0000143185
26.3574180431 1.2039526743 -3.0000143092
26.4111121672 1.0573444119 -3.0000144539
26.4161582079 1.0706296323 -3.0000144408
26.3878742417 0.8924730155 -3.0000146166
26.4000202373 0.9153150121 -3.0000145940
26.3981047428 0.8611535621 -3.0000146475
26.3975992132 0.7242194043 -3.0000147826
26.4154203562 0.7506221414 -3.0000147565
26.4532007152 0.8115202324 -3.0000146964
24.7428552388 -1.0542782657 -3.0000165375
24.6469620477 -1.0566603677 -3.0000165399
24.5879517138 -1.0660890845 -3.0000165492
32.6008635574 -0.3346299345 -3.0000158274
32.6115332846 -0.2913497780 -3.0000157847
32.6077795526 -0.4054932938 -3.0000158973
32.6133560203 -0.3838403375 -3.0000158760
32.6188684103 -0.3621709798 -3.0000158546
32.6243166742 -0.3404854102 -3.0000158332
32.6081607350 -0.4982771532 -3.0000159889
32.6140116724 -0.4766226633 -3.0000159675
19.1852047007 -3.1672027698 -3.0000186225
19.1526476011 -3.5161688037 -3.0000189668
19.3462764126 -4.1388534910 -3.0000195812
19.3629548597 -4.1564141244 -3.0000195986
19.5850351700 -4.4143885787 -3.0000198531
19.6210191849 -4.4823240227 -3.0000199202
19.9029716129 -4.8651585296 -3.0000202979
26.3390975610 1.1735512198 -3.0000143392
26.3400700852 1.1758328041 -3.0000143370
26.3454845335 1.1291971204 -3.0000143830
26.3431166265 1.0721406680 -3.0000144393
26.3567387637 1.0975769122 -3.0000144142
26.3418329231 0.9780012177 -3.0000145322
24.4522381180 -0.9813298291 -3.0000164655
19.0875549521 -1.9446900350 -3.0000174161
19.0463963904 -2.5049213954 -3.0000179690
18.9839657037 -2.6787076530 -3.0000181404
18.9837077527 -2.9860332235 -3.0000184437
33.4848736612 -1.9125736295 -3.0000173844
33.4866626143 -1.9690592233 -3.0000174402
33.5393904877 -1.9081629710 -3.0000173801
33.4898821084 -2.1963788700 -3.0000176645
33.5221670826 -2.2978029398 -3.0000177646
33.5315537122 -2.3894724072 -3.0000178550
33.5300362309 -2.4472623712 -3.0000179121
33.5416883131 -2.4236928471 -3.0000178888
33.5377773853 -2.5396358677 -3.0000180032
33.5567025176 -2.6088430567 -3.0000180715
33.5536596026 -2.6672240244 -3.0000181291
26.3277016904 0.6202166852 -3.0000148852
26.3454395222 0.6514962927 -3.0000148543
26.3366898804 0.5885004735 -3.0000149165
26.3514530217 0.5230450962 -3.0000149811
25.4802338726 -0.1273891635 -3.0000156229
25.2596218976 -0.1241791155 -3.0000156197
25.3652286736 -0.1422799652 -3.0000156376
25.3872493285 -0.1448901034 -3.0000156402
25.5990362869 -0.1742376609 -3.0000156691
25.2232125361 -0.1654935250 -3.0000156605
25.3476947057 -0.1887298426 -3.0000156834
25.3298529546 -0.2594612429 -3.0000157532
22.5294261521 -2.0163855292 -3.0000174869
19.0594977104 -1.8386863247 -3.0000173115
19.0095026797 -2.6410452128 -3.0000181033
24.0944322717 -7.6264040507 -3.0000230226
23.9871230483 -7.6326936565 -3.0000230288
33.4613301591 -2.8470278497 -3.0000183065
24.0347495705 -7.6654609736 -3.0000230611
33.5046264745 -2.8685399440 -3.0000183278
33.4665876185 -2.9972282428 -3.0000184547
25.9292741493 0.8370124338 -3.0000146713
25.9341137419 0.7776870454 -3.0000147298
25.9378126901 0.7872524617 -3.0000147204
25.9399640067 0.7930176039 -3.0000147147
25.9480551682 0.8162622573 -3.0000146918
25.9407247186 0.7317307130 -3.0000147752
25.9424930499 0.7355902229 -3.0000147714
25.9459610560 0.7433402907 -3.0000147637
25.9534234351 0.6510981688 -3.0000148547
25.9589925696 0.6609630297 -3.0000148450
25.9550007002 0.6070845224 -3.0000148982
25.9696812964 0.6309799766 -3.0000148746
26.3675387515 0.6996232640 -3.0000148069
26.3704590051 0.5678038703 -3.0000149369
25.3204043165 -0.1680666497 -3.0000156630
26.4113580567 0.6043482993 -3.0000149009
25.6002918227 -0.1525077751 -3.0000156477
25.6456235986 -0.1396736316 -3.0000156350
26.3658385411 0.4476667654 -3.0000150555
26.3692800499 0.4540463631 -3.0000150492
26.3726837546 0.4604462101 -3.0000150429
26.3817431902 0.4264080774 -3.0000150764
26.3853101942 0.4328821444 -3.0000150701
25.2168412278 -0.2389283783 -3.0000157330
25.5686430592 -0.2099681440 -3.0000157044
25.8249763049 -0.1228361715 -3.0000156184
25.6075492592 -0.2255253524 -3.0000157197
26.4107386989 0.3795916004 -3.0000151226
26.3749197874 0.2784044538 -3.0000152225
25.7455699962 -0.2594721788 -3.0000157532
26.3910808171 0.1011359140 -3.0000153974
24.8215918798 -1.4789879652 -3.0000169566
24.6112812540 -1.5056910647 -3.0000169830
24.7807781023 -1.5696359990 -3.0000170461
22.6972455409 -2.1464517078 -3.0000176152
22.7009344826 -2.1805561810 -3.0000176489
19.1775272780 -3.1205945976 -3.0000185765
19.1676026104 -3.2340868020 -3.0000186885
19.1337873396 -3.4777625613 -3.0000189289
18.9192999834 -3.6349240807 -3.0000190840
27.1154178171 -7.3197663039 -3.0000227200
26.2478034093 -7.5118190281 -3.0000229095
26.1490458698 -7.5466152678 -3.0000229439
26.1997880300 -7.5413783752 -3.0000229387
27.2801131531 -7.3565993067 -3.0000227564
24.9480024540 -7.6796007846 -3.0000230751
24.9995524215 -7.6814673407 -3.0000230769
24.8942863374 -7.7257262414 -3.0000231206
28.7832750892 -7.0609886190 -3.0000224647
28.8787969663 -7.0190792906 -3.0000224233
28.9323237716 -7.0745729998 -3.0000224781
28.7217488587 -7.3229644699 -3.0000227232
28.7804404425 -7.3248156013 -3.0000227250
25.9321331801 0.7075722400 -3.0000147990
25.9424617409 0.6514084921 -3.0000148544
25.9453481992 0.6614965071 -3.0000148445
25.9460511467 0.6640237924 -3.0000148420
25.9601430478 0.7226772466 -3.0000147841
25.9625748446 0.6342941907 -3.0000148713
25.9649019701 0.6420361774 -3.0000148637
25.9721611960 0.6679863140 -3.0000148381
25.9888347587 0.7443096015 -3.0000147628
25.9548125357 0.5413675883 -3.0000149630
25.9646816502 0.5034638900 -3.0000150004
25.9651797269 0.3986196897 -3.0000151039
26.3705359818 0.6818247769 -3.0000148244
26.3894745214 0.6508215584 -3.0000148550
27.6680730234 -7.2263449734 -3.0000226278
27.6921020949 -7.2186870439 -3.0000226203
27.6029525786 -7.2719982509 -3.0000226729
29.6641443833 -6.6646553906 -3.0000220736
25.9417611049 0.8142685944 -3.0000146937
25.9418875393 0.8232099714 -3.0000146849
25.9419219175 0.8381136296 -3.0000146702
25.9412216805 0.8708931388 -3.0000146379
25.9407026555 0.8828048339 -3.0000146261
25.9551637156 0.6831028271 -3.0000148232
25.9619714860 0.7406874014 -3.0000147663
25.9660946325 0.8382366401 -3.0000146701
25.9649925199 0.8809512209 -3.0000146279
25.9746266389 0.6518331838 -3.0000148540
25.9786220021 0.6765014093 -3.0000148297
25.9835178441 0.7136637341 -3.0000147930
25.9860476045 0.7385250412 -3.0000147685
25.9870916822 0.7509764041 -3.0000147562
25.9897928072 0.8008792227 -3.0000147069
25.9901780773 0.8477305445 -3.0000146607
25.9833814569 0.5757686602 -3.0000149291
25.9841377623 0.5788731542 -3.0000149260
25.9891743042 0.6006653525 -3.0000149045
25.9844969760 0.4914828105 -3.0000150122
26.0322733283 0.7146946858 -3.0000147920
26.0386191624 0.8288053059 -3.0000146794
26.0430857312 0.6229702446 -3.0000148825
26.0611505854 0.7719922779 -3.0000147354
26.0627469907 0.8220373373 -3.0000146861
26.0111692601 0.4218805304 -3.0000150809
26.0737362568 0.6588012798 -3.0000148471
26.0084378725 0.3521592151 -3.0000151497
26.0374341283 0.4230326534 -3.0000150798
26.0918627210 0.6208177586 -3.0000148846
25.4554225141 -0.2490844525 -3.0000157430
25.3795230785 -0.3084473732 -3.0000158016
25.4429411060 -0.2816341761 -3.0000157751
26.0690656635 0.2548803049 -3.0000152457
25.9252398153 -0.0049232997 -3.0000155021
26.3983170167 0.7407050752 -3.0000147663
26.3998319407 0.8968431908 -3.0000146122
26.4278678859 0.5774597273 -3.0000149274
26.4314838469 0.5995781038 -3.0000149056
26.4309650499 0.3803446929 -3.0000151219
26.4620214265 0.4003930938 -3.0000151021
25.3197860440 -1.7169209664 -3.0000171914
25.1172399329 -1.8847825126 -3.0000173570
23.5091753841 -3.8293891253 -3.0000192759
23.2133347224 -3.8831830116 -3.0000193290
22.7576880376 -3.7713307832 -3.0000192186
22.2044800517 -3.6089915744 -3.0000190584
22.2942909604 -3.8581240143 -3.0000193042
25.9643015718 0.8167977880 -3.0000146912
25.9614403071 0.8445003653 -3.0000146639
25.9476302416 0.9339325114 -3.0000145756
25.6498123971 -0.1311881136 -3.0000156267
25.9900155469 0.6202721485 -3.0000148852
25.9926932182 0.6699361251 -3.0000148361
25.9928057432 0.6734871745 -3.0000148326
25.9929992770 0.6805901943 -3.0000148256
25.9932602574 0.6947990471 -3.0000148116
25.9933364531 0.7161156296 -3.0000147906
25.9923539121 0.7587360643 -3.0000147485
25.9914981291 0.7764794420 -3.0000147310
25.9823511372 0.8719432248 -3.0000146368
25.4568588751 -0.3195706357 -3.0000158125
26.0174711703 0.6981222464 -3.0000148083
26.0172790848 0.7343638296 -3.0000147726
26.0161897495 0.7669637435 -3.0000147404
26.0144931920 0.7959081191 -3.0000147118
26.0127715413 0.8175856217 -3.0000146905
25.9977684006 0.9288942644 -3.0000145806
25.9929724121 0.9538067546 -3.0000145560
25.9900005692 0.9679961627 -3.0000145420
25.5661476993 -0.2711294344 -3.0000157647
26.0163533117 0.4593694541 -3.0000150439
26.0225847982 0.4920421783 -3.0000150117
26.0370386590 0.6019348260 -3.0000149032
26.0410628022 0.7496277708 -3.0000147575
26.0317028744 0.8674797042 -3.0000146412
26.0208851675 0.9368532457 -3.0000145728
26.0173918416 0.9549991287 -3.0000145549
26.0385041027 0.4471476731 -3.0000150560
26.0564216965 0.5548878349 -3.0000149497
26.0585738996 0.5736010976 -3.0000149312
26.0649003912 0.6600023081 -3.0000148459
26.0545843376 0.4084547127 -3.0000150942
26.0733959969 0.5025423480 -3.0000150013
26.0599401996 0.3348463153 -3.0000151668
26.0734168892 0.3838590106 -3.0000151184
26.0737255303 0.2975532162 -3.0000152036
26.1352204549 0.6174098840 -3.0000148880
26.1354877384 0.6213827845 -3.0000148841
26.1367312062 0.7765851249 -3.0000147309
26.0512365423 0.1687365467 -3.0000153307
26.1605772834 0.6359803548 -3.0000148697
26.1051540833 0.2397879962 -3.0000152606
26.1745148294 0.8939711277 -3.0000146151
26.1906451904 0.4708249591 -3.0000150326
26.2027808690 0.5580956105 -3.0000149465
26.0792932064 0.0057633237 -3.0000154915
26.4262022828 0.7958217740 -3.0000147119
26.4654962404 0.5148128449 -3.0000149892
25.5789598217 -1.7969490847 -3.0000172704
25.3665224713 -1.8787298222 -3.0000173511
23.6668564011 -3.6603714054 -3.0000191091
23.7445953771 -3.6796582666 -3.0000191281
23.8879563371 -3.7114220865 -3.0000191595
23.6089205311 -3.6700844700 -3.0000191187
23.9357691429 -3.7455519013 -3.0000191931
23.4084694231 -3.6363127018 -3.0000190854
23.5765853641 -3.6863048133 -3.0000191347
24.2913157357 -3.8237172694 -3.0000192703
24.3852922927 -3.8331193700 -3.0000192796
24.3291254390 -3.8520343807 -3.0000192982
23.2131537416 -3.6207104845 -3.0000190700
24.3402511960 -3.8774411623 -3.0000193233
23.9849093872 -3.8529462872 -3.0000192991
22.9280053499 -3.5586229369 -3.0000190087
24.0622269741 -3.8904321591 -3.0000193361
24.1303453108 -3.9007275614 -3.0000193463
24.2943917531 -3.9213175202 -3.0000193666
23.5111118938 -3.8185947870 -3.0000192652
23.5916835783 -3.8406209076 -3.0000192870
23.6668821197 -3.8846924202 -3.0000193304
22.7149579844 -3.6205362875 -3.0000190698
23.0670773406 -3.7724772273 -3.0000192197
26.0624136480 0.6825495021 -3.0000148237
25.9915662380 1.0208105836 -3.0000144899
25.9577324535 1.1094256502 -3.0000144025
26.0311470602 0.9767347092 -3.0000145334
26.1148645604 0.6098251868 -3.0000148955
26.0440722578 1.0162752664 -3.0000144944
26.0875169828 1.1106107062 -3.0000144013
23.6376684338 -3.5008530161 -3.0000189517
24.4715138741 -3.6256150641 -3.0000190748
23.5833597517 -3.5116757077 -3.0000189624
24.1344791568 -3.6201679862 -3.0000190694
24.2959006184 -3.6377651910 -3.0000190868
24.4329328134 -3.6477983371 -3.0000190967
23.5771235721 -3.5350304791 -3.0000189854
24.5947521073 -3.6780694402 -3.0000191266
24.6073131907 -3.6782815103 -3.0000191268
24.7078132291 -3.6786402639 -3.0000191271
23.7550125472 -3.6031989873 -3.0000190527
23.7920660390 -3.6111788853 -3.0000190606
24.7459129479 -3.7023310979 -3.0000191505
24.8090652939 -3.7007814649 -3.0000191490
23.4911748122 -3.5614201490 -3.0000190115
23.5401191487 -3.5751116758 -3.0000190250
23.5892220632 -3.5882231120 -3.0000190379
23.6699007982 -3.6332793116 -3.0000190824
24.5423264356 -3.7493356438 -3.0000191969
25.0401806424 -3.7356455485 -3.0000191834
25.0910780550 -3.7309963219 -3.0000191788
24.3619577434 -3.7643460134 -3.0000192117
24.3087020907 -3.7844545414 -3.0000192315
24.8379770861 -3.7965229771 -3.0000192434
25.3301443349 -3.7743394577 -3.0000192216
25.3558237691 -3.7703739268 -3.0000192176
23.8261707922 -3.7660952278 -3.0000192134
25.4240283774 -3.7836166519 -3.0000192307
23.9897122677 -3.8193233773 -3.0000192659
25.4798607002 -3.7981924903 -3.0000192451
24.7888369394 -3.8948322095 -3.0000193405
25.4961719287 -0.5154305953 -3.0000160058
26.0929270330 0.5357431330 -3.0000149686
26.0894523955 0.5714330835 -3.0000149333
26.0118748437 0.9115532794 -3.0000145977
26.1224802980 0.3876794981 -3.0000151147
26.1225010552 0.4241102355 -3.0000150787
26.1153545702 0.5559407065 -3.0000149486
26.1134822730 0.5740599196 -3.0000149308
26.0917326532 0.7134968042 -3.0000147932
26.0533108423 0.8634208295 -3.0000146452
26.0087777119 0.9877073760 -3.0000145226
26.1267223944 0.1571786283 -3.0000153421
26.1451928716 0.3365228242 -3.0000151651
26.0931242765 0.8128380295 -3.0000146951
26.1513283639 0.1579578262 -3.0000153413
26.0722647173 0.9577963102 -3.0000145521
26.0031630866 1.1171606767 -3.0000143948
26.1939610182 0.4678290394 -3.0000150356
26.1907792561 0.5249591911 -3.0000149792
26.1768188181 0.0363995276 -3.0000154613
26.2434065818 0.4205602530 -3.0000150822
24.1655071398 -3.4792458231 -3.0000189304
24.2000098140 -3.4827992186 -3.0000189339
24.2460598497 -3.4870605182 -3.0000189381
24.4306674018 -3.4986490585 -3.0000189495
24.1051387904 -3.4966373115 -3.0000189475
24.2323865114 -3.5101229575 -3.0000189608
24.2555663161 -3.5121296901 -3.0000189628
24.4529756347 -3.5236426748 -3.0000189742
24.5460185596 -3.5256226545 -3.0000189761
24.6041842582 -3.5257418284 -3.0000189762
24.6274499623 -3.5255486073 -3.0000189761
24.1719804704 -3.5285486109 -3.0000189790
24.3703208065 -3.5442425277 -3.0000189945
24.5106794279 -3.5493071782 -3.0000189995
24.1460507712 -3.5500739375 -3.0000190003
24.4160713540 -3.5706360535 -3.0000190205
24.4749170323 -3.5726722731 -3.0000190226
24.5220112425 -3.5736744511 -3.0000190235
24.8515411465 -3.5650869711 -3.0000190151
24.1198520702 -3.5714293548 -3.0000190213
24.9122433358 -3.5847743205 -3.0000190345
24.1763009953 -3.6018961624 -3.0000190514
24.3172422041 -3.6379313583 -3.0000190870
24.5208973424 -3.6461849798 -3.0000190951
25.1782310054 -3.6027448575 -3.0000190522
24.3879127445 -3.6661591027 -3.0000191148
25.0861680481 -3.6396918950 -3.0000190887
24.6293557421 -3.6947490708 -3.0000191430
25.3289472536 -3.6266395084 -3.0000190758
24.1301254659 -3.6942351487 -3.0000191425
24.1422589688 -3.6955573586 -3.0000191438
24.1543963299 -3.6968436697 -3.0000191451
25.2530763591 -3.6889289848 -3.0000191373
24.7659469174 -3.7635243353 -3.0000192109
24.2086688329 -3.7749663846 -3.0000192222
25.1257186393 -3.7564967768 -3.0000192039
24.1070948004 -3.7889526984 -3.0000192360
24.2419093602 -3.8263148226 -3.0000192728
25.7344949376 -3.6810023813 -3.0000191295
24.0989189551 -3.8610094336 -3.0000193071
25.8572466402 -3.6950746168 -3.0000191433
24.4773169072 -3.9596299288 -3.0000194044
26.0867930056 -3.6939293381 -3.0000191422
24.0723145941 -3.9796120160 -3.0000194241
24.1060951472 -4.0320419695 -3.0000194758
25.6496176824 -0.1870767976 -3.0000156818
25.6591952606 -0.1603171234 -3.0000156554
26.0641521482 0.9125420096 -3.0000145968
26.2322875877 0.2148785098 -3.0000152852
26.2166970402 0.4618409775 -3.0000150415
26.1768509352 0.8261145423 -3.0000146820
26.0832372275 1.0402630980 -3.0000144707
24.7290017284 -3.4541352062 -3.0000189056
24.7522878865 -3.4769833777 -3.0000189281
24.7851850764 -3.4748088815 -3.0000189260
24.7961463581 -3.4740191828 -3.0000189252
24.8071052558 -3.4731970622 -3.0000189244
24.8180616735 -3.4723425268 -3.0000189236
24.8399666857 -3.4705362417 -3.0000189218
24.8509150884 -3.4695845078 -3.0000189208
24.8618606279 -3.4686003908 -3.0000189199
24.7427339567 -3.5017748456 -3.0000189526
24.8310020784 -3.4955468449 -3.0000189465
24.8420245062 -3.4946215205 -3.0000189455
24.9080972037 -3.4883852298 -3.0000189394
24.9410894431 -3.4848275642 -3.0000189359
24.9960021792 -3.4782479427 -3.0000189294
24.9437876971 -3.5088495273 -3.0000189596
24.9990554321 -3.5022273699 -3.0000189530
25.0100968869 -3.5008048841 -3.0000189516
25.0321669310 -3.4978619561 -3.0000189487
25.0542191775 -3.4947885057 -3.0000189457
24.7791115864 -3.5479201743 -3.0000189981
24.8796176568 -3.5397821043 -3.0000189901
25.1462076900 -3.5050360113 -3.0000189558
25.1572568094 -3.5031782102 -3.0000189540
25.0678495133 -3.5905150875 -3.0000190402
25.1806421815 -3.5727488934 -3.0000190226
25.3763240145 -3.5585010268 -3.0000190086
