52.4498782833 -34.1648888506 -1.7090099811
55.7596439891 -34.1520892462 -1.7090099685
52.1469838765 -34.0928529189 -1.7090099100
52.4265119233 -34.1832135519 -1.7090099992
52.4762955461 -34.1976950328 -1.7090100135
54.3920745387 -34.4390626403 -1.7090102517
55.4046606389 -34.2964252053 -1.7090101109
55.8564762457 -34.1727688711 -1.7090099889
52.0163035155 -34.0968526867 -1.7090099140
53.9056053444 -34.4686956451 -1.7090102809
55.8969724115 -34.1851782287 -1.7090100011
55.9466368078 -34.1688612423 -1.7090099850
51.5725265739 -33.9362458378 -1.7090097555
51.8935832988 -34.0753291584 -1.7090098927
55.8042528050 -34.2396138507 -1.7090100548
55.9044155753 -34.2081768068 -1.7090100238
52.1647422236 -34.2013269611 -1.7090100171
52.2815313669 -34.2398450292 -1.7090100551
55.9952301280 -34.2035106203 -1.7090100192
51.5839928758 -33.9949011353 -1.7090098134
51.7777183929 -34.0801887230 -1.7090098975
51.9743487858 -34.1585471126 -1.7090099749
56.1194979855 -34.1854347665 -1.7090100014
52.3104376767 -34.3249050126 -1.7090101390
52.1690652988 -34.3558036869 -1.7090101695
52.1022734572 -34.3843436578 -1.7090101977
52.1981866824 -34.4415992820 -1.7090102542
51.9316521342 -34.3748761081 -1.7090101883
51.4360478618 -34.4057203111 -1.7090102188
51.4334186633 -34.4575987343 -1.7090102699
56.0834153270 -28.5264949266 -1.7107068453
56.0635531361 -28.4143661416 -1.7107067346
56.0380795711 -28.3033775452 -1.7107066251
56.1180436373 -28.6034112772 -1.7107069212
56.0546214088 -28.2711839550 -1.7107065933
55.9740254276 -28.0269890984 -1.7107063524
55.9690283827 -28.0144034375 -1.7107063400
56.1526879991 -29.0105016645 -1.7107073229
56.1505344454 -28.6891837522 -1.7107070058
55.9837532288 -27.9863953837 -1.7107063123
56.1807294001 -28.9222315988 -1.7107072358
56.1636074517 -28.5772851552 -1.7107068954
56.1551182116 -28.5156453241 -1.7107068346
56.1461970002 -28.4610610655 -1.7107067807
56.1259995602 -28.3593497057 -1.7107066803
56.1735386674 -28.4775356287 -1.7107067970
56.1637104980 -28.4225261531 -1.7107067427
56.1569078882 -28.3882692032 -1.7107067089
56.1874547436 -28.4179933743 -1.7107067382
56.0936093565 -28.0709039915 -1.7107063957
56.0993000720 -28.0159797699 -1.7107063415
56.1829581265 -28.1087430478 -1.7107064330
56.2715540040 -29.3845023974 -1.7107076919
56.3226301358 -28.3540849162 -1.7107066751
56.4156796643 -28.4606430585 -1.7107067803
56.3967205765 -28.3545267073 -1.7107066756
55.7599100090 -30.7331993815 -1.7107090227
56.5436945194 -28.9071089029 -1.7107072208
56.4735524888 -28.0659981244 -1.7107063909
56.4527104239 -31.9045159437 -1.7107101785
56.4684538541 -31.9228593263 -1.7107101966
56.3545830980 -32.0478653997 -1.7107103200
56.7631136314 -31.6779043323 -1.7107099549
56.8043937583 -31.6344258929 -1.7107099120
56.3601704100 -32.2566195246 -1.7107105260
56.3800453742 -32.4807160665 -1.7107107471
52.7564817523 -33.5432969309 -1.7107117956
52.9510961573 -33.5843232720 -1.7107118361
53.0349907875 -33.5994322292 -1.7107118510
52.8765515251 -33.5942789155 -1.7107118459
53.1013785062 -33.6347690068 -1.7107118859
53.1296092466 -33.6390807443 -1.7107118901
53.2711183893 -33.6581301479 -1.7107119089
53.3278694228 -33.6645764483 -1.7107119153
53.4273529241 -33.6742400903 -1.7107119248
53.4842836406 -33.6788366233 -1.7107119294
53.5127683983 -33.6808821942 -1.7107119314
53.5270151910 -33.6818417734 -1.7107119323
53.5555169803 -33.6836344775 -1.7107119341
52.6479307321 -33.5666233025 -1.7107118186
53.0268443745 -33.6470869990 -1.7107118980
53.5827256006 -33.7093963937 -1.7107119595
52.4335716918 -33.5320671012 -1.7107117845
52.5305032059 -33.5602763163 -1.7107118124
53.0227711679 -33.6709143839 -1.7107119215
53.6822792945 -33.7379331018 -1.7107119877
53.7399458098 -33.7395087686 -1.7107119892
53.9850938486 -33.7385909383 -1.7107119883
52.4265770891 -33.5552060471 -1.7107118074
52.8194539604 -33.6564196489 -1.7107119072
53.3922179386 -33.7438990377 -1.7107119936
53.4066516739 -33.7452149513 -1.7107119949
53.9278333019 -33.7640855532 -1.7107120135
53.9568146581 -33.7635054434 -1.7107120129
54.0871673692 -33.7587736484 -1.7107120082
53.5788157711 -33.7818100027 -1.7107120310
54.1029118707 -33.7821733644 -1.7107120313
54.1610724106 -33.7787688141 -1.7107120280
53.8993875572 -33.8128372460 -1.7107120616
54.2210292674 -33.7987791661 -1.7107120477
52.8042852606 -33.7273345845 -1.7107119772
53.0354884745 -33.7710948215 -1.7107120204
53.7672879061 -33.8367212150 -1.7107120852
54.4893071426 -33.8196765678 -1.7107120683
53.3810662393 -33.8642486187 -1.7107121123
53.5260904077 -33.9240127370 -1.7107121713
54.0374622781 -33.9787072661 -1.7107122253
54.2942582058 -33.9625314891 -1.7107122093
53.0341990398 -33.9667853038 -1.7107122135
53.9781981170 -34.0289650103 -1.7107122749
55.0963501435 -33.8766543163 -1.7107121246
53.3348899834 -34.0298147410 -1.7107122757
53.2711596036 -34.0474524827 -1.7107122931
54.5632502553 -34.0292358796 -1.7107122751
52.9269282618 -34.0468159099 -1.7107122925
53.9495809039 -34.1263397331 -1.7107123709
52.7538508657 -34.0378809355 -1.7107122836
52.4738626041 -33.9958694683 -1.7107122422
52.5498955058 -34.0155771619 -1.7107122616
53.9990583761 -34.2218497766 -1.7107124652
52.4334628710 -34.0851359210 -1.7107123303
53.3135356246 -34.2463214365 -1.7107124893
53.3751555461 -34.2763073499 -1.7107125189
54.9886738078 -34.1746705684 -1.7107124186
55.4700715720 -34.0475626211 -1.7107122932
53.3526735004 -34.3471251673 -1.7107125888
52.3074410208 -34.1753748816 -1.7107124193
52.8396756155 -34.3504056774 -1.7107125920
54.1880875845 -34.4552526252 -1.7107126955
54.8292800161 -34.3785148895 -1.7107126198
54.8171477369 -34.4052132868 -1.7107126461
53.6390018512 -34.5346201261 -1.7107127738
53.5371109235 -34.5542218324 -1.7107127931
53.2244254521 -34.6259482788 -1.7107128639
52.4649270055 -34.5672539301 -1.7107128060
56.1599798359 -28.7656822834 -1.7096746096
56.2134580357 -29.0091628410 -1.7096748499
56.1700749041 -28.6873289431 -1.7096745323
56.2380965009 -29.0150733763 -1.7096748557
56.1256398969 -28.4166672265 -1.7096742652
56.0674498997 -28.2511705502 -1.7096741019
56.2665461812 -29.0980334394 -1.7096749376
56.1904444781 -28.5576478223 -1.7096744043
56.1393076245 -28.3800964083 -1.7096742292
56.2852394500 -28.9963106024 -1.7096748372
56.2100824303 -28.5367177647 -1.7096743837
56.0613743761 -28.1117734613 -1.7096739644
56.0517216253 -28.0905500817 -1.7096739434
56.0284689051 -28.0413681219 -1.7096738949
56.2032751700 -28.3425337017 -1.7096741921
56.1660592267 -28.2381709922 -1.7096740891
56.1886548797 -28.2295819441 -1.7096740806
56.1340242428 -28.0966312170 -1.7096739494
56.1275191405 -28.0820432127 -1.7096739350
56.3153328661 -28.5596551378 -1.7096744063
56.0167932781 -27.8143743924 -1.7096736709
56.0235579143 -30.5993663803 -1.7096764190
56.3911767883 -28.8418724688 -1.7096746848
56.1081019585 -27.9304163832 -1.7096737854
56.2679157388 -28.2345459881 -1.7096740855
56.3371263004 -30.0135958274 -1.7096758410
56.1770632834 -27.9600266750 -1.7096738146
56.3376723829 -28.1456997474 -1.7096739979
56.5665744637 -29.4921074075 -1.7096753264
56.4255577122 -30.2047305047 -1.7096760296
56.1959138804 -27.5970199393 -1.7096734564
56.7176147338 -29.6455522048 -1.7096754778
56.2804725275 -32.5040276332 -1.7096782985
53.1880025890 -33.5060749225 -1.7096792872
53.3543396271 -33.5212250031 -1.7096793022
53.1853475164 -33.5301016965 -1.7096793109
53.4170786691 -33.5494810694 -1.7096793301
53.4299793102 -33.5501956143 -1.7096793308
53.5074224084 -33.5536812114 -1.7096793342
53.5461641073 -33.5549084281 -1.7096793354
53.6495128005 -33.5564997399 -1.7096793370
53.4286781567 -33.5743335985 -1.7096793546
53.4935671162 -33.5773503305 -1.7096793576
53.6364349012 -33.5806071011 -1.7096793608
53.6494266590 -33.5806726144 -1.7096793608
53.7533561023 -33.5798131819 -1.7096793600
53.4926231151 -33.6015049189 -1.7096793814
53.7538419942 -33.6039813261 -1.7096793838
53.8060777480 -33.6026219335 -1.7096793825
53.8713438216 -33.6000536853 -1.7096793800
53.9235248759 -33.5973042314 -1.7096793773
53.9756697444 -33.5939375396 -1.7096793739
54.0538032296 -33.5877312353 -1.7096793678
53.4129610120 -33.6218831580 -1.7096794015
54.0559310874 -33.6118104276 -1.7096793916
54.0690133149 -33.6106348588 -1.7096793904
54.1213057325 -33.6055457469 -1.7096793854
56.0291037882 -32.9474046881 -1.7096787360
53.4511533623 -33.6480912407 -1.7096794274
53.4775395165 -33.6492788418 -1.7096794285
54.1894196996 -33.6223205558 -1.7096794019
54.2025324338 -33.6207500576 -1.7096794004
54.2418419586 -33.6158059216 -1.7096793955
53.9807702268 -33.6662770352 -1.7096794453
54.2975898525 -33.6326032745 -1.7096794121
53.1826879313 -33.6757089676 -1.7096794546
54.1154762058 -33.6790330150 -1.7096794579
54.3933671200 -33.6424100460 -1.7096794218
54.4328613503 -33.6357715063 -1.7096794152
53.2201547548 -33.7038697234 -1.7096794824
54.1178888308 -33.7030853438 -1.7096794816
54.3044026304 -33.6804669056 -1.7096794593
54.4634110367 -33.6549470521 -1.7096794341
53.5543871017 -33.7485683591 -1.7096795265
53.1479721584 -33.7448329072 -1.7096795228
53.2424185104 -33.7545632381 -1.7096795324
54.0551851469 -33.7574595811 -1.7096795353
54.6713435566 -33.6623058319 -1.7096794414
53.3625234753 -33.7883174911 -1.7096795657
54.1658103110 -33.7709790431 -1.7096795486
53.8678126394 -33.8179934686 -1.7096795950
54.7886416349 -33.6841448474 -1.7096794629
54.8345601004 -33.6973954855 -1.7096794760
53.2748952544 -33.8544900598 -1.7096796310
53.4673850104 -33.8907957443 -1.7096796669
53.8848928817 -33.8898134196 -1.7096796659
54.0793375231 -33.8766815433 -1.7096796529
54.1486271541 -33.8700416998 -1.7096796464
53.5083189104 -33.9165247461 -1.7096796922
53.7741483697 -33.9178652392 -1.7096796936
54.1232646108 -33.8968799754 -1.7096796729
55.0011059954 -33.7265268742 -1.7096795048
53.5778166396 -33.9424950867 -1.7096797179
54.5984228306 -33.8507834244 -1.7096796274
53.4925891719 -33.9643548917 -1.7096797394
53.7611303733 -33.9665034882 -1.7096797416
53.9036002948 -33.9857153916 -1.7096797605
54.1302890008 -33.9690580572 -1.7096797441
54.5102006525 -33.9167013281 -1.7096796924
55.1842486681 -33.7450471313 -1.7096795230
53.8477395300 -34.0123576111 -1.7096797868
53.9475751773 -34.0075413331 -1.7096797821
54.5565890719 -33.9327723130 -1.7096797083
53.3579471161 -34.0786982153 -1.7096798523
53.5316853200 -34.0865179100 -1.7096798600
54.3411464883 -34.0414653067 -1.7096798155
54.6268952419 -33.9929994290 -1.7096797677
53.3855099647 -34.1045637490 -1.7096798778
54.5027779777 -34.0407215795 -1.7096798148
54.2462023004 -34.1024349684 -1.7096798757
54.7509178931 -34.0160619109 -1.7096797905
54.7794583373 -34.0095532284 -1.7096797840
53.5885297427 -34.1602638869 -1.7096799328
53.6032364397 -34.1604685761 -1.7096799330
54.4093735497 -34.1048279581 -1.7096798781
53.7950547687 -34.1833352065 -1.7096799555
54.8478665841 -34.0430016154 -1.7096798170
53.0989017013 -34.1771715727 -1.7096799494
53.2000822755 -34.2118953713 -1.7096799837
53.2298084785 -34.2145585257 -1.7096799863
55.3632534615 -34.0415076879 -1.7096798156
54.0436154704 -34.3403484158 -1.7096801105
55.3502124816 -34.0971959991 -1.7096798705
55.2090072943 -34.3203913230 -1.7096800908
55.3190133936 -34.5142553648 -1.7096802821
55.8035845703 -30.5734489583 -1.7101913776
55.9993443309 -30.7251418184 -1.7101915273
56.3017672551 -29.2303927262 -1.7101900523
56.2743540153 -29.0438121313 -1.7101898682
56.3092069004 -29.1047318820 -1.7101899283
56.2838418042 -28.9664229071 -1.7101897918
56.3670227151 -29.4913451632 -1.7101903098
56.3557296608 -29.2831014650 -1.7101901043
56.2379845479 -28.6951505073 -1.7101895242
56.2354739808 -28.6871932790 -1.7101895163
56.1538657137 -30.6783442641 -1.7101914811
56.2147911934 -28.5525500880 -1.7101893835
56.4060801024 -29.3040655800 -1.7101901250
56.3097262397 -28.6816021640 -1.7101895108
56.3020009177 -28.6571167997 -1.7101894866
56.2803409275 -28.5921676011 -1.7101894225
56.2227871126 -28.4401065471 -1.7101892725
56.4553838915 -29.7656112763 -1.7101905804
56.2974783637 -28.5679585849 -1.7101893987
56.1710956515 -28.2655401499 -1.7101891002
56.1596834716 -28.2423014383 -1.7101890773
56.2982436998 -30.5800477076 -1.7101913841
56.3635292054 -28.6922234421 -1.7101895213
56.4382067922 -28.8803041417 -1.7101897069
56.4829184640 -30.1041387870 -1.7101909145
56.3658547270 -28.5437988977 -1.7101893748
56.1457026356 -28.0617181994 -1.7101888991
56.5276708646 -29.9856682838 -1.7101907976
56.1832721112 -28.0300107127 -1.7101888678
56.6009234688 -29.3152664635 -1.7101901361
56.1243885262 -27.8863386416 -1.7101887261
56.6380745136 -29.1926151778 -1.7101900150
56.5947169174 -28.8065566850 -1.7101896341
56.6544496432 -28.8502936731 -1.7101896773
56.7430659578 -29.8069734809 -1.7101906213
56.7540041925 -29.5036673153 -1.7101903220
56.1264579168 -27.5535877348 -1.7101883977
56.9252001015 -29.1502388853 -1.7101899732
56.9228764001 -30.1164797242 -1.7101909267
53.7786177851 -33.4898041830 -1.7101942553
53.7903014315 -33.4891012278 -1.7101942546
53.7565177861 -33.5152458620 -1.7101942804
53.7800338567 -33.5139356981 -1.7101942791
53.7917888823 -33.5132284483 -1.7101942784
53.8035417643 -33.5124864282 -1.7101942777
53.8974753130 -33.5052993756 -1.7101942706
53.9092042770 -33.5042447505 -1.7101942696
53.9677994785 -33.4984514437 -1.7101942638
54.0263025855 -33.4917921249 -1.7101942573
54.0496751741 -33.4888862340 -1.7101942544
57.1950479971 -31.1330266710 -1.7101919297
53.8287421938 -33.5350111731 -1.7101942999
53.8759949882 -33.5313957628 -1.7101942963
53.8878012439 -33.5304045662 -1.7101942954
53.9349953962 -33.5260906643 -1.7101942911
53.9467857004 -33.5249249571 -1.7101942900
53.9703557057 -33.5224889349 -1.7101942876
54.1502212868 -33.5236823503 -1.7101942887
54.2090776147 -33.5143221825 -1.7101942795
54.2208319063 -33.5123457420 -1.7101942775
54.2560589814 -33.5062079152 -1.7101942715
57.0351649817 -31.5564043664 -1.7101923475
53.8680167134 -33.5805460714 -1.7101943448
53.9754681601 -33.5705639174 -1.7101943350
54.2248754968 -33.5361781708 -1.7101943011
54.2603139121 -33.5300035209 -1.7101942950
54.3192516901 -33.5190143492 -1.7101942841
54.2764396716 -33.5516583602 -1.7101943163
54.3356959691 -33.5404283136 -1.7101943053
54.3829773717 -33.5308140115 -1.7101942958
54.3947796883 -33.5283230719 -1.7101942933
54.4183619574 -33.5232365074 -1.7101942883
54.0649421493 -33.6087832795 -1.7101943727
54.4235286101 -33.5468509306 -1.7101943116
54.4708798593 -33.5361969022 -1.7101943011
54.4945073807 -33.5306599657 -1.7101942956
54.5181017302 -33.5249833378 -1.7101942900
53.9952718168 -33.6413677627 -1.7101944049
54.4406146752 -33.5678389989 -1.7101943323
54.5238257307 -33.5484688886 -1.7101943132
57.2929644969 -31.2690087330 -1.7101920639
54.5652936432 -33.5630745679 -1.7101943276
54.6483793175 -33.5411238993 -1.7101943059
56.7868216292 -32.1333104772 -1.7101929168
54.2613788136 -33.6770770782 -1.7101944401
53.9685114175 -33.7413947034 -1.7101945036
54.2654928870 -33.7008974410 -1.7101944636
54.6435216230 -33.6176015887 -1.7101943814
56.8040480139 -32.2270978138 -1.7101930093
54.2324401991 -33.7309672567 -1.7101944933
56.7413241189 -32.3381908347 -1.7101931189
54.9339141760 -33.5793327678 -1.7101943436
54.9577887998 -33.5710556098 -1.7101943355
54.1397466483 -33.7939006868 -1.7101945554
54.3653158046 -33.7563150563 -1.7101945183
53.9908789183 -33.8363086991 -1.7101945972
54.9496154653 -33.6250581507 -1.7101943888
54.9737603411 -33.6166872984 -1.7101943805
54.1113439927 -33.8709057931 -1.7101946314
54.6687084812 -33.7609999358 -1.7101945229
53.9724803125 -33.9110383404 -1.7101946710
54.4601287569 -33.8357025799 -1.7101945966
54.5235660857 -33.8217246310 -1.7101945828
55.2162820478 -33.6020402722 -1.7101943661
54.6178791154 -33.8240337887 -1.7101945851
54.8568554675 -33.7571013583 -1.7101945191
54.9686564746 -33.7207332318 -1.7101944832
54.3025195476 -33.9152807059 -1.7101946751
54.5471197690 -33.8659198033 -1.7101946264
55.0260802467 -33.7264089456 -1.7101944888
54.5268140902 -33.8953455870 -1.7101946555
54.6167879568 -33.8741204339 -1.7101946345
55.4577893532 -33.6279972050 -1.7101943917
54.8611732350 -33.9074467628 -1.7101946674
55.2897921373 -33.7809081698 -1.7101945426
55.5983875304 -33.6405329794 -1.7101944040
54.9791799614 -33.9210747034 -1.7101946809
56.2192823689 -33.3251078144 -1.7101940928
56.0442986739 -33.6987327711 -1.7101944615
56.4006454529 -34.0469339236 -1.7101948051
55.8065109574 -30.5898623187 -1.7099650153
55.8337339939 -30.5828961471 -1.7099650085
56.4612598585 -29.9345523303 -1.7099643687
56.3890611517 -29.2556081098 -1.7099636988
56.4458112550 -30.3925266554 -1.7099648206
56.4648530563 -29.5552829043 -1.7099639945
56.3316454298 -28.7509169187 -1.7099632007
56.5816591301 -29.3548074168 -1.7099637966
56.6245336332 -29.4705225600 -1.7099639108
56.3333688432 -28.5182965931 -1.7099629712
56.6161269137 -28.9776427971 -1.7099634245
56.3980144435 -28.3786695850 -1.7099628334
54.3268066944 -33.4530132455 -1.7099678406
54.3372940090 -33.4505392911 -1.7099678381
54.3428788756 -33.4740583163 -1.7099678613
54.3534283750 -33.4715367254 -1.7099678588
54.3639703690 -33.4689839382 -1.7099678563
54.3955503957 -33.4611386236 -1.7099678486
54.4165645300 -33.4557528492 -1.7099678433
54.4437554086 -33.4736048606 -1.7099678609
54.4858955770 -33.4621378226 -1.7099678496
54.5135366731 -33.4794656588 -1.7099678667
54.5662695027 -33.4640212798 -1.7099678514
54.5732352586 -33.4871689260 -1.7099678743
54.6260754925 -33.4708407392 -1.7099678582
54.7258018589 -33.4888207679 -1.7099678759
54.7469739901 -33.4814806305 -1.7099678687
54.7575436780 -33.4777636207 -1.7099678650
54.7868376873 -33.4929799878 -1.7099678800
54.8291830934 -33.4774520844 -1.7099678647
54.8482638543 -33.4961124198 -1.7099678831
54.8588763825 -33.4920957123 -1.7099678791
54.8906420246 -33.4798574743 -1.7099678670
54.5642496693 -33.6158098945 -1.7099680012
54.8460958875 -33.5227433477 -1.7099679094
54.6040220579 -33.6293495825 -1.7099680146
54.9722186006 -33.4992547644 -1.7099678862
55.0146252750 -33.4815329088 -1.7099678687
55.0134300496 -33.5082864917 -1.7099678951
55.0665344703 -33.4854453438 -1.7099678726
54.7729052291 -33.6259970876 -1.7099680113
55.1081441512 -33.4934122559 -1.7099678804
54.8028738049 -33.6411917432 -1.7099680262
55.1500181666 -33.5009207667 -1.7099678878
55.1921516418 -33.5079668192 -1.7099678948
55.9185821304 -26.7478687984 -1.7099612242
55.9092274504 -26.7407154223 -1.7099612172
55.2558550804 -33.5041959555 -1.7099678911
55.2985280459 -33.5100527574 -1.7099678968
57.5704222258 -29.7520758311 -1.7099641886
57.5924517843 -29.7026713737 -1.7099641399
57.0859669491 -31.9397655945 -1.7099663474
55.4939307889 -33.5440103114 -1.7099679304
56.2118587552 -26.7687168559 -1.7099612448
55.8346358818 -30.8233113264 -1.7100556063
55.9502406660 -30.7449570708 -1.7100555290
56.1462700179 -30.5831442454 -1.7100553693
56.1639500041 -30.3014720737 -1.7100550914
56.4531456928 -30.1998018111 -1.7100549911
56.5483018768 -30.1523705542 -1.7100549443
56.5976047929 -30.1777693224 -1.7100549693
56.5203475028 -29.0300069062 -1.7100538368
54.8705443408 -33.4207062128 -1.7100581693
54.8798396855 -33.4166756134 -1.7100581653
54.8894891098 -33.4388391846 -1.7100581872
54.9834217057 -33.4229656326 -1.7100581716
55.0020118230 -33.4142090940 -1.7100581629
55.1068989762 -33.4165584730 -1.7100581652
55.2710194576 -33.4111084454 -1.7100581599
55.3107812812 -33.4163575247 -1.7100581650
55.3693467298 -33.4102162162 -1.7100581590
57.1779451053 -29.8428049652 -1.7100546388
57.4320205485 -31.3103801090 -1.7100560870
57.4439801409 -31.2639321346 -1.7100560411
57.4814937753 -31.1003182778 -1.7100558797
55.4063435540 -26.6107288618 -1.7100514496
57.4713202094 -28.8777855072 -1.7100536866
55.5707992434 -26.6170382471 -1.7100514558
55.5599650437 -26.6109659360 -1.7100514498
55.6152297563 -26.6144837687 -1.7100514533
55.8859575222 -26.6098186229 -1.7100514487
55.9884740164 -26.6197121869 -1.7100514584
56.3217248699 -25.5153683950 -1.7100503687
55.7613173961 -30.7785613026 -1.7100313627
55.9251270442 -30.4234673399 -1.7100310123
56.0598827914 -30.3225392468 -1.7100309127
56.1542059534 -30.1475010359 -1.7100307400
56.3828153833 -31.0859287670 -1.7100316660
56.3637136859 -31.3042469971 -1.7100318814
56.3867219632 -30.0771231956 -1.7100306705
56.3911384488 -31.2933888417 -1.7100318707
56.4389809454 -30.2396448027 -1.7100308309
56.4271617168 -30.0340614587 -1.7100306281
56.4080427951 -29.9506433729 -1.7100305457
56.4035259267 -31.4380614787 -1.7100320135
56.4194777067 -31.3797973186 -1.7100319560
56.4848963564 -30.0751092103 -1.7100306686
56.5246139478 -31.1175900626 -1.7100316972
56.5429798088 -30.9872948013 -1.7100315687
56.4109138040 -31.6515229158 -1.7100322241
56.6100475633 -30.7441323056 -1.7100313287
56.3564896961 -31.9683167572 -1.7100325367
56.5936956466 -29.8957924916 -1.7100304916
56.4515160405 -29.4624110923 -1.7100300640
56.2409060781 -32.4126804087 -1.7100329752
55.4173250453 -33.3093082173 -1.7100338599
55.5002751574 -33.3104461170 -1.7100338610
55.5081706050 -33.3048068579 -1.7100338555
56.7082670406 -29.5977692714 -1.7100301975
55.6458944358 -33.2927440940 -1.7100338436
55.6921487338 -33.2872873592 -1.7100338382
55.8552765129 -33.2782973991 -1.7100338293
57.0335049122 -31.1488193490 -1.7100317280
57.5058148551 -30.0189178081 -1.7100306131
57.4879333762 -29.9151066997 -1.7100305107
57.5585053507 -30.2369883603 -1.7100308283
57.5534758979 -30.1901527585 -1.7100307821
57.4341437657 -29.3295759209 -1.7100299329
57.4685558155 -29.3560687619 -1.7100299590
57.3727554396 -28.8007734004 -1.7100294111
54.7561567063 -26.5276722253 -1.7100271681
54.8602149017 -26.5331259678 -1.7100271735
54.8359033805 -26.5257295441 -1.7100271662
54.8115485251 -26.5184770850 -1.7100271590
54.7749368556 -26.5078688837 -1.7100271486
54.9282437571 -26.5292472484 -1.7100271697
54.9160816949 -26.5253298324 -1.7100271658
54.8917230715 -26.5176030184 -1.7100271582
54.8795267233 -26.5137936881 -1.7100271544
54.9966618727 -26.5264877597 -1.7100271669
54.9844913481 -26.5223679625 -1.7100271629
55.0410869206 -26.5162476185 -1.7100271568
55.0166723759 -26.5077813906 -1.7100271485
55.0613301012 -26.4977432959 -1.7100271386
55.1797022045 -26.5155989689 -1.7100271562
55.2373019722 -26.5121391855 -1.7100271528
55.2829816599 -26.5044655065 -1.7100271452
55.0105537946 -26.4036295132 -1.7100270457
54.9603446312 -26.3872108162 -1.7100270295
55.4118711709 -26.5065201011 -1.7100271472
55.3996397616 -26.5011721272 -1.7100271420
55.3751297500 -26.4905848440 -1.7100271315
55.4706150101 -26.5062555193 -1.7100271470
55.4461338314 -26.4952482338 -1.7100271361
55.5173866118 -26.5011093555 -1.7100271419
55.4928741680 -26.4898254435 -1.7100271308
55.5643962407 -26.4964696092 -1.7100271373
55.5521344329 -26.4906704825 -1.7100271316
55.5275596211 -26.4791811735 -1.7100271203
55.6238951852 -26.4983152363 -1.7100271391
55.5993643464 -26.4864012328 -1.7100271274
55.6713753473 -26.4948401471 -1.7100271357
55.7190758981 -26.4918834019 -1.7100271328
55.7669913619 -26.4894486309 -1.7100271304
55.7547078983 -26.4830502219 -1.7100271241
55.8511512752 -26.4794755287 -1.7100271206
56.2198479334 -26.4711346687 -1.7100271123
56.1827606696 -26.4480304645 -1.7100270895
56.2462133121 -26.3451609150 -1.7100269880
55.7341183529 -30.7603711063 -1.7100313447
55.7787021615 -30.7250904911 -1.7100313099
55.7405754406 -30.5105525726 -1.7100310982
55.9147086069 -30.2408756477 -1.7100308321
56.1035895240 -30.1220696500 -1.7100307149
56.2594863622 -31.4380460965 -1.7100320134
56.3341958550 -31.5554513453 -1.7100321293
56.4035617914 -31.4564497924 -1.7100320316
56.1817684179 -32.3011537142 -1.7100328651
56.4757218337 -31.5871762175 -1.7100321606
56.0306189267 -33.1931307701 -1.7100337453
57.2478896859 -29.0301138013 -1.7100296374
54.1235302696 -26.5270285098 -1.7100271675
54.2180958191 -26.5117390220 -1.7100271524
54.1520235621 -26.5052596199 -1.7100271460
54.1387980151 -26.5040810510 -1.7100271448
54.3399325886 -26.5018982381 -1.7100271427
54.3134548903 -26.4984685550 -1.7100271393
54.4228383774 -26.4892230072 -1.7100271302
54.3164891760 -26.4744867204 -1.7100271156
54.5196805713 -26.4803549303 -1.7100271214
54.4930722697 -26.4758621748 -1.7100271170
54.6171780340 -26.4735838509 -1.7100271147
54.7152852380 -26.4689330640 -1.7100271101
54.7738984593 -26.4571338135 -1.7100270985
54.9459926301 -26.4496918474 -1.7100270912
54.9325992296 -26.4461648175 -1.7100270877
54.9057814210 -26.4392296950 -1.7100270808
54.9790764182 -26.4335347874 -1.7100270752
54.9656350775 -26.4299099605 -1.7100270716
55.1403622705 -26.4298005849 -1.7100270715
55.1134440094 -26.4216365528 -1.7100270635
55.0999668836 -26.4176142943 -1.7100270595
55.1952260733 -26.3962491276 -1.7100270384
55.1816734891 -26.3919850540 -1.7100270342
54.2369464669 -26.1977550046 -1.7100268426
55.3245148825 -26.4135787817 -1.7100270555
54.9831352855 -26.3094902307 -1.7100269528
54.4696503999 -26.1784798701 -1.7100268235
55.4844719588 -26.3944275948 -1.7100270366
54.3650377482 -26.0907773664 -1.7100267370
55.5970311917 -26.3865461260 -1.7100270289
54.5457779016 -26.0680712210 -1.7100267146
54.9030153123 -26.0900497067 -1.7100267363
55.7844024722 -26.3607098699 -1.7100270034
55.5584898716 -26.2415515122 -1.7100268858
54.7971019245 -26.0167654851 -1.7100266640
56.2748115377 -26.3327926236 -1.7100269758
55.8052371736 -26.0801577161 -1.7100267265
55.5202134726 -25.9442225663 -1.7100265924
56.4183857740 -26.3021831765 -1.7100269456
55.8003853874 -25.6094079994 -1.7100262620
55.9299928825 -30.7384927266 -1.7100313232
56.1538814507 -31.5706619052 -1.7100321443
56.1916667876 -31.4353366603 -1.7100320108
56.1375078879 -31.8917439578 -1.7100324611
56.2182565182 -31.1691885810 -1.7100317481
56.1747491122 -31.8459157752 -1.7100324159
56.2409246977 -31.6441886746 -1.7100322169
56.2630406518 -31.4539425953 -1.7100320291
56.1120453412 -32.1853555328 -1.7100327509
56.2361262793 -31.7973191266 -1.7100323680
56.2885951246 -31.4350468819 -1.7100320105
56.0513799340 -32.3717552653 -1.7100329348
56.0545938352 -32.3655533094 -1.7100329287
56.2066426637 -31.9980810820 -1.7100325661
56.2853037153 -31.6724374118 -1.7100322447
56.3164928684 -31.3598863618 -1.7100319363
56.0521649996 -30.1941786061 -1.7100307860
56.0183781448 -32.4818091538 -1.7100330434
56.2380761401 -31.9784609409 -1.7100325467
56.2520033980 -31.9310686915 -1.7100324999
56.2805205865 -30.7443669369 -1.7100313289
56.3896289349 -31.2254960649 -1.7100318037
56.0962831182 -30.1226029665 -1.7100307154
56.3918607082 -30.9496426549 -1.7100315315
56.5346008762 -29.4151478371 -1.7100300173
56.8363691578 -28.3614820602 -1.7100289776
56.6749125366 -27.9256310014 -1.7100285476
53.5608160041 -26.4957353979 -1.7100271366
53.4476630980 -26.5064376186 -1.7100271472
53.6870254608 -26.4627644084 -1.7100271041
53.6015314871 -26.4683052784 -1.7100271095
53.4735085710 -26.4794593252 -1.7100271205
54.1160241949 -26.4336918020 -1.7100270754
54.0155974244 -26.4314271047 -1.7100270731
54.0012476680 -26.4312733531 -1.7100270730
53.9725471046 -26.4310932003 -1.7100270728
53.9007954283 -26.4313857160 -1.7100270731
53.8147108687 -26.4331375008 -1.7100270748
53.8003670509 -26.4335780004 -1.7100270753
53.5282370217 -26.4500025174 -1.7100270915
53.4853707398 -26.4539929317 -1.7100270954
53.4568136218 -26.4568644825 -1.7100270982
53.4425415586 -26.4583636031 -1.7100270997
54.2320779977 -26.4146911970 -1.7100270566
54.2176777862 -26.4138971299 -1.7100270558
53.8428387993 -26.4082173417 -1.7100270502
53.8140046013 -26.4089747925 -1.7100270510
53.7995893089 -26.4094174872 -1.7100270514
53.6987277589 -26.4137100367 -1.7100270557
54.3491196356 -26.3984812225 -1.7100270406
54.3202189746 -26.3962435163 -1.7100270384
54.2768444246 -26.3932076520 -1.7100270354
54.2623804651 -26.3922812517 -1.7100270345
54.4236024679 -26.3807592166 -1.7100270231
54.5423183745 -26.3691831398 -1.7100270117
54.2653992781 -26.3440295378 -1.7100269869
54.1923278633 -26.3400001800 -1.7100269829
54.1630839529 -26.3386911301 -1.7100269816
54.3842461934 -26.3286397239 -1.7100269717
53.4882746779 -26.3322924006 -1.7100269753
53.7366252970 -26.2908665363 -1.7100269344
53.4124828068 -26.3157289725 -1.7100269590
54.8300057106 -26.3384403976 -1.7100269814
54.8007414116 -26.3333586587 -1.7100269764
54.7567898715 -26.3260609037 -1.7100269692
54.7127752987 -26.3191534814 -1.7100269624
54.6245709253 -26.3065117798 -1.7100269499
54.9075882424 -26.3281619724 -1.7100269712
54.8635863771 -26.3199162163 -1.7100269631
54.8195130681 -26.3120612769 -1.7100269554
54.6277879408 -26.2825537729 -1.7100269262
54.5241220178 -26.2697249918 -1.7100269136
54.9709786485 -26.3160792601 -1.7100269593
54.0932058247 -26.2153545005 -1.7100268599
53.5538571677 -26.2295227496 -1.7100268739
55.0642166127 -26.3112733001 -1.7100269546
55.0053206118 -26.2985136583 -1.7100269420
54.5594922671 -26.2251653368 -1.7100268696
53.6421045955 -26.1990464192 -1.7100268438
54.7572573379 -26.2282143391 -1.7100268726
54.2155136136 -26.1717253847 -1.7100268169
53.6998601231 -26.1473970107 -1.7100267929
53.4723414643 -26.1638330241 -1.7100268091
55.1989795003 -26.2684889737 -1.7100269124
54.9047653855 -26.1800253755 -1.7100268251
54.2038519697 -26.0985447530 -1.7100267447
53.3609170780 -26.1269274863 -1.7100267727
54.3127830982 -26.0806622759 -1.7100267270
53.5850642831 -26.0332469675 -1.7100266802
55.4243860343 -26.2038558152 -1.7100268486
54.4290134855 -25.9928471417 -1.7100266404
53.9269437983 -25.9718609133 -1.7100266197
54.3561143581 -25.9141173561 -1.7100265627
53.3545464593 -25.9330168625 -1.7100265813
54.4279236853 -25.8228886624 -1.7100264727
54.3956162462 -25.8201947988 -1.7100264700
54.6081516293 -25.8171148950 -1.7100264670
54.4137805865 -25.7974284066 -1.7100264475
54.3813227635 -25.7948186639 -1.7100264450
53.3895929998 -25.8076635824 -1.7100264576
53.4196448310 -25.7803469074 -1.7100264307
55.2978311760 -25.8696140023 -1.7100265188
53.6616704433 -25.7136723751 -1.7100263649
53.9584754263 -25.6575299554 -1.7100263095
55.3385348072 -25.7053713671 -1.7100263567
55.3785628118 -25.6157005132 -1.7100262682
56.0291238784 -31.9389171526 -1.7100323885
56.0325626918 -31.9228299725 -1.7100323726
56.0379763629 -31.8959522235 -1.7100323461
55.9889430767 -32.1683400544 -1.7100326149
56.0083381195 -32.1103968784 -1.7100325577
56.0562238639 -31.9277781254 -1.7100323775
56.0796013693 -31.7909153386 -1.7100322424
56.0002210545 -32.2081185457 -1.7100326541
56.1050137986 -31.7829424289 -1.7100322346
56.1146704045 -31.6877895028 -1.7100321407
56.0064347333 -32.2590843483 -1.7100327044
56.1389364082 -31.3992981382 -1.7100318560
56.1332318112 -31.3368821506 -1.7100317944
56.1159029036 -31.9933018834 -1.7100324421
56.1683184033 -31.5704403513 -1.7100320249
56.1005171462 -32.1395926237 -1.7100325865
56.1925844132 -31.5240480781 -1.7100319791
56.1757403442 -31.2853032595 -1.7100317435
56.1717090875 -31.2563775927 -1.7100317150
56.0845431624 -32.2585026118 -1.7100327038
56.2156572503 -31.6124863682 -1.7100320664
56.0029363652 -29.9973274459 -1.7100304726
53.8263115288 -26.3201462776 -1.7100268441
53.7491006704 -26.3265126787 -1.7100268504
53.5642453604 -26.3464452975 -1.7100268701
53.3343620072 -26.3805656062 -1.7100269037
53.1972382645 -26.4059214674 -1.7100269288
53.1668611734 -26.4120512867 -1.7100269348
54.0265385895 -26.2847871108 -1.7100268092
53.7779515759 -26.2997407743 -1.7100268240
53.7159371588 -26.3053161903 -1.7100268295
53.4994972970 -26.3305995680 -1.7100268544
52.8740895654 -26.4558387160 -1.7100269780
53.7603485353 -26.2769836087 -1.7100268015
53.5892522255 -26.2946649522 -1.7100268190
52.8830402496 -26.4284956936 -1.7100269510
52.7774185221 -26.4572362735 -1.7100269794
52.6724145358 -26.4881576759 -1.7100270099
54.2603738276 -26.2331202715 -1.7100267582
53.8678975843 -26.2445136408 -1.7100267695
53.7113232529 -26.2571908020 -1.7100267820
53.6956879526 -26.2587131408 -1.7100267835
53.6488100292 -26.2635575741 -1.7100267883
53.4617835770 -26.2870892461 -1.7100268115
53.4462378135 -26.2893496376 -1.7100268137
52.8313886470 -26.4172109493 -1.7100269399
53.6776079484 -26.2362331006 -1.7100267613
53.3024971684 -26.2879453348 -1.7100268123
53.2403764669 -26.2991473741 -1.7100268234
52.9779954848 -26.3549266980 -1.7100268784
53.9755012135 -26.1901014471 -1.7100267158
54.2609507844 -26.1606034827 -1.7100266867
53.4987688828 -26.2087155073 -1.7100267342
52.9822495102 -26.3042262717 -1.7100268284
52.7752833587 -26.3323189419 -1.7100268561
54.6464933399 -26.1290062429 -1.7100266555
53.4604756570 -26.1651914683 -1.7100266912
54.1324253830 -26.0885871907 -1.7100266156
52.7313020647 -26.2944305575 -1.7100268187
52.7002735107 -26.3033189631 -1.7100268275
55.0046453225 -26.1204814330 -1.7100266471
54.8116868178 -26.0959836077 -1.7100266229
53.3338103414 -26.0865853314 -1.7100266137
52.9012527522 -26.1745375436 -1.7100267004
53.1521041156 -26.0945213045 -1.7100266215
52.9539110824 -26.1122443267 -1.7100266390
53.5985800735 -25.9529275727 -1.7100264818
54.9627285332 -25.9438198738 -1.7100264728
54.2632586119 -25.8705363274 -1.7100264005
53.0959778823 -25.9824465607 -1.7100265109
53.7919553368 -25.8621455255 -1.7100263922
53.5571018060 -25.8846615431 -1.7100264144
52.4558212706 -26.1256004321 -1.7100266522
53.0481627138 -25.7454924768 -1.7100262771
55.5710258021 -25.7606031985 -1.7100262920
54.9486893352 -25.6495592046 -1.7100261824
53.1946221750 -25.6687736005 -1.7100262014
53.0370506432 -25.5998001910 -1.7100261333
53.3694300258 -25.5189011978 -1.7100260535
52.9266174138 -25.5980761854 -1.7100261316
52.7688078948 -25.6345637257 -1.7100261676
56.8026396857 -26.0089755527 -1.7100265371
56.7534231339 -25.9862573666 -1.7100265147
52.8157525399 -25.5984072348 -1.7100261319
53.2655155211 -25.4365759588 -1.7100259723
52.5865000008 -25.5819772712 -1.7100261157
52.4003831979 -25.5349751402 -1.7100260694
52.4581536410 -25.4674502566 -1.7100260027
55.9680142596 -32.0090465162 -1.7100325769
56.0051422463 -31.9216149767 -1.7100324906
56.0515730179 -31.9406493630 -1.7100325094
56.0605423431 -31.8408825332 -1.7100324109
56.0630172453 -31.7635131283 -1.7100323346
56.0630044303 -31.7407435935 -1.7100323121
56.0621327547 -31.6997685320 -1.7100322717
56.0496200680 -31.5500699052 -1.7100321240
56.0399099276 -31.4870630083 -1.7100320618
56.0824929076 -31.8745665344 -1.7100324442
56.0785196607 -31.5882175134 -1.7100321616
56.0586830480 -31.4555956782 -1.7100320308
56.1054348640 -31.8904891967 -1.7100324599
56.1103466371 -31.8108004222 -1.7100323813
55.6320350412 -30.5826045360 -1.7100311693
56.1012185919 -31.3193019228 -1.7100318963
56.0862735481 -31.2682052253 -1.7100318458
56.0833780213 -31.2589684852 -1.7100318367
56.1192073711 -31.2939823826 -1.7100318713
56.2149751496 -31.2772489677 -1.7100318548
55.6022744943 -27.6204573863 -1.7100282464
53.4565563571 -26.1566129254 -1.7100268020
52.7240693176 -26.2965349345 -1.7100269400
54.5118317485 -25.9832866837 -1.7100266309
52.6195331380 -26.3065142402 -1.7100269499
52.5873432548 -26.3178747385 -1.7100269611
53.7598776234 -26.0096589749 -1.7100266570
54.8557706614 -25.9444179017 -1.7100265926
52.7668616987 -26.2064896626 -1.7100268512
52.5711187235 -26.2723323877 -1.7100269162
52.4580557269 -26.3139353656 -1.7100269572
52.2504677792 -26.3973711027 -1.7100270395
52.4656393512 -26.2852252612 -1.7100269289
52.4323096602 -26.2461403984 -1.7100268903
55.3554336779 -25.8481926845 -1.7100264976
51.9367008727 -26.3802395081 -1.7100270226
52.7084697909 -26.0221317413 -1.7100266693
55.0284784368 -25.7385238072 -1.7100263894
52.0998923900 -26.2253977691 -1.7100268698
52.4988464991 -26.0158347306 -1.7100266631
54.8362463487 -25.6528582755 -1.7100263049
52.0542335909 -26.1662631391 -1.7100268115
53.1171290034 -25.6600421709 -1.7100263120
51.8506734317 -26.0731564202 -1.7100267196
52.3213077239 -25.8488360071 -1.7100264983
53.8941746845 -25.2643690756 -1.7100259215
55.9647141041 -31.8369500047 -1.7100324071
55.9907840115 -31.8922287990 -1.7100324616
55.9905843100 -31.8788771374 -1.7100324484
55.9904252182 -31.8722024265 -1.7100324418
56.0069205926 -31.7661663258 -1.7100323372
56.0028875582 -31.7357450547 -1.7100323072
55.9980461229 -31.7054419260 -1.7100322773
55.9917228189 -31.6719364653 -1.7100322442
55.9874540899 -31.6519281293 -1.7100322245
56.0371055956 -31.8326500642 -1.7100324028
56.0627069429 -31.8631574562 -1.7100324329
56.0536207010 -31.7498730489 -1.7100323211
56.0314742255 -31.6275683535 -1.7100322005
56.0025125685 -31.5250299264 -1.7100320993
56.0590223728 -31.6397069692 -1.7100322124
56.0072385203 -31.4662185474 -1.7100320412
56.0636470582 -31.5592815236 -1.7100321331
56.0217489517 -31.4369612277 -1.7100320124
56.0994333102 -31.5999813511 -1.7100321732
56.0985332001 -31.5963231032 -1.7100321696
56.0653070740 -31.4844038096 -1.7100320592
56.1351096357 -31.4643633233 -1.7100320394
56.0846916203 -31.3387790501 -1.7100319155
56.0377686805 -31.2465228886 -1.7100318245
56.1427726977 -31.4145798320 -1.7100319903
56.1323968540 -31.3881718388 -1.7100319642
56.1182569419 -31.3545442812 -1.7100319310
56.0588776678 -31.2347438420 -1.7100318128
56.0718616662 -31.2086044992 -1.7100317870
56.1625700068 -31.3352131301 -1.7100319120
55.5738470757 -30.2432099165 -1.7100308344
55.8071089869 -30.1961519838 -1.7100307880
55.7666815224 -29.4615205388 -1.7100300631
55.9588800619 -29.1209525128 -1.7100297270
56.0964755318 -28.0160720711 -1.7100286368
55.9291559662 -27.9418119076 -1.7100285635
56.0294161043 -27.9449796976 -1.7100285666
55.3271890987 -27.7784192155 -1.7100284023
55.2684945976 -27.7479365628 -1.7100283722
55.9967322642 -27.8350133577 -1.7100284581
55.4660484307 -27.6743212958 -1.7100282996
55.1267794735 -27.6396322445 -1.7100282653
54.8228499486 -27.5349237711 -1.7100281620
54.4680702968 -27.4797647823 -1.7100281076
54.6074256001 -25.7754144837 -1.7100264258
54.1734367960 -25.8089317991 -1.7100264589
53.1538959063 -25.9877362787 -1.7100266353
53.5012930280 -25.8734869321 -1.7100265226
53.0700653508 -25.9620800697 -1.7100266100
53.4693542933 -25.7320090632 -1.7100263830
53.9219445027 -25.5981350438 -1.7100262509
52.1249449282 -26.1461136839 -1.7100267916
53.6385994896 -25.6223275383 -1.7100262748
53.4110222538 -25.6461674211 -1.7100262983
53.0801073103 -25.7322762775 -1.7100263832
52.0452536496 -26.0234393428 -1.7100266706
51.1581858958 -26.3916920705 -1.7100270339
51.4291360962 -26.0781891303 -1.7100267246
50.8024914192 -26.4058723459 -1.7100270479
50.8560865244 -26.3071180764 -1.7100269505
50.6118318560 -26.4903354809 -1.7100271313
50.7594061691 -26.3475398613 -1.7100269904
50.5498008985 -26.4777331798 -1.7100271188
50.3926966610 -26.4805182359 -1.7100271216
50.9384471419 -25.7554426129 -1.7100264061
50.1942610494 -26.2055529579 -1.7100268503
55.9701741211 -31.8200379214 -1.7100322712
55.9686602714 -31.8134116205 -1.7100322646
55.9643364790 -31.7958098545 -1.7100322473
55.9631905398 -31.7914257861 -1.7100322429
55.9564257190 -31.7674400718 -1.7100322193
55.9865596338 -31.7852434945 -1.7100322368
55.9718016835 -31.7359981507 -1.7100321882
55.9850408889 -31.7010748726 -1.7100321538
55.9780542546 -31.6831169435 -1.7100321361
56.0136054631 -31.7088927896 -1.7100321615
55.9662462341 -31.5997771942 -1.7100320538
56.0002487022 -31.6137014012 -1.7100320676
55.9808617637 -31.4398401865 -1.7100318960
55.4836783112 -30.4701392624 -1.7100309391
55.6926978904 -30.4706582473 -1.7100309397
55.7254651330 -30.4303174938 -1.7100308999
55.6019289149 -30.2964754042 -1.7100307678
55.5267466322 -30.0852365117 -1.7100305593
55.7567543533 -30.0863292982 -1.7100305604
55.6084158921 -29.9276822645 -1.7100304039
55.7072193138 -29.0125019865 -1.7100295008
55.8270443573 -28.9112400009 -1.7100294009
55.3382169400 -27.9113335955 -1.7100284142
55.1090630321 -27.9112840800 -1.7100284142
55.1083890140 -27.8871204507 -1.7100283903
55.4506629314 -27.8434419635 -1.7100283472
55.3893486395 -27.8405244514 -1.7100283444
54.8374909192 -27.8551010707 -1.7100283587
54.7764161410 -27.8612513344 -1.7100283648
55.4026566136 -27.8168848276 -1.7100283210
55.3416392430 -27.7905169166 -1.7100282950
55.6813261302 -27.7653178396 -1.7100282702
54.4590630030 -27.7605806808 -1.7100282655
54.5177157005 -27.7258988310 -1.7100282313
54.1682902724 -27.7488208960 -1.7100282539
53.9791789343 -27.6996307139 -1.7100282053
54.5819451091 -27.5447360594 -1.7100280525
55.3813601071 -27.3564341606 -1.7100278667
55.2991455682 -27.3543486990 -1.7100278646
52.3482919862 -27.4360864866 -1.7100279453
53.7481164445 -25.6620165651 -1.7100261947
53.2487249366 -25.6729040955 -1.7100262055
52.9254449975 -25.7574375212 -1.7100262889
52.9563364437 -25.6690351425 -1.7100262016
52.6137091759 -25.7240081567 -1.7100262559
52.1831396556 -25.8942470905 -1.7100264239
53.0455127388 -25.4336517085 -1.7100259694
51.9711475621 -25.7037133697 -1.7100262359
51.2064511788 -25.8713651558 -1.7100264013
50.7707227621 -26.1200538282 -1.7100266467
49.3994391845 -27.3994186079 -1.7100279091
49.4077854275 -27.3499744596 -1.7100278603
49.4026744436 -27.3176654377 -1.7100278284
50.3071186456 -26.2137659323 -1.7100267392
49.4034555643 -26.4017356110 -1.7100269246
49.8697975518 -25.2280868513 -1.7100257665
49.7901940608 -25.2918987673 -1.7100258295
49.9353682343 -25.1460949063 -1.7100256856
49.9151538268 -25.1617658984 -1.7100257011
49.7353353248 -25.3054760181 -1.7100258429
49.7597325768 -25.2543562697 -1.7100257924
50.0350053940 -24.9797966935 -1.7100255215
49.6297337818 -25.2988051675 -1.7100258363
49.6099724561 -25.3153796134 -1.7100258527
50.0831872931 -24.9144789768 -1.7100254571
50.3239381623 -24.7164802111 -1.7100252617
50.2810072479 -24.7455905335 -1.7100252904
49.7594446306 -25.1305174114 -1.7100256703
50.3970439364 -24.6388184017 -1.7100251851
50.0194833934 -24.8711742995 -1.7100254143
49.8732535821 -24.9804379902 -1.7100255222
50.0475236906 -24.8209173084 -1.7100253648
50.0263468582 -24.8362579472 -1.7100253799
49.8023276423 -24.9739572906 -1.7100255158
50.3970020060 -24.4946690411 -1.7100250428
50.6746462577 -24.2387526165 -1.7100247903
50.2287113560 -24.4312961083 -1.7100249803
51.0968400270 -23.8972468974 -1.7100244533
50.9198174449 -23.9077410482 -1.7100244637
50.6357782923 -24.0655458458 -1.7100246194
50.3117287272 -24.2622520990 -1.7100248135
55.6390684405 -30.4656756997 -1.7100310539
55.6117512944 -30.4650941147 -1.7100310534
55.4715605664 -30.4212530520 -1.7100310101
55.0601725680 -28.0104919202 -1.7100286313
49.0938520148 -28.6956357115 -1.7100293074
49.0920651707 -28.6461496367 -1.7100292585
49.0895695081 -28.5467702857 -1.7100291605
49.0888637747 -28.4968820594 -1.7100291112
55.9297468610 -31.2254242114 -1.7100318036
55.8228800135 -27.5767196077 -1.7100282033
54.7623279239 -27.6138080349 -1.7100282399
54.4290709895 -27.6672378791 -1.7100282926
54.6225769508 -27.5935526245 -1.7100282199
54.5989192739 -27.5989592645 -1.7100282252
54.4576825475 -27.6343294538 -1.7100282601
54.9412890661 -27.5104106582 -1.7100281378
54.7127587635 -27.5496280204 -1.7100281765
54.5578297440 -27.5838313374 -1.7100282103
54.1172680725 -27.6906963770 -1.7100283157
54.6911427521 -27.5046746570 -1.7100281322
54.1090709211 -27.6679556208 -1.7100282933
54.5287678771 -27.5162590508 -1.7100281436
54.3300698090 -27.5447566961 -1.7100281717
53.8947999044 -27.6994755435 -1.7100283244
53.8832835909 -27.7043138003 -1.7100283292
53.8161952438 -27.7068840684 -1.7100283317
54.1358675124 -27.5560110689 -1.7100281828
53.7488259901 -27.7105925639 -1.7100283354
54.7168697610 -27.3763905047 -1.7100280056
53.9255961600 -27.6084899045 -1.7100282346
55.0533881540 -27.3013655906 -1.7100279316
53.7870225431 -27.6404915156 -1.7100282662
53.6018711698 -27.7271301054 -1.7100283517
54.7456688113 -27.3218262454 -1.7100279517
55.0352728258 -27.2547365728 -1.7100278855
54.2870441443 -27.3055033049 -1.7100279356
55.7654162774 -27.0886330829 -1.7100277216
53.4094582146 -27.5812433156 -1.7100282077
54.8130635262 -27.0896972457 -1.7100277227
53.4512251945 -27.4240863702 -1.7100280526
54.7314326425 -26.9316162299 -1.7100275667
53.1731773451 -27.4071167987 -1.7100280359
53.4010819047 -27.1259422879 -1.7100277585
52.6197391094 -26.9201157084 -1.7100275554
52.5148546952 -26.5876050176 -1.7100272272
49.0480600110 -28.7469275326 -1.7100293580
49.0429529828 -28.6987986911 -1.7100293105
49.0259319655 -28.7371969168 -1.7100293484
49.0469280128 -28.6313350143 -1.7100292439
49.0295077882 -28.6697109031 -1.7100292818
49.0426531560 -28.5828761522 -1.7100291961
49.0337713316 -28.6020640713 -1.7100292150
49.0249463073 -28.6212781805 -1.7100292340
49.0297001118 -28.5534630779 -1.7100291671
49.0207313348 -28.5726894432 -1.7100291860
49.0351473886 -28.4854989613 -1.7100291000
49.0259775376 -28.5047095099 -1.7100291190
49.0168645551 -28.5239471005 -1.7100291379
49.0412911496 -28.4173928132 -1.7100290328
49.0226052698 -28.4558057959 -1.7100290707
49.0385610898 -28.3683243856 -1.7100289844
49.0290446003 -28.3875253485 -1.7100290033
49.0195849524 -28.4067543790 -1.7100290223
49.0008365119 -28.4452959690 -1.7100290603
49.0073699684 -28.3768227500 -1.7100289928
49.0325038640 -28.2202701320 -1.7100288383
49.0225494298 -28.2394896612 -1.7100288573
49.0718200245 -28.0442840682 -1.7100286646
49.0098189950 -28.1593682437 -1.7100287782
49.0294629263 -28.0209770444 -1.7100286416
49.0244480062 -27.7375364273 -1.7100283619
49.0355847443 -27.5335025942 -1.7100281606
48.6489893073 -28.1745243399 -1.7100287931
48.5603730905 -28.3587685552 -1.7100289750
48.4658941796 -28.3907242130 -1.7100290065
48.5020441797 -28.2555690696 -1.7100288731
48.4029545624 -28.1825827965 -1.7100288011
49.0433720071 -27.0410306690 -1.7100276747
55.9682488086 -31.2894259828 -1.7100318668
55.9675443774 -31.2871225918 -1.7100318645
55.9593475218 -31.2619279105 -1.7100318397
55.9528735211 -31.2437788722 -1.7100318217
55.9729301197 -31.2284219682 -1.7100318066
55.9647199635 -31.2076655198 -1.7100317861
55.9608942181 -31.1985120786 -1.7100317771
55.9508583888 -31.1758321142 -1.7100317547
55.9738995278 -31.1132706215 -1.7100316930
55.9651770508 -31.0971123239 -1.7100316770
55.7279930783 -27.6065097719 -1.7100282327
55.4874684072 -27.3627698154 -1.7100279921
55.4048751181 -27.2850619886 -1.7100279155
54.0297714900 -27.3154317949 -1.7100279454
54.0551151332 -27.2084871413 -1.7100278399
54.5935051880 -25.5931326491 -1.7100262459
54.0085590029 -25.6320409814 -1.7100262843
53.4461489520 -25.6722586660 -1.7100263240
49.2983655167 -27.4359765320 -1.7100280644
49.2831213310 -27.3733869411 -1.7100280026
49.3119341195 -27.2090536679 -1.7100278405
49.2924524469 -27.1947428428 -1.7100278263
49.6134840840 -25.3349492063 -1.7100259912
49.6045837625 -25.2132891038 -1.7100258711
49.5302750186 -25.2798113915 -1.7100259368
50.3480856963 -24.4501720194 -1.7100251181
50.6756171438 -24.2084711689 -1.7100248796
55.9557769941 -31.2488631819 -1.7100317076
55.9818538142 -31.2692542830 -1.7100317277
55.9807562024 -31.2562333397 -1.7100317148
55.9757030691 -31.2107814388 -1.7100316700
55.9752701654 -31.2075434505 -1.7100316668
56.0038868587 -31.2440901259 -1.7100317028
55.9828818665 -31.1122990870 -1.7100315728
55.9799270159 -31.0992769672 -1.7100315599
55.9727166548 -31.0701111343 -1.7100315312
56.0057470832 -31.1037609279 -1.7100315644
55.9830785345 -31.0180753825 -1.7100314798
56.0535870637 -31.2566507322 -1.7100317152
56.0370906256 -31.1359811548 -1.7100315962
55.9966229531 -30.9811653271 -1.7100314434
56.0918404935 -30.9611397859 -1.7100314236
56.0677745447 -30.8937368975 -1.7100313571
56.0461231586 -30.8415438386 -1.7100313056
56.0039275275 -30.7052239618 -1.7100311711
56.0232045434 -30.6434568962 -1.7100311102
56.1279606504 -30.7877264083 -1.7100312525
56.0620452534 -30.6143851706 -1.7100310815
55.6635903169 -30.1723916544 -1.7100306453
55.6017579659 -30.0502341817 -1.7100305248
55.7938114782 -29.8826572241 -1.7100303594
56.0407785451 -27.5725811448 -1.7100280800
56.1933321006 -27.5971502145 -1.7100281042
56.1264214541 -27.5744489415 -1.7100280818
55.2392581865 -27.2694062478 -1.7100277808
54.8507387358 -27.1571383680 -1.7100276700
54.7491632894 -27.0865431384 -1.7100276004
54.9904098482 -27.0375532918 -1.7100275520
53.3845721005 -25.9585876256 -1.7100264874
55.1066532009 -25.7353535754 -1.7100262671
