4.7591895313 -11.6132886935 -2.4986352921
3.3411255228 -10.1762611223 -2.4986352921
3.2622744952 -10.1061907075 -2.4986352921
4.1686181530 -11.1686523587 -2.4986352921
5.0117223897 -11.8582238107 -2.4986352921
5.0966281483 -11.9162824032 -2.4986352921
3.1727919092 -10.0175062602 -2.4986352921
5.2386284912 -12.0380054480 -2.4986352921
3.0735067015 -9.9094343267 -2.4986352921
2.9979271190 -9.8343577291 -2.4986352921
3.0531193924 -9.9224225102 -2.4986352921
2.8293029403 -9.5953693600 -2.4986352921
4.8038303869 -11.8284918985 -2.4986352921
5.7683167563 -12.4513694409 -2.4986352921
2.6486905877 -9.3596605994 -2.4986352921
5.9079404636 -12.5473821183 -2.4986352921
2.5256184424 -9.1622272668 -2.4986352921
7.7265614701 -7.1142957523 -2.5008041859
7.7373029360 -7.1230805892 -2.5008041859
7.6578483690 -7.0869040294 -2.5008041859
7.5301741284 -6.9938718602 -2.5008041859
7.5496282260 -7.0148503495 -2.5008041859
7.5221298761 -7.0208410630 -2.5008041859
4.0699901465 -4.5320577750 -2.5008041859
4.0462965450 -4.6148359930 -2.5008041859
4.0295729512 -7.1397769124 -2.5008041859
4.0369407298 -7.1675162461 -2.5008041859
4.0406861303 -7.1813694451 -2.5008041859
4.0444724947 -7.1952115040 -2.5008041859
4.0482997898 -7.2090423015 -2.5008041859
4.0560770380 -7.2366696287 -2.5008041859
4.0592689110 -4.4837662899 -2.5008041859
4.0367974465 -7.2571537193 -2.5008041859
4.0530853411 -7.3124946102 -2.5008041859
4.0426443472 -7.3610390366 -2.5008041859
4.0416648216 -7.4375949137 -2.5008041859
4.0507943799 -7.4652574955 -2.5008041859
4.0554204922 -7.4790684102 -2.5008041859
4.0534950090 -7.6193712013 -2.5008041859
4.0688633764 -7.6607325534 -2.5008041859
4.0616551614 -8.1363778930 -2.5008041859
7.6114450310 -10.9529677791 -2.5008041859
9.5549204199 -11.0060972786 -2.5008041859
9.9144410899 -10.9341572668 -2.5008041859
9.9738255281 -10.9196937350 -2.5008041859
10.0182492721 -10.9083855128 -2.5008041859
10.0478085930 -10.9006278692 -2.5008041859
7.4717247013 -10.9450825777 -2.5008041859
7.5314094177 -10.9595216362 -2.5008041859
7.5912608055 -10.9732534666 -2.5008041859
10.0836649981 -10.9160213293 -2.5008041859
10.0984726976 -10.9119708230 -2.5008041859
10.1280518263 -10.9037384880 -2.5008041859
7.4061148853 -10.9533289888 -2.5008041859
7.4210446630 -10.9571989968 -2.5008041859
7.4359858235 -10.9610248229 -2.5008041859
7.2804501836 -10.9440222980 -2.5008041859
7.3700515931 -10.9688107392 -2.5008041859
10.3044371283 -10.9014295510 -2.5008041859
7.2289600964 -10.9542125160 -2.5008041859
7.2438932629 -10.9586065761 -2.5008041859
7.2588393624 -10.9629564419 -2.5008041859
7.2887698375 -10.9715234390 -2.5008041859
10.3413903037 -10.9149784419 -2.5008041859
10.3709829751 -10.9053088721 -2.5008041859
4.0807276752 -8.4391077312 -2.5008041859
7.1174646355 -10.9452527980 -2.5008041859
7.1323717853 -10.9499767210 -2.5008041859
7.1472928442 -10.9546565253 -2.5008041859
10.4378411510 -10.9083092710 -2.5008041859
7.0652874446 -10.9537835811 -2.5008041859
7.0802200583 -10.9586618163 -2.5008041859
10.5197894337 -10.9051270451 -2.5008041859
7.0128330815 -10.9617831628 -2.5008041859
6.9003470806 -10.9480476445 -2.5008041859
6.9152634481 -10.9534138283 -2.5008041859
6.9301956245 -10.9587358632 -2.5008041859
6.9451434791 -10.9640137028 -2.5008041859
10.6549671415 -10.9062725907 -2.5008041859
4.0821814987 -8.6377909024 -2.5008041859
6.8323573836 -10.9487773249 -2.5008041859
6.8472762071 -10.9543446313 -2.5008041859
6.8921305776 -10.9707814159 -2.5008041859
10.7229562423 -10.9054893293 -2.5008041859
4.0858611947 -8.6912990852 -2.5008041859
6.7491951117 -10.9427871447 -2.5008041859
6.7790151781 -10.9543697213 -2.5008041859
10.7764096726 -10.9098934847 -2.5008041859
4.0901268284 -8.7449559425 -2.5008041859
6.6955766376 -10.9475108296 -2.5008041859
6.7104923131 -10.9534827637 -2.5008041859
6.6417196755 -10.9516775803 -2.5008041859
4.0744799532 -8.8115626645 -2.5008041859
6.5727094383 -10.9489481510 -2.5008041859
6.5876299032 -10.9552835422 -2.5008041859
4.0976185393 -8.8930902082 -2.5008041859
6.4885833516 -10.9387043196 -2.5008041859
6.5034738815 -10.9452886158 -2.5008041859
6.3094013660 -10.9358315657 -2.5008041859
4.1168389898 -9.1380714290 -2.5008041859
6.1581984179 -10.9419590868 -2.5008041859
6.1731000216 -10.9495207072 -2.5008041859
5.9904892040 -10.9356522895 -2.5008041859
5.8927262048 -10.9368402632 -2.5008041859
5.9674092795 -10.9781335584 -2.5008041859
5.4809003507 -10.9138343111 -2.5008041859
5.4957217196 -10.9233996247 -2.5008041859
5.2656061449 -10.9152544375 -2.5008041859
5.0035056279 -10.9057992074 -2.5008041859
5.0183053164 -10.9167767761 -2.5008041859
4.7821428472 -10.9190614526 -2.5008041859
4.6628022189 -10.9165832181 -2.5008041859
3.7491074836 -10.6303590167 -2.5008041859
3.7912086651 -10.6743030688 -2.5008041859
3.8053288504 -10.6888678441 -2.5008041859
3.8194920592 -10.7033907855 -2.5008041859
4.2637662098 -11.1190093852 -2.5008041859
4.3257334856 -11.1713943229 -2.5008041859
4.3413218180 -11.1843757021 -2.5008041859
4.3883162662 -11.2230423679 -2.5008041859
3.7315784552 -10.6470043898 -2.5008041859
3.7738280453 -10.6911033467 -2.5008041859
3.7879980050 -10.7057194635 -2.5008041859
4.5326933589 -11.3680696078 -2.5008041859
4.6302536389 -11.4415589370 -2.5008041859
3.3634694774 -10.2648096576 -2.5008041859
3.4284896192 -10.3435851468 -2.5008041859
3.4416330681 -10.3592243577 -2.5008041859
3.5214600363 -10.4522369249 -2.5008041859
3.9152267532 -10.8669075912 -2.5008041859
3.9446474898 -10.8952582044 -2.5008041859
4.6158813546 -11.4609953133 -2.5008041859
3.2553458510 -10.1677843926 -2.5008041859
3.3318044507 -10.2641333727 -2.5008041859
3.4231504821 -10.3748041297 -2.5008041859
3.8398620137 -10.8268432190 -2.5008041859
4.6843733104 -11.5407631254 -2.5008041859
4.7513015273 -11.5881417192 -2.5008041859
4.7849746946 -11.6115332104 -2.5008041859
4.8187856644 -11.6347250705 -2.5008041859
4.8868162730 -11.6805066570 -2.5008041859
4.9381921243 -11.7143128285 -2.5008041859
3.1366697430 -10.0516393945 -2.5008041859
3.8228329836 -10.8439997751 -2.5008041859
3.9112037894 -10.9301703803 -2.5008041859
5.0115818302 -11.7900841863 -2.5008041859
5.0639252076 -11.8227788184 -2.5008041859
2.9849542966 -9.8815002463 -2.5008041859
4.9857880321 -11.8309745409 -2.5008041859
5.4519112890 -12.1005304408 -2.5008041859
2.7514055340 -9.6135903070 -2.5008041859
3.1032948810 -10.1281611609 -2.5008041859
5.4774424962 -12.1412100239 -2.5008041859
5.0486087100 -11.9268513808 -2.5008041859
5.3557912793 -12.1038871858 -2.5008041859
5.6339283894 -12.2470996957 -2.5008041859
5.8604315571 -12.4053780166 -2.5008041859
2.3413039767 -9.0756676174 -2.5008041859
5.9965405255 -12.5159623200 -2.5008041859
6.6391456849 -12.8720079730 -2.5008041859
4.0521416817 -7.0944700894 -2.4996057952
4.0489884679 -7.2391014270 -2.4996058067
4.0539189513 -7.3248854009 -2.4996058125
4.0621330201 -7.6063480077 -2.4996058355
4.0701393517 -8.0149796996 -2.4996058759
7.1774088785 -10.9573163080 -2.4996059854
7.0167858690 -10.9414030151 -2.4996059912
7.0476938079 -10.9496547879 -2.4996059912
10.0533900554 -10.9034666102 -2.4996059969
6.8335829426 -10.9389982540 -2.4996060027
6.8799488967 -10.9529332215 -2.4996060027
6.6799061930 -10.9405780784 -2.4996060142
6.6953530936 -10.9457233773 -2.4996060142
6.6103289324 -10.9423710765 -2.4996060200
11.1448198260 -10.8109015695 -2.4996060776
11.2347210219 -10.7618630561 -2.4996060776
11.3654684005 -10.7148445201 -2.4996060834
10.2511211072 -11.2461110903 -2.4996060891
5.4919007234 -10.9399158324 -2.4996061295
4.5373215875 -10.9830436725 -2.4996062620
3.7611726242 -10.6807386787 -2.4996063254
4.4934965697 -11.2795022617 -2.4996063254
3.5284494352 -10.4857445638 -2.4996063312
4.6799807193 -11.4358175509 -2.4996063312
4.7649089423 -11.4906119282 -2.4996063312
3.4409428555 -10.4293681753 -2.4996063370
4.9248047544 -11.6171855252 -2.4996063370
3.0879591546 -10.0633473621 -2.4996063427
3.1137409823 -10.0948587605 -2.4996063427
3.0563390736 -10.0627308386 -2.4996063485
7.6024397984 -7.0424631286 -2.5001743028
4.0561174377 -6.7014515528 -2.5001755707
4.0627816677 -6.7253805743 -2.5001755707
4.0463590206 -6.7559615235 -2.5001755822
4.0520928535 -6.8588903977 -2.5001755938
4.0604384846 -6.9621984993 -2.5001756053
4.0542013650 -7.0180008518 -2.5001756168
4.0443404000 -7.0621395204 -2.5001756283
4.0575911727 -7.0981084736 -2.5001756283
4.0666021325 -7.1220218338 -2.5001756283
4.0532105780 -7.1546056103 -2.5001756399
4.0517690161 -7.2805260873 -2.5001756629
4.0567964607 -7.2925058563 -2.5001756629
4.0550966559 -7.3499246837 -2.5001756745
4.0594012930 -7.7470625445 -2.5001757551
4.0679157770 -8.4906420813 -2.5001759396
8.0064439873 -10.9207280290 -2.5001761125
8.0380017367 -10.9212117476 -2.5001761125
8.1642447820 -10.9212794035 -2.5001761125
8.2746821782 -10.9188880083 -2.5001761125
6.7098937157 -10.9363309215 -2.5001762047
6.7415664688 -10.9444851938 -2.5001762047
6.7891646685 -10.9563648974 -2.5001762047
9.3494025216 -10.9728845202 -2.5001762047
6.6086623406 -10.9340256545 -2.5001762162
6.6244863102 -10.9384256849 -2.5001762162
6.6561729514 -10.9470852195 -2.5001762162
9.6882631040 -10.9083453857 -2.5001762162
9.7039976321 -10.9036355124 -2.5001762162
6.5704058499 -10.9483261741 -2.5001762277
6.7296512123 -10.9913399459 -2.5001762277
9.5523235012 -10.9719773957 -2.5001762277
9.8054818425 -10.8974209636 -2.5001762277
6.4842867609 -10.9481975965 -2.5001762393
9.8601216057 -10.9050658707 -2.5001762393
9.8915542500 -10.8945828841 -2.5001762393
6.3661577303 -10.9365014413 -2.5001762508
6.3819900847 -10.9416188334 -2.5001762508
6.4136998617 -10.9517130012 -2.5001762508
9.9465041051 -10.9013494385 -2.5001762508
6.2794190213 -10.9330905558 -2.5001762623
6.2952416653 -10.9384645516 -2.5001762623
10.0174450437 -10.9019197903 -2.5001762623
6.2082115294 -10.9339105881 -2.5001762738
6.2240369107 -10.9394952250 -2.5001762738
10.0886563086 -10.9015522168 -2.5001762738
6.1525556414 -10.9395869175 -2.5001762854
10.1758340864 -10.8941347219 -2.5001762854
6.0966503514 -10.9446947354 -2.5001762969
6.0246480066 -10.9431024573 -2.5001763084
10.2723475927 -10.9076816105 -2.5001763084
10.3037884980 -10.8947597107 -2.5001763084
5.8706503903 -10.9593622756 -2.5001763430
5.6988171303 -10.9642045962 -2.5001763776
5.7466313907 -10.9853373387 -2.5001763776
10.6300129476 -10.9084953830 -2.5001763776
10.7034260166 -10.8999471027 -2.5001763891
10.8460902959 -10.9094508629 -2.5001764237
10.9202003510 -10.8979886599 -2.5001764352
11.1189919967 -10.8156339485 -2.5001764467
11.1498734994 -10.7977046271 -2.5001764467
11.1806483857 -10.7795929142 -2.5001764467
11.3026602796 -10.7053349216 -2.5001764467
10.4241056397 -11.1850637721 -2.5001764583
10.4901819402 -11.1572190937 -2.5001764583
10.6050060064 -11.1066166880 -2.5001764583
11.2391147574 -10.7727711616 -2.5001764583
11.4660597511 -10.6285978653 -2.5001764583
11.4809589568 -10.6186301721 -2.5001764583
11.5106685840 -10.5985627805 -2.5001764583
11.5844186886 -10.5476283866 -2.5001764583
11.6137064347 -10.5269501352 -2.5001764583
5.3277967690 -11.0006525478 -2.5001764698
10.1817579040 -11.3051897495 -2.5001764698
10.2324216844 -11.2865254799 -2.5001764698
10.2492725567 -11.2802042324 -2.5001764698
10.3499784057 -11.2412324889 -2.5001764698
11.6277070151 -10.5466559472 -2.5001764698
11.8442394455 -10.3854679585 -2.5001764698
5.2366832746 -10.9803436806 -2.5001764813
10.1048751548 -11.3581346435 -2.5001764813
10.1389840225 -11.3461956832 -2.5001764813
11.5228893234 -10.6486816354 -2.5001764813
12.1940575941 -10.1561032826 -2.5001764928
9.7732410303 -11.5128833714 -2.5001765044
12.2968389180 -10.1608444434 -2.5001765274
9.3863328511 -11.7072956141 -2.5001765505
4.6753066653 -10.9889943754 -2.5001766196
3.6959945816 -10.6493137169 -2.5001767695
3.7562026471 -10.7011166799 -2.5001767695
3.7713501106 -10.7139558210 -2.5001767695
3.8170194545 -10.7522036065 -2.5001767695
3.8630264276 -10.7900445960 -2.5001767695
3.8938835265 -10.8150444515 -2.5001767695
4.4567543713 -11.2221681516 -2.5001767695
4.6080576448 -11.3172622163 -2.5001767695
3.5317864037 -10.5344744188 -2.5001767810
3.6054613768 -10.6015577869 -2.5001767810
3.6801204800 -10.6675441359 -2.5001767810
4.5784712732 -11.3274940790 -2.5001767810
4.8540205012 -11.4878688301 -2.5001767810
3.2437004964 -10.2866177236 -2.5001767925
3.3848296227 -10.4283167525 -2.5001767925
3.3991717196 -10.4422556759 -2.5001767925
3.5893193765 -10.6195514278 -2.5001767925
4.8248545336 -11.4993684298 -2.5001767925
3.0754599181 -10.1422329976 -2.5001768041
3.1708574989 -10.2453760659 -2.5001768041
3.2824709310 -10.3608055258 -2.5001768041
4.9189571953 -11.5779798573 -2.5001768041
5.0975486902 -11.6695639332 -2.5001768041
3.0038064759 -10.0984301595 -2.5001768156
3.0171743756 -10.1134976617 -2.5001768156
5.1592767895 -11.7265072925 -2.5001768156
5.1774514048 -11.7351914001 -2.5001768156
2.8411131879 -9.9455296116 -2.5001768271
2.8930535998 -10.0074971975 -2.5001768271
3.0668603301 -10.2045730784 -2.5001768271
2.5656717553 -9.6716967029 -2.5001768502
2.5100597916 -9.6365613646 -2.5001768617
5.1811517948 -11.8705097565 -2.5001768732
4.0566878066 -6.4029789223 -2.4999333465
4.0239045423 -6.5644638530 -2.4999333984
4.0498710864 -6.6526398340 -2.4999333984
4.0566882007 -6.6745858843 -2.4999333984
4.0671570230 -6.7074283768 -2.4999333984
4.0432415055 -6.7885292702 -2.4999334330
4.0625380246 -6.8434010029 -2.4999334330
4.0683423686 -6.9283862025 -2.4999334503
4.0585710805 -6.9699722401 -2.4999334676
4.0606871207 -7.1623805441 -2.4999335194
4.0623357294 -7.2812038478 -2.4999335540
4.0675874079 -7.2921422916 -2.4999335540
4.0564741034 -7.3245956095 -2.4999335713
4.0632102802 -7.4450083340 -2.4999336059
4.0711305442 -7.6109383921 -2.4999336578
6.3924330340 -10.9666027840 -2.4999346433
6.4247320031 -10.9746139495 -2.4999346433
9.3675226528 -10.9022345304 -2.4999346433
9.3993887287 -10.8926451932 -2.4999346433
6.3379783102 -10.9776196996 -2.4999346606
9.4702552287 -10.8959438680 -2.4999346606
6.2346759859 -10.9747531636 -2.4999346779
9.5254845901 -10.9035540974 -2.4999346779
6.1471832209 -10.9747371664 -2.4999346951
9.6128947899 -10.8997539459 -2.4999346951
6.0432081662 -10.9682606726 -2.4999347124
6.0917027172 -10.9833048358 -2.4999347124
9.4437106021 -10.9802040104 -2.4999347124
9.7164924314 -10.8887864640 -2.4999347124
5.9873800215 -10.9757769365 -2.4999347297
6.0035524925 -10.9810045859 -2.4999347297
6.0197403571 -10.9861843712 -2.4999347297
9.7566621863 -10.8998032953 -2.4999347297
9.7725934213 -10.8938810587 -2.4999347297
5.9151063819 -10.9772888313 -2.4999347470
5.9312836416 -10.9827302725 -2.4999347470
5.8587287323 -10.9835083274 -2.4999347643
5.6966355104 -10.9761079197 -2.4999347989
5.7290028927 -10.9882354907 -2.4999347989
10.0471838923 -10.8884182782 -2.4999347989
5.6233034926 -10.9737876916 -2.4999348162
10.0725985234 -10.9038568549 -2.4999348162
10.1619487647 -10.8911788854 -2.4999348335
5.4342429611 -10.9748345888 -2.4999348680
5.4504150647 -10.9816985217 -2.4999348680
10.4097617968 -10.8816838710 -2.4999349026
5.2756091491 -10.9842288873 -2.4999349199
10.4523036007 -10.8875471461 -2.4999349199
10.5537933641 -10.8900903239 -2.4999349545
5.0990509213 -10.9812828559 -2.4999349718
5.1152435666 -10.9891383192 -2.4999349718
10.5968276924 -10.8948727331 -2.4999349718
10.8620859322 -10.8866325774 -2.4999350582
11.1207736954 -10.8149679286 -2.4999351101
11.1988486317 -10.7647197973 -2.4999351101
11.2143739551 -10.7545319034 -2.4999351101
11.3679435983 -10.6501443551 -2.4999351101
11.4134053648 -10.6179470053 -2.4999351101
10.3803022796 -11.2434828477 -2.4999351274
11.5028820415 -10.5828467727 -2.4999351274
11.5626282694 -10.5382355305 -2.4999351274
11.6365618948 -10.4814824693 -2.4999351274
11.6805163039 -10.4469079246 -2.4999351274
10.1498549651 -11.3693315659 -2.4999351447
10.1844708517 -11.3551055130 -2.4999351447
10.2190019665 -11.3406749099 -2.4999351447
10.2706370480 -11.3186465805 -2.4999351447
11.8116832073 -10.3713883476 -2.4999351447
11.8546536968 -10.3352640348 -2.4999351447
10.0015903078 -11.4534248363 -2.4999351620
10.0191581838 -11.4467756357 -2.4999351620
10.0367063134 -11.4400744952 -2.4999351620
12.0256581096 -10.2174953061 -2.4999351620
12.0974842373 -10.1844461557 -2.4999351793
9.7508306057 -11.5928442593 -2.4999351966
4.5094769021 -11.2164579701 -2.4999353176
3.4782251998 -10.5206583073 -2.4999353349
3.5979610492 -10.6206390556 -2.4999353349
3.6130934128 -10.6329365923 -2.4999353349
3.7819166551 -10.7652281091 -2.4999353349
4.6167661289 -11.3038367899 -2.4999353349
4.7547157363 -11.3766566328 -2.4999353349
3.3012182605 -10.3964652594 -2.4999353522
3.4033246205 -10.4877954594 -2.4999353522
3.9250323976 -10.9003602058 -2.4999353522
4.8310831284 -11.4421737639 -2.4999353522
4.8486403449 -11.4508199079 -2.4999353522
4.9722462294 -11.5098834289 -2.4999353522
3.0718384854 -10.2108645353 -2.4999353695
5.0693433487 -11.5805582609 -2.4999353695
5.0873088891 -11.5884989825 -2.4999353695
5.2226493478 -11.6724528679 -2.4999353867
2.7660508214 -9.9574163873 -2.4999354040
2.7924425727 -9.9869001104 -2.4999354040
2.6438079104 -9.8535728293 -2.4999354213
5.4447072363 -11.8109247866 -2.4999354213
5.5568779615 -11.8510717312 -2.4999354213
2.5111865064 -9.7309087883 -2.4999354386
2.5488393397 -9.7773463876 -2.4999354386
2.4057901366 -9.6360159182 -2.4999354559
4.0249141525 -7.0190657531 -2.5000261581
4.0463149196 -7.2304564681 -2.5000261754
4.0449051170 -7.4781623740 -2.5000262042
4.0436243106 -7.6155372137 -2.5000262215
4.0550740618 -7.6783165949 -2.5000262273
10.9540723040 -7.4189380115 -2.5000262330
6.0753442358 -10.9591363499 -2.5000266134
6.0915113068 -10.9630704275 -2.5000266134
6.1076899448 -10.9669566628 -2.5000266134
6.1238800081 -10.9707950217 -2.5000266134
6.1400813552 -10.9745854706 -2.5000266134
6.2700813126 -11.0031804128 -2.5000266134
8.8418975959 -10.9361490552 -2.5000266134
8.9222045973 -10.9144248026 -2.5000266134
6.0047668468 -10.9663317811 -2.5000266192
6.0209555120 -10.9704746079 -2.5000266192
6.0371563616 -10.9745695275 -2.5000266192
6.0858305984 -10.9865664875 -2.5000266192
8.9447804839 -10.9332052604 -2.5000266192
8.9929731379 -10.9194003162 -2.5000266192
9.0250326918 -10.9099596521 -2.5000266192
9.0570358304 -10.9003294781 -2.5000266192
5.9014565249 -10.9637696340 -2.5000266249
5.9176380628 -10.9682180826 -2.5000266249
5.9500402624 -10.9769712792 -2.5000266249
9.0961520463 -10.9135951393 -2.5000266249
5.8139640925 -10.9640114311 -2.5000266307
5.8301467285 -10.9687186971 -2.5000266307
5.8787771943 -10.9825529818 -2.5000266307
9.2156159663 -10.9005208749 -2.5000266307
9.2315959021 -10.8951657173 -2.5000266307
5.7747177808 -10.9776138083 -2.5000266365
9.3193069763 -10.8904744109 -2.5000266365
9.3753604798 -10.8960673267 -2.5000266422
5.5818957793 -10.9672468906 -2.5000266480
5.6142981091 -10.9779864683 -2.5000266480
9.4636062480 -10.8890526489 -2.5000266480
5.4931616833 -10.9623678307 -2.5000266537
9.4882079202 -10.9055337446 -2.5000266537
5.4365122403 -10.9678471504 -2.5000266595
9.5609950645 -10.9030698218 -2.5000266595
5.3472477257 -10.9606217883 -2.5000266653
9.6340131600 -10.8996376641 -2.5000266653
9.7232115851 -10.8884220007 -2.5000266710
5.1588778150 -10.9641661898 -2.5000266826
5.1750637751 -10.9708113188 -2.5000266826
9.8543250400 -10.8834746626 -2.5000266826
9.9702907490 -10.8829785505 -2.5000266941
4.9846928470 -10.9684989053 -2.5000266998
4.8513775791 -10.9608134222 -2.5000267114
10.1296880870 -10.8857234392 -2.5000267114
4.7925259237 -10.9596577458 -2.5000267171
10.1884830511 -10.8828941056 -2.5000267171
4.6310674057 -10.9607367602 -2.5000267344
4.1704506847 -10.9552733299 -2.5000267863
10.8390290297 -10.8711286559 -2.5000267921
3.6864450255 -10.6966379075 -2.5000267978
3.7172795152 -10.7185963445 -2.5000267978
3.8262119245 -10.7940062471 -2.5000267978
3.8419003516 -10.8045943873 -2.5000267978
3.9049652133 -10.8464814726 -2.5000267978
10.8838827623 -10.8710747973 -2.5000267978
3.4444801364 -10.5452060206 -2.5000268036
3.4744229391 -10.5685986534 -2.5000268036
3.5498808425 -10.6263016299 -2.5000268036
3.5803015893 -10.6490692575 -2.5000268036
3.5955623426 -10.6603854791 -2.5000268036
3.6878237499 -10.7273303057 -2.5000268036
4.6528493511 -11.2947793098 -2.5000268036
4.6872057325 -11.3110097058 -2.5000268036
4.7216575371 -11.3270365538 -2.5000268036
4.7389188464 -11.3349734718 -2.5000268036
4.7908425889 -11.3584773692 -2.5000268036
10.9129403879 -10.8810537041 -2.5000268036
4.9738178887 -11.4630697568 -2.5000268094
3.1064871307 -10.3251544426 -2.5000268151
3.2805940705 -10.4749649277 -2.5000268151
5.0892135619 -11.5348623939 -2.5000268151
5.1249827184 -11.5485069108 -2.5000268151
10.6122990549 -11.1205858350 -2.5000268151
11.1296249048 -10.7930343868 -2.5000268151
11.1920427983 -10.7486905388 -2.5000268151
11.2075649448 -10.7374894174 -2.5000268151
11.2385094936 -10.7149496682 -2.5000268151
11.2846749279 -10.6807977604 -2.5000268151
11.3305354651 -10.6462375051 -2.5000268151
2.8113453718 -10.0791031199 -2.5000268209
2.8658980289 -10.1332349992 -2.5000268209
2.9072307735 -10.1734082285 -2.5000268209
5.1884795630 -11.5978704260 -2.5000268209
10.4218568788 -11.2519997051 -2.5000268209
10.4728204895 -11.2250739829 -2.5000268209
11.3908913740 -10.6303813183 -2.5000268209
11.4513663906 -10.5829574306 -2.5000268209
11.5112760321 -10.5348212945 -2.5000268209
2.7266832813 -10.0273395040 -2.5000268266
5.3623288033 -11.6839516399 -2.5000268266
10.2086938100 -11.3852507324 -2.5000268266
11.5860846823 -10.5045519034 -2.5000268266
11.8183870251 -10.3015155975 -2.5000268266
11.8325836067 -10.2884635932 -2.5000268266
11.8608606291 -10.2622338824 -2.5000268266
2.6029961261 -9.9315562181 -2.5000268324
2.6558175254 -9.9881637116 -2.5000268324
10.0429934600 -11.4874892293 -2.5000268324
11.9615564233 -10.1999256760 -2.5000268324
9.8916847411 -11.5777548127 -2.5000268382
9.9813665101 -11.5404336212 -2.5000268382
12.0888045501 -10.1079581580 -2.5000268382
5.5816044035 -11.8278937165 -2.5000268439
9.7191704972 -11.6710435294 -2.5000268439
9.7374275751 -11.6641953950 -2.5000268439
9.8646487348 -11.6147504918 -2.5000268439
12.3327727967 -9.8831897748 -2.5000268439
9.4765482400 -11.8071699020 -2.5000268555
9.3901471700 -11.8600804676 -2.5000268612
5.8463118161 -15.3723690474 -2.5000276566
8.8521642553 -15.3918536046 -2.5000276566
7.4134137742 -7.0412997476 -2.4999995405
7.2749490171 -7.1398685704 -2.4999994626
10.9447013687 -6.8013826994 -2.4999968173
10.9484115798 -6.7899051652 -2.4999968173
10.9520878220 -6.7784167058 -2.4999968173
10.9639251213 -6.8203865050 -2.4999967914
10.9442198463 -7.0205789048 -2.4999967395
10.9571938031 -6.9861092687 -2.4999967395
10.9534487182 -7.0637476851 -2.4999967136
10.9579350140 -7.0522431267 -2.4999967136
10.9668054102 -7.0291944480 -2.4999967136
10.9560774083 -7.1855005844 -2.4999966617
10.9381207445 -7.2870130872 -2.4999966358
10.9444247593 -7.3314327178 -2.4999966098
10.9447992623 -7.3875813059 -2.4999965839
10.9829116918 -7.4199547617 -2.4999965320
10.9410058245 -7.6605244372 -2.4999964542
10.9431516938 -7.7066113978 -2.4999964283
10.9395826298 -7.9044115895 -2.4999963245
10.9531736580 -7.9285093374 -2.4999962986
5.6921338209 -10.9457085550 -2.4999952093
5.7722155944 -10.9654468200 -2.4999952093
8.4509874116 -10.9431935396 -2.4999952093
5.5900609299 -10.9437801715 -2.4999951834
8.4890613572 -10.9582890781 -2.4999951834
5.5036021389 -10.9445710734 -2.4999951575
5.5676440812 -10.9626873530 -2.4999951575
5.5836877109 -10.9670979193 -2.4999951575
8.5755079007 -10.9599453360 -2.4999951575
8.5915302584 -10.9554581091 -2.4999951575
5.4167983955 -10.9439812369 -2.4999951315
8.7582356632 -10.9310504750 -2.4999951315
5.3296717037 -10.9420006533 -2.4999951056
8.7654744943 -10.9541141826 -2.4999951056
8.8453444168 -10.9283956316 -2.4999951056
5.2422442876 -10.9386196640 -2.4999950797
8.9885600938 -10.9303338088 -2.4999950537
5.1304492060 -10.9509081568 -2.4999950278
9.0765099655 -10.9239640897 -2.4999950278
9.0924236921 -10.9179949655 -2.4999950278
9.1646900209 -10.9161667091 -2.4999950019
4.9696341056 -10.9425172100 -2.4999949759
9.2212947864 -10.9197753125 -2.4999949759
9.2621993741 -10.9293192277 -2.4999949500
4.7506365624 -10.9313188419 -2.4999948981
9.5394603526 -10.9144607822 -2.4999948462
9.6554210989 -10.9132787874 -2.4999947944
4.4187399229 -10.9382944083 -2.4999947425
4.4347164209 -10.9461037476 -2.4999947425
9.7562202300 -10.9176393185 -2.4999947425
4.1991662310 -10.9346651738 -2.4999946388
3.6775628620 -10.7100591429 -2.4999945610
3.7082015448 -10.7300195729 -2.4999945610
3.7698305030 -10.7693948864 -2.4999945610
3.8008186211 -10.7888083915 -2.4999945610
3.8631367121 -10.8270837011 -2.4999945610
3.9259033318 -10.8646189546 -2.4999945610
4.4762711902 -11.1530740848 -2.4999945610
3.4523927179 -10.5849590960 -2.4999945350
3.4822952077 -10.6062538976 -2.4999945350
3.5123231613 -10.6273714134 -2.4999945350
3.6031492728 -10.6896528849 -2.4999945350
3.6183938127 -10.6998759768 -2.4999945350
3.6336685276 -10.7100539278 -2.4999945350
3.7104900408 -10.7602634671 -2.4999945350
4.6001775646 -11.2349803926 -2.4999945350
4.6677190101 -11.2637660811 -2.4999945350
4.6846572227 -11.2708374712 -2.4999945350
10.1977504338 -10.8982992854 -2.4999945350
3.1883834775 -10.4158184726 -2.4999945091
3.2028197805 -10.4272697149 -2.4999945091
3.2609018414 -10.4726461345 -2.4999945091
4.8637718568 -11.3679113565 -2.4999945091
4.9155653900 -11.3872310934 -2.4999945091
5.0817379695 -11.4712197399 -2.4999944832
2.8060150586 -10.1514463483 -2.4999944572
2.9442321713 -10.2754480633 -2.4999944572
5.3693038038 -11.6100590867 -2.4999944313
10.3743897916 -10.9050068965 -2.4999944313
3.0409477135 -10.4208029946 -2.4999944054
5.3447792167 -11.6282717917 -2.4999944054
5.6109340411 -11.7221881554 -2.4999943794
2.1936418192 -9.6502454836 -2.4999943535
10.5240740967 -10.8962908565 -2.4999943535
5.7846960906 -11.8099057809 -2.4999943275
5.8171018803 -11.8410915558 -2.4999943016
10.7494799600 -10.8912413290 -2.4999942238
10.4849154568 -11.2339022507 -2.4999940682
10.5185342313 -11.2135789285 -2.4999940682
10.6020499815 -11.1619035651 -2.4999940682
10.6517893456 -11.1303074150 -2.4999940682
11.3318249930 -10.6303435150 -2.4999940682
11.3618580890 -10.6050201548 -2.4999940682
11.4066255051 -10.5667030633 -2.4999940682
10.2751683417 -11.3823027002 -2.4999940423
11.5551442946 -10.4672570110 -2.4999940423
11.6846818021 -10.3460248969 -2.4999940423
10.0943839863 -11.5051522900 -2.4999940163
11.8281553636 -10.2383631945 -2.4999940163
9.9628447651 -11.5969359875 -2.4999939904
10.1230192092 -11.5176913716 -2.4999939904
11.7324798699 -10.3670994122 -2.4999939904
11.8453645865 -10.2553389988 -2.4999939904
11.9826997724 -10.1119335603 -2.4999939904
11.9961986500 -10.0973709540 -2.4999939904
9.9011615127 -11.6527104283 -2.4999939645
12.1731105402 -9.9353132820 -2.4999939645
12.1990168800 -9.9050247582 -2.4999939645
9.5994321750 -11.8098828062 -2.4999939385
9.6179643213 -11.8023629073 -2.4999939385
9.6549614731 -11.7871588102 -2.4999939385
9.4759598344 -11.9359237322 -2.4999938607
9.0565467420 -12.1543717731 -2.4999937829
15.2203561733 -8.0314162651 -2.4999920453
15.2434752152 -8.0384763773 -2.4999920193
7.1590572299 -7.1760221588 -2.4999970771
10.9431304193 -6.3655668610 -2.4999897202
10.9493465328 -6.3281770234 -2.4999897202
10.9534559158 -6.4446661036 -2.4999896540
10.9394282453 -6.7294976774 -2.4999895214
10.9428421070 -6.8104235912 -2.4999894551
10.9478452308 -7.0433818472 -2.4999892563
10.9458493083 -7.5759448904 -2.4999887261
10.9610858025 -8.0739834479 -2.4999880633
5.4453909090 -10.9726206288 -2.4999864064
5.3134813905 -10.9640124969 -2.4999863401
8.2722098744 -10.9306739251 -2.4999863401
5.2441497045 -10.9701221093 -2.4999862738
8.3416616244 -10.9352197436 -2.4999862738
4.9787256822 -10.9396032617 -2.4999861412
5.0257686728 -10.9549640511 -2.4999861412
8.6538817653 -10.9329931572 -2.4999860087
4.7111950248 -10.9469138576 -2.4999858761
8.8830802652 -10.9223940956 -2.4999858099
4.5680394373 -10.9423351620 -2.4999857436
8.9954164902 -10.9278456895 -2.4999856773
4.3829309620 -10.9422656321 -2.4999855447
9.0929745476 -10.9379618457 -2.4999855447
9.1655273925 -10.9316274959 -2.4999854785
4.2845985222 -10.9508214032 -2.4999854122
4.2272960483 -10.9507401306 -2.4999853459
9.3950873978 -10.9283157830 -2.4999852133
3.6399083355 -10.7162442962 -2.4999851471
3.8217884889 -10.8228306391 -2.4999851471
3.3607954418 -10.5643677610 -2.4999850808
4.8999477553 -11.3461698707 -2.4999850145
4.9337013886 -11.3569157529 -2.4999850145
4.9944047862 -11.4009473311 -2.4999849482
10.2269822413 -10.9197040398 -2.4999840866
10.5502585915 -11.2265802957 -2.4999828936
10.6160182480 -11.1810234434 -2.4999828936
10.6649817186 -11.1463469168 -2.4999828936
11.2422333771 -10.6839403215 -2.4999828936
11.3747364328 -10.5621200209 -2.4999828936
12.2426249419 -9.7698817523 -2.4999825622
7.2037728189 -7.1902563436 -2.4999994886
7.4026864644 -7.0571904429 -2.4999994886
7.4325424134 -7.0643536239 -2.4999994626
7.3346320905 -7.1663130272 -2.4999994367
10.9355256140 -5.8370169045 -2.4999963505
10.9723260062 -7.4209425938 -2.4999960133
10.9525276603 -7.6752347658 -2.4999959355
10.9693043686 -7.6979058508 -2.4999959096
10.9614233163 -8.1184221946 -2.4999957280
5.0316592714 -10.9577561090 -2.4999954687
5.0468999821 -10.9618491108 -2.4999954687
7.8995066956 -10.9339311718 -2.4999954687
4.9033283912 -10.9465735670 -2.4999954427
4.9185365834 -10.9510462437 -2.4999954427
4.9947723455 -10.9727337358 -2.4999954427
7.9821971257 -10.9346578732 -2.4999954427
4.8355014628 -10.9513316255 -2.4999954168
8.1710225962 -10.8989500499 -2.4999954168
4.6684446910 -10.9478842003 -2.4999953649
4.6988861048 -10.9581741734 -2.4999953649
8.1563004834 -10.9550211878 -2.4999953649
8.3077854464 -10.9014994212 -2.4999953649
4.4612763885 -10.9501357563 -2.4999952871
4.5069893451 -10.9673415464 -2.4999952871
4.4069022931 -10.9550331863 -2.4999952612
4.4679483667 -10.9785270414 -2.4999952612
8.5089976245 -10.9270223351 -2.4999952612
8.6941362336 -10.9005967078 -2.4999952093
4.2118768215 -10.9533478092 -2.4999951834
4.1565596988 -10.9556475401 -2.4999951575
4.1717980009 -10.9623292539 -2.4999951575
8.8903019073 -10.8892427871 -2.4999951315
3.9996724363 -10.9372056920 -2.4999951056
5.4135629445 -11.5130581620 -2.4999949759
10.6236753400 -11.1973703559 -2.4999938607
11.1436101906 -10.7483376323 -2.4999938607
11.2017389360 -10.6921341000 -2.4999938607
11.2734580071 -10.6209189212 -2.4999938607
10.4439217152 -11.3626449722 -2.4999938348
10.5256407942 -11.3025648600 -2.4999938348
11.3191087565 -10.6090619561 -2.4999938348
11.5272666169 -10.3871487934 -2.4999938348
11.5542704910 -10.3568694864 -2.4999938348
10.3082707528 -11.4876697544 -2.4999938089
10.3585237756 -11.4529655821 -2.4999938089
10.4084668394 -11.4178168091 -2.4999938089
11.6789431998 -10.2497739069 -2.4999938089
9.9729222905 -11.7594458715 -2.4999937570
12.0198507559 -9.8942451299 -2.4999937570
7.0804500185 -7.2128695195 -2.5000042629
4.8754846948 -10.9525077938 -2.5000115131
4.8900800119 -10.9562428859 -2.5000115131
4.9778781272 -10.9777452906 -2.5000115131
5.0366162491 -10.9912130451 -2.5000115131
7.4534765671 -10.9425298837 -2.5000115131
4.8109116326 -10.9604726682 -2.5000115621
10.9528707016 -7.7733626521 -2.5000115621
10.9580349412 -7.7591336473 -2.5000115621
10.9631570663 -7.7448894281 -2.5000115621
10.9881344173 -7.6734444818 -2.5000115621
4.7021255909 -10.9549826629 -2.5000116111
4.7313448865 -10.9634352626 -2.5000116111
7.6268496345 -10.9436627538 -2.5000116111
7.6559507703 -10.9348119019 -2.5000116111
10.9597618952 -7.8244388898 -2.5000116111
7.6922378770 -10.9488527361 -2.5000116601
7.7794634589 -10.9206231050 -2.5000116601
10.9661233823 -7.8757748208 -2.5000116601
4.5710974886 -10.9655158599 -2.5000117090
7.8452474021 -10.9237847047 -2.5000117090
10.9605849966 -7.9558871090 -2.5000117090
10.9775708254 -7.9130789284 -2.5000117090
4.4612359629 -10.9547353719 -2.5000117580
7.8968145562 -10.9312748654 -2.5000117580
10.9596684091 -8.0220067817 -2.5000117580
4.4387708185 -10.9725856011 -2.5000118070
7.9049347776 -10.9540432050 -2.5000118070
8.0211857792 -10.9110256525 -2.5000118070
10.9578581617 -8.0883744413 -2.5000118070
8.0007420177 -10.9446584078 -2.5000118560
8.0733692289 -10.9166787225 -2.5000118560
10.9551482730 -8.1549781601 -2.5000118560
4.2759497398 -10.9651627091 -2.5000119050
4.2905851156 -10.9706712787 -2.5000119050
10.9708789849 -8.1790675836 -2.5000119050
4.2233932774 -10.9709117767 -2.5000119540
8.2074617631 -10.9142383718 -2.5000119540
8.2363786526 -10.9019529386 -2.5000119540
3.7141072192 -10.7959899063 -2.5000120520
3.7282446096 -10.8031612478 -2.5000120520
3.8277916547 -10.8521853053 -2.5000120520
3.9139102599 -10.8925577842 -2.5000120520
8.3569569879 -10.9016481377 -2.5000120520
3.8173370565 -10.8739806410 -2.5000121010
8.3959029765 -10.9104375121 -2.5000121010
10.9496429335 -8.4485735731 -2.5000121010
10.9568045832 -8.4343511623 -2.5000121010
10.9712171255 -8.4594772202 -2.5000121499
3.8545366842 -10.9450227479 -2.5000121989
10.9560264599 -8.5418075191 -2.5000121989
10.9606936960 -8.6357565677 -2.5000122969
8.7092692087 -10.8906811831 -2.5000123459
8.7752882818 -10.9103151606 -2.5000124439
8.7897417221 -10.9025141130 -2.5000124439
8.8041720223 -10.8946703436 -2.5000124439
8.8185790561 -10.8867839211 -2.5000124439
8.9405635494 -10.9015043572 -2.5000125908
9.5849826871 -10.8620168864 -2.5000132277
9.8287148317 -10.8931493847 -2.5000135706
11.1121007783 -10.7488633092 -2.5000150892
10.4715768096 -11.3723070236 -2.5000151382
10.4873894834 -11.3594860264 -2.5000151382
10.5189007051 -11.3337039825 -2.5000151382
10.5658801567 -11.2946824884 -2.5000151382
10.5814627905 -11.2815828644 -2.5000151382
11.0731142965 -10.8241741573 -2.5000151382
11.1155501326 -10.7802543931 -2.5000151382
11.1854050355 -10.7062234748 -2.5000151382
11.2267897036 -10.6613118380 -2.5000151382
11.3083552262 -10.5703956389 -2.5000151382
11.3351835558 -10.5397702964 -2.5000151382
11.3618302261 -10.5089867644 -2.5000151382
11.3750851472 -10.4935360140 -2.5000151382
11.4145748641 -10.4469494479 -2.5000151382
11.4067107921 -10.4937039704 -2.5000151872
11.4852732406 -10.3996208997 -2.5000151872
11.4982040976 -10.3838054610 -2.5000151872
11.5494579853 -10.3201632689 -2.5000151872
11.5748016364 -10.2881158609 -2.5000151872
11.6124605001 -10.2397650123 -2.5000151872
11.6249179180 -10.2235740300 -2.5000151872
10.4217816731 -11.4737508712 -2.5000152362
11.6565511164 -10.2220017597 -2.5000152362
11.7180900703 -10.1400302915 -2.5000152362
9.9692406973 -11.8290492050 -2.5000152852
11.5356775938 -10.4143517899 -2.5000152852
11.7860511586 -10.0879419250 -2.5000152852
11.8337841004 -10.0209145050 -2.5000152852
9.8260086230 -11.9493204396 -2.5000153342
10.3039078926 -11.6244817976 -2.5000153342
10.4190513044 -11.5371752969 -2.5000153342
10.4353519182 -11.5245089582 -2.5000153342
11.8535570768 -10.0348200683 -2.5000153342
11.9469505796 -9.8986225863 -2.5000153342
12.0685791131 -9.7557022519 -2.5000153832
9.7271017245 -12.0658530797 -2.5000154321
12.1110970484 -9.7333662675 -2.5000154321
12.2800838333 -9.4469519791 -2.5000154321
9.4226732546 -12.2907568923 -2.5000155301
12.3425957292 -9.4339221510 -2.5000155301
9.2947552269 -12.4099163537 -2.5000156281
7.2776283208 -7.1299513522 -2.5000054196
4.6024155948 -10.9500645854 -2.5000139147
4.6162415122 -10.9539094726 -2.5000139147
7.1689230646 -10.9629037934 -2.5000139147
7.1827757331 -10.9591564312 -2.5000139147
4.5404414657 -10.9574775279 -2.5000139781
4.6097993942 -10.9772082794 -2.5000139781
7.2862539521 -10.9549683682 -2.5000139781
7.3000826328 -10.9508739547 -2.5000139781
4.4919778178 -10.9682872699 -2.5000140415
7.4039110117 -10.9440906568 -2.5000140415
7.5573680962 -10.9434201463 -2.5000141683
7.6207756710 -10.9462855256 -2.5000142317
7.6345772026 -10.9412015743 -2.5000142317
7.6429662974 -10.9638722243 -2.5000142951
7.7120794402 -10.9377147347 -2.5000142951
7.7760763073 -10.9384938233 -2.5000143585
10.9731559491 -7.5184294632 -2.5000148657
10.9358252838 -4.8944258476 -2.5000148657
10.9616636829 -7.6591716418 -2.5000149291
10.9657267193 -7.6442191221 -2.5000149291
10.9465952783 -4.8432483823 -2.5000149291
8.4015579111 -10.9125431132 -2.5000149925
10.9551672632 -7.7703482112 -2.5000149925
10.9639069577 -7.7404677072 -2.5000149925
10.9693907798 -7.8071681254 -2.5000150559
10.9480331230 -4.6802645315 -2.5000150559
10.9596376271 -7.9190876177 -2.5000151193
10.9644695509 -7.9041399542 -2.5000151193
10.9576930407 -8.0014164232 -2.5000151827
10.9336830548 -4.4861941478 -2.5000151827
10.9544129992 -8.0840449694 -2.5000152460
10.9441789323 -8.1818547733 -2.5000153094
10.9350108058 -4.3504837034 -2.5000153094
10.9235177861 -4.3207823051 -2.5000153094
10.9553881868 -8.2202931027 -2.5000153728
10.9667899025 -8.1904034169 -2.5000153728
10.9265753813 -4.1988647605 -2.5000154362
8.8138270102 -10.8960596154 -2.5000154996
10.9403248934 -8.3873924760 -2.5000154996
10.9709702273 -8.3127476031 -2.5000154996
10.9364616905 -4.1598294557 -2.5000154996
10.9301731501 -4.1449667991 -2.5000154996
10.9563291105 -8.4116782463 -2.5000155630
10.9528842088 -8.4809248143 -2.5000156264
10.9569504556 -8.5902285060 -2.5000157532
10.9587118875 -8.7003640988 -2.5000158800
10.9336492605 -9.1631383245 -2.5000163872
10.9287049275 -9.2198369657 -2.5000164506
10.9399332641 -9.3886423485 -2.5000167042
10.5428180240 -11.3332834220 -2.5000191766
10.6903074267 -11.1940169992 -2.5000191766
10.7193073309 -11.1656435751 -2.5000191766
10.7337442060 -11.1513926470 -2.5000191766
10.7481388610 -11.1370990743 -2.5000191766
10.7624911700 -11.1227629822 -2.5000191766
10.8052927674 -11.0795008456 -2.5000191766
11.1597349710 -10.6890957446 -2.5000191766
11.2243993861 -10.6109539429 -2.5000191766
11.2752943578 -10.5477572118 -2.5000191766
10.4070739585 -11.4864212485 -2.5000192400
10.4988017949 -11.4057695667 -2.5000192400
10.5139499708 -11.3921698832 -2.5000192400
11.2815123513 -10.5787190391 -2.5000192400
11.3694061788 -10.4665563138 -2.5000192400
11.3817721828 -10.4503853346 -2.5000192400
11.4185824194 -10.4016539037 -2.5000192400
11.4669872618 -10.3361741609 -2.5000192400
10.4383151348 -11.4913404481 -2.5000193034
11.5579063570 -10.2507976566 -2.5000193034
10.0387686408 -11.8433542233 -2.5000193668
10.1693018655 -11.7440737857 -2.5000193668
10.2656400171 -11.6676015424 -2.5000193668
11.5658617757 -10.2814545088 -2.5000193668
11.6817930763 -10.1123891580 -2.5000193668
9.9198643134 -11.9592655691 -2.5000194302
9.9534051692 -11.9354369520 -2.5000194302
10.0861412756 -11.8381507090 -2.5000194302
11.8023002783 -9.9701910058 -2.5000194302
11.8774823853 -9.8473754027 -2.5000194302
11.8446007807 -9.9479721177 -2.5000194936
9.7074379096 -12.1610677751 -2.5000195570
10.2627275097 -11.7628509536 -2.5000195570
12.0527092685 -9.6384689818 -2.5000195570
11.9182794121 -9.9202112782 -2.5000196204
12.1709514996 -9.4662525796 -2.5000196204
9.7422265513 -12.2536644470 -2.5000198106
6.9249662114 -10.9974002027 -2.5000022853
7.0682728322 -10.9558904157 -2.5000022853
7.1663140260 -10.9500101443 -2.5000022911
7.1792556169 -10.9457157275 -2.5000022911
7.2258536532 -10.9554658581 -2.5000022968
7.2388111226 -10.9509952885 -2.5000022968
7.2517553105 -10.9464864079 -2.5000022968
7.3588954772 -10.9591463663 -2.5000023084
7.3718632520 -10.9542822188 -2.5000023084
7.3848165811 -10.9493797316 -2.5000023084
7.3934065288 -10.9719750427 -2.5000023141
7.4931878188 -10.9588176642 -2.5000023199
7.5802008468 -10.9489235015 -2.5000023256
7.6026555025 -10.9656250264 -2.5000023314
7.6803197895 -10.9315385915 -2.5000023314
7.6902307502 -10.9535864517 -2.5000023372
7.7031806281 -10.9477421789 -2.5000023372
7.7161131609 -10.9418596236 -2.5000023372
7.7908770481 -10.9337123416 -2.5000023429
7.8271344894 -10.9431666158 -2.5000023487
7.8506116904 -10.9586624748 -2.5000023545
7.9519700846 -10.9351503222 -2.5000023602
8.0017909448 -10.9366039007 -2.5000023660
8.0876131712 -10.9731797811 -2.5000023833
8.1524343047 -10.9376965256 -2.5000023833
8.3558308732 -10.9314032801 -2.5000024063
8.4068261148 -10.9569637924 -2.5000024179
8.4843038370 -10.9371844352 -2.5000024236
8.5620933596 -10.9447210977 -2.5000024351
10.9452370244 -7.9677196677 -2.5000024813
10.9549362700 -5.2151812159 -2.5000024813
10.9384596765 -8.0823084664 -2.5000024870
10.9429015825 -8.0668679080 -2.5000024870
10.9644249177 -7.9894717364 -2.5000024870
10.9783346891 -5.2091108566 -2.5000024870
10.9445879157 -5.0850889067 -2.5000024870
10.9401634773 -5.0696433340 -2.5000024870
10.9339489116 -8.1817981647 -2.5000024928
10.9386851458 -8.1663705147 -2.5000024928
10.9433757215 -8.1509289215 -2.5000024928
10.9480205977 -8.1354735203 -2.5000024928
10.9526197336 -8.1200044464 -2.5000024928
10.9749279158 -8.0424587274 -2.5000024928
10.9589020033 -5.0474511461 -2.5000024928
10.9543661629 -5.0319633944 -2.5000024928
10.9404840283 -4.9855815945 -2.5000024928
10.9325744384 -8.2661918236 -2.5000024985
10.9425005736 -8.2353292352 -2.5000024985
10.9473951249 -8.2198760536 -2.5000024985
10.9492545215 -4.9320859416 -2.5000024985
10.9443774522 -4.9166272337 -2.5000024985
10.9350753840 -8.3354789060 -2.5000025043
10.9402662287 -8.3200472513 -2.5000025043
10.9555645491 -8.2736611002 -2.5000025043
10.9723182151 -4.9248470660 -2.5000025043
10.9674196310 -4.9093201632 -2.5000025043
10.9524485925 -4.8628273506 -2.5000025043
10.9473666298 -4.8473594971 -2.5000025043
10.9422389327 -4.8319067446 -2.5000025043
10.9366631219 -8.4050611533 -2.5000025101
10.9420597966 -8.3896244972 -2.5000025101
10.9785546597 -8.2811303768 -2.5000025101
10.9599744081 -4.8087543521 -2.5000025101
10.9547324548 -4.7932644724 -2.5000025101
10.9494447025 -4.7777901672 -2.5000025101
10.9441111976 -4.7623315718 -2.5000025101
10.9259874470 -8.5057544277 -2.5000025158
10.9669506925 -4.7544136960 -2.5000025158
10.9560993672 -4.7234091882 -2.5000025158
10.9450647988 -4.6924694230 -2.5000025158
9.2394603422 -10.8992837588 -2.5000025216
10.9253141120 -8.5758882897 -2.5000025216
10.9312161739 -8.5604844586 -2.5000025216
10.9621988070 -4.6687693428 -2.5000025216
10.9450932205 -4.6223323347 -2.5000025216
9.2803569908 -10.8970555865 -2.5000025274
10.9298169430 -8.6308762233 -2.5000025274
10.9358816494 -8.6154588314 -2.5000025274
10.9419007218 -8.6000235666 -2.5000025274
10.9619204851 -4.5983642229 -2.5000025274
10.9441901036 -4.5519324571 -2.5000025274
10.9147942651 -8.7322774522 -2.5000025331
10.9461623392 -8.6552242137 -2.5000025331
10.9607066840 -4.5277002639 -2.5000025331
10.9546333187 -4.5122094478 -2.5000025331
9.3624365301 -10.8915986189 -2.5000025389
10.9176652296 -8.7877612060 -2.5000025389
10.9306774053 -8.7569776972 -2.5000025389
10.9522681319 -4.4413056541 -2.5000025389
10.9266523372 -8.8280760670 -2.5000025446
10.9333004102 -8.8126671738 -2.5000025446
10.9399028719 -8.7972386818 -2.5000025446
10.9618959672 -4.4011389900 -2.5000025446
10.9554482055 -4.3856452095 -2.5000025446
10.9157279932 -8.9708876400 -2.5000025562
10.9600716216 -4.2736594144 -2.5000025562
10.9532467602 -4.2581715885 -2.5000025562
10.9463761130 -4.2427040195 -2.5000025562
10.9088178894 -9.0425753200 -2.5000025619
10.9161005681 -9.0272182458 -2.5000025619
10.9615076001 -4.2173458821 -2.5000025619
10.9084308429 -9.0990996767 -2.5000025677
10.9158807325 -9.0837435002 -2.5000025677
10.9232851632 -9.0683653527 -2.5000025677
10.9479918429 -4.1298596225 -2.5000025677
10.8638124863 -3.9044120984 -2.5000025735
10.8237801422 -3.8286409902 -2.5000025735
10.8156394322 -3.8135582862 -2.5000025735
10.7826314929 -3.7534702639 -2.5000025735
10.7658614761 -3.7235737685 -2.5000025735
10.7489148751 -3.6937770134 -2.5000025735
10.9136502194 -9.1973535358 -2.5000025792
10.9213907389 -9.1819814895 -2.5000025792
11.2457699951 -4.7488298352 -2.5000025792
11.2348807541 -4.7161758364 -2.5000025792
11.2125236556 -4.6510639673 -2.5000025792
11.1834964379 -4.5700536145 -2.5000025792
10.8121023920 -3.7567544863 -2.5000025792
10.7353276072 -3.6222268531 -2.5000025792
10.6731539311 -3.5190353662 -2.5000025792
10.6640980107 -3.5043995965 -2.5000025792
10.6549988347 -3.4897906798 -2.5000025792
10.6366710347 -3.4606539169 -2.5000025792
10.9195422498 -9.2390596666 -2.5000025850
11.3105164496 -4.8730389828 -2.5000025850
11.3054631281 -4.8565118551 -2.5000025850
11.3003609384 -4.8399997484 -2.5000025850
11.2952099253 -4.8235028071 -2.5000025850
11.2741185460 -4.7576695817 -2.5000025850
11.2687241001 -4.7412506304 -2.5000025850
10.6197688638 -3.3895361372 -2.5000025850
11.3285692456 -4.8494095587 -2.5000025908
10.9384991331 -9.3075311570 -2.5000025965
10.9171683732 -3.7981998278 -2.5000025965
10.9103528649 -9.4112998900 -2.5000026023
10.9098743751 -9.5115650985 -2.5000026138
10.9254473854 -9.5816937309 -2.5000026253
10.9193616226 -9.6400446964 -2.5000026311
10.9284116776 -9.6246538178 -2.5000026311
10.9259032244 -9.7697751550 -2.5000026484
10.9392790304 -9.8852701554 -2.5000026657
10.9402298107 -9.9731724764 -2.5000026772
10.9602548826 -9.9422347213 -2.5000026772
10.9705582273 -9.9708534532 -2.5000026830
10.9763628081 -10.2225726616 -2.5000027175
10.6108998891 -11.3116236096 -2.5000028155
10.6248961265 -11.2971379027 -2.5000028155
10.6666268752 -11.2534332507 -2.5000028155
10.6804507311 -11.2387829478 -2.5000028155
10.7079681263 -11.2093599827 -2.5000028155
10.7216614246 -11.1945875778 -2.5000028155
10.7624782862 -11.1500282264 -2.5000028155
11.1361062942 -10.7012383165 -2.5000028155
11.1845741503 -10.6368762020 -2.5000028155
11.1965718527 -10.6206964152 -2.5000028155
11.2085216399 -10.6044812078 -2.5000028155
11.2440824666 -10.5556244826 -2.5000028155
11.2908197932 -10.4899949378 -2.5000028155
11.3023825294 -10.4735014998 -2.5000028155
11.3481440573 -10.4071878707 -2.5000028155
10.3682102897 -11.5828768902 -2.5000028213
10.4271638603 -11.5275391580 -2.5000028213
10.4563940671 -11.4996096693 -2.5000028213
10.4709470773 -11.4855801960 -2.5000028213
10.4854585221 -11.4715077337 -2.5000028213
10.4999282745 -11.4573924055 -2.5000028213
10.5287421961 -11.4290336458 -2.5000028213
10.5573878334 -11.4005049096 -2.5000028213
10.6141702504 -11.3429415079 -2.5000028213
10.6702675754 -11.2847102601 -2.5000028213
10.8074623056 -11.1362640454 -2.5000028213
10.8477581998 -11.0909455559 -2.5000028213
10.8611005952 -11.0757601449 -2.5000028213
11.3681205576 -10.4207994363 -2.5000028213
11.3794782628 -10.4040776315 -2.5000028213
11.4244129381 -10.3368566299 -2.5000028213
11.4355220790 -10.3199686693 -2.5000028213
11.4465812136 -10.3030479197 -2.5000028213
11.5011234214 -10.2179575299 -2.5000028213
10.2032790831 -11.7629456590 -2.5000028270
10.3548231513 -11.6281025805 -2.5000028270
11.3880970579 -10.4344110020 -2.5000028270
11.5323655550 -10.2136766328 -2.5000028270
11.5538031670 -10.1792313945 -2.5000028270
11.5750366142 -10.1446599270 -2.5000028270
10.0630649277 -11.9120014735 -2.5000028328
10.1259342153 -11.8602513222 -2.5000028328
10.1415555146 -11.8471978310 -2.5000028328
10.2036525206 -11.7945234793 -2.5000028328
11.5956720850 -10.1572501067 -2.5000028328
11.6062491680 -10.1398563164 -2.5000028328
11.6167747508 -10.1224313132 -2.5000028328
11.6376710475 -10.0874882788 -2.5000028328
11.6583602438 -10.0524222263 -2.5000028328
9.9985973445 -11.9946146837 -2.5000028386
10.1099387400 -11.9048828555 -2.5000028386
10.3269290740 -11.7186001233 -2.5000028386
11.6997692329 -10.0293327348 -2.5000028386
11.8186697059 -9.8149669849 -2.5000028386
9.9326326084 -12.0764847360 -2.5000028443
11.6262398675 -10.1999148680 -2.5000028443
11.8010907150 -9.8984892989 -2.5000028443
11.8206588697 -9.8624597087 -2.5000028443
9.9636417006 -12.0831555198 -2.5000028501
11.9643194915 -9.6361651211 -2.5000028501
9.5926261299 -12.3789522671 -2.5000028559
9.8795836897 -12.1769974890 -2.5000028559
9.5020236273 -12.4670972173 -2.5000028616
9.6575869852 -12.3643577153 -2.5000028616
10.3137362676 -11.8591511498 -2.5000028616
12.0437792883 -9.5828578628 -2.5000028616
12.0789504047 -9.5078340332 -2.5000028616
9.2068706546 -12.7019983198 -2.5000028732
9.1274779548 -12.7740709255 -2.5000028789
8.9161312611 -12.9126465184 -2.5000028847
8.9645894056 -12.9151543473 -2.5000028904
12.3608704004 -9.2189864301 -2.5000028962
