26.5884126814 -17.4127633191 -2.4999972344
24.6358971242 -20.0942584124 -2.4999971623
22.4825735181 -15.3061300294 -2.5000014304
22.4951190362 -14.7778588674 -2.5000014332
22.4840134757 -14.7129801360 -2.5000014332
22.5161557035 -14.7562271848 -2.5000014361
22.5088803261 -14.7144676014 -2.5000014361
22.4957050905 -14.6491747142 -2.5000014361
22.5498075550 -14.8190047906 -2.5000014390
21.9695311827 -18.4441988947 -2.5000016292
22.3212463601 -18.4329171250 -2.5000016465
22.6239952809 -11.5518751146 -2.5000016839
22.6135293819 -11.5455953781 -2.5000016839
23.0118827728 -11.5757434965 -2.5000017070
25.9579257180 -16.5275678399 -2.5000018655
25.9663549092 -16.4952276193 -2.5000018655
25.9786395747 -16.4466251977 -2.5000018655
25.9679418420 -13.6843070510 -2.5000018655
25.9637694312 -13.6681259854 -2.5000018655
25.9595491722 -13.6519573334 -2.5000018655
25.9466016769 -13.6035272730 -2.5000018655
25.9519189786 -13.5325138541 -2.5000018684
25.9426285297 -13.5002615899 -2.5000018684
25.9658371588 -13.4935017959 -2.5000018713
25.9466030252 -13.4288908419 -2.5000018713
25.9416751404 -13.4127740180 -2.5000018713
25.9340850350 -13.3088743198 -2.5000018741
25.9410027277 -13.2529688506 -2.5000018770
25.9780100595 -16.8856963432 -2.5000018799
25.9473546508 -13.1968011927 -2.5000018799
25.9417401996 -13.1806831609 -2.5000018799
25.9680478111 -16.9906536032 -2.5000018828
25.9356494698 -13.0920239931 -2.5000018828
25.9440974234 -17.1280903865 -2.5000018857
25.9560797496 -17.0958214686 -2.5000018857
25.9342622802 -13.0192083698 -2.5000018857
25.9483265010 -17.1850416825 -2.5000018885
25.9606456962 -17.1527467472 -2.5000018885
25.9506923276 -12.9944730713 -2.5000018885
25.9319103771 -12.9461475012 -2.5000018885
25.9377263142 -12.8314968503 -2.5000018943
25.9310312689 -12.8154088992 -2.5000018943
25.9328812780 -12.7577467491 -2.5000018972
25.9593696018 -17.4151392831 -2.5000019001
25.9535596515 -17.4893621522 -2.5000019030
25.9347862994 -12.6417956272 -2.5000019030
25.9266727931 -12.5089730632 -2.5000019087
25.9253283100 -12.4503210040 -2.5000019116
25.9519056344 -17.7236198515 -2.5000019145
25.9233688163 -12.3914906265 -2.5000019145
25.9525072120 -17.8850808543 -2.5000019231
25.9306689083 -12.2460969465 -2.5000019231
25.9484867647 -18.0480285578 -2.5000019318
25.9659116773 -18.0157175706 -2.5000019318
25.9247490986 -11.9349980838 -2.5000019404
25.9189880507 -11.8301595673 -2.5000019462
25.5956094465 -18.9506752514 -2.5000019548
25.6183808960 -18.9204362072 -2.5000019548
25.6296994318 -18.9052662958 -2.5000019548
25.7076657888 -18.7981487418 -2.5000019548
25.7295328790 -18.7672494040 -2.5000019548
25.7512167757 -18.7362212340 -2.5000019548
25.7727167199 -18.7050653178 -2.5000019548
25.8256568648 -18.6266238055 -2.5000019548
25.8465070909 -18.5950293949 -2.5000019548
26.1453029643 -18.0903073293 -2.5000019548
26.1804478056 -18.0232510483 -2.5000019548
26.1891098461 -18.0064223670 -2.5000019548
25.5216628453 -19.0853187369 -2.5000019577
25.5686247824 -19.0255719987 -2.5000019577
25.5802545465 -19.0105488149 -2.5000019577
25.6829081921 -18.8738108609 -2.5000019577
26.3190732788 -17.7955742656 -2.5000019577
26.3349981011 -17.7610751825 -2.5000019577
25.6341435149 -18.9798722839 -2.5000019606
26.4630941076 -17.5261759882 -2.5000019606
26.4774225586 -17.4908295445 -2.5000019606
25.9220282462 -11.6059237613 -2.5000019606
25.2219150658 -19.5065780103 -2.5000019635
25.2609530917 -19.4644634920 -2.5000019635
26.4854695020 -17.5353235020 -2.5000019635
26.5619636956 -17.3391617853 -2.5000019635
26.5686004070 -17.3212075041 -2.5000019635
25.9216089214 -11.5607099391 -2.5000019635
25.3687128639 -19.3808434472 -2.5000019663
26.2608922187 -12.0951779611 -2.5000019663
26.2160161760 -12.0102391588 -2.5000019663
26.2068904842 -11.9933315692 -2.5000019663
26.1977148166 -11.9764510491 -2.5000019663
26.1605140010 -11.9092026137 -2.5000019663
25.7344635812 -11.2471953234 -2.5000019663
25.7230827748 -11.2317155922 -2.5000019663
25.6654946175 -11.1548256481 -2.5000019663
25.6421419795 -11.1243095801 -2.5000019663
25.6186092070 -11.0939322081 -2.5000019663
25.5829740994 -11.0486285301 -2.5000019663
26.6592741064 -17.2107410631 -2.5000019692
26.6839755299 -17.1376648118 -2.5000019692
26.3517803703 -12.2218104558 -2.5000019692
26.3174719756 -12.1527218685 -2.5000019692
26.3000118161 -12.1183310186 -2.5000019692
25.8215298295 -11.3268328626 -2.5000019692
25.5535919090 -10.9734669904 -2.5000019692
25.4797932551 -10.8843505733 -2.5000019692
25.4423036944 -10.8402870621 -2.5000019692
26.7366890367 -17.0531818130 -2.5000019721
26.4875075683 -12.4570003880 -2.5000019721
26.4071067836 -12.2809347829 -2.5000019721
25.6087838208 -11.0034279544 -2.5000019721
26.5777733312 -12.6083089998 -2.5000019750
25.9054674918 -11.3626970049 -2.5000019750
25.1629737408 -10.4660900978 -2.5000019750
25.1355551070 -10.4385591660 -2.5000019750
25.0267912976 -10.2991400810 -2.5000019779
24.4540628022 -20.3877798667 -2.5000019808
26.5139247148 -12.3385465251 -2.5000019808
22.4643262081 -15.3205529951 -2.5000016513
22.4585673010 -15.2467067092 -2.5000016513
22.4568353370 -15.2297004863 -2.5000016513
22.5145611349 -15.3585609520 -2.5000016629
22.5401391325 -15.4404035633 -2.5000016686
22.5101805214 -14.8725527702 -2.5000016802
22.5108785181 -14.7177985400 -2.5000016917
22.5087531320 -14.7119756676 -2.5000016917
22.4978683412 -14.6829570143 -2.5000016917
22.5181840287 -14.6684492754 -2.5000016974
22.5088170839 -18.4412293979 -2.5000020490
22.6967696069 -18.4294908109 -2.5000020721
21.7252810649 -11.5566609864 -2.5000021585
22.0119489785 -11.5783592332 -2.5000021758
21.9662318378 -11.5612291697 -2.5000021758
21.8163067434 -11.5093125633 -2.5000021758
21.7814327942 -11.4981532159 -2.5000021758
22.0663423408 -11.5735469765 -2.5000021816
22.0549176349 -11.5690528800 -2.5000021816
21.9515113201 -11.5301323534 -2.5000021816
21.9945094740 -11.5201386341 -2.5000021873
22.1875071399 -11.5710336722 -2.5000021931
22.3314182637 -11.5555677618 -2.5000022104
22.3990311009 -11.5606712778 -2.5000022161
22.3875668507 -11.5551930841 -2.5000022161
22.4776580394 -11.5452929151 -2.5000022277
22.4661479531 -11.5395821960 -2.5000022277
22.5345589847 -11.5469661941 -2.5000022334
22.6836242398 -11.5440976137 -2.5000022507
23.3849820279 -11.5628262210 -2.5000023372
25.9457104490 -16.8078474505 -2.5000025216
25.9537477768 -16.7758498200 -2.5000025216
25.9576954145 -16.7598333128 -2.5000025216
25.9669060383 -14.1450833798 -2.5000025216
25.9512826991 -14.0809767408 -2.5000025216
25.9437823833 -16.9099203476 -2.5000025274
25.9524236424 -16.8779323377 -2.5000025274
25.9731975064 -16.7977435459 -2.5000025274
25.9582822665 -14.0109198751 -2.5000025274
25.9497718115 -13.9788968163 -2.5000025274
25.9445735543 -16.9963791361 -2.5000025331
25.9537263187 -16.9643849322 -2.5000025331
25.9687705201 -13.9565574858 -2.5000025331
25.9554509786 -13.9084509827 -2.5000025331
25.9439839879 -17.0831828813 -2.5000025389
25.9506815214 -13.8056365535 -2.5000025389
25.9471182479 -17.1543260874 -2.5000025446
25.9591083517 -13.7505258786 -2.5000025446
25.9541065106 -13.7345067510 -2.5000025446
25.9546007204 -17.2097680498 -2.5000025504
25.9701521557 -17.1616591888 -2.5000025504
25.9566023505 -13.6630690085 -2.5000025504
25.9513418071 -13.6470576767 -2.5000025504
25.9450506617 -17.3135059568 -2.5000025562
25.9505888216 -17.2975128249 -2.5000025562
25.9526894942 -13.5753197609 -2.5000025562
25.9451605919 -17.3855258216 -2.5000025619
25.9566156686 -17.3535213338 -2.5000025619
25.9473606108 -13.4873006933 -2.5000025619
25.9584477996 -13.4470294000 -2.5000025677
25.9466011762 -13.4150152310 -2.5000025677
25.9571606545 -13.3744817365 -2.5000025735
25.9448848373 -13.3424764523 -2.5000025735
25.9426401267 -17.6601590606 -2.5000025850
25.9516957166 -13.2286597006 -2.5000025850
25.9504372676 -13.0402606498 -2.5000026023
25.9397908179 -18.0227883072 -2.5000026196
25.9700521832 -17.9587310452 -2.5000026196
25.9427101362 -12.8500325526 -2.5000026196
25.9350445448 -12.8340658739 -2.5000026196
25.9490768142 -12.8075631696 -2.5000026253
25.9334470579 -12.7756156342 -2.5000026253
25.9416305304 -18.1827083572 -2.5000026369
25.9463456698 -12.5879764706 -2.5000026484
25.9373675063 -12.4692201246 -2.5000026599
25.7100673074 -18.8224191429 -2.5000026657
25.7498063583 -18.7610240972 -2.5000026657
25.7791323853 -18.7146715851 -2.5000026657
25.9319325983 -12.4096248097 -2.5000026657
25.6273800922 -18.9876591010 -2.5000026714
25.6998843255 -18.8815882239 -2.5000026714
25.7201949025 -18.8510086894 -2.5000026714
25.7898497790 -18.7430453022 -2.5000026714
25.8477639275 -18.6493739852 -2.5000026714
26.2494783251 -17.8660746154 -2.5000026714
26.2917554440 -17.7643838615 -2.5000026714
25.4838920216 -19.2244767753 -2.5000026772
26.3613739211 -17.6534342793 -2.5000026772
26.3679158288 -17.6362081005 -2.5000026772
26.3935730262 -17.5671121274 -2.5000026772
25.9284316350 -12.3059546633 -2.5000026772
25.2450600993 -19.5538088017 -2.5000026830
26.4533753415 -17.4707871507 -2.5000026830
26.4593765434 -17.4532896142 -2.5000026830
25.2632430270 -19.5697372800 -2.5000026887
26.5341276772 -17.3022314835 -2.5000026887
26.5450796487 -17.2667439265 -2.5000026887
25.9230341498 -12.2017318926 -2.5000026887
26.6626218568 -17.0287975698 -2.5000027003
26.7221903022 -16.8890448135 -2.5000027060
26.7824193635 -16.7289069495 -2.5000027118
25.9166394605 -12.0076489539 -2.5000027118
25.9129228965 -11.7822171724 -2.5000027406
25.9262657897 -11.6316912846 -2.5000027637
25.7784972898 -11.3514534306 -2.5000027752
25.7663993487 -11.3359790801 -2.5000027752
25.7298316130 -11.2897717024 -2.5000027752
25.7175514192 -11.2744415837 -2.5000027752
25.6679787690 -11.2134863867 -2.5000027752
25.6303278551 -11.1681572601 -2.5000027752
26.2948070800 -12.0704617330 -2.5000027809
26.2748103332 -12.0364816417 -2.5000027809
26.2647366579 -12.0195361102 -2.5000027809
25.6361687043 -11.1375396174 -2.5000027809
25.5849818638 -11.0775569625 -2.5000027809
25.5461279208 -11.0329697395 -2.5000027809
25.4937100643 -10.9740598095 -2.5000027809
25.4672406560 -10.9448384661 -2.5000027809
26.4961577043 -12.3879670391 -2.5000027867
26.4871228179 -12.3703651841 -2.5000027867
26.4411695338 -12.2827610394 -2.5000027867
26.4318236696 -12.2653223097 -2.5000027867
26.3454012834 -12.1096395120 -2.5000027867
25.2943578692 -10.7277376112 -2.5000027867
26.6139536676 -12.5730115445 -2.5000027925
26.5883305256 -12.5192338851 -2.5000027925
26.5709837284 -12.4835093562 -2.5000027925
26.5445679967 -12.4301165554 -2.5000027925
25.3254855896 -10.7248619236 -2.5000027925
26.6858110532 -12.6713274434 -2.5000027982
25.1864328849 -10.5542005814 -2.5000027982
26.8397769263 -12.9101110471 -2.5000028098
24.8438853685 -10.1869473477 -2.5000028098
26.5760132526 -12.2792554526 -2.5000028155
26.9911362771 -13.1760075664 -2.5000028213
21.1720789652 -11.5770776523 -2.5000011921
21.3490971578 -11.5785939927 -2.5000011921
21.4897611829 -11.5799750868 -2.5000011921
21.4773718765 -11.5774986605 -2.5000011921
21.5939334143 -11.5775260989 -2.5000011921
22.3045757423 -11.5698319891 -2.5000011921
22.3259327004 -11.5522997782 -2.5000011921
22.3724161032 -11.5449950544 -2.5000011921
22.8410487408 -11.5492434856 -2.5000011921
25.9321923419 -17.2115725103 -2.5000011921
25.9406471293 -17.1802748412 -2.5000011921
25.9338211267 -14.3281563186 -2.5000011921
25.9424236314 -17.2650036945 -2.5000011921
25.9441127740 -14.2747367274 -2.5000011921
25.9333873777 -17.3814005755 -2.5000011921
25.9446321768 -14.1896480905 -2.5000011921
25.9535326217 -14.1355892566 -2.5000011921
25.9518232566 -14.0498302120 -2.5000011921
25.9467207049 -14.0341433924 -2.5000011921
25.9553386296 -13.9087970471 -2.5000011921
25.9717800378 -13.7423595490 -2.5000011921
25.9657678450 -13.7266150389 -2.5000011921
25.9294232132 -17.9632463372 -2.5000011921
25.9386018873 -18.0038755351 -2.5000011921
25.9407225791 -18.0603614216 -2.5000011921
25.9700062412 -13.5422129521 -2.5000011921
25.6605374618 -18.9495758094 -2.5000011921
25.6792796148 -18.9198549238 -2.5000011921
25.7253628477 -18.8450721496 -2.5000011921
26.1303111337 -18.0467640076 -2.5000011921
25.5139425373 -19.2115653506 -2.5000011921
25.5241112476 -19.1971512765 -2.5000011921
25.5940921339 -19.0954193556 -2.5000011921
26.2241935243 -17.8756912940 -2.5000011921
25.8908008532 -18.6554754705 -2.5000011921
25.9689394188 -13.0249239527 -2.5000011921
25.9740471935 -12.9822848426 -2.5000011921
26.4637681625 -17.3753709496 -2.5000011921
25.9648225233 -12.7628749910 -2.5000011921
25.9604856020 -12.3801420524 -2.5000011921
25.8021771444 -11.3934570392 -2.5000011921
25.6839272528 -11.2577580763 -2.5000011921
25.6302205937 -11.1984676554 -2.5000011921
25.4397457231 -10.9647834930 -2.5000011921
26.2550735823 -11.9058282032 -2.5000011921
25.4282267870 -10.9192993658 -2.5000011921
25.3414379025 -10.8351946102 -2.5000011921
24.6496687637 -10.1100876291 -2.5000011921
27.2945613127 -13.4179806123 -2.5000011921
22.4668317432 -15.1974228162 -2.5000011921
22.4948302680 -14.7939610291 -2.5000011921
22.5102240529 -14.7742854156 -2.5000011921
22.0954942745 -11.5757466098 -2.5000011921
21.9752093684 -11.5430616394 -2.5000011921
21.5960849444 -11.4620175651 -2.5000011921
22.2634648528 -11.5509888071 -2.5000011921
22.4128566612 -11.5504589951 -2.5000011921
22.4880466838 -11.5520330135 -2.5000011921
22.4746533461 -11.5470822158 -2.5000011921
22.6886188051 -11.5530179643 -2.5000011921
22.7381709651 -11.5476500569 -2.5000011921
22.8281271700 -11.5605588762 -2.5000011921
22.7879657844 -11.5428070915 -2.5000011921
23.0698435122 -11.5681990571 -2.5000011921
23.1586008271 -11.5592620158 -2.5000011921
23.1318305984 -11.5454327119 -2.5000011921
25.9384956380 -17.4468614794 -2.5000011921
25.9425251719 -17.4316778372 -2.5000011921
25.9596539028 -14.7892143604 -2.5000011921
25.9400419469 -14.7131567078 -2.5000011921
25.9366175482 -17.5443556089 -2.5000011921
25.9409354956 -17.5291770959 -2.5000011921
25.9452085233 -17.5139858761 -2.5000011921
25.9494365939 -17.4987820823 -2.5000011921
25.9577577163 -17.4683373052 -2.5000011921
25.9425749258 -14.6308439042 -2.5000011921
25.9339284829 -14.6004899168 -2.5000011921
25.9295379549 -14.5853322392 -2.5000011921
25.9510480204 -17.5814600033 -2.5000011921
25.9571570145 -14.5937988329 -2.5000011921
25.9437907151 -14.5481592188 -2.5000011921
25.9392453402 -14.5329725960 -2.5000011921
25.9346550605 -14.5177994856 -2.5000011921
25.9300199161 -14.5026400204 -2.5000011921
23.6929244126 -11.5613202713 -2.5000011921
25.9321907253 -17.7252451680 -2.5000011921
25.9466152386 -17.6797038037 -2.5000011921
25.9436788899 -14.4651236831 -2.5000011921
25.9388878815 -14.4499377544 -2.5000011921
25.9453180110 -17.7630714409 -2.5000011921
25.9321092514 -14.3514109715 -2.5000011921
25.9374165025 -17.8619319184 -2.5000011921
25.9426738945 -17.8467496524 -2.5000011921
25.9530538283 -17.8163387958 -2.5000011921
25.9549211464 -17.8851097743 -2.5000011921
25.9407671333 -14.2293019378 -2.5000011921
25.9297450649 -14.1989656736 -2.5000011921
25.9390176267 -17.9997800946 -2.5000011921
25.9503030039 -17.9693881914 -2.5000011921
25.9411894473 -14.1602390369 -2.5000011921
25.9297587722 -14.1299014828 -2.5000011921
25.9239761767 -14.1147581990 -2.5000011921
25.9325274968 -18.0842786908 -2.5000011921
25.9559185261 -18.0234995270 -2.5000011921
25.9288520569 -14.0605752080 -2.5000011921
25.9430183826 -18.1235120262 -2.5000011921
25.9550357294 -18.0930942877 -2.5000011921
25.9306079928 -13.9363300613 -2.5000011921
25.9178527822 -13.9060590294 -2.5000011921
25.9401794909 -18.3185241175 -2.5000011921
25.9226699117 -13.7960147352 -2.5000011921
25.9242139228 -13.7406713629 -2.5000011921
25.7876036819 -18.7436965576 -2.5000011921
25.8032929687 -18.7141874504 -2.5000011921
25.8417499854 -18.6400131082 -2.5000011921
25.8568248985 -18.6101854678 -2.5000011921
25.9180784412 -13.6699939412 -2.5000011921
25.7849511343 -18.7993846349 -2.5000011921
25.9008074402 -18.5759256665 -2.5000011921
26.2185178644 -17.7820779853 -2.5000011921
25.9255548777 -13.6293717919 -2.5000011921
25.4872488255 -19.3267938688 -2.5000011921
26.2852282987 -17.6440851589 -2.5000011921
26.2898397388 -17.6278749558 -2.5000011921
24.3151888276 -11.5875596445 -2.5000011921
25.3781586320 -19.5188447086 -2.5000011921
26.3608528321 -17.4545179748 -2.5000011921
26.4427695833 -17.3165895303 -2.5000011921
25.9368743404 -13.4347894967 -2.5000011921
26.5130591972 -17.0864328003 -2.5000011921
25.9425749956 -13.3932928789 -2.5000011921
25.9346133226 -13.3781149054 -2.5000011921
26.5566204700 -16.9718007957 -2.5000011921
25.9577788472 -13.1682142340 -2.5000011921
26.2466919279 -11.9403872714 -2.5000011921
26.2344309667 -11.9243160221 -2.5000011921
25.7761729791 -11.3856994020 -2.5000011921
25.7622732095 -11.3710224598 -2.5000011921
25.7343437238 -11.3417922502 -2.5000011921
25.7062417911 -11.3127277924 -2.5000011921
25.6779683951 -11.2838301038 -2.5000011921
26.5131277757 -12.2726153143 -2.5000011921
26.4215034790 -12.1386729151 -2.5000011921
26.3863310290 -12.0890091661 -2.5000011921
26.3507192262 -12.0396595086 -2.5000011921
25.8491070560 -11.4284296177 -2.5000011921
25.6951968426 -11.2668738106 -2.5000011921
25.6809459198 -11.2524369303 -2.5000011921
25.5654138869 -11.1384723418 -2.5000011921
26.2103711286 -11.8145619095 -2.5000011921
26.1977381121 -11.7985986542 -2.5000011921
26.1209534059 -11.7036102410 -2.5000011921
25.4335084300 -10.9820159721 -2.5000011921
25.3423512430 -10.9007198652 -2.5000011921
25.2341977682 -10.8079371742 -2.5000011921
26.7698407772 -12.5922290723 -2.5000011921
26.7491187258 -12.5570163815 -2.5000011921
26.7386796667 -12.5394561648 -2.5000011921
26.7176459384 -12.5044287572 -2.5000011921
26.5305832667 -12.2118674963 -2.5000011921
25.1074114230 -10.6730542092 -2.5000011921
26.8717872061 -12.7225861707 -2.5000011921
26.8618373956 -12.7046623540 -2.5000011921
26.8518346068 -12.6867680491 -2.5000011921
26.8010290672 -12.5977446724 -2.5000011921
25.8885006767 -11.3642188374 -2.5000011921
24.9929284341 -10.5535565410 -2.5000011921
26.9517253162 -12.8194161752 -2.5000011921
26.9420615966 -12.8012554635 -2.5000011921
26.9028707672 -12.7289008669 -2.5000011921
26.8829549837 -12.6928987339 -2.5000011921
26.9827253114 -12.8263447797 -2.5000011921
26.9633846412 -12.7898684951 -2.5000011921
26.9536334633 -12.7716734222 -2.5000011921
24.7712531318 -10.3335555031 -2.5000011921
27.1556968425 -13.0640621205 -2.5000011921
27.1287077911 -13.0078463767 -2.5000011921
27.0972873559 -12.8369907711 -2.5000011921
22.4845383578 -15.4276148993 -2.5000011921
22.4876389472 -15.3445985775 -2.5000011921
22.4447010380 -15.1680706481 -2.5000011921
22.4442703076 -15.0572195145 -2.5000011921
20.9388098752 -11.6008365087 -2.5000011921
20.9247477773 -11.6010989687 -2.5000011921
25.9371358846 -17.6827784825 -2.5000011921
25.9410434012 -17.6682283791 -2.5000011921
25.9449078588 -17.6536667802 -2.5000011921
25.9487292238 -17.6390938133 -2.5000011921
25.9525074625 -17.6245096059 -2.5000011921
25.9539418843 -15.0902494650 -2.5000011921
25.9463752922 -15.0610837064 -2.5000011921
22.6941174022 -11.5445573270 -2.5000011921
22.6370857267 -11.5250910644 -2.5000011921
25.9360094332 -17.7765479410 -2.5000011921
25.9443361988 -17.7474412621 -2.5000011921
25.9484349681 -17.7328695759 -2.5000011921
25.9565031003 -17.7036901479 -2.5000011921
25.9604723927 -17.6890826613 -2.5000011921
25.9643984561 -17.6744634967 -2.5000011921
25.9540311925 -14.9964732832 -2.5000011921
25.9417844147 -14.9527444607 -2.5000011921
22.8159515569 -11.5628712665 -2.5000011921
22.8017689377 -11.5575809680 -2.5000011921
22.7875707308 -11.5523326475 -2.5000011921
22.7591280514 -11.5419621234 -2.5000011921
25.9506914045 -17.8124594782 -2.5000011921
25.9650326405 -14.9461221288 -2.5000011921
25.9523385912 -14.9022976573 -2.5000011921
25.9331249967 -17.9506563222 -2.5000011921
25.9378249619 -17.9361169117 -2.5000011921
25.9755271321 -14.8954692713 -2.5000011921
25.9488499668 -14.8077564269 -2.5000011921
25.9442525969 -14.7931842506 -2.5000011921
22.9610358874 -11.5675605118 -2.5000011921
22.8757692178 -11.5338735814 -2.5000011921
25.9416902456 -18.0018632612 -2.5000011921
25.9561151039 -17.9581256096 -2.5000011921
25.9531785568 -14.7420389543 -2.5000011921
25.9435518476 -14.7128838061 -2.5000011921
25.9386738506 -14.6983277177 -2.5000011921
22.9416288823 -11.5337077638 -2.5000011921
25.9596958915 -18.0241546124 -2.5000011921
25.9809257325 -14.7491945018 -2.5000011921
25.9312719191 -14.6031797629 -2.5000011921
23.0788256178 -11.5643481225 -2.5000011921
25.9572452052 -18.1051032234 -2.5000011921
25.9488136631 -14.5804729223 -2.5000011921
25.9328753209 -14.5368067839 -2.5000011921
23.1451672138 -11.5669434787 -2.5000011921
23.1168047184 -11.5544570381 -2.5000011921
25.9370254932 -18.2300480612 -2.5000011921
25.9534755473 -18.1863428210 -2.5000011921
25.9588726268 -18.1717421786 -2.5000011921
25.9426964568 -18.2824212005 -2.5000011921
25.9483778007 -18.2678520242 -2.5000011921
25.9651628967 -18.2240445500 -2.5000011921
25.9391677164 -14.4177684088 -2.5000011921
23.2501964294 -11.5615714794 -2.5000011921
25.9382917581 -14.3505818502 -2.5000011921
25.9323420294 -14.3360429073 -2.5000011921
25.8901037832 -18.5328887829 -2.5000011921
25.9426175620 -14.2976976282 -2.5000011921
23.2562702136 -11.5111014359 -2.5000011921
25.8244245341 -18.7292112130 -2.5000011921
25.9210788478 -14.1864418479 -2.5000011921
25.9431849633 -14.1766615135 -2.5000011921
25.9367207254 -14.1621088566 -2.5000011921
25.9302134663 -14.1475753858 -2.5000011921
25.8677647651 -18.7506346932 -2.5000011921
25.9256844138 -14.0794647670 -2.5000011921
25.9189327269 -14.0649643051 -2.5000011921
25.9350503544 -13.9861753582 -2.5000011921
25.9097477302 -13.5738819015 -2.5000011921
23.9783966349 -11.5704568376 -2.5000011921
24.1444690980 -11.5902481912 -2.5000011921
24.2416986503 -11.5969406681 -2.5000011921
25.9043575128 -13.2825155723 -2.5000011921
25.9064816984 -13.2406831136 -2.5000011921
24.4094673089 -11.5957354400 -2.5000011921
25.9023722034 -12.9725394832 -2.5000011921
25.9096223820 -12.8154841772 -2.5000011921
25.9080953027 -12.7723305210 -2.5000011921
25.9169316084 -12.7435402781 -2.5000011921
25.9725937379 -12.0777896347 -2.5000011921
26.1435639644 -11.7961195523 -2.5000011921
26.4231164486 -12.0920449669 -2.5000011921
26.3978032604 -12.0601558876 -2.5000011921
26.3850760268 -12.0442676482 -2.5000011921
26.3723018487 -12.0284171278 -2.5000011921
26.3594808377 -12.0126044650 -2.5000011921
26.3077307158 -11.9497351533 -2.5000011921
26.2552403178 -11.8874825742 -2.5000011921
26.1616229951 -11.7800507411 -2.5000011921
25.7949304174 -11.3985462549 -2.5000011921
25.7507603207 -11.3563710438 -2.5000011921
25.7359539954 -11.3423999538 -2.5000011921
25.7062176821 -11.3145894784 -2.5000011921
25.6763173530 -11.2869554197 -2.5000011921
25.6462540549 -11.2594987451 -2.5000011921
25.6311616211 -11.2458372273 -2.5000011921
25.6160288401 -11.2322204155 -2.5000011921
25.6008558442 -11.2186484288 -2.5000011921
25.5550968977 -11.1782026048 -2.5000011921
25.5243923029 -11.1514650144 -2.5000011921
25.4780401522 -11.1117004071 -2.5000011921
26.5904907439 -12.2721833600 -2.5000011921
26.5783898828 -12.2557241885 -2.5000011921
26.5662403855 -12.2393008855 -2.5000011921
26.5540423583 -12.2229135947 -2.5000011921
26.4673063491 -12.1092229089 -2.5000011921
26.4547239606 -12.0931288521 -2.5000011921
25.5092423017 -11.1065394487 -2.5000011921
25.4468307194 -11.0537939843 -2.5000011921
25.4311306462 -11.0407232969 -2.5000011921
25.3837993975 -11.0017906953 -2.5000011921
25.3679457650 -10.9889066935 -2.5000011921
25.3520540886 -10.9760696460 -2.5000011921
25.3361245075 -10.9632796651 -2.5000011921
25.3041521889 -10.9378413504 -2.5000011921
26.7403118464 -12.4419121240 -2.5000011921
26.7287124183 -12.4250090119 -2.5000011921
26.6580704465 -12.3243176257 -2.5000011921
25.1893162488 -10.8186828244 -2.5000011921
25.1564910161 -10.7941156074 -2.5000011921
26.8063197153 -12.4964544808 -2.5000011921
25.1046038598 -10.7260007746 -2.5000011921
24.9363372836 -10.6076656705 -2.5000011921
26.9384019938 -12.6564624159 -2.5000011921
24.8986161344 -10.5530446332 -2.5000011921
26.6066352475 -12.1319407267 -2.5000011921
26.8318287804 -12.4044936659 -2.5000011921
22.4787505541 -15.4093427628 -2.5000011921
25.9454993668 -17.8221791292 -2.5000011921
25.9575845158 -15.4064372670 -2.5000011921
25.9504947677 -15.3787731882 -2.5000011921
25.9468885482 -15.3649569994 -2.5000011921
25.9342697847 -17.9527747400 -2.5000011921
25.9422454322 -17.9252040338 -2.5000011921
25.9539027108 -17.8837607064 -2.5000011921
25.9879790771 -15.4283497289 -2.5000011921
25.9628972016 -15.3310791547 -2.5000011921
25.9437511052 -15.2619284814 -2.5000011921
25.9492915812 -17.9872209363 -2.5000011921
25.9590152711 -15.2275889991 -2.5000011921
25.9508673716 -15.1999195856 -2.5000011921
25.9535886010 -15.0471637591 -2.5000011921
25.9482691225 -14.9564418788 -2.5000011921
25.9434135804 -14.9426341218 -2.5000011921
25.9385172136 -14.9288407887 -2.5000011921
25.9411950135 -14.8654250152 -2.5000011921
22.5126729449 -11.5503251957 -2.5000011921
22.4678918017 -11.5395684341 -2.5000011921
22.4379854344 -11.5326182260 -2.5000011921
20.3044318123 -11.4935389800 -2.5000011921
19.9156424042 -11.5834300048 -2.5000011921
19.8860402053 -11.5915789936 -2.5000011921
19.8712573150 -11.5957191288 -2.5000011921
19.8564867367 -11.5999029763 -2.5000011921
22.5931872094 -11.5457433464 -2.5000011921
22.5782568841 -11.5418754517 -2.5000011921
22.5633151821 -11.5380517405 -2.5000011921
22.5483622343 -11.5342722463 -2.5000011921
19.7758575712 -11.5983288731 -2.5000011921
22.7337440172 -11.5593159961 -2.5000011921
22.6890339568 -11.5465969988 -2.5000011921
22.8596658275 -11.5721123591 -2.5000011921
22.7554080832 -11.5404427972 -2.5000011921
21.7940307843 -11.3541864143 -2.5000011921
19.5987923952 -11.6040317921 -2.5000011921
19.5319172699 -11.6014364670 -2.5000011921
23.0610270663 -11.5630522359 -2.5000011921
23.0461458968 -11.5578003105 -2.5000011921
23.1436110168 -11.5673097526 -2.5000011921
23.1287420805 -11.5618135103 -2.5000011921
23.0092185712 -11.5194318574 -2.5000011921
21.0118510914 -11.2387737140 -2.5000011921
19.3295660979 -11.5990021795 -2.5000011921
23.2116044934 -11.5671738471 -2.5000011921
23.1967348575 -11.5614764684 -2.5000011921
19.2468244931 -11.6059835501 -2.5000011921
23.2649935027 -11.5620474959 -2.5000011921
19.1933453638 -11.6019032900 -2.5000011921
23.3426535405 -11.5411574357 -2.5000011921
23.4712440296 -11.5692705064 -2.5000011921
23.4563794599 -11.5628050579 -2.5000011921
23.5652784830 -11.5582414623 -2.5000011921
23.4154233557 -11.4927971737 -2.5000011921
25.9100032479 -13.4425802479 -2.5000011921
23.7450750902 -11.5629843189 -2.5000011921
23.8301378869 -11.5784784689 -2.5000011921
23.8708432083 -11.5721877201 -2.5000011921
24.1243071140 -11.5998383365 -2.5000011921
24.1095301121 -11.5914408756 -2.5000011921
24.2642612037 -11.5976001621 -2.5000011921
24.4055123656 -11.5990443378 -2.5000011921
24.4905096394 -11.5957340702 -2.5000011921
25.0987433499 -11.6101038991 -2.5000011921
25.1725587337 -11.6061072202 -2.5000011921
26.2362478357 -11.8535081468 -2.5000011921
26.2081328887 -11.8242575844 -2.5000011921
26.1940106419 -11.8096948080 -2.5000011921
26.1513862925 -11.7662580258 -2.5000011921
26.1370927208 -11.7518633699 -2.5000011921
26.0939573912 -11.7089339797 -2.5000011921
25.7046025262 -11.3533384121 -2.5000011921
25.6266523598 -11.2884431171 -2.5000011921
26.4328278313 -12.0316171667 -2.5000011921
26.3785190801 -11.9709443967 -2.5000011921
26.3510964353 -11.9408500545 -2.5000011921
25.4987818625 -11.1554712566 -2.5000011921
25.4016475948 -11.0814197625 -2.5000011921
26.6743871029 -12.2814088755 -2.5000011921
26.6616151522 -12.2654648345 -2.5000011921
26.5180393516 -12.0926090399 -2.5000011921
26.0987368947 -11.6459090013 -2.5000011921
25.4161318805 -11.0620667072 -2.5000011921
25.3007651478 -10.9775727765 -2.5000011921
25.2674842455 -10.9538721742 -2.5000011921
25.2340637049 -10.9303688876 -2.5000011921
26.7816592945 -12.3793746732 -2.5000011921
26.6156689444 -12.1708974097 -2.5000011921
25.2981644977 -10.9460074808 -2.5000011921
25.2310897415 -10.8988365738 -2.5000011921
26.9710989487 -12.5969611212 -2.5000011921
26.9592591605 -12.5801379722 -2.5000011921
26.9473696581 -12.5633499211 -2.5000011921
26.9354305456 -12.5465971148 -2.5000011921
26.9234419275 -12.5298796998 -2.5000011921
26.9114039088 -12.5131978224 -2.5000011921
24.9352537956 -10.6759619955 -2.5000011921
27.1834307932 -12.8274358496 -2.5000011921
27.2590233608 -12.9024993729 -2.5000011921
26.7427914153 -12.1735766652 -2.5000011921
27.4276888754 -13.1414585711 -2.5000011921
27.4046388498 -12.8625474745 -2.5000011921
25.9457242307 -15.3207436654 -2.5000011921
25.9370206563 -15.2948988724 -2.5000011921
25.9643004237 -15.3000999696 -2.5000011921
25.9464949545 -15.2482439722 -2.5000011921
25.9419478102 -15.2353131763 -2.5000011921
25.9601307677 -15.2142756502 -2.5000011921
25.9542908374 -15.1281360354 -2.5000011921
25.9344513118 -15.0764105146 -2.5000011921
25.9640493754 -15.0197931969 -2.5000011921
25.9535649562 -14.9938452533 -2.5000011921
25.9482652235 -14.9808946562 -2.5000011921
25.9429272038 -14.9679597932 -2.5000011921
25.9598548310 -14.9457202682 -2.5000011921
25.9544127084 -14.9327512751 -2.5000011921
25.9489322449 -14.9197984374 -2.5000011921
25.9434134886 -14.9068618686 -2.5000011921
25.9430626225 -14.8455002128 -2.5000011921
25.9477509960 -14.7968186554 -2.5000011921
25.9458904948 -14.7349577514 -2.5000011921
25.9482816272 -14.5738760433 -2.5000011921
25.9647968473 -14.4999927152 -2.5000011921
25.9448788945 -14.3604871038 -2.5000011921
25.9338258232 -14.1952719338 -2.5000011921
25.9453487354 -14.0286175090 -2.5000011921
22.8689718464 -11.5542920241 -2.5000011921
22.8535107896 -11.5504812607 -2.5000011921
22.8380385275 -11.5467162506 -2.5000011921
22.8070609292 -11.5393236217 -2.5000011921
20.0983443237 -11.6019043082 -2.5000011921
20.0830362353 -11.6062893538 -2.5000011921
20.0677411856 -11.6107196644 -2.5000011921
22.9522703243 -11.5506575623 -2.5000011921
20.0609814284 -11.5875110245 -2.5000011921
20.0456309256 -11.5920066593 -2.5000011921
23.1285611040 -11.5751374172 -2.5000011921
23.0977465702 -11.5660254617 -2.5000011921
19.9619109813 -11.5920798701 -2.5000011921
23.1818089177 -11.5660487145 -2.5000011921
19.8778606255 -11.5934999044 -2.5000011921
19.8625286401 -11.5985372174 -2.5000011921
19.8472116231 -11.6036198632 -2.5000011921
19.8319097084 -11.6087477972 -2.5000011921
23.2662025758 -11.5674232383 -2.5000011921
23.2507786254 -11.5624373372 -2.5000011921
23.2353399933 -11.5574970847 -2.5000011921
19.8088404327 -11.5910350301 -2.5000011921
19.7781780552 -11.6015633787 -2.5000011921
19.7628703591 -11.6068955356 -2.5000011921
19.7088552935 -11.6004191622 -2.5000011921
19.6935445159 -11.6059563933 -2.5000011921
23.4358969828 -11.5742648805 -2.5000011921
23.3277310286 -11.5368085651 -2.5000011921
19.6239441592 -11.6059368776 -2.5000011921
19.6086500755 -11.6117252670 -2.5000011921
23.5211537755 -11.5797505201 -2.5000011921
23.5057651760 -11.5740103732 -2.5000011921
19.5693901468 -11.6008935471 -2.5000011921
19.5540813828 -11.6068433393 -2.5000011921
23.6462863540 -11.5762912488 -2.5000011921
23.7015226492 -11.5725197070 -2.5000011921
23.6861118704 -11.5662460281 -2.5000011921
23.7723898219 -11.5758038967 -2.5000011921
19.2875233474 -11.6130668652 -2.5000011921
19.2470894940 -11.6046312490 -2.5000011921
23.9301220874 -11.5921815815 -2.5000011921
19.2064761713 -11.5964940231 -2.5000011921
19.1911559806 -11.6035173996 -2.5000011921
23.9708983821 -11.5842701057 -2.5000011921
24.0425860579 -11.5911802525 -2.5000011921
24.0272289881 -11.5838975646 -2.5000011921
19.0786885067 -11.6030541167 -2.5000011921
24.1297563084 -11.6066032461 -2.5000011921
24.1144444812 -11.5990626254 -2.5000011921
19.2855385378 -11.4820274725 -2.5000011921
18.7354727632 -11.7551811055 -2.5000011921
18.6762282289 -11.7891081211 -2.5000011921
19.5623035348 -11.3451187229 -2.5000011921
19.5462381736 -11.3510905977 -2.5000011921
19.5301905486 -11.3571099706 -2.5000011921
19.5141608002 -11.3631767889 -2.5000011921
18.9044228094 -11.6361825768 -2.5000011921
18.7235844208 -11.7341334786 -2.5000011921
18.6492818011 -11.7768297328 -2.5000011921
18.5317347322 -11.8474158960 -2.5000011921
24.2280393303 -11.6019653227 -2.5000011921
19.6998840691 -11.2706318058 -2.5000011921
19.6835977602 -11.2761970184 -2.5000011921
24.2850988540 -11.6043203100 -2.5000011921
18.9018755037 -11.5559188244 -2.5000011921
25.1640863336 -11.5420083258 -2.5000011921
25.5081883108 -11.5210009066 -2.5000011921
26.3834381370 -11.9597202313 -2.5000011921
26.3548419585 -11.9313445993 -2.5000011921
26.3404810392 -11.9172203520 -2.5000011921
26.3260784007 -11.9031386486 -2.5000011921
26.3116341690 -11.8890996124 -2.5000011921
26.2680531804 -11.8472397340 -2.5000011921
26.2387935490 -11.8195487268 -2.5000011921
26.1945982036 -11.7783380068 -2.5000011921
26.1797853643 -11.7646884589 -2.5000011921
26.1649322120 -11.7510827898 -2.5000011921
26.1500388766 -11.7375211185 -2.5000011921
26.1051190773 -11.6971012766 -2.5000011921
25.6368871052 -11.3154249470 -2.5000011921
25.6207073256 -11.3034272348 -2.5000011921
25.4404233585 -11.1746376019 -2.5000011921
26.5966124289 -12.1466297645 -2.5000011921
26.5828873042 -12.1317893744 -2.5000011921
26.5691183390 -12.1169896506 -2.5000011921
26.3718177399 -11.9141353539 -2.5000011921
25.3030589799 -11.0534176836 -2.5000011921
25.2861055960 -11.0424086418 -2.5000011921
25.2691197196 -11.0314497993 -2.5000011921
25.2179686228 -10.9988754249 -2.5000011921
25.2008542654 -10.9881183344 -2.5000011921
26.6417983116 -12.1601506572 -2.5000011921
26.1524172667 -11.6745439380 -2.5000011921
25.1792425190 -10.9461956560 -2.5000011921
25.1619724947 -10.9355533549 -2.5000011921
25.0925798502 -10.8934964190 -2.5000011921
26.8991439751 -12.4211602652 -2.5000011921
25.0172455827 -10.8211571105 -2.5000011921
24.9819371931 -10.8008842593 -2.5000011921
27.0572979388 -12.5820579057 -2.5000011921
25.5623209788 -11.1418636427 -2.5000011921
24.8689632813 -10.7103394646 -2.5000011921
27.1986543400 -12.7319888198 -2.5000011921
26.5551036916 -11.9618416323 -2.5000011921
24.8082111304 -10.6503880339 -2.5000011921
24.7718960720 -10.6313548895 -2.5000011921
24.6914611069 -10.5631085418 -2.5000011921
24.2896966516 -10.2986013589 -2.5000011921
25.9599659786 -15.8585244667 -2.5000011921
25.9536570561 -15.8344993230 -2.5000011921
25.9627207941 -15.6891271882 -2.5000011921
25.9554096121 -15.6650887109 -2.5000011921
25.9365105778 -15.6051854375 -2.5000011921
25.9633816799 -15.6097683724 -2.5000011921
25.9436635644 -15.5497532402 -2.5000011921
25.9396135410 -15.5377855792 -2.5000011921
25.9458521914 -15.4819833978 -2.5000011921
25.9416016830 -15.4700095590 -2.5000011921
25.9424645810 -15.4018756830 -2.5000011921
25.9560495694 -15.3693720784 -2.5000011921
25.9449660053 -15.1500595415 -2.5000011921
25.9565719183 -15.1163551488 -2.5000011921
25.9624874797 -15.0704146944 -2.5000011921
25.9623009858 -15.0121914691 -2.5000011921
25.9437565519 -14.9177162781 -2.5000011921
25.9535003660 -14.8829881486 -2.5000011921
25.9506870487 -14.8240500089 -2.5000011921
25.9614178536 -14.3556107085 -2.5000011921
25.9561953097 -14.1705807883 -2.5000011921
22.0568207342 -11.5806770479 -2.5000011921
21.9621588885 -11.5786632256 -2.5000011921
21.9148182896 -11.5782864428 -2.5000011921
21.8674762113 -11.5783297960 -2.5000011921
23.3849876685 -11.5891681868 -2.5000011921
23.3376842663 -11.5761641830 -2.5000011921
23.1792072378 -11.5358585320 -2.5000011921
20.4130761321 -11.5874939637 -2.5000011921
20.3973292279 -11.5919041171 -2.5000011921
20.3118971688 -11.5914843199 -2.5000011921
20.2961625115 -11.5961937615 -2.5000011921
20.2804418544 -11.6009497285 -2.5000011921
23.5404361762 -11.5844954408 -2.5000011921
20.2103948565 -11.5973958487 -2.5000011921
20.1946781307 -11.6024055267 -2.5000011921
23.5949907372 -11.5762645109 -2.5000011921
20.1243143593 -11.5999769368 -2.5000011921
23.6971786993 -11.5843583648 -2.5000011921
19.9984460318 -11.5922642023 -2.5000011921
19.9827150530 -11.5979008856 -2.5000011921
23.8550830644 -11.5888222608 -2.5000011921
23.8393250293 -11.5830503294 -2.5000011921
23.9108023588 -11.5838064035 -2.5000011921
23.9825326834 -11.5855109116 -2.5000011921
19.7997785169 -11.5893412436 -2.5000011921
19.7840397607 -11.5955656342 -2.5000011921
24.0545035290 -11.5881699322 -2.5000011921
24.0071649032 -11.5692243900 -2.5000011921
19.7120824765 -11.5985693398 -2.5000011921
24.0951820378 -11.5786851160 -2.5000011921
19.6713590053 -11.5892794683 -2.5000011921
24.2087251729 -11.5741938072 -2.5000011921
24.2658170546 -11.5728328321 -2.5000011921
24.2341821915 -11.5589058492 -2.5000011921
19.4849453908 -11.5913536817 -2.5000011921
24.3231144611 -11.5720664556 -2.5000011921
18.8502837390 -11.7020849856 -2.5000011921
18.8348826536 -11.7111176602 -2.5000011921
18.8195083559 -11.7201958544 -2.5000011921
19.5264734667 -11.3355546282 -2.5000011921
19.5099851596 -11.3425886149 -2.5000011921
18.7304154761 -11.7456544210 -2.5000011921
18.5789672826 -11.8415462814 -2.5000011921
18.5639799360 -11.8513809489 -2.5000011921
18.5340928488 -11.8711830742 -2.5000011921
24.7838630453 -11.5579436286 -2.5000011921
19.8184132546 -11.1946264194 -2.5000011921
19.7846186323 -11.2070183902 -2.5000011921
19.7677489623 -11.2132892993 -2.5000011921
19.7340656426 -11.2259806905 -2.5000011921
19.6836829233 -11.2453908734 -2.5000011921
19.6669272077 -11.2519602007 -2.5000011921
18.7177875693 -11.7250420157 -2.5000011921
19.9808742181 -11.1127232649 -2.5000011921
19.9294766837 -11.1299476201 -2.5000011921
19.8782340299 -11.1476274214 -2.5000011921
19.8441602987 -11.1596662949 -2.5000011921
17.9724306136 -12.2315392488 -2.5000011921
20.0077799688 -11.0784955304 -2.5000011921
20.2795907230 -10.9723650625 -2.5000011921
20.1919053343 -10.9969226523 -2.5000011921
24.9893780183 -11.5619908082 -2.5000011921
17.7738376239 -12.3076349387 -2.5000011921
25.0771655915 -11.5574012521 -2.5000011921
20.6500816259 -10.7850636645 -2.5000011921
25.3595245044 -11.5619074718 -2.5000011921
25.4944278977 -11.5640508541 -2.5000011921
25.5690949821 -11.5563228699 -2.5000011921
25.7214602341 -11.5745784800 -2.5000011921
25.7971923155 -11.5696909932 -2.5000011921
26.3933087063 -11.9297139247 -2.5000011921
26.2590610023 -11.8117600538 -2.5000011921
25.4428280577 -11.2139582500 -2.5000011921
25.3921138429 -11.1827068423 -2.5000011921
26.6551928588 -12.1449741030 -2.5000011921
26.6410677697 -12.1309165069 -2.5000011921
26.6269011575 -12.1169007570 -2.5000011921
26.6126931462 -12.1029269757 -2.5000011921
26.5265826841 -12.0199724535 -2.5000011921
25.2848770062 -11.0906543351 -2.5000011921
25.2330747582 -11.0608095100 -2.5000011921
25.1810096941 -11.0314255761 -2.5000011921
26.8117087762 -12.2712283848 -2.5000011921
25.1227247868 -10.9717256430 -2.5000011921
25.0522006492 -10.9339618342 -2.5000011921
27.0441558685 -12.4932575759 -2.5000011921
27.0179179217 -12.4628768986 -2.5000011921
27.0047316595 -12.4477449053 -2.5000011921
26.9111825818 -12.3429223837 -2.5000011921
26.7458325034 -12.1678098943 -2.5000011921
27.1787375225 -12.6166175885 -2.5000011921
27.1123708289 -12.4614315296 -2.5000011921
27.5528418282 -12.9939282981 -2.5000011921
27.5412241716 -12.9772115796 -2.5000011921
24.5190093457 -10.5506657240 -2.5000011921
24.4813225674 -10.5352586602 -2.5000011921
27.3802861572 -12.7159842204 -2.5000011921
24.3573303403 -10.4605097993 -2.5000011921
24.7316596820 -7.3233220847 -2.5000011921
25.9485365788 -16.1190465426 -2.5000011921
25.9386595379 -15.9815350543 -2.5000011921
25.9497316263 -15.9311876680 -2.5000011921
25.9465871298 -15.9202104283 -2.5000011921
25.9402007880 -15.8982840949 -2.5000011921
25.9336848345 -15.8763959290 -2.5000011921
25.9501455982 -15.8474443466 -2.5000011921
25.9629137304 -15.8072332732 -2.5000011921
25.9486734939 -15.7632334991 -2.5000011921
25.9339136285 -15.7194053024 -2.5000011921
25.9567764276 -15.7115549713 -2.5000011921
25.9358523746 -15.5826324657 -2.5000011921
25.9584476656 -15.5740424653 -2.5000011921
25.9457470208 -15.5410756062 -2.5000011921
25.9463164532 -15.4772631995 -2.5000011921
25.9418291810 -15.4662980486 -2.5000011921
25.9316763923 -15.3802709330 -2.5000011921
25.9393342473 -15.3377035371 -2.5000011921
25.9515201482 -15.3058541188 -2.5000011921
25.9376867304 -15.2188802183 -2.5000011921
25.9488962869 -15.1864600205 -2.5000011921
25.9582369153 -15.0438783821 -2.5000011921
25.9412518871 -14.9110226990 -2.5000011921
23.7202843024 -11.5630018294 -2.5000011921
23.6881582153 -11.5543233097 -2.5000011921
23.6720760578 -11.5500553638 -2.5000011921
20.6804373006 -11.5837711389 -2.5000011921
20.6006669129 -11.6073898367 -2.5000011921
23.7910282123 -11.5576875762 -2.5000011921
23.7588694461 -11.5485906047 -2.5000011921
20.5457365038 -11.5990628007 -2.5000011921
23.8299185587 -11.5437736596 -2.5000011921
20.4745711517 -11.5964797739 -2.5000011921
20.4586277615 -11.6017180153 -2.5000011921
23.9495832656 -11.5548607015 -2.5000011921
23.9335015540 -11.5498194107 -2.5000011921
24.0052071607 -11.5472795707 -2.5000011921
20.3154120763 -11.5997804483 -2.5000011921
20.2912915244 -11.5827453077 -2.5000011921
20.2433935211 -11.6002284519 -2.5000011921
20.2274622316 -11.6061505422 -2.5000011921
24.2137738058 -11.5680287697 -2.5000011921
20.1870625567 -11.5955406846 -2.5000011921
20.0985969585 -11.6039895281 -2.5000011921
24.3751381202 -11.5775987991 -2.5000011921
24.3109620375 -11.5526824237 -2.5000011921
20.0577207413 -11.5943248257 -2.5000011921
20.0417728002 -11.6007961954 -2.5000011921
20.0258440725 -11.6073147137 -2.5000011921
24.4733635313 -11.5651127505 -2.5000011921
19.9115153144 -11.6030286943 -2.5000011921
24.5628787689 -11.5765678260 -2.5000011921
24.5308181960 -11.5629039970 -2.5000011921
19.9019314825 -11.5808366812 -2.5000011921
19.8540318736 -11.6017752525 -2.5000011921
19.8381068635 -11.6088491381 -2.5000011921
24.6045323386 -11.5682684152 -2.5000011921
19.7384571294 -11.6010654417 -2.5000011921
24.7204940029 -11.5671802109 -2.5000011921
19.6644533499 -11.6092036506 -2.5000011921
24.9118972528 -11.5779867297 -2.5000011921
24.8958797416 -11.5700986389 -2.5000011921
19.5050485836 -11.6069307033 -2.5000011921
25.0136929806 -11.5751173210 -2.5000011921
24.9976665358 -11.5669281126 -2.5000011921
25.0728474501 -11.5785582933 -2.5000011921
19.3441137299 -11.6092253838 -2.5000011921
19.2732109672 -11.5927395814 -2.5000011921
19.2136156586 -11.5981745579 -2.5000011921
19.4121881329 -11.3830065756 -2.5000011921
18.7547203346 -11.7659995108 -2.5000011921
18.6625758229 -11.8286326548 -2.5000011921
19.6877651382 -11.2259717543 -2.5000011921
19.6537156437 -11.2411568708 -2.5000011921
19.5689901652 -11.2799986552 -2.5000011921
19.5521145290 -11.2879171536 -2.5000011921
18.6182266062 -11.8300839096 -2.5000011921
18.4672314514 -11.9393859061 -2.5000011921
18.3929628323 -11.9956998754 -2.5000011921
18.3782095153 -12.0070941440 -2.5000011921
19.8675444753 -11.1236605639 -2.5000011921
19.7294225077 -11.1813804444 -2.5000011921
19.6951084670 -11.1963198823 -2.5000011921
18.2898671162 -12.0458287655 -2.5000011921
18.2171922289 -12.1047543788 -2.5000011921
19.9984704862 -11.0466046606 -2.5000011921
18.4987765047 -11.8560511554 -2.5000011921
17.9883316663 -12.2699255530 -2.5000011921
20.1139330802 -10.9787283059 -2.5000011921
17.9116440389 -12.2415440557 -2.5000011921
17.8419052280 -12.3060423264 -2.5000011921
20.5631638563 -10.7633071185 -2.5000011921
20.5447554030 -10.7682869321 -2.5000011921
26.4018594428 -11.9104832045 -2.5000011921
26.3566293038 -11.8737255804 -2.5000011921
25.5410827955 -11.3127171628 -2.5000011921
26.6536574704 -12.0952610940 -2.5000011921
26.6246290689 -12.0692184380 -2.5000011921
26.6100572160 -12.0562616274 -2.5000011921
26.5513884364 -12.0048671417 -2.5000011921
26.5069900137 -11.9667788150 -2.5000011921
26.4772040348 -11.9416061416 -2.5000011921
26.4622553267 -11.9290859992 -2.5000011921
26.4322471274 -11.9041786510 -2.5000011921
25.4686215693 -11.2434053503 -2.5000011921
25.3489682247 -11.1777311618 -2.5000011921
25.2972767837 -11.1503462114 -2.5000011921
26.8972619757 -12.2925318109 -2.5000011921
25.0809384114 -11.0151922127 -2.5000011921
25.0278150831 -10.9901922771 -2.5000011921
25.0100582625 -10.9819638523 -2.5000011921
27.0920428062 -12.4586711626 -2.5000011921
26.9559323259 -12.3170635289 -2.5000011921
24.9665786834 -10.9355575877 -2.5000011921
24.8947642664 -10.9036879595 -2.5000011921
27.3378040132 -12.6621612976 -2.5000011921
26.9060236492 -12.1994344384 -2.5000011921
24.5739818588 -10.6960311956 -2.5000011921
25.9502875211 -15.3707894868 -2.5000011921
25.9329079588 -15.1787474851 -2.5000011921
25.9323399833 -14.7587503133 -2.5000011921
22.8306465860 -11.5782568531 -2.5000011921
24.0535356285 -11.5740295517 -2.5000011921
24.0213840002 -11.5654461389 -2.5000011921
23.9730627480 -11.5529280557 -2.5000011921
23.9569312117 -11.5488507173 -2.5000011921
21.5639479157 -11.4731519447 -2.5000011921
21.1580790303 -11.5638365306 -2.5000011921
21.0457407838 -11.5945830737 -2.5000011921
24.1563952272 -11.5776980019 -2.5000011921
20.9909668067 -11.5852824929 -2.5000011921
24.2435416861 -11.5783892672 -2.5000011921
24.2274842853 -11.5735116919 -2.5000011921
24.1631125039 -11.5544770313 -2.5000011921
20.9038246610 -11.5863913606 -2.5000011921
20.8878055444 -11.5913932372 -2.5000011921
20.8558120510 -11.6015390428 -2.5000011921
24.3310095564 -11.5804763356 -2.5000011921
24.3149579467 -11.5753400053 -2.5000011921
24.2988912131 -11.5702511810 -2.5000011921
20.8484367714 -11.5785186056 -2.5000011921
20.7843607879 -11.5994660545 -2.5000011921
24.4187765393 -11.5839688423 -2.5000011921
20.7286185575 -11.5928106060 -2.5000011921
20.7126191968 -11.5983307458 -2.5000011921
24.4586876812 -11.5720490885 -2.5000011921
20.7368514889 -11.5644519058 -2.5000011921
20.6405995016 -11.5981396843 -2.5000011921
24.5630817674 -11.5834189677 -2.5000011921
24.5470378471 -11.5775961130 -2.5000011921
20.5683140410 -11.5988992788 -2.5000011921
20.5523333932 -11.6048936018 -2.5000011921
24.6356316668 -11.5845732273 -2.5000011921
24.6195908437 -11.5785357518 -2.5000011921
24.6035322308 -11.5725457544 -2.5000011921
24.6923948910 -11.5804357491 -2.5000011921
24.6441802397 -11.5619622303 -2.5000011921
24.7493922318 -11.5768807044 -2.5000011921
24.8066178068 -11.5739119167 -2.5000011921
20.3247116344 -11.5912799607 -2.5000011921
24.8318851001 -11.5581544133 -2.5000011921
20.2352523053 -11.6031637711 -2.5000011921
20.1935594513 -11.5950640171 -2.5000011921
20.1615998260 -11.6093171516 -2.5000011921
20.1356755620 -11.5944961517 -2.5000011921
25.0698019635 -11.5825698692 -2.5000011921
20.0616024825 -11.6019773770 -2.5000011921
19.9873647095 -11.6104571964 -2.5000011921
25.1865416275 -11.5839040516 -2.5000011921
25.2879750539 -11.5796732310 -2.5000011921
19.8274415580 -11.6089104076 -2.5000011921
25.4494318747 -11.5809817881 -2.5000011921
19.5788829626 -11.6046488686 -2.5000011921
25.6283322623 -11.5959037475 -2.5000011921
19.5191339151 -11.6105416270 -2.5000011921
19.4151768320 -11.6148351589 -2.5000011921
25.8332550223 -11.5750587223 -2.5000011921
26.2069122725 -11.7578990295 -2.5000011921
26.5554230277 -11.9854834181 -2.5000011921
26.5256619114 -11.9620907981 -2.5000011921
26.4506581963 -11.9043831512 -2.5000011921
26.3442365780 -11.8254695126 -2.5000011921
26.3135324618 -11.8033291431 -2.5000011921
26.2050478359 -11.7272764696 -2.5000011921
26.1737652127 -11.7059613060 -2.5000011921
25.5232325841 -11.3195470266 -2.5000011921
25.3878958375 -11.2516501836 -2.5000011921
26.5704173082 -11.9665227526 -2.5000011921
25.3471259857 -11.2051912153 -2.5000011921
25.2610563459 -11.1649973627 -2.5000011921
25.2091325189 -11.1414936520 -2.5000011921
25.1570021543 -11.1184516616 -2.5000011921
26.9621170875 -12.2697618588 -2.5000011921
19.0578894814 -11.6090855811 -2.5000011921
24.9286150861 -10.9720111932 -2.5000011921
24.8928863996 -10.9582610528 -2.5000011921
24.8211881047 -10.9313961166 -2.5000011921
19.3710521257 -11.3888939374 -2.5000011921
