-2.7686597626 -18.4634357394 -2.5000116111
-2.7540314894 -18.4675971753 -2.5000116111
0.1122749080 -18.4480240531 -2.5000116111
0.1268449854 -18.4436632307 -2.5000116111
0.1414020989 -18.4392593264 -2.5000116111
0.1704769248 -18.4303224268 -2.5000116111
3.4650725483 -15.3101897530 -2.5000116111
-2.8778324981 -18.4561946985 -2.5000116601
0.1922332278 -18.4488532129 -2.5000116601
0.2068054081 -18.4442558557 -2.5000116601
0.2213639248 -18.4396154114 -2.5000116601
0.2359086505 -18.4349319207 -2.5000116601
0.2649562201 -18.4254359644 -2.5000116601
3.4550579546 -15.4042637806 -2.5000116601
-2.9435285131 -18.4608375961 -2.5000117090
-2.9142720314 -18.4701518044 -2.5000117090
-2.8996232538 -18.4747439583 -2.5000117090
0.2725353943 -18.4483900795 -2.5000117090
0.3162035448 -18.4337561688 -2.5000117090
3.4548340644 -15.4701232732 -2.5000117090
3.4605803475 -15.4558875859 -2.5000117090
-3.0387686862 -18.4547358487 -2.5000117580
-3.0241649671 -18.4596963538 -2.5000117580
0.3385807702 -18.4516549789 -2.5000117580
0.4113291937 -18.4260728871 -2.5000117580
-3.1051135760 -18.4572455974 -2.5000118070
-3.1863531703 -18.4534758692 -2.5000118560
-3.1571359932 -18.4642268385 -2.5000118560
3.4614367413 -15.6407412250 -2.5000118560
3.4738964882 -15.6122108642 -2.5000118560
-3.2532764550 -18.4540162855 -2.5000119050
-3.1065246157 -18.5080161815 -2.5000119050
0.6547583890 -18.4099870370 -2.5000119050
3.4580190921 -15.7075793710 -2.5000119050
3.4644677994 -15.6933332228 -2.5000119050
3.4898403607 -15.6361597379 -2.5000119050
-3.2912471650 -18.4652049173 -2.5000119540
-3.3587009212 -18.4643457094 -2.5000120030
-3.7858974300 -18.2959903831 -2.5000120520
-3.6864958424 -18.3453087042 -2.5000120520
-3.6579098653 -18.3590205787 -2.5000120520
-3.6004970432 -18.3859357609 -2.5000120520
-3.5860943893 -18.3925582610 -2.5000120520
-3.5716722079 -18.3991381265 -2.5000120520
0.8280351422 -18.4146474351 -2.5000120520
3.4632917728 -15.8666686475 -2.5000120520
-3.7968648498 -18.3175322258 -2.5000121010
0.8958983273 -18.4104379890 -2.5000121010
0.9784060551 -18.3984246382 -2.5000121499
3.4493779194 -16.0022079757 -2.5000121499
1.0322259908 -18.3992422455 -2.5000121989
1.0573349210 -18.4138424916 -2.5000122479
1.0862433420 -18.3994870707 -2.5000122479
3.4684043695 -16.1215011246 -2.5000122969
1.2638336628 -18.3890263567 -2.5000123949
3.4555828930 -16.2446319765 -2.5000123949
1.2897370730 -18.4025145898 -2.5000124439
1.3041673732 -18.3946708204 -2.5000124439
1.3185744069 -18.3867843980 -2.5000124439
1.4022067117 -18.3677272930 -2.5000124929
3.4434892552 -16.4091196848 -2.5000125418
1.5391305632 -18.3718875784 -2.5000126398
1.5802879957 -18.3753692266 -2.5000126888
3.4644373875 -16.5594247677 -2.5000127378
1.7750471353 -18.3676700465 -2.5000128848
1.9575641742 -18.3624460577 -2.5000130807
2.1276781729 -18.3612060397 -2.5000132767
3.4368051326 -17.1509355898 -2.5000133746
2.2421081319 -18.3674088190 -2.5000134236
3.1122268343 -18.7236673043 -2.5000150892
3.1275991882 -18.7104308754 -2.5000150892
3.2340999310 -18.6165107537 -2.5000150892
3.6120961291 -18.2488637860 -2.5000150892
2.9398333785 -18.8978088847 -2.5000151382
2.9557216289 -18.8850816649 -2.5000151382
3.0031595121 -18.8466187853 -2.5000151382
3.0345943279 -18.8207436383 -2.5000151382
3.0658755075 -18.7946829653 -2.5000151382
3.0814581413 -18.7815833413 -2.5000151382
3.6575898852 -18.2359602410 -2.5000151382
3.7267850544 -18.1613123149 -2.5000151382
3.7677695272 -18.1160351809 -2.5000151382
3.7813415271 -18.1008621969 -2.5000151382
3.8217873907 -18.0551032853 -2.5000151382
2.7606882349 -19.0662458548 -2.5000151872
2.7934266818 -19.0418014055 -2.5000151872
2.8422617558 -19.0047726311 -2.5000151872
2.9229171411 -18.9420996276 -2.5000151872
3.9461961049 -17.9468372147 -2.5000151872
3.9722910060 -17.9153984942 -2.5000151872
4.1124558509 -17.7397654891 -2.5000151872
4.1249132689 -17.7235745069 -2.5000151872
4.1373227364 -17.7073467442 -2.5000151872
2.6254824214 -19.1936201839 -2.5000152362
2.6923307382 -19.1461289225 -2.5000152362
4.2903217601 -17.5404769901 -2.5000152362
2.5717248609 -19.2602687558 -2.5000152852
3.1595810851 -18.8104097631 -2.5000152852
2.3435263823 -19.4384071019 -2.5000153342
2.6023939199 -19.2685400366 -2.5000153342
4.4697886486 -17.3642313331 -2.5000153342
4.5481274811 -17.2428086925 -2.5000153342
4.5591129047 -17.2253310892 -2.5000153342
4.6231715988 -17.1676882129 -2.5000153832
4.6339344740 -17.1499889442 -2.5000153832
4.6553029166 -17.1144952787 -2.5000153832
2.1011553044 -19.6387193340 -2.5000154321
2.1912680716 -19.5869382379 -2.5000154321
2.2091981665 -19.5764223945 -2.5000154321
4.8513629334 -16.8673175750 -2.5000154811
4.9527384292 -16.7788353383 -2.5000155791
-2.8837552691 -18.4538846770 -2.5000139147
-2.8283396772 -18.4688547308 -2.5000139147
-0.3033795257 -18.4553433111 -2.5000139147
-0.2619230448 -18.4437328969 -2.5000139147
-2.9595553157 -18.4574527324 -2.5000139781
-2.9457071983 -18.4614809178 -2.5000139781
-0.1860976404 -18.4467138558 -2.5000139781
-0.1585016250 -18.4383207247 -2.5000139781
-3.0218868694 -18.4640499298 -2.5000140415
-0.1237168675 -18.4528281649 -2.5000140415
-0.1098948384 -18.4484674476 -2.5000140415
0.0573713148 -18.4433953508 -2.5000141683
0.0792849054 -18.4612673097 -2.5000142317
0.1345804213 -18.4411767788 -2.5000142317
0.1706611401 -18.4535071261 -2.5000142951
0.1982911028 -18.4430031714 -2.5000142951
0.2258584370 -18.4323359323 -2.5000142951
0.2346485731 -18.4548541203 -2.5000143585
0.3036186732 -18.4273416457 -2.5000143585
0.7967767953 -18.4130471764 -2.5000148657
3.4542618671 -15.0931687537 -2.5000148657
3.4694682074 -15.0333797148 -2.5000148657
3.4731591678 -15.0184046677 -2.5000148657
3.4479108358 -12.4390651512 -2.5000148657
3.4439274388 -12.4241652259 -2.5000148657
3.4534082212 -15.1890155011 -2.5000149291
3.4657299380 -15.1441943266 -2.5000149291
3.4776534068 -15.0992655687 -2.5000149291
3.4508213222 -12.3581317677 -2.5000149291
3.4292667449 -12.2837177372 -2.5000149291
3.4551704819 -15.2703234157 -2.5000149925
3.4595624271 -15.2553896271 -2.5000149925
3.4682136914 -15.2254834002 -2.5000149925
0.9405115548 -18.4189119784 -2.5000150559
0.9679233673 -18.4038539355 -2.5000150559
3.4462265532 -15.3818201443 -2.5000150559
3.4527412963 -12.1951528834 -2.5000150559
0.9796244740 -18.4250062258 -2.5000151193
1.0070716576 -18.4097166712 -2.5000151193
3.4547647252 -15.4339961266 -2.5000151193
3.4644727695 -15.4041151586 -2.5000151193
3.4367552852 -12.0684639134 -2.5000151193
3.4678029867 -15.4714921362 -2.5000151827
3.4727899702 -15.4565200982 -2.5000151827
3.4336862735 -11.9861693523 -2.5000151827
3.4544162178 -15.5840201739 -2.5000152460
3.4511073969 -11.9631259124 -2.5000152460
3.4292778369 -11.9035933206 -2.5000152460
1.1665940856 -18.4011965266 -2.5000153094
3.4553566487 -15.6520072824 -2.5000153094
3.4608776831 -15.6370712731 -2.5000153094
3.4350140244 -11.8504589079 -2.5000153094
3.4553914055 -15.7202683072 -2.5000153728
3.4518335724 -11.8268762243 -2.5000153728
3.4402007353 -11.7970757287 -2.5000153728
3.4545141517 -15.7887912972 -2.5000154362
3.4448340121 -11.7434493666 -2.5000154362
3.4649327584 -15.8276879135 -2.5000154996
3.4709734459 -15.8127228076 -2.5000154996
3.4364649091 -11.6598046602 -2.5000154996
3.4563323291 -15.9116534508 -2.5000155630
3.4431866313 -16.1200281853 -2.5000157532
3.4442964332 -16.2301722717 -2.5000158800
1.9573346222 -18.3584723066 -2.5000163872
3.4250963453 -16.6779645119 -2.5000163872
3.4349692086 -16.8039365915 -2.5000165774
2.1545436385 -18.3559367487 -2.5000167042
3.4246030409 -17.0035661386 -2.5000168310
3.4353328306 -17.0315239014 -2.5000168944
2.3405484038 -18.3577317265 -2.5000170211
3.4147163547 -17.3206189371 -2.5000172747
3.4180478011 -17.4809834749 -2.5000175283
3.1023108671 -18.7780761152 -2.5000191766
3.1318097802 -18.7502218556 -2.5000191766
3.1611433819 -18.7221935581 -2.5000191766
3.1903106453 -18.6939922037 -2.5000191766
3.6986755907 -18.1423005738 -2.5000191766
3.7499435647 -18.0794060604 -2.5000191766
2.9224643367 -18.9730677641 -2.5000192400
2.9988050136 -18.9057447712 -2.5000192400
3.2796029133 -18.6398154719 -2.5000192400
3.3509755947 -18.5672467137 -2.5000192400
3.8445341504 -17.9987633808 -2.5000192400
3.8940935147 -17.9341530496 -2.5000192400
3.9428849101 -17.8689608322 -2.5000192400
2.7026148577 -19.1870934266 -2.5000193034
2.7345406499 -19.1615967444 -2.5000193034
2.7663150364 -19.1359116248 -2.5000193034
2.7821451048 -19.1229986816 -2.5000193034
2.8918763617 -19.0313048509 -2.5000193034
3.9133605384 -17.9487515798 -2.5000193034
4.0579095756 -17.7507728611 -2.5000193034
2.7656432357 -19.1675767469 -2.5000193668
4.1931132417 -17.5952708358 -2.5000193668
4.2378738921 -17.5265642019 -2.5000193668
4.2599485661 -17.4920134737 -2.5000193668
2.4366555823 -19.4473512701 -2.5000194302
4.1790676373 -17.6599437436 -2.5000194302
4.3455762074 -17.4001763446 -2.5000194302
4.3984975468 -17.3119770258 -2.5000194302
2.5343541683 -19.4066586997 -2.5000194936
2.3626998560 -19.5578437013 -2.5000195570
4.5920425783 -17.0655145876 -2.5000195570
4.6113833294 -17.0288765476 -2.5000195570
2.1151823688 -19.7480677835 -2.5000196204
4.6424160165 -17.0216729033 -2.5000196204
1.9431437634 -19.9073655678 -2.5000197472
-0.0407045951 -14.7836533848 -2.5000016398
-0.0421735167 -14.9060983819 -2.5000016513
-0.0757780834 -15.1190861271 -2.5000016686
-0.0197046021 -15.0217587808 -2.5000016686
-0.4058183334 -18.4478527959 -2.5000022853
-0.4768512780 -18.4947222821 -2.5000022911
-0.3336840666 -18.4500196810 -2.5000022911
-0.3207424757 -18.4457252643 -2.5000022911
-0.2013034702 -18.4554840413 -2.5000023026
-0.1883462939 -18.4507979949 -2.5000023026
-0.0546582134 -18.4518888741 -2.5000023141
-0.0458015089 -18.4743809631 -2.5000023199
0.0802027542 -18.4489330383 -2.5000023256
0.1156432832 -18.4600493011 -2.5000023314
0.1415651794 -18.4487636558 -2.5000023314
0.3141995118 -18.4493871233 -2.5000023487
0.4390582745 -18.4417401510 -2.5000023602
0.5017928521 -18.4366134375 -2.5000023660
0.5146911293 -18.4298475876 -2.5000023660
0.5388931788 -18.4444002468 -2.5000023717
0.8047292487 -18.4338261824 -2.5000024006
0.8429283804 -18.4391878186 -2.5000024063
0.9585128070 -18.4248874234 -2.5000024179
0.9843057443 -18.4371939720 -2.5000024236
1.0360384846 -18.4328078949 -2.5000024294
3.4452389317 -15.4677292044 -2.5000024813
3.4652955708 -15.3903093360 -2.5000024813
3.4691693629 -15.3747902379 -2.5000024813
3.4706384111 -12.7772152365 -2.5000024813
3.4468131177 -12.6842492620 -2.5000024813
3.4384615839 -15.5823180031 -2.5000024870
3.4472997003 -15.5514238140 -2.5000024870
3.4559548817 -15.5204778762 -2.5000024870
3.4602137768 -15.5049858401 -2.5000024870
3.4575887245 -12.6315127446 -2.5000024870
3.4533015311 -12.6160285157 -2.5000024870
3.4445898230 -12.5850984435 -2.5000024870
3.4386870532 -15.6663800514 -2.5000024928
3.4433776289 -15.6509384583 -2.5000024928
3.4571749965 -15.6045313718 -2.5000024928
3.4404859357 -12.4855911313 -2.5000024928
3.4473970323 -15.7198855903 -2.5000024985
3.4570488884 -15.6889361284 -2.5000024985
3.4454133084 -15.8046098453 -2.5000025043
3.4801469578 -15.6960645554 -2.5000025043
3.4674215384 -12.4093296999 -2.5000025043
3.4624770443 -12.3938173559 -2.5000025043
3.4574866836 -12.3783197065 -2.5000025043
3.4524504999 -12.3628368873 -2.5000025043
3.4312227139 -15.9204913141 -2.5000025101
3.4420617039 -15.8896340340 -2.5000025101
3.4494466099 -12.2777997040 -2.5000025101
3.4259893544 -16.0057639645 -2.5000025158
3.4373329376 -15.9749361542 -2.5000025158
3.4429362840 -15.9594972167 -2.5000025158
3.4669525998 -12.2544232328 -2.5000025158
3.4450667062 -12.1924789597 -2.5000025158
3.4508427715 -12.1378039844 -2.5000025216
3.4298188503 -16.1308857600 -2.5000025274
3.4147961724 -16.2322869889 -2.5000025331
3.4211609077 -16.2169135932 -2.5000025331
3.4274801379 -16.2015214368 -2.5000025331
3.4337538076 -16.1861106542 -2.5000025331
3.4667361055 -12.0432185151 -2.5000025331
3.4110928087 -16.3031334932 -2.5000025389
3.4647904508 -11.9723019691 -2.5000025389
3.4266542445 -16.3280856037 -2.5000025446
3.4646655786 -11.8452724281 -2.5000025504
3.4228004839 -16.4555199749 -2.5000025562
3.4668525446 -11.7891768985 -2.5000025562
3.4161024754 -16.5272277825 -2.5000025619
3.4233396932 -16.5118492321 -2.5000025619
3.4474808039 -11.6863925137 -2.5000025619
3.4306459775 -16.5529749056 -2.5000025677
3.4694696417 -11.6763512839 -2.5000025677
3.4479937503 -11.6298691592 -2.5000025677
3.4301658657 -16.6096925483 -2.5000025735
3.4626120419 -11.6041169877 -2.5000025735
3.3872943203 -11.4501655931 -2.5000025735
3.3638143937 -11.4044216352 -2.5000025735
3.3479359786 -11.3740422040 -2.5000025735
3.3399294397 -11.3588878498 -2.5000025735
3.2992262459 -11.2834749899 -2.5000025735
3.2826334003 -11.2534798007 -2.5000025735
3.4136521267 -16.6973630726 -2.5000025792
3.7403514311 -12.2325043194 -2.5000025792
3.6655079976 -12.0216661381 -2.5000025792
3.3773209100 -11.3780228847 -2.5000025792
3.3532011500 -11.3323702761 -2.5000025792
3.3286771986 -11.2869335145 -2.5000025792
3.2089453844 -11.0778539477 -2.5000025792
3.1550007420 -10.9898002166 -2.5000025792
3.8054650354 -12.3565213918 -2.5000025850
3.7847635167 -12.2905645349 -2.5000025850
3.7794663053 -12.2741139556 -2.5000025850
3.7687260075 -12.2412601671 -2.5000025850
3.4090117586 -16.8116779967 -2.5000025908
3.4170904625 -16.7963191772 -2.5000025908
3.8485732104 -12.4158901845 -2.5000025908
3.4303890475 -16.8229628005 -2.5000025965
3.4270561402 -16.8805582674 -2.5000026023
3.4133633934 -17.0542582507 -2.5000026196
3.4383009133 -17.3415156338 -2.5000026599
3.4502671339 -17.4577279451 -2.5000026772
3.4705804986 -17.5151160774 -2.5000026887
3.4779285429 -17.6777557032 -2.5000027118
3.4655456985 -17.7381123089 -2.5000027175
3.0544901763 -18.8691600440 -2.5000028155
3.1109017965 -18.8116331463 -2.5000028155
3.1248980339 -18.7971474394 -2.5000028155
3.1804526385 -18.7387924846 -2.5000028155
3.2216633320 -18.6945971146 -2.5000028155
3.2489185312 -18.6649311066 -2.5000028155
3.3825357970 -18.5142110555 -2.5000028155
3.7558414588 -18.0392785517 -2.5000028155
3.7675501097 -18.0228883760 -2.5000028155
3.7908217005 -17.9900044746 -2.5000028155
2.9271657677 -19.0275486947 -2.5000028213
2.9418015263 -19.0136055675 -2.5000028213
2.9709489847 -18.9855897328 -2.5000028213
3.0716491392 -18.8861866489 -2.5000028213
3.8452589051 -17.9541514228 -2.5000028213
3.8681224649 -17.9208089731 -2.5000028213
3.8907883595 -17.8873318384 -2.5000028213
3.9132557955 -17.8537211905 -2.5000028213
3.9244148454 -17.8368661666 -2.5000028213
3.9355239863 -17.8199782060 -2.5000028213
2.7032809905 -19.2629551957 -2.5000028270
2.7946866392 -19.1825868406 -2.5000028270
4.0215723288 -17.7308610758 -2.5000028270
4.0538050743 -17.6792409313 -2.5000028270
4.0644473651 -17.6619709006 -2.5000028270
2.6726838355 -19.3209620394 -2.5000028328
2.6881886772 -19.3077704319 -2.5000028328
4.0636346697 -17.7092522166 -2.5000028328
2.5624505705 -19.4436310962 -2.5000028386
2.6570850698 -19.3657337661 -2.5000028386
4.1997711403 -17.5293422716 -2.5000028386
4.2700550570 -17.4048076243 -2.5000028386
2.4326345158 -19.5764942727 -2.5000028443
3.0528767052 -19.0408311239 -2.5000028443
4.3874635343 -17.2354672551 -2.5000028443
2.2988113406 -19.7062388602 -2.5000028501
2.1780764653 -19.8210650563 -2.5000028559
4.5308003410 -17.0538251026 -2.5000028559
4.5526571619 -17.0641505403 -2.5000028616
4.6300383961 -16.8945406698 -2.5000028616
1.9095097207 -20.0538582344 -2.5000028674
4.6605095397 -16.8852439194 -2.5000028674
1.6705504888 -20.2225237013 -2.5000028732
4.7476278749 -16.7412260501 -2.5000028732
4.7905721385 -16.8270776542 -2.5000028904
4.9434418303 -16.5015743282 -2.5000028962
1.6856722498 -20.3800145364 -2.5000029077
-0.0353695697 -14.8264899018 -2.4999991255
-0.0807550053 -15.1323955342 -2.4999990736
-0.7865698418 -18.4405968004 -2.4999966876
-0.8041718487 -18.4705144733 -2.4999966617
-0.7800851407 -18.4638837911 -2.4999966617
-0.7440296873 -18.4536708623 -2.4999966617
-0.7080662877 -18.4431383638 -2.4999966617
-0.6171503520 -18.4403449256 -2.4999966358
-0.5617395674 -18.4476619368 -2.4999966098
-0.3453854031 -18.4468307973 -2.4999965320
-0.0463951690 -18.4515002807 -2.4999964023
3.4572382682 -12.9858523379 -2.4999952353
3.4445124056 -12.9382512582 -2.4999952353
3.4438657942 -16.1890704763 -2.4999951315
3.4405778931 -12.5931651572 -2.4999951315
3.4416869385 -12.5219615802 -2.4999951056
3.4361197234 -12.5061300616 -2.4999951056
3.4532740225 -12.4821948112 -2.4999950797
3.4576870008 -12.3543149940 -2.4999950278
3.4393565809 -12.3067348010 -2.4999950278
3.4331526963 -12.2909111177 -2.4999950278
3.4562736421 -16.7597391996 -2.4999948981
3.4642610220 -16.8013340715 -2.4999948722
3.4526854912 -11.9649823983 -2.4999948722
3.4644985727 -16.9169107512 -2.4999948203
3.4658037784 -17.1343943034 -2.4999947166
3.3457191586 -11.3846228870 -2.4999946906
3.3187876743 -11.3380745310 -2.4999946906
3.2914441600 -11.2917670098 -2.4999946906
3.2543489321 -11.2304045809 -2.4999946906
3.1983011901 -11.0959058243 -2.4999946647
3.0984559209 -10.9461740955 -2.4999946647
3.8523743270 -12.3782239708 -2.4999946388
3.4672882270 -17.3386827859 -2.4999946128
2.7226221034 -10.3445136770 -2.4999945869
3.4742311928 -17.4258369197 -2.4999945610
3.4680944044 -17.4855613962 -2.4999945350
3.1362501991 -18.8191030756 -2.4999939904
3.1623303104 -18.7891534324 -2.4999939904
3.1753038046 -18.7741208796 -2.4999939904
3.2139566805 -18.7287938761 -2.4999939904
3.2395011322 -18.6983860758 -2.4999939904
3.7755186963 -17.9596607514 -2.4999939904
3.7860357182 -17.9428179058 -2.4999939904
3.8069200597 -17.9090392497 -2.4999939904
2.8970653567 -19.1126817514 -2.4999939645
2.6422137957 -19.4246675862 -2.4999939126
2.5984088919 -19.4963197657 -2.4999938867
4.2945145900 -17.1947932899 -2.4999938867
-1.0642620478 -18.4352635017 -2.4999989201
-1.0363990406 -18.4531458976 -2.4999989057
-0.8982942271 -18.4401963529 -2.4999988913
-0.8364764000 -18.4467491180 -2.4999988769
-0.6155200345 -18.4481810085 -2.4999988337
-0.5301219964 -18.4414451632 -2.4999988193
-0.4992432598 -18.4551903228 -2.4999988049
-0.1428520048 -18.4544047074 -2.4999987184
0.1665757022 -18.4246619903 -2.4999986464
0.2129965475 -18.4534401580 -2.4999986176
0.2951586405 -19.0446497952 -2.4999982862
3.4390868444 -14.9331862285 -2.4999979548
3.4396424076 -14.9171290581 -2.4999979548
3.4413895935 -14.8528860499 -2.4999979548
3.4423765039 -14.7886268656 -2.4999979548
3.4424310800 -14.6922274403 -2.4999979548
3.4422738289 -14.6761614313 -2.4999979548
3.4415169302 -14.6279671797 -2.4999979548
3.4398424872 -14.5637222343 -2.4999979548
3.4665368275 -16.1076316386 -2.4999978395
3.4473124143 -13.2926924301 -2.4999978395
3.4430150641 -13.2766181048 -2.4999978395
3.4603122979 -16.2266657553 -2.4999978251
3.4486184412 -13.2058965081 -2.4999978251
3.4348135163 -13.1577038486 -2.4999978251
3.4562223902 -16.3299268800 -2.4999978107
3.4485411057 -13.1187473420 -2.4999978107
3.4650146073 -16.3851762737 -2.4999977963
3.4368813569 -12.9991370797 -2.4999977963
3.4334878794 -12.9113662121 -2.4999977819
3.4343183556 -12.8393510518 -2.4999977675
3.4400053213 -12.7831121762 -2.4999977531
3.4283483690 -12.7510284581 -2.4999977531
3.4777796327 -16.6575153203 -2.4999977387
3.4331281715 -12.6945105406 -2.4999977387
3.4536131497 -12.6129199754 -2.4999977098
3.4473048821 -12.5968299858 -2.4999977098
3.4545112602 -16.9251526811 -2.4999976954
3.4374097604 -12.5074754296 -2.4999976954
3.4307896396 -12.4914338338 -2.4999976954
3.4525193850 -17.0563443220 -2.4999976666
3.4728848708 -17.0079654185 -2.4999976666
3.4413629169 -12.3923559283 -2.4999976666
3.4621422565 -17.2144546864 -2.4999976234
3.4353245964 -12.2020667373 -2.4999976234
3.4278010306 -12.1860326462 -2.4999976234
3.4618622383 -17.2729260817 -2.4999976090
3.4484986419 -12.1170761686 -2.4999975946
3.4467132810 -12.0582402491 -2.4999975802
3.4412860541 -11.9400532487 -2.4999975514
3.4284566390 -11.7615806802 -2.4999975081
3.4550890892 -17.7148277474 -2.4999974937
3.4480636548 -17.9234261968 -2.4999974361
3.7200098770 -12.0689992593 -2.4999974361
3.7120914280 -12.0521235998 -2.4999974361
3.6961049398 -12.0184429225 -2.4999974361
3.6469538299 -11.9179766148 -2.4999974361
3.2644420708 -11.2568414611 -2.4999974361
3.2228912984 -11.1949277470 -2.4999974361
3.2018419135 -11.1641563443 -2.4999974361
3.1048821092 -11.0272482674 -2.4999974361
3.8622239230 -12.3328960377 -2.4999974217
3.1354161988 -11.0281578609 -2.4999974217
3.1022973985 -10.9828304518 -2.4999974217
3.0348595844 -10.8930662675 -2.4999974217
3.0005458818 -10.8486365617 -2.4999974217
3.9127307649 -12.3933717798 -2.4999974073
4.0149709050 -12.5961738056 -2.4999973929
3.9760232413 -12.4899572085 -2.4999973929
2.8476532554 -10.5854433470 -2.4999973929
4.1502525598 -12.8503880418 -2.4999973640
2.3304584313 -9.9516184464 -2.4999973496
3.0895053110 -18.9018666899 -2.4999972776
3.1626179855 -18.8110822038 -2.4999972776
3.2692372354 -18.6725083029 -2.4999972776
3.6676285037 -18.0746148172 -2.4999972776
3.0078608490 -19.0366335491 -2.4999972632
3.0332093925 -19.0069970958 -2.4999972632
3.8130302625 -17.8661538139 -2.4999972632
3.8222604381 -17.8489776183 -2.4999972632
3.8586718326 -17.7800020486 -2.4999972632
3.8676469560 -17.7626912139 -2.4999972632
3.9246405528 -17.7040244137 -2.4999972488
3.9763621648 -17.5986064715 -2.4999972488
2.6689444923 -19.4697371813 -2.4999972344
2.7796240015 -19.3581974275 -2.4999972344
2.6999305387 -19.4731166027 -2.4999972200
4.1341301782 -17.3682703745 -2.4999972200
-0.1572288790 -18.4486896704 -2.5000016494
-0.1020311947 -11.5346110731 -2.5000016724
0.0488209019 -11.5355902269 -2.5000016811
0.1239907509 -11.5518751146 -2.5000016839
3.4511433587 -16.4569491235 -2.5000018626
3.4746039083 -16.3599131011 -2.5000018626
3.4566984890 -13.7387164089 -2.5000018626
3.4445210439 -13.6903081901 -2.5000018626
3.4449190177 -16.5759832501 -2.5000018655
3.4509607275 -13.6196578359 -2.5000018655
3.4421858683 -13.5874096890 -2.5000018655
3.4472930762 -13.5163808513 -2.5000018684
3.4592751582 -16.7021990222 -2.5000018713
3.4465984952 -13.4288908419 -2.5000018713
3.4366950708 -13.3966718422 -2.5000018713
3.4527975692 -16.8061740088 -2.5000018741
3.4496433729 -13.3572049050 -2.5000018741
3.4497141979 -16.8943003163 -2.5000018770
3.4570569228 -13.3013630279 -2.5000018770
3.4517517420 -13.2852158241 -2.5000018770
3.4409981977 -13.2529688506 -2.5000018770
3.4563349359 -16.9504369224 -2.5000018799
3.4473501208 -13.1968011927 -2.5000018799
3.4360735630 -13.1645818081 -2.5000018799
3.4509310858 -17.0391406056 -2.5000018828
3.4356449398 -13.0920239931 -2.5000018828
3.4483219710 -17.1850416825 -2.5000018885
3.4606411662 -17.1527467472 -2.5000018885
3.4382141402 -12.9622374809 -2.5000018885
3.4341296223 -12.6998736343 -2.5000019001
3.4532307999 -17.6647718708 -2.5000019116
3.4258859779 -12.2893707737 -2.5000019202
3.4164733309 -12.0671370970 -2.5000019318
3.4341647324 -18.1241259132 -2.5000019346
3.4195614492 -12.0232317850 -2.5000019346
3.4360126753 -18.3617864988 -2.5000019491
3.4212211785 -11.7408417940 -2.5000019519
3.1966592550 -18.8135497604 -2.5000019548
3.2186176555 -18.7827152447 -2.5000019548
3.2833929443 -18.6894397955 -2.5000019548
3.3046155505 -18.6580943063 -2.5000019548
3.3361008135 -18.6108420199 -2.5000019548
3.6977175364 -17.9895681354 -2.5000019548
3.1033759669 -18.9803995675 -2.5000019577
3.8029400971 -17.8299785283 -2.5000019577
3.8349935712 -17.7610751825 -2.5000019577
3.8584974070 -17.7091514121 -2.5000019577
2.8700710662 -19.3057898784 -2.5000019606
3.9112984998 -17.6492079985 -2.5000019606
3.9702799435 -17.5085133629 -2.5000019606
4.0279805416 -17.4286343876 -2.5000019635
4.0417307681 -17.3929057343 -2.5000019635
4.0685958771 -17.3212075041 -2.5000019635
3.7520130649 -12.0781372485 -2.5000019663
3.2001795057 -11.2008574675 -2.5000019663
3.1886617735 -11.1854793441 -2.5000019663
3.1770986003 -11.1701353596 -2.5000019663
3.1538363366 -11.1395503437 -2.5000019663
3.1186046771 -11.0939322081 -2.5000019663
3.0948925936 -11.0636945956 -2.5000019663
3.0829695695 -11.0486285301 -2.5000019663
2.5412060732 -19.7598869827 -2.5000019692
3.8602250163 -12.2391456561 -2.5000019692
3.8517758403 -12.2218104558 -2.5000019692
3.7734363107 -12.0669399353 -2.5000019692
3.0535873790 -10.9734669904 -2.5000019692
3.0413976260 -10.9585235080 -2.5000019692
2.9921981646 -10.8991121300 -2.5000019692
2.9673356725 -10.8696257906 -2.5000019692
2.5162546247 -19.8175171113 -2.5000019721
3.9718401169 -12.4215982250 -2.5000019721
2.8970588035 -10.7515774198 -2.5000019721
2.8324048783 -10.6795619487 -2.5000019721
2.7799192449 -10.6226429989 -2.5000019721
2.7843177352 -10.5919667284 -2.5000019750
2.6355505771 -10.4385591660 -2.5000019750
4.1573074327 -12.7443293315 -2.5000019779
4.2338020457 -12.8827308040 -2.5000019808
4.3831800504 -13.1026755960 -2.5000019894
2.0497026457 -9.7365273322 -2.5000019923
-0.0788361939 -15.1429944434 -2.5000016456
-0.7175113436 -11.5745947412 -2.5000021585
-0.7518046183 -11.5637329323 -2.5000021585
-0.6106604215 -11.5593818601 -2.5000021700
-0.4336584937 -11.5735469765 -2.5000021816
-0.4450831996 -11.5690528800 -2.5000021816
-0.5139060596 -11.5427997929 -2.5000021816
-0.3697990926 -11.5471099393 -2.5000021931
0.3689734100 -11.5672053593 -2.5000022680
1.3017128155 -11.5523511103 -2.5000024006
3.6251311513 -15.8668406124 -2.5000025274
3.4540498871 -13.9949020518 -2.5000025274
3.4599374208 -13.9244733265 -2.5000025331
3.4509154900 -13.8924419833 -2.5000025331
3.4420028411 -17.1703095793 -2.5000025446
3.4572046006 -17.1223140639 -2.5000025446
3.4541056762 -13.7345067510 -2.5000025446
3.4598311285 -17.1937471209 -2.5000025504
3.4460330878 -13.6310619766 -2.5000025504
3.4394643811 -17.3294826360 -2.5000025562
3.4471685553 -13.5593203880 -2.5000025562
3.4734419198 -17.3053889306 -2.5000025619
3.4700080408 -13.5514024852 -2.5000025619
3.4466003418 -13.4150152310 -2.5000025677
3.4510455809 -13.3584700159 -2.5000025735
3.4461539662 -17.5871448905 -2.5000025792
3.4385564285 -13.1966893009 -2.5000025850
3.4535323521 -17.7588879449 -2.5000025965
3.4603879954 -17.7428677713 -2.5000025965
3.4504364331 -13.0402606498 -2.5000026023
3.4409423082 -17.9064371209 -2.5000026080
3.4364088925 -12.9504147574 -2.5000026080
3.4360301468 -12.8923343239 -2.5000026138
3.4397899834 -18.0227883072 -2.5000026196
3.4427093018 -12.8500325526 -2.5000026196
3.4416296960 -18.1827083572 -2.5000026369
3.4497391287 -18.1667215394 -2.5000026369
3.4515412992 -18.2688566237 -2.5000026484
3.4294159781 -12.5560489367 -2.5000026484
3.4421700400 -12.5286728451 -2.5000026542
3.4335538108 -12.5127091677 -2.5000026542
3.4285745917 -12.4532709166 -2.5000026599
3.2100664730 -18.8224191429 -2.5000026657
3.2694019292 -18.7301513173 -2.5000026657
3.2791315508 -18.7146715851 -2.5000026657
3.4639884681 -18.3992289190 -2.5000026657
3.6607170888 -18.0070978086 -2.5000026657
3.4408529424 -12.4255841398 -2.5000026657
3.0309596348 -19.1217903065 -2.5000026714
3.0634958774 -19.0773657224 -2.5000026714
3.0742535229 -19.0624935784 -2.5000026714
3.1168427537 -19.0026887280 -2.5000026714
3.1273792578 -18.9876591010 -2.5000026714
3.3382263332 -18.6650570276 -2.5000026714
3.3477630930 -18.6493739852 -2.5000026714
3.3947487119 -18.5705393841 -2.5000026714
3.7422561144 -17.8829494289 -2.5000026714
3.7848338680 -17.7813841833 -2.5000026714
3.7917546095 -17.7643838615 -2.5000026714
2.9158273253 -19.3115994433 -2.5000026772
2.9500525512 -19.2681891194 -2.5000026772
3.0613296858 -19.1213261649 -2.5000026772
3.1153269910 -19.0466764007 -2.5000026772
3.4284308005 -12.3059546633 -2.5000026772
3.9712226993 -17.4182416662 -2.5000026830
3.4212616081 -12.2459495047 -2.5000026830
2.7139681340 -19.6253184675 -2.5000026887
3.9882252542 -17.4435151579 -2.5000026887
4.0173056987 -17.3553397752 -2.5000026887
3.4263287066 -12.0682961897 -2.5000027060
3.4163506692 -12.0523813882 -2.5000027060
2.1933406008 -20.2696879923 -2.5000027118
3.4166386260 -12.0076489539 -2.5000027118
3.2298307786 -11.2897717024 -2.5000027752
3.2175505847 -11.2744415837 -2.5000027752
3.1679779346 -11.2134863867 -2.5000027752
3.8341948835 -12.1387738603 -2.5000027809
3.8244235472 -12.1216522085 -2.5000027809
3.8047291421 -12.0874959954 -2.5000027809
3.5749328578 -11.7197673840 -2.5000027809
3.0200052915 -11.0034372434 -2.5000027809
3.0068789867 -10.9887290793 -2.5000027809
2.9672398215 -10.9448384661 -2.5000027809
2.9137846774 -10.8868681365 -2.5000027809
3.9411686994 -12.2827610394 -2.5000027867
3.9034762958 -12.2131730682 -2.5000027867
4.0796827125 -12.5013587919 -2.5000027925
2.7694366701 -10.6685843055 -2.5000027925
2.6984465841 -10.5991763445 -2.5000027925
2.6697644069 -10.5717084351 -2.5000027925
2.5844091740 -10.4590679120 -2.5000027982
2.4358812401 -10.2955282256 -2.5000028040
4.3397760919 -12.9101110471 -2.5000028098
2.3438845340 -10.1869473477 -2.5000028098
2.3127696771 -10.1615843612 -2.5000028098
4.3318102250 -12.8265081203 -2.5000028155
4.4359130143 -13.0240183549 -2.5000028213
-0.0982722436 -15.0995727030 -2.5000011921
-1.3155231867 -11.5786500152 -2.5000011921
-1.3279150743 -11.5770766986 -2.5000011921
-1.1880932242 -11.5725221318 -2.5000011921
-1.2129200842 -11.5686583518 -2.5000011921
-1.2253419779 -11.5667815604 -2.5000011921
-1.0102328567 -11.5799741332 -2.5000011921
-1.0226221631 -11.5774977068 -2.5000011921
-0.9432760861 -11.5692814957 -2.5000011921
-0.8013031846 -11.5776746866 -2.5000011921
-0.7584541246 -11.5137451469 -2.5000011921
-0.4518362934 -11.5792207493 -2.5000011921
-0.4890545934 -11.5669460468 -2.5000011921
-0.3944404380 -11.5732693536 -2.5000011921
-0.3740301807 -11.5547971427 -2.5000011921
-0.1616012027 -11.5572855575 -2.5000011921
0.1484248700 -11.5613154352 -2.5000011921
0.2691888436 -11.5667183922 -2.5000011921
0.3050322952 -11.5578415335 -2.5000011921
0.4395135012 -11.5743802027 -2.5000011921
2.5943101369 -13.8303947333 -2.5000011921
0.5743746152 -11.5670331619 -2.5000011921
0.6362442658 -11.5752727460 -2.5000011921
0.6238338478 -11.5679257631 -2.5000011921
0.8488136672 -11.5646199996 -2.5000011921
0.8363708064 -11.5566442446 -2.5000011921
1.1163420518 -11.5702385832 -2.5000011921
3.4406530897 -17.1802738875 -2.5000011921
3.4243323220 -17.3275625988 -2.5000011921
3.4289260187 -17.3119427784 -2.5000011921
3.4485095790 -14.2904138260 -2.5000011921
3.4351980065 -14.2434189789 -2.5000011921
3.4381462548 -17.3657527618 -2.5000011921
3.4492806870 -14.2053270979 -2.5000011921
3.4217977887 -17.4980616311 -2.5000011921
3.4291268875 -17.5525501637 -2.5000011921
3.4395990726 -17.5212646984 -2.5000011921
3.4518292171 -14.0498292584 -2.5000011921
3.4467266654 -14.0341424387 -2.5000011921
3.4645318316 -14.0108915619 -2.5000011921
3.4540497553 -13.9794586140 -2.5000011921
3.4498248214 -13.8930994918 -2.5000011921
3.4557071379 -13.8378537885 -2.5000011921
3.4287576780 -17.8357545230 -2.5000011921
3.4409054016 -17.8044662856 -2.5000011921
3.4726728714 -13.8138344215 -2.5000011921
3.4637258633 -13.6548927442 -2.5000011921
3.4270668631 -18.0916431805 -2.5000011921
3.4339208364 -18.0760119277 -2.5000011921
3.4352862850 -18.1327151644 -2.5000011921
3.4422617206 -18.1170594173 -2.5000011921
3.4790055055 -13.5013024978 -2.5000011921
3.2703409343 -18.7696150128 -2.5000011921
3.2880164627 -18.7392476779 -2.5000011921
3.3141921150 -18.6935019283 -2.5000011921
3.3314165654 -18.6628764872 -2.5000011921
3.7487614641 -17.8095439426 -2.5000011921
3.7783604911 -17.7264598496 -2.5000011921
3.7898554721 -17.6931051574 -2.5000011921
3.4822671739 -12.9980561476 -2.5000011921
2.6981622931 -19.7305215461 -2.5000011921
4.0529595628 -17.1211419656 -2.5000011921
4.1817921083 -16.8530122637 -2.5000011921
4.2268619099 -16.7316002133 -2.5000011921
3.4707223423 -12.6758814021 -2.5000011921
3.4731750890 -12.6321751407 -2.5000011921
3.7713491052 -12.0160257373 -2.5000011921
3.6924787465 -11.9003613196 -2.5000011921
3.2237507543 -11.3026397068 -2.5000011921
3.2105225171 -11.2876396046 -2.5000011921
3.1972499646 -11.2726786996 -2.5000011921
3.1705723794 -11.2428750043 -2.5000011921
3.8246442110 -12.0528594332 -2.5000011921
3.0381553406 -11.0650617058 -2.5000011921
4.0752092274 -12.4181113361 -2.5000011921
4.0148408814 -12.3134137565 -2.5000011921
2.9710639889 -10.9619251261 -2.5000011921
2.7679887990 -10.7662920223 -2.5000011921
2.6945987937 -10.6670145582 -2.5000011921
-0.4178250507 -11.5719588567 -2.5000011921
-0.4445013327 -11.5644978403 -2.5000011921
-0.4712212896 -11.5571947803 -2.5000011921
-0.5247884859 -11.5430635467 -2.5000011921
-0.6729184622 -11.5074815846 -2.5000011921
-0.3844760197 -11.5563566212 -2.5000011921
-0.5187608854 -11.5196540761 -2.5000011921
-0.6676556633 -11.4838884028 -2.5000011921
-0.2439342388 -11.5740028193 -2.5000011921
-0.2572615764 -11.5697381733 -2.5000011921
-0.3106953319 -11.5530743909 -2.5000011921
-0.1964235698 -11.5640875255 -2.5000011921
-0.1888184044 -11.5411420087 -2.5000011921
-0.0871411930 -11.5504609025 -2.5000011921
-0.1005388579 -11.5457325373 -2.5000011921
-0.0119511704 -11.5520349209 -2.5000011921
-0.0253445081 -11.5470841231 -2.5000011921
0.1125535885 -11.5481517626 -2.5000011921
0.1886209508 -11.5530198717 -2.5000011921
0.1752296492 -11.5474757411 -2.5000011921
0.1483981375 -11.5365064424 -2.5000011921
0.2916326029 -11.5708105928 -2.5000011921
0.2515636158 -11.5533822923 -2.5000011921
0.3281293158 -11.5605607835 -2.5000011921
0.4049057520 -11.5690193305 -2.5000011921
0.3915608334 -11.5628353203 -2.5000011921
0.3514171352 -11.5445205269 -2.5000011921
0.4284930571 -11.5533555216 -2.5000011921
0.5057524740 -11.5634836869 -2.5000011921
0.4923907387 -11.5570013781 -2.5000011921
0.5431298572 -11.5548966223 -2.5000011921
0.5297425562 -11.5483037820 -2.5000011921
0.6074496715 -11.5601212773 -2.5000011921
0.6586029728 -11.5592639231 -2.5000011921
3.4384977838 -17.4468633867 -2.5000011921
3.4425273176 -17.4316797446 -2.5000011921
3.4465119179 -17.4164842488 -2.5000011921
3.4543461786 -17.3860582282 -2.5000011921
3.4694739891 -17.3250698008 -2.5000011921
3.4596560485 -14.7892162677 -2.5000011921
3.4558236890 -14.7739816639 -2.5000011921
3.4519462795 -14.7587584636 -2.5000011921
3.4359868266 -14.6979823599 -2.5000011921
3.4318846842 -14.6828181731 -2.5000011921
1.1003966490 -11.5602646520 -2.5000011921
3.4452106690 -17.5139877834 -2.5000011921
3.4536218162 -17.4835677550 -2.5000011921
3.4618528410 -17.4530984958 -2.5000011921
3.4593304540 -14.6917045941 -2.5000011921
3.4425770716 -14.6308458115 -2.5000011921
3.4339306287 -14.6004918241 -2.5000011921
3.4295401007 -14.5853341465 -2.5000011921
3.4374973369 -17.6270464821 -2.5000011921
3.4420598894 -17.6118650111 -2.5000011921
3.4465775123 -17.5966701096 -2.5000011921
3.4510501662 -17.5814619107 -2.5000011921
3.4482932910 -14.5633611287 -2.5000011921
3.4392474860 -14.5329745033 -2.5000011921
3.4346572063 -14.5178013929 -2.5000011921
3.4300220618 -14.5026419278 -2.5000011921
1.1661591554 -11.5443316009 -2.5000011921
3.4370459418 -17.7100808662 -2.5000011921
3.4418541269 -17.6949003671 -2.5000011921
3.4466173843 -17.6797057111 -2.5000011921
3.4513356724 -17.6644970309 -2.5000011921
3.4606371756 -17.6340381307 -2.5000011921
3.4340541170 -14.4347679720 -2.5000011921
3.4291733473 -14.4196106543 -2.5000011921
3.4301558535 -17.8085999174 -2.5000011921
3.4352555060 -17.7934393695 -2.5000011921
3.4453201568 -17.7630733482 -2.5000011921
3.4472241869 -14.3969565741 -2.5000011921
3.4422315066 -14.3817604623 -2.5000011921
3.4269840565 -14.3362616727 -2.5000011921
3.4530559740 -17.8163407031 -2.5000011921
3.4581784249 -17.8011123786 -2.5000011921
3.4446747365 -14.3132754249 -2.5000011921
3.4394345234 -14.2980872210 -2.5000011921
3.4341494038 -14.2829145850 -2.5000011921
3.4288194239 -14.2677576498 -2.5000011921
3.4234446304 -14.2526165479 -2.5000011921
1.3127418251 -11.5528314341 -2.5000011921
3.4386755890 -17.9307186675 -2.5000011921
3.4495523704 -17.9003300093 -2.5000011921
3.4297472107 -14.1989675809 -2.5000011921
3.4185458556 -14.1686970579 -2.5000011921
3.4390197725 -17.9997820020 -2.5000011921
3.4446849373 -17.9845943964 -2.5000011921
3.4503051497 -17.9693900988 -2.5000011921
3.4614105207 -17.9389319594 -2.5000011921
3.4723354968 -17.9084086499 -2.5000011921
3.4468395727 -14.1754349490 -2.5000011921
3.4354986916 -14.1450637137 -2.5000011921
3.4239783225 -14.1147601064 -2.5000011921
3.4288542027 -14.0605771153 -2.5000011921
3.4228665315 -14.0454368171 -2.5000011921
3.4270208790 -13.9910009055 -2.5000011921
3.4208273968 -13.9758663350 -2.5000011921
3.4178549280 -13.9060609368 -2.5000011921
3.4376332120 -18.2634129243 -2.5000011921
3.4336305080 -13.8814357645 -2.5000011921
3.4205504601 -13.8511478239 -2.5000011921
1.5959985530 -11.5734418570 -2.5000011921
3.4401816367 -18.3185260249 -2.5000011921
3.4421541356 -18.3738557825 -2.5000011921
1.6913327980 -11.5839485590 -2.5000011921
3.2476212154 -18.8170606211 -2.5000011921
3.2954722944 -18.7289555143 -2.5000011921
3.3188095410 -18.6845879438 -2.5000011921
3.3265010116 -18.6697529456 -2.5000011921
3.3341485640 -18.6548952595 -2.5000011921
3.3568270443 -18.6101873752 -2.5000011921
3.3642982582 -18.5952402398 -2.5000011921
3.3791078741 -18.5652799926 -2.5000011921
3.6262094825 -17.9807003972 -2.5000011921
3.1063482434 -19.1031292063 -2.5000011921
3.1241672156 -19.0746861891 -2.5000011921
3.1852019295 -18.9743159096 -2.5000011921
3.2022574188 -18.9454086220 -2.5000011921
3.2191415845 -18.9164009344 -2.5000011921
3.2441453097 -18.8727033748 -2.5000011921
3.2605985936 -18.8434491368 -2.5000011921
3.2929844938 -18.7846511946 -2.5000011921
3.6766597141 -17.9096387530 -2.5000011921
3.7134527217 -17.7980784379 -2.5000011921
3.0348032438 -19.2572288399 -2.5000011921
3.0535351732 -19.2292064100 -2.5000011921
3.3771672008 -18.6769573994 -2.5000011921
3.7805710719 -17.6602835568 -2.5000011921
3.7989208061 -17.5954158875 -2.5000011921
3.4400700018 -13.6037506696 -2.5000011921
3.8526085604 -17.4873497471 -2.5000011921
3.4320953056 -13.5324446457 -2.5000011921
3.4245453089 -13.5172970705 -2.5000011921
2.8974708969 -19.5333880939 -2.5000011921
3.9041655565 -17.3777087694 -2.5000011921
3.9117623987 -17.3445757948 -2.5000011921
3.4308653030 -13.4761262379 -2.5000011921
3.9672281566 -17.1996481986 -2.5000011921
3.9769672058 -17.1493793937 -2.5000011921
4.0069899771 -17.1201715187 -2.5000011921
4.0130613429 -17.0864347077 -2.5000011921
3.4346154684 -13.3781168127 -2.5000011921
3.4398806440 -13.3364448853 -2.5000011921
4.0931645237 -16.8900405578 -2.5000011921
3.4448314400 -13.2946165816 -2.5000011921
3.4577809930 -13.1682161413 -2.5000011921
3.4736459848 -13.0984778052 -2.5000011921
3.4636644142 -12.9393696218 -2.5000011921
3.4655852496 -12.8962316987 -2.5000011921
2.5694194997 -11.6006321003 -2.5000011921
3.4696895271 -12.5907027009 -2.5000011921
3.4753842196 -12.4288016354 -2.5000011921
3.4794766812 -12.3100729846 -2.5000011921
3.4715679591 -11.9028998997 -2.5000011921
3.4776691145 -11.7958382530 -2.5000011921
3.7466940737 -11.9403891788 -2.5000011921
3.6849154666 -11.8603977382 -2.5000011921
3.3450193852 -11.4596992463 -2.5000011921
3.2203163977 -11.3272411460 -2.5000011921
3.2062439368 -11.3127296998 -2.5000011921
4.0131299215 -12.2726172216 -2.5000011921
3.9562359518 -12.1886487516 -2.5000011921
3.9447084705 -12.1719565532 -2.5000011921
3.9331316610 -12.1552985283 -2.5000011921
3.9098304635 -12.1220855814 -2.5000011921
3.8507213720 -12.0396614159 -2.5000011921
3.7781909608 -11.9419198967 -2.5000011921
3.7288785262 -11.8774807101 -2.5000011921
3.7164315483 -11.8614624376 -2.5000011921
3.6661714273 -11.7977596496 -2.5000011921
3.0945513839 -11.1667085716 -2.5000011921
3.0800045889 -11.1525698634 -2.5000011921
3.0361141477 -11.1104127955 -2.5000011921
2.9621375950 -11.0410218927 -2.5000011921
2.9022224454 -10.9863016969 -2.5000011921
4.1001005968 -12.3614244415 -2.5000011921
4.0668978919 -12.3101669908 -2.5000011921
4.0445106071 -12.2761599275 -2.5000011921
3.9645789736 -12.1581907119 -2.5000011921
3.6850600744 -11.7826747468 -2.5000011921
2.9335105758 -10.9820178794 -2.5000011921
2.9032853509 -10.9547395610 -2.5000011921
2.8728992674 -10.9276405425 -2.5000011921
2.8576462358 -10.9141585674 -2.5000011921
2.7497677021 -10.8210563448 -2.5000011921
2.7185933906 -10.7948679280 -2.5000011921
2.6872646852 -10.7688644072 -2.5000011921
4.1424058639 -12.3828275575 -2.5000011921
3.1282987038 -11.1320897974 -2.5000011921
2.8736284560 -10.8960228591 -2.5000011921
2.7964987665 -10.8290586332 -2.5000011921
2.7183870870 -10.7632425101 -2.5000011921
2.6552021867 -10.7114259298 -2.5000011921
2.6393105057 -10.6985888881 -2.5000011921
4.3010312129 -12.5977465798 -2.5000011921
4.2594422224 -12.5270749926 -2.5000011921
4.2489145404 -12.5094843745 -2.5000011921
4.1185539257 -12.3008758467 -2.5000011921
2.5741682290 -10.6160629186 -2.5000011921
2.5417841808 -10.5909169949 -2.5000011921
4.4420637424 -12.8012573708 -2.5000011921
4.3929416465 -12.7108869791 -2.5000011921
4.3219366919 -12.5856100139 -2.5000011921
4.2802026324 -12.5146919130 -2.5000011921
2.6213972855 -10.6224393840 -2.5000011921
2.4581743449 -10.4972391077 -2.5000011921
2.4084926977 -10.4606262404 -2.5000011921
4.5394499307 -12.9364531390 -2.5000011921
4.5018519828 -12.8629367592 -2.5000011921
4.4536356091 -12.7716753296 -2.5000011921
2.3557710748 -10.3928072819 -2.5000011921
2.3389381723 -10.3808574057 -2.5000011921
4.5516862879 -12.9070894001 -2.5000011921
4.6196028535 -12.9891632017 -2.5000011921
2.2472332357 -10.2585764366 -2.5000011921
4.8030191428 -13.2720878847 -2.5000011921
4.7742305060 -13.1472745562 -2.5000011921
2.2530411536 -10.1750815049 -2.5000011921
4.7962489523 -13.1372984195 -2.5000011921
5.0556081023 -13.6479866059 -2.5000011921
-0.0983071926 -15.1182722354 -2.5000011921
3.4539412883 -15.0902494650 -2.5000011921
3.4463746961 -15.0610837064 -2.5000011921
3.4425267250 -15.0465177422 -2.5000011921
0.2367372215 -11.5595991363 -2.5000011921
0.1941168061 -11.5445573270 -2.5000011921
3.4499914625 -14.9818849542 -2.5000011921
3.4463565880 -17.8270374910 -2.5000011921
3.4480202801 -14.8877147474 -2.5000011921
3.4465410567 -17.9872982891 -2.5000011921
3.4435512516 -14.7128838061 -2.5000011921
0.5127208219 -11.5626492976 -2.5000011921
3.4446843258 -18.0679214414 -2.5000011921
3.4415472930 -14.6322641789 -2.5000011921
0.5788250218 -11.5643481225 -2.5000011921
3.4468015694 -18.1342800167 -2.5000011921
3.4483772047 -18.2678520242 -2.5000011921
3.4561616136 -14.4614950762 -2.5000011921
3.4391671204 -14.4177684088 -2.5000011921
0.7643646859 -11.5681882900 -2.5000011921
0.6504745019 -11.5164314049 -2.5000011921
3.4709114137 -18.2766010073 -2.5000011921
3.4558819328 -14.3943033897 -2.5000011921
3.3573526147 -18.6046738036 -2.5000011921
3.4426169659 -14.2976976282 -2.5000011921
3.4365107772 -14.2831461202 -2.5000011921
3.3463097163 -18.7935570773 -2.5000011921
3.4938754291 -14.1718034337 -2.5000011921
3.4271381438 -14.0256582720 -2.5000011921
3.4132379974 -13.8340461819 -2.5000011921
3.4097471342 -13.5738819015 -2.5000011921
1.4783960388 -11.5704568376 -2.5000011921
3.4023716073 -12.9725394832 -2.5000011921
3.8077301198 -11.9497351533 -2.5000011921
3.2802480647 -11.3844443172 -2.5000011921
3.2655246562 -11.3703858725 -2.5000011921
3.2507597247 -11.3563710438 -2.5000011921
3.1912873582 -11.3007503363 -2.5000011921
3.0243917069 -11.1514650144 -2.5000011921
4.0171575705 -12.1739692286 -2.5000011921
3.9420934219 -12.0770720867 -2.5000011921
3.8911003274 -12.0132207443 -2.5000011921
2.9624914623 -11.0669110582 -2.5000011921
4.3515652999 -12.5651850556 -2.5000011921
4.2833918469 -12.4622911645 -2.5000011921
2.4871831953 -10.6426428169 -2.5000011921
2.2556950987 -10.4314162234 -2.5000011921
4.6387138395 -12.8988333204 -2.5000011921
4.9429319295 -13.3294349646 -2.5000011921
3.4422498430 -17.9252059412 -2.5000011921
3.4539071215 -17.8837626138 -2.5000011921
3.4577110933 -17.8699253833 -2.5000011921
3.4614741153 -17.8560769605 -2.5000011921
3.4651961547 -17.8422174666 -2.5000011921
3.4437555159 -15.2619303888 -2.5000011921
3.4409533082 -18.0148341518 -2.5000011921
3.4615033582 -17.9457145435 -2.5000011921
3.4848106276 -17.8623811237 -2.5000011921
3.4508717823 -15.1999214930 -2.5000011921
3.4467364799 -15.1861049845 -2.5000011921
3.4425603238 -15.1723007695 -2.5000011921
3.4682849106 -18.0080263092 -2.5000011921
3.4528507932 -15.1237242121 -2.5000011921
3.4484900768 -15.1099021827 -2.5000011921
3.4396460755 -15.0822971257 -2.5000011921
3.4535930117 -15.0471656665 -2.5000011921
3.4397088506 -15.0057350081 -2.5000011921
3.4530882083 -14.9702658464 -2.5000011921
3.4434179911 -14.9426360291 -2.5000011921
3.4563286822 -14.9068763341 -2.5000011921
3.4411994242 -14.8654269225 -2.5000011921
-0.0171661548 -11.5431117664 -2.5000011921
-0.0620101549 -11.5326201333 -2.5000011921
-2.5843531851 -11.5834319121 -2.5000011921
-2.6582669897 -11.6041324069 -2.5000011921
0.1379130306 -11.5576136986 -2.5000011921
0.0782612948 -11.5418773590 -2.5000011921
-2.7389004589 -11.6027968262 -2.5000011921
0.1741101481 -11.5424474757 -2.5000011921
-2.8051232477 -11.5980549399 -2.5000011921
3.4488989057 -14.1672624771 -2.5000011921
-2.9012031941 -11.6040336994 -2.5000011921
3.4338302774 -14.0869962097 -2.5000011921
0.4264817448 -11.5682103345 -2.5000011921
0.3370779775 -11.5397475512 -2.5000011921
-2.9237306056 -11.5861375727 -2.5000011921
-2.9533108572 -11.5962943850 -2.5000011921
-2.9680783193 -11.6014383744 -2.5000011921
-2.9828305000 -11.6066260261 -2.5000011921
0.5084655576 -11.5702844702 -2.5000011921
0.4190856890 -11.5403662969 -2.5000011921
-3.0500058208 -11.6051169748 -2.5000011921
0.5610314771 -11.5630541432 -2.5000011921
-3.1027032040 -11.5989170297 -2.5000011921
-3.1322047157 -11.6101324802 -2.5000011921
3.4363124175 -13.9416782983 -2.5000011921
3.4284550678 -13.9279103644 -2.5000011921
0.6436154276 -11.5673116599 -2.5000011921
0.6287464912 -11.5618154177 -2.5000011921
0.6138613610 -11.5563631845 -2.5000011921
-3.1704294914 -11.5990040868 -2.5000011921
3.4414983105 -13.9020910574 -2.5000011921
0.7116089042 -11.5671757544 -2.5000011921
-3.2088525087 -11.5881544383 -2.5000011921
-3.3361304887 -11.6143272146 -2.5000011921
0.9171202075 -11.5722457696 -2.5000011921
0.9712484403 -11.5692724137 -2.5000011921
0.9415002401 -11.5563855171 -2.5000011921
1.0404493986 -11.5735364364 -2.5000011921
1.0950179358 -11.5718625736 -2.5000011921
1.1404429315 -11.5129854997 -2.5000011921
1.3856826196 -11.5798810936 -2.5000011921
1.3708476190 -11.5721896274 -2.5000011921
1.4413981851 -11.5818745116 -2.5000011921
3.4128693451 -13.2776271841 -2.5000011921
1.6806527811 -11.6044026496 -2.5000011921
1.8484422868 -11.5920878162 -2.5000011921
3.4027361444 -12.9422733612 -2.5000011921
3.3877523530 -12.6573318218 -2.5000011921
2.9411355909 -11.6055650171 -2.5000011921
3.7502447006 -11.8681975842 -2.5000011921
3.7222164051 -11.8388639806 -2.5000011921
3.7081372994 -11.8242594918 -2.5000011921
3.6798497883 -11.7951757788 -2.5000011921
3.6656416304 -11.7806968091 -2.5000011921
3.6227610404 -11.7375129672 -2.5000011921
3.2509133100 -11.3928284064 -2.5000011921
3.1890938292 -11.3402691373 -2.5000011921
3.8921679248 -11.9860541843 -2.5000011921
3.8785234908 -11.9709463041 -2.5000011921
3.8373228754 -11.9258657633 -2.5000011921
3.7817694880 -11.8663305079 -2.5000011921
3.5672695733 -11.6490317574 -2.5000011921
3.5232244036 -11.6067260971 -2.5000011921
3.2046424185 -11.3217603109 -2.5000011921
3.1262251676 -11.2568679455 -2.5000011921
3.1104270202 -11.2440290530 -2.5000011921
3.0628056685 -11.2057935625 -2.5000011921
2.9826887392 -11.1430117023 -2.5000011921
4.0970554173 -12.1863170884 -2.5000011921
4.0180437624 -12.0926109473 -2.5000011921
4.0047139918 -12.0771302373 -2.5000011921
3.9101315602 -11.9698787992 -2.5000011921
3.5840919500 -11.6316725257 -2.5000011921
2.9812666785 -11.1114175990 -2.5000011921
2.8504265434 -11.0134937378 -2.5000011921
2.8339096577 -11.0014717724 -2.5000011921
4.2940981648 -12.3956752354 -2.5000011921
4.2060494269 -12.2823635694 -2.5000011921
4.1675995675 -12.2343641564 -2.5000011921
3.9417904204 -11.9689580117 -2.5000011921
2.6973486396 -10.8755514799 -2.5000011921
2.6804243655 -10.8639829501 -2.5000011921
