33.4216648335 -31.3993912477 -2.5000025504
33.4353373348 -31.3685820857 -2.5000025504
33.4580444070 -26.8297687974 -2.5000025504
33.4437307652 -31.4092619084 -2.5000025562
33.4532405613 -26.7581792179 -2.5000025562
33.4160943692 -31.5272258752 -2.5000025619
33.4233315870 -31.5118473247 -2.5000025619
33.4447698438 -31.4655841623 -2.5000025619
33.4615014012 -26.7173535114 -2.5000025619
33.4084246440 -31.5991073061 -2.5000025677
33.4158745337 -31.5837511296 -2.5000025677
33.4306378713 -31.5529729983 -2.5000025677
33.4623487497 -26.6608341810 -2.5000025677
33.4479856440 -26.6298672519 -2.5000025677
33.4226310736 -31.6250889564 -2.5000025735
33.5735465475 -26.8548741037 -2.5000025735
33.4626039357 -26.6041150803 -2.5000025735
33.3950225296 -26.4654577545 -2.5000025735
33.3872862140 -26.4501636857 -2.5000025735
33.3716780246 -26.4196445389 -2.5000025735
33.3479278724 -26.3740402967 -2.5000025735
33.3399213335 -26.3588859424 -2.5000025735
33.3237739433 -26.3286486196 -2.5000025735
33.3156332333 -26.3135659156 -2.5000025735
33.2992181397 -26.2834730825 -2.5000025735
33.2658552772 -26.2235813979 -2.5000025735
33.2317860841 -26.1640886710 -2.5000025735
33.7457637962 -27.2488374645 -2.5000025792
33.7348745552 -27.2161834658 -2.5000025792
33.7293575351 -27.1998807685 -2.5000025792
33.7010503818 -27.1186160055 -2.5000025792
33.6952448875 -27.1024137932 -2.5000025792
33.6654998914 -27.0216642307 -2.5000025792
33.3120961931 -26.2567621157 -2.5000025792
33.2265704750 -26.1074143403 -2.5000025792
33.1821603177 -26.0337054904 -2.5000025792
33.1274363722 -25.9461339551 -2.5000025792
33.8105102507 -27.3730466122 -2.5000025850
33.7900039349 -27.3070288050 -2.5000025850
33.7794581991 -27.2741120483 -2.5000025850
33.2822519186 -26.1547746486 -2.5000025850
33.1570882432 -25.9477302002 -2.5000025850
33.4170823563 -31.7963172699 -2.5000025908
33.4251155908 -31.7809346194 -2.5000025908
33.8534426134 -27.4325426668 -2.5000025908
33.8436383495 -27.3992483889 -2.5000025908
33.4140202691 -31.8537327791 -2.5000025965
33.4231014666 -31.9383083447 -2.5000026080
33.4098681763 -32.0115727279 -2.5000026138
33.4254411866 -32.0817013603 -2.5000026253
33.4193554237 -32.1400523258 -2.5000026311
33.4258970256 -32.2697827844 -2.5000026484
33.4353308181 -32.2543719869 -2.5000026484
33.4369783084 -32.2978776533 -2.5000026542
33.4402236118 -32.4731801058 -2.5000026772
33.4602486838 -32.4422423507 -2.5000026772
33.4591218188 -32.6194846093 -2.5000027003
33.4861402195 -32.9171869756 -2.5000027464
33.4740648353 -33.3291676772 -2.5000028040
33.1248899276 -33.7971455321 -2.5000028155
33.1388432525 -33.7826184851 -2.5000028155
33.1666206763 -33.7534408800 -2.5000028155
33.1804445323 -33.7387905772 -2.5000028155
33.1942249895 -33.7240994451 -2.5000028155
33.2079619274 -33.7093676121 -2.5000028155
33.2216552258 -33.6945952072 -2.5000028155
33.2353047648 -33.6797823597 -2.5000028155
33.2624720873 -33.6500358558 -2.5000028155
33.7204172085 -33.0882383511 -2.5000028155
33.7322708520 -33.0719527286 -2.5000028155
33.7558333525 -33.0392766443 -2.5000028155
33.7908135943 -32.9900025672 -2.5000028155
33.8367710897 -32.9238245991 -2.5000028155
32.9563878683 -33.9996172987 -2.5000028213
32.9854523232 -33.9715153631 -2.5000028213
33.0858579849 -33.8718148249 -2.5000028213
33.1000323657 -33.8574029148 -2.5000028213
33.7989338913 -33.0204256965 -2.5000028213
33.8567072371 -32.9374951993 -2.5000028213
33.8907802533 -32.8873299310 -2.5000028213
33.9020388279 -32.8705412228 -2.5000028213
33.9355158801 -32.8199762987 -2.5000028213
33.9685428787 -32.7691162756 -2.5000028213
32.7795435409 -34.1960921286 -2.5000028270
32.8398428433 -34.1417955440 -2.5000028270
32.8697505123 -34.1143806396 -2.5000028270
33.3926217609 -33.5764176022 -2.5000028270
33.9888746465 -32.7821912326 -2.5000028270
34.0537969681 -32.6792390239 -2.5000028270
32.6102681709 -34.3732661751 -2.5000028328
32.7803839857 -34.2276609716 -2.5000028328
34.0956658862 -32.6572577361 -2.5000028328
34.1583540449 -32.5524298557 -2.5000028328
34.1889979438 -32.4996028046 -2.5000028328
34.2091662365 -32.4642345866 -2.5000028328
32.4985911456 -34.4946223131 -2.5000028386
34.1997630340 -32.5293403642 -2.5000028386
34.2993763700 -32.3509932672 -2.5000028386
32.3999923828 -34.6013130091 -2.5000028443
34.3010845161 -32.3984969283 -2.5000028443
34.3591477859 -32.2900639991 -2.5000028443
32.4309614657 -34.6081671363 -2.5000028501
34.3709816569 -32.3194922620 -2.5000028501
34.4552246526 -32.1546279815 -2.5000028501
34.4823265927 -32.0991820351 -2.5000028501
32.0754280077 -34.8903872287 -2.5000028559
32.8598876387 -34.2863872448 -2.5000028559
32.1232484202 -34.8875536879 -2.5000028616
32.3439138101 -34.7332280278 -2.5000028616
34.5961962498 -31.9701749982 -2.5000028616
31.8384755147 -35.0970808323 -2.5000028674
32.3916768129 -34.7281915035 -2.5000028674
34.6437507561 -31.9232906140 -2.5000028674
32.2019914564 -34.8925982983 -2.5000028732
29.2919366926 -33.4431564836 -2.4999966617
29.3108690333 -33.4627225050 -2.4999966358
29.3228936840 -33.4590847084 -2.4999966358
29.4382634129 -33.4476800566 -2.4999966098
29.4741663083 -33.4355300722 -2.4999966098
29.4940276984 -33.4542488202 -2.4999965839
29.5981205667 -33.4424666936 -2.4999965579
30.2709663532 -33.4278256123 -2.4999962727
30.7413062755 -33.4277907337 -2.4999960133
33.4298875717 -30.9930926547 -2.4999952093
33.4287375195 -31.0792041603 -2.4999951834
33.4386022425 -31.0475720346 -2.4999951834
33.4595597197 -27.8139963046 -2.4999951834
33.4277454655 -31.2365559248 -2.4999951315
33.4331666998 -31.2207494036 -2.4999951315
33.4458906033 -27.6090276029 -2.4999951315
33.4451080272 -31.2602900259 -2.4999951056
33.4418602881 -27.4504985749 -2.4999950797
33.4327948813 -31.4351807686 -2.4999950537
33.4436619514 -31.6044031642 -2.4999949759
33.4396145690 -27.1778697816 -2.4999949759
33.4594266353 -31.6295187918 -2.4999949500
33.4368080716 -27.0480881838 -2.4999949241
33.4449002918 -27.0066331479 -2.4999948981
33.4646838684 -31.8590424833 -2.4999948462
33.4417301338 -26.7172478814 -2.4999947684
33.4603074236 -32.0917027825 -2.4999947425
33.4526368981 -26.6319367172 -2.4999947166
33.3457221388 -26.3846410068 -2.4999946906
33.2822414445 -26.2764034389 -2.4999946906
33.2543519124 -26.2304227007 -2.4999946906
33.2355326679 -26.1999071606 -2.4999946906
33.7546141272 -27.1836908474 -2.4999946647
33.0984589011 -25.9461922153 -2.4999946647
33.8280982743 -27.3101664168 -2.4999946388
33.0665924913 -25.8584502592 -2.4999946388
33.0008568167 -25.7271483562 -2.4999946128
34.0130602376 -27.7269441107 -2.4999945869
33.4728026019 -32.5736003403 -2.4999944832
33.2962250100 -33.5911194901 -2.4999940163
33.1623332906 -33.7891715522 -2.4999939904
33.2395041124 -33.6984041956 -2.4999939904
33.6786396493 -33.1098435625 -2.4999939904
33.7221917504 -33.0434223866 -2.4999939904
33.7755216765 -32.9596788712 -2.4999939904
33.7860386984 -32.9428360257 -2.4999939904
32.8970683370 -34.1126998712 -2.4999939645
32.9248895444 -34.0841601878 -2.4999939645
32.9387367073 -34.0698287458 -2.4999939645
32.9663035455 -34.0410432886 -2.4999939645
33.9685717384 -32.6810179173 -2.4999939645
32.7722077974 -34.2703298866 -2.4999939385
32.8009637822 -34.2425261612 -2.4999939385
34.0566729586 -32.5698818450 -2.4999939385
32.6273211794 -34.4381384358 -2.4999939126
34.1426845211 -32.4565010173 -2.4999939126
34.1696060051 -32.4026409658 -2.4999939126
32.2879333867 -34.7856338125 -2.4999938607
32.0366070144 -35.0610593562 -2.4999937829
32.5854660756 -34.6358688400 -2.4999937829
28.9247864729 -33.4379895442 -2.4999989201
29.0184464735 -33.4386624883 -2.4999989057
29.0358069420 -33.4589730897 -2.4999988913
29.1016974283 -33.4402039823 -2.4999988913
29.1235856133 -33.4336880929 -2.4999988913
29.3213839799 -33.4453000328 -2.4999988481
29.3404672431 -33.4641767142 -2.4999988337
29.3844716209 -33.4481886379 -2.4999988337
29.8354486619 -33.4381741347 -2.4999987328
29.9009923216 -33.4323114360 -2.4999987184
29.9449058091 -33.4368193490 -2.4999987040
33.4401421237 -29.9010779439 -2.4999979548
33.4425764639 -29.7565016483 -2.4999979548
33.4425324596 -29.7083014735 -2.4999979548
33.4418084073 -29.6440387898 -2.4999979548
33.4609013452 -31.3138205376 -2.4999978107
33.4437208444 -28.1026777725 -2.4999978107
33.4290000360 -28.0545325673 -2.4999978107
33.4551617344 -31.4174209474 -2.4999977963
33.4368730123 -27.9991447091 -2.4999977963
33.4317073179 -27.9831025252 -2.4999977963
33.4579134714 -31.4891187351 -2.4999977819
33.4441877852 -27.9434851605 -2.4999977819
33.4388574078 -27.9274215817 -2.4999977819
33.4650986288 -31.5449904585 -2.4999977675
33.4457542198 -27.7991873868 -2.4999977531
33.4663152870 -31.6898307497 -2.4999977387
33.4331198268 -27.6945181700 -2.4999977387
33.4773788744 -31.7303507281 -2.4999977243
33.4310866094 -27.6217177214 -2.4999977243
33.4760251873 -31.8034369067 -2.4999977098
33.4673514120 -31.8929182777 -2.4999976954
33.4704095323 -31.9503339984 -2.4999976810
33.4525110403 -32.0563519514 -2.4999976666
33.4413545722 -27.3923635577 -2.4999976666
33.4538696743 -32.1142226800 -2.4999976522
33.4502209239 -27.2342089663 -2.4999976234
33.4277926860 -27.1860402756 -2.4999976234
33.4573389840 -32.4494587872 -2.4999975658
33.4653380340 -32.4333365893 -2.4999975658
33.4291552780 -26.8646830044 -2.4999975369
33.4550807446 -32.7148353768 -2.4999974937
33.6880286959 -27.0016458287 -2.4999974361
33.3650803693 -26.4137462429 -2.4999974361
33.2541147607 -26.2413246365 -2.4999974361
33.2018335689 -26.1641639737 -2.4999974361
33.1912406981 -26.1488251078 -2.4999974361
33.8406469768 -27.2810748685 -2.4999974217
33.0687693025 -25.9378063679 -2.4999974217
33.0120192319 -25.8634202360 -2.4999974217
33.9400443531 -27.4633717260 -2.4999974073
34.0986652351 -27.7672481552 -2.4999973785
32.7278246136 -25.4139680997 -2.4999973785
34.1613006883 -27.8867486780 -2.4999973640
32.8594919832 -25.5252022730 -2.4999973640
33.4532554388 -33.2826561832 -2.4999973208
33.2692288907 -33.6725159323 -2.4999972776
33.0205486936 -34.0218416983 -2.4999972632
33.0833699051 -33.9472845057 -2.4999972632
33.7276755307 -33.0194971612 -2.4999972632
33.8222520934 -32.8489852477 -2.4999972632
33.8586634879 -32.7800096780 -2.4999972632
33.8765624868 -32.7453615343 -2.4999972632
34.5034212572 -28.5964154354 -2.4999972632
32.8164007788 -34.2848449809 -2.4999972488
33.9507269000 -32.6514378243 -2.4999972488
33.9931775621 -32.5632728364 -2.4999972488
32.8608761809 -34.2728485226 -2.4999972344
32.9142026893 -34.2151487203 -2.4999972344
34.0804679273 -32.4307363927 -2.4999972344
32.6151324930 -34.5555925805 -2.4999972200
32.6577103122 -34.5145465252 -2.4999972200
32.6175069860 -34.5867171163 -2.4999972056
34.2461719961 -32.1580663218 -2.4999972056
32.8557500578 -34.4878838616 -2.4999971479
32.1961335780 -35.1393704469 -2.4999971191
33.4584679197 -31.3221398025 -2.5000018597
33.4797667580 -28.8358427426 -2.5000018626
33.4645824428 -28.7710430009 -2.5000018626
33.4526916101 -28.7225635834 -2.5000018626
33.4486324499 -28.7064274634 -2.5000018626
33.4621642307 -31.5113991950 -2.5000018655
33.4509652574 -28.6196530675 -2.5000018655
33.4426285297 -28.5002568215 -2.5000018684
33.4340850350 -28.3088695514 -2.5000018741
33.4403544357 -28.0353002188 -2.5000018857
33.4540589138 -32.5476320443 -2.5000019058
33.3151617466 -33.6423698452 -2.5000019548
32.9377902760 -34.1885186138 -2.5000019577
32.9073259057 -34.2623636569 -2.5000019606
33.6977148166 -26.9764462808 -2.5000019663
33.2116562262 -26.2162648268 -2.5000019663
32.9548436458 -25.8549331423 -2.5000019692
30.4616612304 -33.4093326382 -2.5000021066
29.2710614970 -26.5709441429 -2.5000021585
29.4236591136 -26.5715002306 -2.5000021700
29.4891081158 -26.5697303960 -2.5000021758
29.4662242084 -26.5612329844 -2.5000021758
29.3741978848 -26.5286016169 -2.5000021758
29.5176283625 -26.5288078796 -2.5000021873
29.8875592213 -26.5551968988 -2.5000022161
29.8760788157 -26.5497526424 -2.5000022161
30.3222814082 -26.5675251552 -2.5000022622
30.2878844151 -26.5474359872 -2.5000022622
30.3699261688 -26.5395943712 -2.5000022738
30.4628841423 -26.5681577828 -2.5000022795
30.6662998019 -26.5564491323 -2.5000023084
30.7993721169 -26.5605768751 -2.5000023256
30.8363750773 -26.5573545585 -2.5000023314
33.4524160130 -31.8779361524 -2.5000025274
33.4608678690 -31.8458975777 -2.5000025274
33.4624587800 -29.0269539606 -2.5000025274
33.4582746371 -29.0109236898 -2.5000025274
33.4537186893 -31.9643887469 -2.5000025331
33.4731078014 -28.9726228353 -2.5000025331
33.4687628907 -28.9565613005 -2.5000025331
33.4554433492 -28.9084547974 -2.5000025331
33.4536426934 -32.0511944609 -2.5000025389
33.4621703321 -32.1062896271 -2.5000025446
33.4545930910 -32.2097718645 -2.5000025504
33.4618078771 -28.6790996465 -2.5000025504
33.4689578678 -28.6234186903 -2.5000025562
33.4509041697 -32.3695358640 -2.5000025619
33.4566080392 -32.3535251485 -2.5000025619
33.4382996163 -32.4737880803 -2.5000025677
33.4642924023 -28.4630664425 -2.5000025677
33.4465935468 -28.4150190457 -2.5000025677
33.4425137235 -32.5303509905 -2.5000025735
33.4609105943 -32.4823367032 -2.5000025735
33.4333100823 -32.6190872141 -2.5000025792
33.4485747626 -28.2856866897 -2.5000025792
33.4421978779 -28.2697007336 -2.5000025792
33.4646371633 -28.2607110868 -2.5000025850
33.4516880872 -28.2286635153 -2.5000025850
33.4451425040 -28.2126685989 -2.5000025850
33.4466225534 -32.7748915828 -2.5000025965
33.4492620551 -28.0979444682 -2.5000025965
33.4547986613 -32.8165695308 -2.5000026023
33.4433267420 -28.0242740952 -2.5000026023
33.4360233518 -27.8923381386 -2.5000026138
33.4474195568 -33.0068114460 -2.5000026196
33.4412779334 -27.7915816577 -2.5000026253
33.4361880593 -33.1398748924 -2.5000026311
33.4521062527 -33.1079102418 -2.5000026311
33.4416229010 -33.1827121719 -2.5000026369
33.4577944391 -33.1507146172 -2.5000026369
33.4365840582 -27.6741465405 -2.5000026369
33.4549755444 -33.2097059729 -2.5000026426
33.4498872952 -27.6471283566 -2.5000026426
33.4598987358 -33.2528439234 -2.5000026484
33.4378972237 -27.5720039987 -2.5000026484
33.4474682094 -33.3281716023 -2.5000026542
33.4507322132 -27.5446657557 -2.5000026542
33.4373598769 -27.4692239393 -2.5000026599
33.2300200127 -33.7917842127 -2.5000026657
33.2596197634 -33.7456060144 -2.5000026657
33.3175840526 -33.6524706870 -2.5000026657
33.3365370106 -33.6211987662 -2.5000026657
33.3459440258 -33.6055208930 -2.5000026657
33.3553046218 -33.5898152607 -2.5000026657
33.3738862292 -33.5583212689 -2.5000026657
33.6220291010 -33.0899316309 -2.5000026657
33.6453848671 -33.0403022098 -2.5000026657
33.4319249689 -27.4096286244 -2.5000026657
33.1273724628 -33.9876629157 -2.5000026714
33.1378644604 -33.9726021855 -2.5000026714
33.1483118597 -33.9575104841 -2.5000026714
33.6750197385 -33.0338442885 -2.5000026714
33.6903064393 -33.0004684852 -2.5000026714
33.7637635343 -32.8322650861 -2.5000026714
33.7848270730 -32.7813879980 -2.5000026714
33.4349535213 -27.3658388940 -2.5000026714
32.8695901967 -34.3690079748 -2.5000026772
32.9613683883 -34.2536555410 -2.5000026772
32.9726479665 -34.2390847171 -2.5000026772
33.0173337731 -34.1804696683 -2.5000026772
33.1259868303 -34.0316548799 -2.5000026772
33.8210473602 -32.7563819249 -2.5000026772
33.8613662917 -32.6534380940 -2.5000026772
33.4468325217 -27.3378845603 -2.5000026772
32.7450524699 -34.5538126164 -2.5000026830
32.8883269832 -34.3842810922 -2.5000026830
33.9653183288 -32.4357782163 -2.5000026830
33.9712159044 -32.4182454809 -2.5000026830
33.4306602196 -27.2618818013 -2.5000026830
34.0341200478 -32.3022352982 -2.5000026887
34.0504692233 -32.2489798195 -2.5000026887
33.4325627227 -27.2176696238 -2.5000026887
34.1199900153 -32.0947454072 -2.5000026945
33.4263219117 -27.0683000044 -2.5000027060
33.4163438743 -27.0523852029 -2.5000027060
33.4154387648 -26.8727376241 -2.5000027291
33.4143507471 -26.8275349497 -2.5000027348
33.4129152671 -26.7822209871 -2.5000027406
33.4220425962 -26.7526990312 -2.5000027464
33.6618825473 -26.8979344318 -2.5000027752
33.2905417726 -26.3669673159 -2.5000027752
33.2663917193 -26.3359828948 -2.5000027752
33.2175437898 -26.2744453984 -2.5000027752
33.1928476234 -26.2438944772 -2.5000027752
33.8535786009 -27.1731073199 -2.5000027809
33.7947994506 -27.0704655477 -2.5000027809
33.7848262071 -27.0534607135 -2.5000027809
33.7748027038 -27.0364854564 -2.5000027809
33.0461202914 -26.0329735542 -2.5000027809
33.0199984966 -26.0034410581 -2.5000027809
32.9672330266 -25.9448422808 -2.5000027809
33.9318160402 -27.2653261244 -2.5000027867
33.0116660544 -25.9578882214 -2.5000027867
32.7664269956 -25.6997038281 -2.5000027867
34.1223809051 -27.5909915161 -2.5000027925
34.1858034238 -27.6713312581 -2.5000027982
32.2814985138 -25.1364097192 -2.5000028098
34.5139446107 -28.1680259496 -2.5000028270
34.5300072435 -28.1408360614 -2.5000028328
34.6660129354 -28.4825937796 -2.5000028386
34.5729594640 -28.1906586392 -2.5000028386
34.7872889516 -28.5548486693 -2.5000028616
30.2199029317 -29.7977031720 -2.5000011921
28.6844746675 -26.5786624130 -2.5000011921
28.8243093791 -26.5745214844 -2.5000011921
28.8119046300 -26.5725345296 -2.5000011921
28.7870777700 -26.5686707496 -2.5000011921
28.7746558764 -26.5667939582 -2.5000011921
28.7497957051 -26.5631506548 -2.5000011921
28.7373576451 -26.5613841746 -2.5000011921
28.6750919564 -26.5531040982 -2.5000011921
28.9897649976 -26.5799865309 -2.5000011921
28.8406372973 -26.5526935549 -2.5000011921
29.0691350324 -26.5720050758 -2.5000011921
29.2110824841 -26.5808182115 -2.5000011921
29.1738915244 -26.5715348344 -2.5000011921
29.1490524145 -26.5655294358 -2.5000011921
28.9491493914 -26.5227970404 -2.5000011921
29.3163515150 -26.5839039505 -2.5000011921
29.2792447663 -26.5236435724 -2.5000011921
29.2415437296 -26.5137575447 -2.5000011921
29.5481615608 -26.5792331470 -2.5000011921
29.4558038116 -26.5241380540 -2.5000011921
29.7089060909 -26.5590709865 -2.5000011921
29.7921566804 -26.5649566823 -2.5000011921
29.8973677882 -26.5552919413 -2.5000011921
29.9566219941 -26.5540952064 -2.5000011921
29.9191645244 -26.5381966367 -2.5000011921
30.0883893627 -26.5598813056 -2.5000011921
30.0634653014 -26.5484656346 -2.5000011921
30.1235061703 -26.5495569592 -2.5000011921
30.2211173379 -26.5697280139 -2.5000011921
30.5375079778 -26.5737533612 -2.5000011921
30.5743724694 -26.5670455597 -2.5000011921
30.5494822887 -26.5527545241 -2.5000011921
30.6610372918 -26.5619224095 -2.5000011921
33.4235563497 -32.2428310544 -2.5000011921
33.4364466964 -32.1959413726 -2.5000011921
33.4489204158 -32.1489391426 -2.5000011921
33.4545258377 -29.4065277927 -2.5000011921
33.4504784163 -29.3908314289 -2.5000011921
33.4463845800 -29.3751471069 -2.5000011921
33.4422443645 -29.3594749637 -2.5000011921
33.4338249414 -29.3281677627 -2.5000011921
33.4243301763 -32.3275749965 -2.5000011921
33.4379725474 -32.2806751104 -2.5000011921
33.4424274461 -32.2650151386 -2.5000011921
33.4511981712 -32.2336560026 -2.5000011921
33.4396793850 -29.2590831768 -2.5000011921
33.4351958607 -29.2434313767 -2.5000011921
33.4428507187 -32.3501043080 -2.5000011921
33.4612132692 -32.2873237292 -2.5000011921
33.4492785412 -29.2053394956 -2.5000011921
33.4352118414 -29.1583411560 -2.5000011921
33.4268937177 -32.4824609601 -2.5000011921
33.4319455838 -32.4668328787 -2.5000011921
33.4419105139 -32.4355322248 -2.5000011921
33.4468234907 -32.4198599262 -2.5000011921
33.4516900844 -32.4041731628 -2.5000011921
33.4630948059 -29.1670278918 -2.5000011921
33.4486875680 -29.1199084492 -2.5000011921
33.4437923003 -29.1042306102 -2.5000011921
33.4395969268 -32.5212770962 -2.5000011921
33.4498838333 -32.4899302215 -2.5000011921
33.4568831962 -29.0655435014 -2.5000011921
33.4518270713 -29.0498416561 -2.5000011921
33.4304329395 -32.6229560767 -2.5000011921
33.4697009399 -29.0266435520 -2.5000011921
33.4487368791 -28.9637779313 -2.5000011921
33.4250889616 -32.7092531796 -2.5000011921
33.4364882516 -32.6779888490 -2.5000011921
33.4421184827 -32.6623315296 -2.5000011921
33.4477023719 -32.6466576235 -2.5000011921
33.4608157554 -28.9245213527 -2.5000011921
33.4553424443 -28.9088084912 -2.5000011921
33.4726149206 -28.8850590110 -2.5000011921
33.4613881618 -28.8535804307 -2.5000011921
33.4557049921 -28.8378661863 -2.5000011921
33.4409032558 -32.8044786833 -2.5000011921
33.4610226507 -28.7823691551 -2.5000011921
33.4512637715 -32.8445825004 -2.5000011921
33.4319651035 -33.0195324126 -2.5000011921
33.4671573644 -28.5986780486 -2.5000011921
33.4765677249 -28.5579822511 -2.5000011921
33.4491886675 -33.1013955020 -2.5000011921
33.4629075814 -33.0699817263 -2.5000011921
33.4808512473 -28.4444310872 -2.5000011921
33.4670174417 -28.4129114897 -2.5000011921
33.4288773181 -33.2623813018 -2.5000011921
33.4270950933 -33.3771655365 -2.5000011921
33.4347936566 -33.3615329446 -2.5000011921
33.3017555297 -33.6663644786 -2.5000011921
33.1885884842 -33.9049644732 -2.5000011921
33.2253666624 -33.8450835937 -2.5000011921
33.2524839060 -33.7998896397 -2.5000011921
33.2967846298 -33.7240373256 -2.5000011921
33.3314144196 -33.6628888850 -2.5000011921
33.6437075417 -33.0142910280 -2.5000011921
33.6763461649 -32.9327382969 -2.5000011921
33.0241150623 -34.1971627206 -2.5000011921
33.1619553893 -33.9922716774 -2.5000011921
33.1714747079 -33.9774207254 -2.5000011921
33.3781186631 -33.6283607249 -2.5000011921
33.3949565241 -33.5973582004 -2.5000011921
33.4033065977 -33.5818197168 -2.5000011921
33.7179346831 -32.8921935641 -2.5000011921
33.7547773835 -32.7929746910 -2.5000011921
33.7725369033 -32.7431239444 -2.5000011921
33.7783583453 -32.7264722474 -2.5000011921
32.9078490036 -34.3968141010 -2.5000011921
32.9504666286 -34.3402206290 -2.5000011921
33.8407157994 -32.6169076638 -2.5000011921
33.8622074382 -32.5494006827 -2.5000011921
33.4740510082 -27.9822962867 -2.5000011921
32.8247049236 -34.5803482462 -2.5000011921
33.9823971622 -32.3064362630 -2.5000011921
33.9869258849 -32.2891656720 -2.5000011921
33.9958299630 -32.2545846778 -2.5000011921
34.0322812388 -32.2083660946 -2.5000011921
33.4833079566 -27.8965522800 -2.5000011921
32.8163642975 -34.6664243572 -2.5000011921
34.0642192523 -32.1791293345 -2.5000011921
32.3136111143 -35.2327581963 -2.5000011921
34.1447772720 -31.9197991919 -2.5000011921
33.4736894523 -27.7786323655 -2.5000011921
33.4779443887 -27.1429245054 -2.5000011921
33.4564104838 -27.1114448844 -2.5000011921
33.7265713642 -26.9497440531 -2.5000011921
33.6346826889 -26.8187684362 -2.5000011921
33.2892210300 -26.3782359666 -2.5000011921
33.2237486086 -26.3026521046 -2.5000011921
33.1839310675 -26.2577695204 -2.5000011921
33.1571654342 -26.2280448726 -2.5000011921
33.1302244084 -26.1984790995 -2.5000011921
33.6776512633 -26.8373078880 -2.5000011921
33.1208313557 -26.1526339228 -2.5000011921
33.1071597878 -26.1379389249 -2.5000011921
33.0381531948 -26.0650741036 -2.5000011921
32.9255231005 -25.9506364337 -2.5000011921
32.9112548421 -25.9365200768 -2.5000011921
33.9526217069 -27.2098164939 -2.5000011921
32.9282306017 -25.9193108098 -2.5000011921
32.8560099863 -25.8491163347 -2.5000011921
32.7974909094 -25.7937346367 -2.5000011921
34.1160333205 -27.4414953597 -2.5000011921
34.0560733477 -27.3360695074 -2.5000011921
34.0253940305 -27.2837598135 -2.5000011921
33.0307916286 -25.9880373952 -2.5000011921
32.7396759671 -25.7075902343 -2.5000011921
32.6794904317 -25.6535949621 -2.5000011921
34.1665303970 -27.4830274488 -2.5000011921
34.1272527711 -27.4120246807 -2.5000011921
32.7408852251 -25.6760793681 -2.5000011921
32.6498089344 -25.5953379636 -2.5000011921
32.5728270902 -25.5292968899 -2.5000011921
32.4634294890 -25.4387675447 -2.5000011921
34.3369038731 -27.7609771959 -2.5000011921
34.3279847547 -27.7426777983 -2.5000011921
32.5728625570 -25.4977168814 -2.5000011921
32.3990904723 -25.3564953238 -2.5000011921
34.4112073131 -27.8611491889 -2.5000011921
32.6352749082 -25.4871643409 -2.5000011921
32.1997157785 -25.1458483872 -2.5000011921
34.6319445323 -28.1908978889 -2.5000011921
34.6010101765 -28.1143385693 -2.5000011921
34.4057404042 -27.6816559582 -2.5000011921
29.4958478747 -26.5734118880 -2.5000011921
29.4825199614 -26.5699170098 -2.5000011921
29.4558334110 -26.5630456086 -2.5000011921
29.4291066741 -26.5563322143 -2.5000011921
29.5554965215 -26.5644863962 -2.5000011921
29.4752093684 -26.5430521026 -2.5000011921
29.4214787148 -26.5295556902 -2.5000011921
29.6155218345 -26.5563451771 -2.5000011921
29.6759135668 -26.5489958838 -2.5000011921
29.8169180715 -26.5685207219 -2.5000011921
29.7768475581 -26.5553053173 -2.5000011921
29.6963625922 -26.5299438919 -2.5000011921
29.8781036961 -26.5638629051 -2.5000011921
29.8513744042 -26.5546512037 -2.5000011921
29.8379894378 -26.5501046958 -2.5000011921
29.8245910806 -26.5455978029 -2.5000011921
29.9128566612 -26.5504494584 -2.5000011921
30.1393146842 -26.5588973449 -2.5000011921
30.1259410188 -26.5534990391 -2.5000011921
30.1125514427 -26.5481403185 -2.5000011921
30.0857250275 -26.5375418206 -2.5000011921
30.0722884231 -26.5323021361 -2.5000011921
29.3602939968 -26.2919969762 -2.5000011921
32.3960939005 -28.3333803610 -2.5000011921
30.2649349650 -26.5591407627 -2.5000011921
30.2515614700 -26.5533708482 -2.5000011921
30.1978985633 -26.5306875547 -2.5000011921
30.3915586876 -26.5628238762 -2.5000011921
30.4685531688 -26.5723425285 -2.5000011921
30.4656078872 -26.5441440371 -2.5000011921
30.5698435122 -26.5681895204 -2.5000011921
30.6207995284 -26.5669324935 -2.5000011921
30.5940753988 -26.5533267004 -2.5000011921
30.7233045720 -26.5660748670 -2.5000011921
33.4465097722 -32.4164728047 -2.5000011921
33.4581936247 -32.3708165256 -2.5000011921
33.4634411788 -29.8044506976 -2.5000011921
33.4440543010 -29.7283353621 -2.5000011921
33.4400419469 -29.7131471711 -2.5000011921
33.4318825385 -29.6828067290 -2.5000011921
31.1003945032 -26.5602532080 -2.5000011921
33.4278470460 -32.5746644464 -2.5000011921
33.4409354956 -32.5291675592 -2.5000011921
33.4452085233 -32.5139763393 -2.5000011921
33.4618506952 -32.4530870517 -2.5000011921
33.4510416331 -29.6612389788 -2.5000011921
33.4382741526 -29.6156509793 -2.5000011921
33.4295379549 -29.5853227024 -2.5000011921
33.4420577436 -32.6118535670 -2.5000011921
33.4510480204 -32.5814504666 -2.5000011921
33.4370437960 -32.7100694221 -2.5000011921
33.4513335266 -32.6644855868 -2.5000011921
33.4531260343 -29.4955281896 -2.5000011921
33.4484249547 -29.4803141814 -2.5000011921
33.4388878815 -29.4499282176 -2.5000011921
33.4291712015 -29.4195992102 -2.5000011921
33.4242456151 -29.4044563969 -2.5000011921
31.2193452601 -26.5495335696 -2.5000011921
33.4352533602 -32.7934279254 -2.5000011921
33.4453180110 -32.7630619042 -2.5000011921
33.4472220411 -29.3969451300 -2.5000011921
33.4371917496 -29.3665677422 -2.5000011921
33.4321092514 -29.3514014347 -2.5000011921
33.4218097725 -29.3211142563 -2.5000011921
33.4374165025 -32.8619223816 -2.5000011921
33.4632536595 -32.7858575234 -2.5000011921
33.4394323777 -29.2980757769 -2.5000011921
33.4288172782 -29.2677462057 -2.5000011921
33.4234424846 -29.2526051038 -2.5000011921
33.4602470261 -32.8698660882 -2.5000011921
33.4297450649 -29.1989561368 -2.5000011921
33.4241667738 -29.1838125914 -2.5000011921
33.4185437099 -29.1686856138 -2.5000011921
31.3663241812 -26.5596489965 -2.5000011921
33.4333075590 -33.0149413384 -2.5000011921
33.7779969738 -30.7561841862 -2.5000011921
33.4501382180 -33.0387106629 -2.5000011921
33.4430183826 -33.1235024895 -2.5000011921
33.4550357294 -33.0930847509 -2.5000011921
33.4208252511 -28.9758548909 -2.5000011921
32.4914704455 -27.4638955309 -2.5000011921
33.4306079928 -28.9363205246 -2.5000011921
31.5551551253 -26.5736619863 -2.5000011921
33.4440761051 -33.2482168228 -2.5000011921
33.4336283622 -28.8814243204 -2.5000011921
33.4271107377 -28.8662706768 -2.5000011921
31.6093046799 -26.5831773213 -2.5000011921
33.4401794909 -33.3185145808 -2.5000011921
33.4360760970 -28.8263066560 -2.5000011921
31.6913306522 -26.5839371149 -2.5000011921
33.2148528616 -33.8753080909 -2.5000011921
33.3188073952 -33.6845764997 -2.5000011921
33.3264988658 -33.6697415015 -2.5000011921
33.3417499854 -33.6400035714 -2.5000011921
33.3568248985 -33.6101759311 -2.5000011921
33.3717230774 -33.5802596245 -2.5000011921
33.3791057284 -33.5652685486 -2.5000011921
33.1505772279 -34.0318137966 -2.5000011921
33.2022552731 -33.9453971780 -2.5000011921
33.2605964478 -33.8434376927 -2.5000011921
33.3324826504 -33.7106101990 -2.5000011921
33.6766575683 -32.9096273089 -2.5000011921
33.6820550333 -32.8937371158 -2.5000011921
33.6874054687 -32.8778310256 -2.5000011921
33.7031741305 -32.8300187647 -2.5000011921
33.7083359831 -32.8140504792 -2.5000011921
33.7134505760 -32.7980669938 -2.5000011921
33.4255548777 -28.6293622551 -2.5000011921
33.0253730437 -34.2711869288 -2.5000011921
33.0348010980 -34.2572173958 -2.5000011921
33.1267930965 -34.1160117733 -2.5000011921
33.1886831639 -34.0155782162 -2.5000011921
33.3771650550 -33.6769459553 -2.5000011921
33.7898397388 -32.6278654191 -2.5000011921
33.7989186604 -32.5954044434 -2.5000011921
31.8151888276 -26.5875501077 -2.5000011921
32.9484427911 -34.4234634337 -2.5000011921
33.3435225364 -33.7928288557 -2.5000011921
33.8441659090 -32.5201188048 -2.5000011921
33.8484104046 -32.5037347961 -2.5000011921
33.8526064146 -32.4873383030 -2.5000011921
31.8566834552 -26.5894192059 -2.5000011921
33.9041634107 -32.3776973253 -2.5000011921
33.9117602529 -32.3445643507 -2.5000011921
33.9535474012 -32.2665236207 -2.5000011921
33.9638805725 -32.2163735718 -2.5000011921
33.9705219240 -32.1828901139 -2.5000011921
33.4290354468 -28.4196186684 -2.5000011921
33.4530379313 -28.3098136971 -2.5000011921
33.4684312315 -27.8095504682 -2.5000011921
33.4798460615 -27.7376569003 -2.5000011921
33.4802727303 -27.6499892263 -2.5000011921
33.2900292707 -26.4004078613 -2.5000011921
33.2761729791 -26.3856898653 -2.5000011921
33.2483300837 -26.3563771631 -2.5000011921
33.9331295153 -27.1552870842 -2.5000011921
33.8863310290 -27.0889996294 -2.5000011921
33.7781888150 -26.9419084526 -2.5000011921
33.7536279095 -26.9096159214 -2.5000011921
33.6279814553 -26.7503638290 -2.5000011921
33.2517715998 -26.3250314623 -2.5000011921
33.1666523524 -26.2380327333 -2.5000011921
33.1379377847 -26.2093705762 -2.5000011921
33.1090541446 -26.1808788058 -2.5000011921
33.0945492381 -26.1666971275 -2.5000011921
33.0800024431 -26.1525584193 -2.5000011921
33.0654138869 -26.1384628051 -2.5000011921
33.0507836972 -26.1244104081 -2.5000011921
33.0213989296 -26.0964357575 -2.5000011921
32.9918491688 -26.0686354466 -2.5000011921
33.9876634571 -27.1917154933 -2.5000011921
33.9761449441 -27.1749303069 -2.5000011921
33.9645768278 -27.1581792678 -2.5000011921
33.9295758743 -27.1081324985 -2.5000011921
33.9059957566 -27.0749414014 -2.5000011921
33.7354952190 -26.8465906460 -2.5000011921
33.0083608063 -26.0509803875 -2.5000011921
32.8270187144 -25.8873188314 -2.5000011921
32.7807843828 -25.8474172969 -2.5000011921
34.1749586279 -27.4347407938 -2.5000011921
34.1314498383 -27.3655723412 -2.5000011921
33.0989558000 -26.1036449763 -2.5000011921
32.8582797446 -25.8825274212 -2.5000011921
32.6868691328 -25.7372293193 -2.5000011921
32.6233787741 -25.6857874689 -2.5000011921
32.5914064462 -25.6603491660 -2.5000011921
34.3010290672 -27.5977351357 -2.5000011921
34.4225732013 -27.7650106614 -2.5000011921
34.5018498370 -27.8629253151 -2.5000011921
34.6069627178 -28.0183955837 -2.5000011921
34.5610343118 -27.9255624880 -2.5000011921
34.1906206721 -27.2787340597 -2.5000011921
32.0156619405 -25.0798885160 -2.5000011921
32.0283739882 -25.0593278953 -2.5000011921
34.9133299885 -28.4760233203 -2.5000011921
28.4809999659 -26.6003197131 -2.5000011921
28.4669360926 -26.6004573695 -2.5000011921
33.4449078588 -32.6536877611 -2.5000011921
33.4599344295 -32.5953289609 -2.5000011921
30.1941174022 -26.5445783078 -2.5000011921
33.4484349681 -32.7328905568 -2.5000011921
33.4376159766 -29.9382135320 -2.5000011921
30.2875707308 -26.5523536283 -2.5000011921
30.2448838277 -26.5368609915 -2.5000011921
33.4375594650 -32.8561757145 -2.5000011921
33.4634350560 -32.7686703856 -2.5000011921
33.4392561242 -29.8586085450 -2.5000011921
30.4610358874 -26.5675814927 -2.5000011921
30.4468665050 -26.5618619880 -2.5000011921
33.4579271846 -29.7566587398 -2.5000011921
33.4483867638 -29.7274752416 -2.5000011921
33.4435518476 -29.7129047869 -2.5000011921
30.5127214179 -26.5626702784 -2.5000011921
33.4395950249 -33.0825015490 -2.5000011921
33.4415478891 -29.6322851598 -2.5000011921
30.5788256178 -26.5643691033 -2.5000011921
33.4520452629 -33.1197203240 -2.5000011921
30.6025958920 -26.5482977792 -2.5000011921
33.4483778007 -33.2678730050 -2.5000011921
30.7218003133 -26.5484847255 -2.5000011921
30.8030340151 -26.5597423131 -2.5000011921
33.3303905360 -33.6617691342 -2.5000011921
33.3573532107 -33.6046947844 -2.5000011921
30.8276626889 -26.5447200902 -2.5000011921
33.4056752989 -33.5572412980 -2.5000011921
30.9235058071 -26.5648192398 -2.5000011921
30.9093262299 -26.5577316776 -2.5000011921
33.3390172821 -33.7542084726 -2.5000011921
33.3460946496 -33.7399439339 -2.5000011921
33.4236632431 -29.1330822090 -2.5000011921
33.3535041104 -33.7792917731 -2.5000011921
33.7700598486 -30.0587919323 -2.5000011921
33.4256844138 -29.0794857478 -2.5000011921
33.4079669972 -28.6697978147 -2.5000011921
33.4131148089 -28.6291653073 -2.5000011921
33.4141518658 -28.5329504673 -2.5000011921
31.5336306521 -26.5764688715 -2.5000011921
33.4233459003 -27.6712111594 -2.5000011921
33.4548578125 -27.2437387033 -2.5000011921
33.9231164486 -27.0920659478 -2.5000011921
33.8594808377 -27.0126254458 -2.5000011921
33.8336987666 -26.9811142465 -2.5000011921
33.7946772319 -26.9341348287 -2.5000011921
33.7020169930 -26.8258764249 -2.5000011921
33.1462540549 -26.2595197259 -2.5000011921
33.0550968977 -26.1782235856 -2.5000011921
34.0662403855 -27.2393218663 -2.5000011921
34.0540423583 -27.2229345756 -2.5000011921
33.9923280239 -27.1415433139 -2.5000011921
33.9547239606 -27.0931498329 -2.5000011921
32.9781145262 -26.0800953846 -2.5000011921
32.8361245075 -25.9633006459 -2.5000011921
34.1818162101 -27.3577628906 -2.5000011921
32.8831634197 -25.9701458143 -2.5000011921
32.7545278032 -25.8684186979 -2.5000011921
32.6235210100 -25.7697640063 -2.5000011921
34.3290444648 -27.5307738256 -2.5000011921
34.4384019938 -27.6564833967 -2.5000011921
34.6590527593 -27.9351121816 -2.5000011921
34.8004199407 -28.0959037432 -2.5000011921
33.4500578227 -32.8975675501 -2.5000011921
33.4577066825 -32.8699044024 -2.5000011921
33.4666035678 -30.3449237747 -2.5000011921
33.4553615166 -30.3033658896 -2.5000011921
33.4437511052 -30.2619094080 -2.5000011921
33.4534016271 -32.9733778202 -2.5000011921
33.4614989474 -32.9456935626 -2.5000011921
33.4571661917 -30.1375380999 -2.5000011921
33.4484856660 -30.1098812019 -2.5000011921
33.4581348810 -30.0609820849 -2.5000011921
33.4397044399 -30.0057140272 -2.5000011921
33.4563242714 -29.9068553532 -2.5000011921
33.4513220646 -29.8930239845 -2.5000011921
33.4411950135 -29.8654059417 -2.5000011921
29.8729288444 -26.5428540536 -2.5000011921
29.9678918017 -26.5395493606 -2.5000011921
27.3860402053 -26.5915599201 -2.5000011921
33.4478734880 -29.2720221910 -2.5000011921
30.1379086198 -26.5575927178 -2.5000011921
30.1230132078 -26.5535924771 -2.5000011921
30.0931872094 -26.5457242729 -2.5000011921
27.2758575712 -26.5983097996 -2.5000011921
33.4345545818 -29.1921392126 -2.5000011921
30.2634872552 -26.5679964706 -2.5000011921
30.2337440172 -26.5592969227 -2.5000011921
30.2188532272 -26.5550131761 -2.5000011921
30.1741057373 -26.5424264948 -2.5000011921
30.0992840259 -26.5223327336 -2.5000011921
27.1948723416 -26.5980339591 -2.5000011921
27.1801094391 -26.6027395751 -2.5000011921
30.3448123405 -26.5674369836 -2.5000011921
30.3150643691 -26.5582562989 -2.5000011921
30.2852626022 -26.5492517739 -2.5000011921
27.1135518873 -26.5990665465 -2.5000011921
33.4338258667 -29.0869752289 -2.5000011921
30.4264773341 -26.5681893537 -2.5000011921
30.3818385994 -26.5537596060 -2.5000011921
30.3221244320 -26.5351372419 -2.5000011921
30.5084611468 -26.5702634894 -2.5000011921
30.4190812782 -26.5403453160 -2.5000011921
30.5163372750 -26.5474095644 -2.5000011921
30.6287420805 -26.5617944369 -2.5000011921
33.4414938998 -28.9020700766 -2.5000011921
30.7947112826 -26.5738709729 -2.5000011921
30.7501084686 -26.5561731319 -2.5000011921
30.7202867630 -26.5445947763 -2.5000011921
26.7525237866 -26.5775645081 -2.5000011921
26.7081129264 -26.5957386681 -2.5000011921
30.8186250690 -26.5574557799 -2.5000011921
30.9171157968 -26.5722247888 -2.5000011921
33.4165147018 -28.6732852536 -2.5000011921
30.9712440296 -26.5692514329 -2.5000011921
31.0801560761 -26.5650100003 -2.5000011921
31.2047659126 -26.5702227121 -2.5000011921
31.2747789252 -26.5776481034 -2.5000011921
31.3856782088 -26.5798601128 -2.5000011921
31.4413937744 -26.5818535308 -2.5000011921
31.9055123656 -26.5990252643 -2.5000011921
33.0774773355 -26.5943665034 -2.5000011921
33.7641892345 -26.8829054613 -2.5000011921
33.7081328887 -26.8242385109 -2.5000011921
33.6940106419 -26.8096757345 -2.5000011921
33.6798453775 -26.7951547979 -2.5000011921
33.6083781445 -26.7231821479 -2.5000011921
33.5939573912 -26.7089149062 -2.5000011921
33.2046025262 -26.3533193386 -2.5000011921
33.1890894185 -26.3402481565 -2.5000011921
33.9057631966 -27.0011813803 -2.5000011921
33.8373184646 -26.9258447824 -2.5000011921
33.1419808555 -26.2697325348 -2.5000011921
33.0945865513 -26.2312159696 -2.5000011921
33.0468523005 -26.1931215189 -2.5000011921
34.1871118323 -27.2973715549 -2.5000011921
34.1616151522 -27.2654457610 -2.5000011921
34.0970510066 -27.1862961076 -2.5000011921
34.0839980900 -27.1705812569 -2.5000011921
32.9161318805 -26.0620476337 -2.5000011921
32.8833488535 -26.0376630043 -2.5000011921
34.3311070868 -27.4447699194 -2.5000011921
34.1932757455 -27.2663048936 -2.5000011921
32.6294428401 -25.8295574768 -2.5000011921
34.3008562330 -27.3646650301 -2.5000011921
32.5741972443 -25.7641370550 -2.5000011921
32.4701847225 -25.6976828013 -2.5000011921
32.3774770106 -25.6123754479 -2.5000011921
31.6962136026 -25.1190973543 -2.5000011921
31.6578731157 -25.1019466743 -2.5000011921
35.1418508799 -28.3363918990 -2.5000011921
30.2582501317 -29.8492073976 -2.5000011921
30.1890162270 -29.8083588930 -2.5000011921
33.4776087791 -30.5944137652 -2.5000011921
33.4584944206 -30.3596158102 -2.5000011921
33.4542766536 -30.3466490361 -2.5000011921
33.4457261380 -30.3207532021 -2.5000011921
33.4510057347 -30.2611976996 -2.5000011921
33.4735188411 -30.1801022223 -2.5000011921
33.4429291111 -29.9679693300 -2.5000011921
33.4489341523 -29.9198079741 -2.5000011921
33.4444016356 -29.4611175468 -2.5000011921
33.4378913748 -29.3979800188 -2.5000011921
33.4448808019 -29.3604966406 -2.5000011921
30.5448470766 -26.5759695714 -2.5000011921
27.4843658238 -26.6104522348 -2.5000011921
30.5977484776 -26.5660349985 -2.5000011921
27.3778625329 -26.5935094411 -2.5000011921
27.2628722665 -26.6069050723 -2.5000011921
30.7116178698 -26.5246863580 -2.5000011921
27.1935464233 -26.6059659301 -2.5000011921
30.9512870425 -26.5798078802 -2.5000011921
27.0847183517 -26.5949986038 -2.5000011921
31.0450758978 -26.5629347380 -2.5000011921
31.1308888811 -26.5701904890 -2.5000011921
31.1154714929 -26.5641257734 -2.5000011921
31.2322901011 -26.5852132277 -2.5000011921
26.8736324809 -26.6020862535 -2.5000011921
31.2723917292 -26.5758134334 -2.5000011921
26.7317951044 -26.6115439852 -2.5000011921
31.4147703792 -26.5852411148 -2.5000011921
31.3993962713 -26.5783365605 -2.5000011921
26.6350222161 -26.6030000612 -2.5000011921
26.3401035699 -26.6975136846 -2.5000011921
26.3250837885 -26.7056204213 -2.5000011921
26.3100880540 -26.7137715537 -2.5000011921
26.2801692504 -26.7302067202 -2.5000011921
26.2058022220 -26.7720665216 -2.5000011921
27.1267414346 -26.3217167807 -2.5000011921
27.0623054421 -26.3451282597 -2.5000011921
27.0462400809 -26.3511001344 -2.5000011921
26.0903013646 -26.8117846211 -2.5000011921
25.9446905079 -26.9021796956 -2.5000011921
31.7280412376 -26.6019748595 -2.5000011921
31.7127152605 -26.5941435201 -2.5000011921
27.1024189807 -26.3047539317 -2.5000011921
27.2248605664 -26.2367239837 -2.5000011921
31.8690873032 -26.5942299423 -2.5000011921
31.9843656063 -26.6025328434 -2.5000011921
32.1554213822 -26.5897419677 -2.5000011921
32.3132981611 -26.5725861306 -2.5000011921
33.7093725076 -26.7920408508 -2.5000011921
33.1207092329 -26.3034367716 -2.5000011921
33.1044940327 -26.2914869746 -2.5000011921
33.0882435537 -26.2795851975 -2.5000011921
33.0392818682 -26.2441690241 -2.5000011921
34.0828892115 -27.1317989111 -2.5000011921
34.0414512769 -27.0875222565 -2.5000011921
33.9996220435 -27.0436150838 -2.5000011921
32.9873613768 -26.1778119715 -2.5000011921
32.8873352357 -26.1092220323 -2.5000011921
32.8199816302 -26.0644863651 -2.5000011921
34.2893852297 -27.3275140025 -2.5000011921
34.2363488687 -27.2661033406 -2.5000011921
34.1690376818 -27.1902295516 -2.5000011921
33.0674428189 -26.2048714162 -2.5000011921
32.7992425604 -26.0221251856 -2.5000011921
32.7308645515 -25.9784379693 -2.5000011921
32.6619744020 -25.9355628916 -2.5000011921
32.7609618929 -25.9688751123 -2.5000011921
34.5448607810 -27.5658623561 -2.5000011921
35.0190380822 -27.9894549987 -2.5000011921
35.3936440381 -28.5464273124 -2.5000011921
33.4568273777 -30.8465072291 -2.5000011921
33.4359540624 -30.6841365066 -2.5000011921
33.4441745911 -30.6291131502 -2.5000011921
33.4672167538 -30.6218060290 -2.5000011921
33.4686425166 -30.4739304844 -2.5000011921
33.4599922519 -30.3125833678 -2.5000011921
29.4621569811 -26.5786632256 -2.5000011921
29.4305969304 -26.5783653561 -2.5000011921
29.4148163823 -26.5782864428 -2.5000011921
29.3832549310 -26.5782686627 -2.5000011921
29.3201344746 -26.5787932819 -2.5000011921
31.0404342689 -26.5844954408 -2.5000011921
27.7103929492 -26.5973958487 -2.5000011921
31.1580149572 -26.5967409699 -2.5000011921
27.6873009712 -26.5793850806 -2.5000011921
27.5536540686 -26.5984731834 -2.5000011921
30.9978351878 -26.4958686654 -2.5000011921
27.4984441245 -26.5922642023 -2.5000011921
27.2435599140 -26.5857413679 -2.5000011921
27.2278107547 -26.5921320734 -2.5000011921
31.6109499592 -26.5852139378 -2.5000011921
31.6676200266 -26.5828422383 -2.5000011921
31.6518429340 -26.5761457865 -2.5000011921
26.9692120579 -26.5985093968 -2.5000011921
26.9119097303 -26.5983564811 -2.5000011921
31.9224902354 -26.5648344473 -2.5000011921
32.0966728004 -26.5692627137 -2.5000011921
27.1591123421 -26.2810448369 -2.5000011921
27.1092212377 -26.3011180030 -2.5000011921
27.0429806021 -26.3285694476 -2.5000011921
27.2846167250 -26.2070183902 -2.5000011921
27.2172503803 -26.2324010615 -2.5000011921
27.1167757785 -26.2719651765 -2.5000011921
27.7444711492 -25.9820324425 -2.5000011921
25.6837522803 -26.9410420464 -2.5000011921
28.0108006007 -25.8398305232 -2.5000011921
32.6370941341 -26.5651702636 -2.5000011921
33.6676958502 -26.7663876745 -2.5000011921
33.9519548495 -26.9832766384 -2.5000011921
33.9080281657 -26.9430394850 -2.5000011921
32.8921119356 -26.1827068423 -2.5000011921
34.2251892368 -27.2158854560 -2.5000011921
34.1551909515 -27.1449741030 -2.5000011921
32.6635950699 -26.0217337527 -2.5000011921
32.3485336736 -25.8039493281 -2.5000011921
34.7040611658 -27.6479470378 -2.5000011921
33.4416226597 -30.9924942964 -2.5000011921
33.4562438045 -30.6374941184 -2.5000011921
33.4819721601 -30.4368428316 -2.5000011921
33.4465257941 -30.2948800465 -2.5000011921
33.4532469959 -30.2517939565 -2.5000011921
33.4413007238 -29.6740601908 -2.5000011921
31.1177965513 -26.5609701645 -2.5000011921
28.3309409597 -26.5676446114 -2.5000011921
28.1871284409 -26.6070053763 -2.5000011921
28.1644554152 -26.5884061687 -2.5000011921
28.1484872940 -26.5930827334 -2.5000011921
31.2910282123 -26.5576932982 -2.5000011921
31.2749555568 -26.5531210296 -2.5000011921
28.0457365038 -26.5990685227 -2.5000011921
28.0065040702 -26.5861506176 -2.5000011921
27.9586277615 -26.6017237373 -2.5000011921
27.9426999367 -26.6070091193 -2.5000011921
31.4817015980 -26.5650916123 -2.5000011921
31.4656499938 -26.5599552649 -2.5000011921
27.9190728871 -26.5894327513 -2.5000011921
27.8871609170 -26.6002848444 -2.5000011921
31.5854942011 -26.5740276364 -2.5000011921
27.9756433248 -26.5452973868 -2.5000011921
27.7994791464 -26.6054952187 -2.5000011921
31.7137738058 -26.5680344917 -2.5000011921
32.1205565386 -26.5753003777 -2.5000011921
27.1221127954 -26.6027806546 -2.5000011921
32.3532561193 -26.5762348518 -2.5000011921
32.3958797416 -26.5701043609 -2.5000011921
26.9191658215 -26.5967966970 -2.5000011921
32.7790242875 -26.5805204062 -2.5000011921
26.2856804176 -26.7454921726 -2.5000011921
26.2392859395 -26.7763303623 -2.5000011921
27.1028113415 -26.2643173166 -2.5000011921
25.9374241160 -26.9617853458 -2.5000011921
25.9077497911 -26.9843550218 -2.5000011921
25.8929628323 -26.9957055975 -2.5000011921
27.3328865270 -26.1377895581 -2.5000011921
27.3155890389 -26.1449280257 -2.5000011921
27.1608834136 -26.2114677942 -2.5000011921
25.7171922289 -27.1047601009 -2.5000011921
25.4052516392 -27.3460870483 -2.5000011921
27.6317208948 -25.9724788432 -2.5000011921
25.7302997646 -27.0316776247 -2.5000011921
25.1995405920 -27.5124533870 -2.5000011921
33.8868189971 -26.8981918033 -2.5000011921
32.9905817144 -26.2836277099 -2.5000011921
32.8661444473 -26.1869670091 -2.5000011921
32.8145342422 -26.1594292659 -2.5000011921
32.7799925483 -26.1413256914 -2.5000011921
34.3693964305 -27.2650501783 -2.5000011921
34.7028109195 -27.5440460236 -2.5000011921
34.7732552251 -27.5872027319 -2.5000011921
35.3230623325 -28.0945113023 -2.5000011921
30.0811298610 -29.6910998221 -2.5000011921
33.4354115374 -30.5106223213 -2.5000011921
33.4454393509 -30.3608445478 -2.5000011921
33.4356586915 -30.3410017104 -2.5000011921
33.4449123698 -29.8216498737 -2.5000011921
33.4444955720 -29.6483053355 -2.5000011921
26.5295213311 -29.9616968822 -2.5000011921
26.5567302642 -29.8216247401 -2.5000011921
26.5300159648 -29.5960327350 -2.5000011921
26.5411752126 -29.4949777247 -2.5000011921
26.5403069992 -28.7652163865 -2.5000011921
31.5856340045 -26.5828011267 -2.5000011921
31.5374642549 -26.5697121603 -2.5000011921
31.5213820929 -26.5654442316 -2.5000011921
31.4891802449 -26.5570511888 -2.5000011921
31.4730608407 -26.5529261483 -2.5000011921
28.6259158646 -26.5723818825 -2.5000011921
28.6098543394 -26.5767268288 -2.5000011921
28.5938057376 -26.5811192690 -2.5000011921
28.5617478658 -26.5900464768 -2.5000011921
31.5920760496 -26.5595022997 -2.5000011921
31.5759634460 -26.5550728641 -2.5000011921
31.5598378099 -26.5506911118 -2.5000011921
28.5230522065 -26.5759346854 -2.5000011921
28.4909648993 -26.5852805856 -2.5000011921
28.4429390173 -26.5996549739 -2.5000011921
31.7435397788 -26.5783873599 -2.5000011921
28.4680450797 -26.5668564717 -2.5000011921
31.8310076490 -26.5804744282 -2.5000011921
28.4611480382 -26.5436882585 -2.5000011921
28.3003545689 -26.5941562270 -2.5000011921
31.9187746319 -26.5839669350 -2.5000011921
28.2286166501 -26.5928086986 -2.5000011921
31.9747464897 -26.5776087044 -2.5000011921
32.0630798600 -26.5834170604 -2.5000011921
28.0523314858 -26.6048916944 -2.5000011921
32.2084278677 -26.5866866765 -2.5000011921
32.1923929836 -26.5804338417 -2.5000011921
27.9229938314 -26.6032933622 -2.5000011921
27.8499862214 -26.6069417681 -2.5000011921
27.8247097271 -26.5912780534 -2.5000011921
27.8087076058 -26.5979930297 -2.5000011921
27.7192838225 -26.6101414249 -2.5000011921
32.4538383930 -26.5836562896 -2.5000011921
32.4377934707 -26.5766774994 -2.5000011921
27.6935575440 -26.5950621098 -2.5000011921
27.6775671904 -26.6021650414 -2.5000011921
27.6615979186 -26.6093152442 -2.5000011921
32.4796024639 -26.5685585364 -2.5000011921
27.6356736546 -26.5944942444 -2.5000011921
27.6196818745 -26.6017684094 -2.5000011921
32.5376811689 -26.5679718266 -2.5000011921
27.7129021280 -26.5074615534 -2.5000011921
27.5193187321 -26.5951713012 -2.5000011921
27.4873628022 -26.6104552891 -2.5000011921
32.7291450141 -26.5776455465 -2.5000011921
32.8040076803 -26.5876859956 -2.5000011921
32.9654599238 -26.5894721655 -2.5000011921
32.9494299673 -26.5809798808 -2.5000011921
33.0249349697 -26.5939907096 -2.5000011921
