26.0318554162 -10.3913896594 -2.4986352921
26.0444350314 -10.4074858840 -2.4986352921
26.0952279903 -10.4714965468 -2.4986352921
26.1080442989 -10.4874049533 -2.4986352921
26.1209076114 -10.5032753773 -2.4986352921
26.2254926567 -10.6288548018 -2.4986352921
26.2387738895 -10.6443771734 -2.4986352921
26.2521009822 -10.6598601888 -2.4986352921
27.1151715340 -11.4990085519 -2.4986352921
27.1469124104 -11.5247350708 -2.4986352921
27.2108480006 -11.5756224948 -2.4986352921
25.8173883799 -10.1428337008 -2.4986352921
25.8411283838 -10.1762620760 -2.4986352921
25.9257670764 -10.2921430737 -2.4986352921
26.0508010497 -10.4545920344 -2.4986352921
26.0635675461 -10.4706319378 -2.4986352921
26.1673961968 -10.5975773565 -2.4986352921
27.4251276308 -11.7673017010 -2.4986352921
25.7622773562 -10.1061916612 -2.4986352921
25.9810989746 -10.4048574573 -2.4986352921
27.5117252507 -11.8582247644 -2.4986352921
27.5286375544 -11.8699368484 -2.4986352921
25.7306767538 -10.1029656437 -2.4986352921
27.6174544770 -11.9592879460 -2.4986352921
25.5294036971 -9.8392907505 -2.4986352921
25.5403523024 -9.8568757339 -2.4986352921
25.5958729713 -9.9443106094 -2.4986352921
27.7782820006 -12.0914922852 -2.4986352921
27.4023476790 -11.8699415440 -2.4986352921
27.7655056429 -12.1120130056 -2.4986352921
27.8719593874 -12.1769881471 -2.4986352921
25.3601506583 -9.6498130772 -2.4986352921
27.9856114073 -12.2713869584 -2.4986352921
28.1315136147 -12.3523462922 -2.4986352921
28.0100531804 -12.3130174029 -2.4986352921
27.7987489154 -12.2175512130 -2.4986352921
30.1468785073 -7.0438413858 -2.5008041859
26.5659421006 -4.5458237854 -2.5008041859
26.5579625506 -4.5733933624 -2.5008041859
26.5540339773 -4.5871957340 -2.5008041859
26.5462994060 -4.6148350393 -2.5008041859
26.5276795631 -4.6841292676 -2.5008041859
26.5295758122 -7.1397759587 -2.5008041859
26.5369435908 -7.1675152924 -2.5008041859
26.5483026508 -7.2090413479 -2.5008041859
26.5560798990 -7.2366686750 -2.5008041859
26.5592717720 -4.4837653362 -2.5008041859
26.5550780571 -4.4975642270 -2.5008041859
26.5509251801 -4.5113754632 -2.5008041859
26.5368003075 -7.2571527656 -2.5008041859
26.5408108725 -7.2710059964 -2.5008041859
26.5448624003 -7.2848473025 -2.5008041859
26.5489548555 -7.2986765629 -2.5008041859
26.5530882022 -7.3124936566 -2.5008041859
26.5216728977 -7.2916724216 -2.5008041859
26.5299394851 -7.3194558531 -2.5008041859
26.5383703040 -7.3471898905 -2.5008041859
26.5426472082 -7.3610380829 -2.5008041859
26.5469650591 -7.3748735629 -2.5008041859
26.5513238190 -7.3886962094 -2.5008041859
26.5371643166 -7.4237425351 -2.5008041859
26.5325134008 -7.4867790947 -2.5008041859
26.5372032608 -7.5006440021 -2.5008041859
26.5515186410 -7.5421546350 -2.5008041859
26.5563722286 -7.5559630792 -2.5008041859
26.5434564760 -7.5917209465 -2.5008041859
26.5484567251 -7.6055530231 -2.5008041859
26.5637026708 -7.6469596567 -2.5008041859
26.5514739963 -7.6830749616 -2.5008041859
31.3660634604 -10.9024290671 -2.5008041859
26.5734694331 -8.2158070534 -2.5008041859
32.5540168378 -10.9239898883 -2.5008041859
32.5688482423 -10.9200270603 -2.5008041859
32.6280546873 -10.9037375343 -2.5008041859
29.9061177463 -10.9533280351 -2.5008041859
29.9210475240 -10.9571980431 -2.5008041859
29.9359886846 -10.9610238692 -2.5008041859
32.6642723959 -10.9185598197 -2.5008041859
32.6790872549 -10.9142708596 -2.5008041859
26.5722394225 -8.3202050114 -2.5008041859
29.7804530446 -10.9440213444 -2.5008041859
29.8251987524 -10.9566143594 -2.5008041859
29.8700544541 -10.9688097855 -2.5008041859
29.9450487891 -10.9882493701 -2.5008041859
32.6709601988 -10.9417892962 -2.5008041859
32.7600667059 -10.9152768501 -2.5008041859
26.5797787114 -8.3864361066 -2.5008041859
29.6323746464 -10.9499757673 -2.5008041859
32.9230456592 -10.9133627529 -2.5008041859
32.9378440121 -10.9083083174 -2.5008041859
29.5354686968 -10.9438937439 -2.5008041859
29.5503721879 -10.9488602401 -2.5008041859
29.5802229194 -10.9586608626 -2.5008041859
29.6101311121 -10.9682847066 -2.5008041859
29.4531607701 -10.9412069562 -2.5008041859
29.4978943901 -10.9567046174 -2.5008041859
29.5427637816 -10.9718046825 -2.5008041859
33.0279766488 -10.9278714565 -2.5008041859
33.0724511525 -10.9116451572 -2.5008041859
29.3854495136 -10.9426364052 -2.5008041859
29.4003499417 -10.9480466908 -2.5008041859
33.1105399364 -10.9232304564 -2.5008041859
33.1697463638 -10.9005311584 -2.5008041859
26.4806752941 -8.4573922025 -2.5008041859
26.5821843597 -8.6377899487 -2.5008041859
29.3174579555 -10.9431649566 -2.5008041859
29.3323602446 -10.9487763712 -2.5008041859
29.3622142955 -10.9598668270 -2.5008041859
33.2081678449 -10.9113862455 -2.5008041859
33.2229591034 -10.9054883756 -2.5008041859
26.5694802099 -8.6638215590 -2.5008041859
29.2640994401 -10.9485995327 -2.5008041859
29.2939536393 -10.9600938454 -2.5008041859
29.3089061100 -10.9657747160 -2.5008041859
33.2319455518 -10.9279289422 -2.5008041859
33.2911990748 -10.9037927876 -2.5008041859
29.1806815545 -10.9414938447 -2.5008041859
26.5949841808 -8.7987543205 -2.5008041859
29.1417225365 -10.9516766266 -2.5008041859
26.5917406528 -8.8390061006 -2.5008041859
29.0578106409 -10.9425676964 -2.5008041859
29.1025719051 -10.9615738146 -2.5008041859
26.6131090359 -8.9609445652 -2.5008041859
28.9090824183 -10.9558786485 -2.5008041859
26.6095640366 -9.0424355315 -2.5008041859
28.8094042270 -10.9358306120 -2.5008041859
28.7691156509 -10.9432015861 -2.5008041859
28.6024704296 -10.9404513495 -2.5008041859
26.6162656125 -9.2619799958 -2.5008041859
28.4756322857 -10.9275495803 -2.5008041859
28.1382195775 -10.9273333708 -2.5008041859
27.9957245806 -10.9233986710 -2.5008041859
27.5474549999 -10.9082307559 -2.5008041859
27.3563115806 -10.9155563340 -2.5008041859
26.9819458688 -10.9237660630 -2.5008041859
26.9060654360 -10.9225847084 -2.5008041859
26.3337010285 -10.7178708125 -2.5008041859
26.3622414461 -10.7467063845 -2.5008041859
26.3765755055 -10.7610607236 -2.5008041859
26.7637690709 -11.1190084315 -2.5008041859
26.7946752263 -11.1452925560 -2.5008041859
26.8101864837 -11.1583659338 -2.5008041859
26.8257363466 -11.1713933693 -2.5008041859
26.8413246790 -11.1843747485 -2.5008041859
26.8569513445 -11.1973099577 -2.5008041859
26.9040599701 -11.2358374362 -2.5008041859
26.1072038041 -10.5124813752 -2.5008041859
26.1897247433 -10.6025312743 -2.5008041859
26.2036330616 -10.6173965798 -2.5008041859
26.2175852932 -10.6322206770 -2.5008041859
26.2456210080 -10.6617447278 -2.5008041859
26.2597042458 -10.6764444230 -2.5008041859
26.2738309063 -10.6911023931 -2.5008041859
26.7018255432 -11.0974682553 -2.5008041859
26.8415649838 -11.2159538626 -2.5008041859
26.9205459428 -11.2801589436 -2.5008041859
26.9683873024 -11.3181187932 -2.5008041859
27.0004678805 -11.3431888428 -2.5008041859
27.0488654479 -11.3804369480 -2.5008041859
26.9214025668 -11.3117734311 -2.5008041859
27.1158842156 -11.4609943596 -2.5008041859
27.1984594122 -11.5211153498 -2.5008041859
27.2484281808 -11.5565993847 -2.5008041859
25.8061312473 -10.2321670664 -2.5008041859
25.9363891669 -10.3904580444 -2.5008041859
25.9763736848 -10.4371867685 -2.5008041859
27.2513043883 -11.5881407655 -2.5008041859
27.4898688244 -11.7476607832 -2.5008041859
25.5760023731 -9.9685787570 -2.5008041859
25.8520092397 -10.3271542098 -2.5008041859
25.9715436841 -10.4685353609 -2.5008041859
27.4595335217 -11.7569253698 -2.5008041859
27.4942016310 -11.7790819535 -2.5008041859
27.5290002193 -11.8010330413 -2.5008041859
25.5204427289 -9.9322542646 -2.5008041859
25.5563773247 -9.9826923234 -2.5008041859
27.6571268668 -11.9075484281 -2.5008041859
25.3837661682 -9.7752096932 -2.5008041859
25.7754036653 -10.3097136237 -2.5008041859
27.6804577522 -11.9493872926 -2.5008041859
27.9958975406 -12.1507792425 -2.5008041859
25.5342610382 -10.0756710126 -2.5008041859
27.9847998571 -12.1722542675 -2.5008041859
28.0591441473 -12.2101176682 -2.5008041859
28.2091506951 -12.2831923112 -2.5008041859
25.0092386624 -9.3438790542 -2.5008041859
24.9983095755 -9.3740025953 -2.5008041859
25.0607992528 -9.4839126711 -2.5008041859
28.5552897388 -12.5398864586 -2.5008041859
26.5580404740 -7.2649760055 -2.4996058067
26.5505990144 -7.3851064219 -2.4996058183
26.5401312551 -7.5545687776 -2.4996058355
26.5718149546 -8.2669738714 -2.4996059047
26.5792096399 -8.5103653854 -2.4996059335
29.6309884987 -10.9460204815 -2.4996059854
29.6464495266 -10.9498313622 -2.4996059854
29.6774050638 -10.9573158311 -2.4996059854
29.5941420867 -10.9616887450 -2.4996059912
32.4082385350 -10.9216775034 -2.4996059912
26.5942383933 -8.9965313253 -2.4996059969
29.4176411780 -10.9387729963 -2.4996059969
29.4330817000 -10.9432150286 -2.4996059969
29.3490206826 -10.9436884793 -2.4996060027
29.3954276560 -10.9574862269 -2.4996060027
29.2646203761 -10.9428126402 -2.4996060084
32.7064592059 -10.9040593203 -2.4996060084
29.2108113326 -10.9508224820 -2.4996060142
32.7450756028 -10.9162565832 -2.4996060142
32.7757782693 -10.9054091272 -2.4996060142
29.0794679263 -10.9315313569 -2.4996060200
32.8999004680 -10.9112073658 -2.4996060257
32.9853668614 -10.9039251102 -2.4996060315
28.8690734919 -10.9301257704 -2.4996060373
28.8292777882 -10.9402884561 -2.4996060430
33.0649211849 -10.9239237861 -2.4996060430
33.1914836403 -10.9228676862 -2.4996060546
33.3496183564 -10.9045396393 -2.4996060661
33.4059500993 -10.9046431146 -2.4996060718
33.5844044636 -10.8427036419 -2.4996060776
33.6598597694 -10.8028389369 -2.4996060776
32.8893539948 -11.1728486288 -2.4996060834
32.9054717646 -11.1670196826 -2.4996060834
32.7347662327 -11.2514826051 -2.4996060891
27.9336645735 -10.9346259682 -2.4996061352
27.8476213380 -10.9404815124 -2.4996061468
27.7610238725 -10.9450249336 -2.4996061583
26.2611688095 -10.6807382018 -2.4996063254
26.8792511155 -11.1968643850 -2.4996063254
26.9280021392 -11.2325699824 -2.4996063254
26.9443226590 -11.2443755318 -2.4996063254
25.9585150228 -10.4127719117 -2.4996063312
26.0284456205 -10.4857440870 -2.4996063312
26.0994478556 -10.5576739797 -2.4996063312
26.1281453365 -10.5861505651 -2.4996063312
26.4394148381 -10.8746869415 -2.4996063312
27.1630890350 -11.4247077948 -2.4996063312
27.1968975636 -11.4468763472 -2.4996063312
25.8855812915 -10.3700411061 -2.4996063370
26.0111170191 -10.5025980140 -2.4996063370
26.1985737730 -10.6880623675 -2.4996063370
26.9160452845 -11.2835894480 -2.4996063370
27.1194852896 -11.4538207081 -2.4996063427
27.4124556397 -11.6379679464 -2.4996063427
25.4801305747 -9.9667276086 -2.4996063485
27.5951447468 -11.7703515446 -2.4996063485
27.9254738998 -12.0748131755 -2.4996063773
26.5338917978 -6.6173982905 -2.5001755707
26.5560993178 -6.7014515528 -2.5001755707
26.5575730529 -7.0981084736 -2.5001756283
26.5625377507 -7.1785438988 -2.5001756399
26.5517508963 -7.2805260873 -2.5001756629
26.5593831732 -7.7470625445 -2.5001757551
26.5552821238 -7.8898194587 -2.5001757897
30.5695436757 -10.9215087514 -2.5001761125
30.6326663031 -10.9215425800 -2.5001761125
30.6484466773 -10.9214343321 -2.5001761125
30.6642266622 -10.9212794035 -2.5001761125
30.6957849118 -10.9208295100 -2.5001761125
30.7746640584 -10.9188880083 -2.5001761125
30.7904359586 -10.9183597170 -2.5001761125
29.2098755959 -10.9363309215 -2.5001762047
29.2891465487 -10.9563648974 -2.5001762047
29.1086442208 -10.9340256545 -2.5001762162
29.1720172258 -10.9513446478 -2.5001762162
32.2039795123 -10.9036355124 -2.5001762162
32.2354064266 -10.8940762327 -2.5001762162
32.3601034859 -10.9050658707 -2.5001762393
32.4150123461 -10.9121574085 -2.5001762508
28.7240187909 -10.9394952250 -2.5001762738
28.6525375216 -10.9395869175 -2.5001762854
32.6758159666 -10.8941347219 -2.5001762854
28.5966322316 -10.9446947354 -2.5001762969
32.7318223826 -10.8979782394 -2.5001762969
28.4840963884 -10.9531889988 -2.5001763199
32.8854575862 -10.9127990174 -2.5001763315
28.2562870638 -10.9631843928 -2.5001763660
28.2722010196 -10.9701057223 -2.5001763660
28.2147162358 -10.9712959813 -2.5001763776
33.1457256791 -10.9009996428 -2.5001763776
33.4201822312 -10.8979886599 -2.5001764352
33.6344278878 -10.8066921262 -2.5001764467
33.6959773911 -10.7704688587 -2.5001764467
33.7112974586 -10.7612994436 -2.5001764467
34.0844005688 -10.5476283866 -2.5001764583
32.6986460905 -11.2990182930 -2.5001764698
32.7660865362 -11.2738331648 -2.5001764698
32.9333426846 -11.2073948538 -2.5001764698
34.1861269985 -10.5046143905 -2.5001764698
32.5706781293 -11.3698715953 -2.5001764813
32.7408603514 -11.3091709659 -2.5001764813
27.6933331483 -10.9845620271 -2.5001764928
32.3885304013 -11.4539227443 -2.5001764928
34.6669356257 -10.1802215769 -2.5001764928
27.1143495746 -10.9786474728 -2.5001766312
26.1959764618 -10.6493137169 -2.5001767695
26.2109709462 -10.6623311911 -2.5001767695
26.3170013346 -10.7522036065 -2.5001767695
26.8737890936 -11.1676078513 -2.5001767695
27.0404813042 -11.2754956635 -2.5001767695
26.2253634188 -10.7066033608 -2.5001767810
27.0445522489 -11.3065355057 -2.5001767810
27.2152788867 -11.4093117819 -2.5001767810
27.2497848621 -11.4292584803 -2.5001767810
25.8278573312 -10.3721386290 -2.5001767925
25.8420334922 -10.3862462789 -2.5001767925
26.1341399827 -10.6594183514 -2.5001767925
25.5037883561 -10.0984301595 -2.5001768156
27.5507576709 -11.6732770977 -2.5001768156
26.5525573202 -6.4856624845 -2.4999333638
26.5583864933 -6.5075955279 -2.4999333638
26.5630511206 -6.6127488663 -2.4999333811
26.5566820018 -6.6745858843 -2.4999333984
26.5477288112 -6.7258666027 -2.4999334157
26.5549791970 -6.7478240092 -2.4999334157
26.5623593634 -6.7697381356 -2.4999334157
26.5484953136 -7.1942300743 -2.4999335367
26.5650536356 -7.5000966553 -2.4999336232
26.5818528326 -8.6713407537 -2.4999340900
28.9626825072 -10.9589210559 -2.4999346260
31.8129210054 -10.8930361701 -2.4999346260
28.8762952657 -10.9625255766 -2.4999346433
31.8993825298 -10.8926451932 -2.4999346433
31.8102395019 -10.9440949275 -2.4999346606
31.9543130154 -10.9009717245 -2.4999346606
31.9702490298 -10.8959438680 -2.4999346606
31.9861701011 -10.8908688918 -2.4999346606
28.7346697870 -10.9747531636 -2.4999346779
32.0732615805 -10.8876975589 -2.4999346779
28.6310224628 -10.9699344302 -2.4999346951
28.6471770220 -10.9747371664 -2.4999346951
31.9366018407 -10.9570979747 -2.4999346951
32.0969406817 -10.9052037394 -2.4999346951
32.1447356965 -10.8887129481 -2.4999346951
28.5035462936 -10.9810045859 -2.4999347297
28.3749184382 -10.9891165167 -2.4999347643
32.4332726029 -10.8832927150 -2.4999347643
28.2858939108 -10.9833322358 -2.4999347816
32.4742053709 -10.8927150347 -2.4999347816
32.6044556586 -10.8900960237 -2.4999348162
32.7196323520 -10.8916632938 -2.4999348508
27.9342367622 -10.9748345888 -2.4999348680
27.8761690756 -10.9761089433 -2.4999348853
27.8178961541 -10.9767812042 -2.4999349026
32.9522974018 -10.8875471461 -2.4999349199
33.0109090212 -10.8849878952 -2.4999349372
27.7230055850 -11.0133143754 -2.4999349545
33.0696861797 -10.8818100716 -2.4999349545
33.0968214935 -10.8948727331 -2.4999349718
33.1718363572 -10.8822156718 -2.4999349891
27.3174900719 -10.9726945990 -2.4999350582
27.2134626092 -10.9707461198 -2.4999350928
27.2458154764 -10.9886905290 -2.4999350928
27.1531596997 -10.9644703654 -2.4999351101
32.8293237167 -11.2664873544 -2.4999351274
33.0152036430 -11.1799354644 -2.4999351274
33.0486926044 -11.1635511641 -2.4999351274
33.0654005878 -11.1552847859 -2.4999351274
34.1070830425 -10.5043148703 -2.4999351274
32.6151493192 -11.3833525705 -2.4999351447
34.3260361049 -10.3593892992 -2.4999351447
34.2545491710 -10.4495424559 -2.4999351620
34.5672482598 -10.1794781462 -2.4999351620
32.3861221386 -11.5213022519 -2.4999351793
32.4747790827 -11.4892377413 -2.4999351793
32.1133258436 -11.6613359606 -2.4999352138
26.7788584577 -10.9642332204 -2.4999352484
26.2965087695 -10.7459609212 -2.4999353176
26.3900379343 -10.8155280214 -2.4999353176
26.4214868903 -10.8383468041 -2.4999353176
26.9926082558 -11.2068095448 -2.4999353176
26.0527769547 -10.5834786153 -2.4999353349
26.0677995887 -10.5959099590 -2.4999353349
26.1434607449 -10.6573971042 -2.4999353349
27.0314312179 -11.2566744059 -2.4999353349
27.1855193166 -11.3406547966 -2.4999353349
27.2027768585 -11.3497319705 -2.4999353349
27.2373721202 -11.3677329674 -2.4999353349
27.2720732765 -11.3855289720 -2.4999353349
25.8739525139 -10.4619171532 -2.4999353522
27.8604637487 -11.7533924088 -2.4999354040
28.1471263900 -11.9581255304 -2.4999354732
29.9079013938 -7.0353389055 -2.5000256394
26.5645811859 -6.9893441814 -2.5000261466
26.5666660281 -7.1087271587 -2.5000261581
26.5541456838 -7.4460624293 -2.5000261984
26.5722213922 -7.5700646778 -2.5000262100
26.5703365249 -7.6125647739 -2.5000262157
33.4483719566 -7.4294037759 -2.5000262330
26.5881993914 -7.8140686329 -2.5000262388
33.4495061060 -7.5262580540 -2.5000262445
26.5694902439 -7.8714859680 -2.5000262503
33.4513896062 -7.8008702221 -2.5000262791
28.6400851699 -10.9745854706 -2.5000266134
31.3579883761 -10.9318992682 -2.5000266134
31.4702352890 -10.9008209463 -2.5000266134
28.5047706615 -10.9663317811 -2.5000266192
28.5371601763 -10.9745695275 -2.5000266192
31.4447842986 -10.9332052604 -2.5000266192
31.5730197085 -10.8954434300 -2.5000266192
28.4014603396 -10.9637696340 -2.5000266249
28.4176418775 -10.9682180826 -2.5000266249
28.4662644553 -10.9812759506 -2.5000266249
28.4824974965 -10.9855326203 -2.5000266249
31.5319334647 -10.9331278900 -2.5000266249
28.3463470334 -10.9733780713 -2.5000266307
31.6996240737 -10.9058287376 -2.5000266307
31.7156197810 -10.9005208749 -2.5000266307
31.7315997168 -10.8951657173 -2.5000266307
28.2261390598 -10.9628562491 -2.5000266365
28.2585128886 -10.9727425345 -2.5000266365
28.2909446415 -10.9824371124 -2.5000266365
28.3722699863 -11.0058326267 -2.5000266365
31.6750291674 -10.9393009386 -2.5000266365
31.7873613681 -10.9016564415 -2.5000266365
28.1703562690 -10.9707020259 -2.5000266422
28.1865593253 -10.9758340918 -2.5000266422
28.2027774924 -10.9809182037 -2.5000266422
28.2190106282 -10.9859543171 -2.5000266422
31.7792122608 -10.9300393428 -2.5000266422
28.0980928165 -10.9726406425 -2.5000266480
28.1143019238 -10.9779864683 -2.5000266480
31.9636100627 -10.8890526489 -2.5000266480
28.0093446756 -10.9680240954 -2.5000266537
28.0255405147 -10.9736324745 -2.5000266537
28.0579816101 -10.9847053796 -2.5000266537
32.0042053070 -10.8993721887 -2.5000266537
32.0201805820 -10.8931633478 -2.5000266537
27.9365160550 -10.9678471504 -2.5000266595
27.9527116893 -10.9736709704 -2.5000266595
32.0609988792 -10.9030698218 -2.5000266595
32.0929518750 -10.8902688350 -2.5000266595
32.1340169747 -10.8996376641 -2.5000266653
32.1499924671 -10.8930448157 -2.5000266653
27.7900876554 -10.9646055526 -2.5000266710
32.1912710506 -10.9019937025 -2.5000266710
27.7488880219 -10.9744301037 -2.5000266768
27.6750675898 -10.9708113188 -2.5000266826
32.3962670136 -10.8908976199 -2.5000266883
32.4122155039 -10.8835290267 -2.5000266883
27.4685183751 -10.9612906348 -2.5000266998
32.5285598422 -10.8818198302 -2.5000266998
27.4100463464 -10.9613565813 -2.5000267056
32.6296919017 -10.8857234392 -2.5000267114
27.2334976467 -10.9578862028 -2.5000267229
27.1742914298 -10.9554955069 -2.5000267287
32.7906328439 -10.8839052504 -2.5000267287
27.0715253590 -10.9572742874 -2.5000267402
27.0876935015 -10.9656569526 -2.5000267402
33.0688475442 -10.8945149170 -2.5000267632
33.0848037923 -10.8851566931 -2.5000267632
26.8199268194 -10.9581467414 -2.5000267690
26.7150326510 -10.9535080294 -2.5000267805
26.6866184776 -10.9648424440 -2.5000267863
26.7028106923 -10.9743637003 -2.5000267863
26.2172833299 -10.7185963445 -2.5000267978
26.2327491576 -10.7295070564 -2.5000267978
26.2793393470 -10.7619640217 -2.5000267978
26.2949331926 -10.7726909710 -2.5000267978
26.3262157391 -10.7940062471 -2.5000267978
26.4049690280 -10.8464814726 -2.5000267978
26.9096907392 -11.1452779445 -2.5000267978
33.3679706771 -10.8813178238 -2.5000267978
25.9444839511 -10.5452060206 -2.5000268036
25.9744267538 -10.5685986534 -2.5000268036
26.1723683727 -10.7162867170 -2.5000268036
26.3758417947 -10.8562553391 -2.5000268036
27.1357111347 -11.2865879586 -2.5000268036
27.1528531658 -11.2947793098 -2.5000268036
27.2044235969 -11.3190486085 -2.5000268036
27.2216613518 -11.3270365538 -2.5000268036
27.2389226611 -11.3349734718 -2.5000268036
25.7086461602 -10.3825087200 -2.5000268094
25.7521775725 -10.4196304697 -2.5000268094
25.8254564894 -10.4806368922 -2.5000268094
25.9145702319 -10.5524039860 -2.5000268094
27.4561804344 -11.4558271522 -2.5000268094
33.4580350660 -10.8804452254 -2.5000268094
25.8995758832 -10.5713645975 -2.5000268151
26.4133656348 -10.9384007724 -2.5000268151
27.6608357892 -11.5619395666 -2.5000268151
33.1951441091 -11.0726564860 -2.5000268151
33.6920466130 -10.7486905388 -2.5000268151
33.7385133083 -10.7149496682 -2.5000268151
33.7999996446 -10.6693229135 -2.5000268151
33.8152865350 -10.6578027948 -2.5000268151
33.8457577457 -10.6346271456 -2.5000268151
25.4628963946 -10.2263989453 -2.5000268209
32.9048199703 -11.2608743088 -2.5000268209
32.9897588259 -11.2159983668 -2.5000268209
33.0572262205 -11.1791961466 -2.5000268209
33.7372898890 -10.7457816234 -2.5000268209
33.7682829771 -10.7230658888 -2.5000268209
33.9060664851 -10.6185924845 -2.5000268209
33.9363041257 -10.5948804369 -2.5000268209
33.9664009486 -10.5709899083 -2.5000268209
33.9963559005 -10.5469217350 -2.5000268209
34.0261679326 -10.5226767593 -2.5000268209
34.0410200275 -10.5104882355 -2.5000268209
34.0558360016 -10.4982558299 -2.5000268209
34.0706157252 -10.4859796495 -2.5000268209
34.0853590690 -10.4736598017 -2.5000268209
34.1439660701 -10.4239458986 -2.5000268209
25.2266870960 -10.0273395040 -2.5000268266
25.2401123953 -10.0411836033 -2.5000268266
25.5028270048 -10.2965282297 -2.5000268266
32.6912636536 -11.3934941781 -2.5000268266
32.7261071339 -11.3769557500 -2.5000268266
32.7434920289 -11.3686093034 -2.5000268266
34.2034409624 -10.4044082013 -2.5000268266
34.2468322071 -10.3661425501 -2.5000268266
34.2612202800 -10.3533019464 -2.5000268266
25.1558213401 -9.9881637116 -2.5000268324
32.5429972747 -11.4874892293 -2.5000268324
32.5607099489 -11.4796839711 -2.5000268324
32.6489227241 -11.4398736152 -2.5000268324
34.4336500896 -10.2267522275 -2.5000268324
34.4476250033 -10.2133595926 -2.5000268324
34.4754556719 -10.1864505952 -2.5000268324
32.3556629337 -11.5923111939 -2.5000268382
32.4096689140 -11.5703967582 -2.5000268382
32.4276274270 -11.5629855466 -2.5000268382
34.7099265991 -9.9818599273 -2.5000268382
32.1642826494 -11.6912634691 -2.5000268439
32.1172665666 -11.7337877317 -2.5000268497
32.3917984218 -11.6298848596 -2.5000268497
35.1093002020 -9.6300078002 -2.5000268555
24.5971635479 -9.5144823662 -2.5000268612
35.1648323974 -9.5986155600 -2.5000268612
31.8216057111 -11.9061938834 -2.5000268670
33.4387644881 -6.9662462743 -2.4999967654
33.4471264336 -6.9433125199 -2.4999967654
33.4497029554 -7.3199536827 -2.4999966098
33.4502435544 -7.3761009173 -2.4999965839
33.4489543721 -7.4891656501 -2.4999965320
33.4431516938 -7.7066113978 -2.4999964283
33.4464884659 -7.8460744823 -2.4999963505
28.1761529903 -10.9416188855 -2.4999952093
28.1921338209 -10.9457085550 -2.4999952093
28.2241314264 -10.9537459824 -2.4999952093
30.9350019496 -10.9472650690 -2.4999952093
28.0900609299 -10.9437801715 -2.4999951834
28.1540874612 -10.9608734860 -2.4999951834
31.0210844425 -10.9497787228 -2.4999951834
31.0530566171 -10.9410790570 -2.4999951834
28.0355963143 -10.9537239375 -2.4999951575
31.0755079007 -10.9599453360 -2.4999951575
27.9008238793 -10.9390770830 -2.4999951315
27.9257956583 -10.9719779397 -2.4999951056
27.7742078266 -10.9493189131 -2.4999950797
31.4327430471 -10.9243380969 -2.4999950797
31.5363079432 -10.9130655952 -2.4999950537
27.5984787804 -10.9393583557 -2.4999950278
31.5765099655 -10.9239640897 -2.4999950278
27.5421708952 -10.9443156502 -2.4999950019
31.6328545314 -10.9284854395 -2.4999950019
27.4536658768 -10.9362902696 -2.4999949759
27.3398222204 -10.9426355798 -2.4999949241
27.2506365624 -10.9313188419 -2.4999948981
31.8605527840 -10.9407533683 -2.4999948981
27.1514298925 -10.9406065864 -2.4999948462
32.0394603526 -10.9144607822 -2.4999948462
26.9347164209 -10.9461037476 -2.4999947425
32.3148318838 -10.9150808558 -2.4999947166
32.4325454561 -10.9081050871 -2.4999946647
26.2235650370 -10.7399317246 -2.4999945610
26.2389577840 -10.7497983848 -2.4999945610
25.8781922559 -10.5309513730 -2.4999945350
27.0162374873 -11.1978777495 -2.4999945350
25.6596128116 -10.3927881234 -2.4999945091
25.3060150586 -10.1514463483 -2.4999944572
27.9892960472 -11.6673121327 -2.4999944054
33.0854081239 -11.1723373697 -2.4999940682
33.1020499815 -11.1619035651 -2.4999940682
33.8318249930 -10.6303435150 -2.4999940682
33.8468602688 -10.6177040458 -2.4999940682
33.8917408379 -10.5795195520 -2.4999940682
32.7924326722 -11.3727857223 -2.4999940423
32.9465233170 -11.2848467408 -2.4999940423
34.0696961539 -10.4539576365 -2.4999940423
34.1131147905 -10.4138020474 -2.4999940423
34.1871483153 -10.3771422757 -2.4999940163
34.3558606858 -10.2101102375 -2.4999940163
32.5520912977 -11.5534375531 -2.4999939904
34.5230668737 -10.0681262641 -2.4999939904
34.5497616058 -10.0387231246 -2.4999939904
32.3020311772 -11.7241616435 -2.4999939385
35.0059832936 -9.6375408822 -2.4999938867
35.2650599525 -9.3995948900 -2.4999938089
29.7973782419 -7.1046811541 -2.4999971434
29.9737409770 -7.0235134903 -2.4999971434
33.4403414194 -6.2249235273 -2.4999897865
33.4436903223 -6.2000219888 -2.4999897865
33.4453095117 -6.1875638985 -2.4999897865
33.4486503855 -6.4696210834 -2.4999896540
33.4625964559 -6.3946731961 -2.4999896540
33.4403246307 -6.6241873228 -2.4999895877
33.4431985926 -6.6117373329 -2.4999895877
33.4596678264 -6.5368638201 -2.4999895877
33.4674034527 -6.4993203964 -2.4999895877
33.4457533345 -6.7045927642 -2.4999895214
33.4549780091 -6.6671662190 -2.4999895214
33.4428330471 -6.8104235912 -2.4999894551
33.4409896043 -6.9042630273 -2.4999893889
33.4483576964 -6.8793457643 -2.4999893889
33.4555782407 -6.8543853452 -2.4999893889
33.4488886958 -6.9611613175 -2.4999893226
33.4394975953 -7.0682931538 -2.4999892563
33.4560272169 -7.0184216428 -2.4999892563
33.4591178977 -7.1590169656 -2.4999891237
33.4426974414 -7.3384057660 -2.4999889912
33.4447034280 -7.3973769036 -2.4999889249
33.4549888824 -7.3724290381 -2.4999889249
33.4459001352 -7.4566311100 -2.4999888586
33.4512365920 -7.4441609845 -2.4999888586
33.4517937057 -7.5036859403 -2.4999887924
33.4445712889 -7.6359822677 -2.4999886598
33.4620615694 -7.5985295356 -2.4999886598
33.4678177166 -7.5860109807 -2.4999886598
33.4611319101 -7.7676014395 -2.4999884610
33.4543307801 -8.0370147206 -2.4999881296
27.8197074326 -10.9406574378 -2.4999864064
30.4200505040 -10.9959819516 -2.4999864064
27.7663377104 -10.9512046401 -2.4999863401
27.7977481841 -10.9597896952 -2.4999863401
30.4252866159 -11.0195810706 -2.4999863401
30.7565623438 -10.9352037233 -2.4999863401
30.8034372139 -10.9214756439 -2.4999863401
30.8190348694 -10.9168072414 -2.4999863401
27.6342285595 -10.9381505164 -2.4999862738
30.8260003425 -10.9399549727 -2.4999862738
30.8729146430 -10.9256104830 -2.4999862738
27.5644614926 -10.9419168888 -2.4999862075
30.9427087841 -10.9288364812 -2.4999862075
30.9583276048 -10.9237560560 -2.4999862075
27.4787166223 -10.9396032617 -2.4999861412
27.4943824495 -10.9447699048 -2.4999861412
27.5257596129 -10.9549640511 -2.4999861412
27.5414706743 -10.9599914652 -2.4999861412
30.9501520566 -10.9518350241 -2.4999861412
30.9658388786 -10.9467324797 -2.4999861412
30.9971668969 -10.9363882897 -2.4999861412
31.0128078190 -10.9311467345 -2.4999861412
31.0284331672 -10.9258589336 -2.4999861412
31.0675544754 -10.9379842733 -2.4999860750
27.3220048709 -10.9364945135 -2.4999860087
27.3376621876 -10.9421247518 -2.4999860087
27.3533360911 -10.9477086483 -2.4999860087
31.0911852198 -10.9553504628 -2.4999860087
31.1225620312 -10.9442645309 -2.4999860087
27.2667190893 -10.9419873930 -2.4999859424
27.2823928968 -10.9477811526 -2.4999859424
31.1935052395 -10.9442073869 -2.4999859424
31.2404428060 -10.9266013299 -2.4999859424
27.2111859648 -10.9469138576 -2.4999858761
31.2960124148 -10.9310976102 -2.4999858761
27.1711129666 -10.9573929436 -2.4999858099
31.3204930875 -10.9474641263 -2.4999858099
31.3361653593 -10.9412660653 -2.4999858099
31.3921934312 -10.9447798115 -2.4999857436
31.4078574485 -10.9383696597 -2.4999857436
27.0117717457 -10.9452061066 -2.4999856773
31.4641212329 -10.9411377873 -2.4999856773
26.9552923786 -10.9474938583 -2.4999856110
26.9866950927 -10.9608773949 -2.4999856110
31.5616177322 -10.9518309527 -2.4999855447
31.6086084578 -10.9309578036 -2.4999855447
26.8260158839 -10.9432076680 -2.4999854785
26.8416952295 -10.9503051021 -2.4999854785
26.8888582779 -10.9713186775 -2.4999854785
26.7689088393 -10.9435550377 -2.4999854122
26.7272869884 -10.9507401306 -2.4999853459
31.8374125614 -10.9300490752 -2.4999852796
26.1099587134 -10.6978551127 -2.4999851471
26.1699481104 -10.7344560195 -2.4999851471
26.1850128015 -10.7434951341 -2.4999851471
26.2759564594 -10.7967904042 -2.4999851471
26.3064794508 -10.8141957578 -2.4999851471
26.4450851194 -10.8902727017 -2.4999851471
26.4606095405 -10.8984972295 -2.4999851471
27.0509062902 -11.1699211324 -2.4999851471
31.9529176015 -10.9259734107 -2.4999851471
26.0225731180 -10.6714803641 -2.4999850808
27.1904372340 -11.2487655189 -2.4999850808
31.9953028229 -10.9312129493 -2.4999850808
25.8617377122 -10.5942986791 -2.4999850145
27.3999386954 -11.3461698707 -2.4999850145
32.0378448527 -10.9361350092 -2.4999850145
25.3100102635 -10.2331613509 -2.4999848820
27.6763000860 -11.4778237968 -2.4999848820
27.8090450736 -11.5365261228 -2.4999848157
27.8559004509 -11.5724774765 -2.4999847494
32.2998267598 -10.9289178390 -2.4999846831
32.5341166353 -10.9288455873 -2.4999843517
33.0667399110 -11.2152640811 -2.4999828936
33.1160091881 -11.1810234434 -2.4999828936
33.1323645144 -11.1695128991 -2.4999828936
33.1812251913 -11.1346916815 -2.4999828936
33.7422243172 -10.6839403215 -2.4999828936
33.7719489774 -10.6571747021 -2.4999828936
33.7867517944 -10.6437260614 -2.4999828936
33.8601655764 -10.5758292664 -2.4999828936
33.9181685455 -10.5207346676 -2.4999828936
32.6915903947 -11.4838089127 -2.4999828273
32.8965844678 -11.3573871490 -2.4999828273
32.9134624699 -11.3465249311 -2.4999828273
33.7433715572 -10.7153160860 -2.4999828273
34.0067560515 -10.4680858285 -2.4999828273
34.0209984819 -10.4539434133 -2.4999828273
34.0634738879 -10.4112642458 -2.4999828273
34.0775479817 -10.3969542976 -2.4999828273
34.1055688675 -10.3682098136 -2.4999828273
32.7729856432 -11.4631275701 -2.4999827611
32.8926661169 -11.3885844534 -2.4999827611
34.3149262701 -10.1785169452 -2.4999827611
32.3804768519 -11.7117871430 -2.4999826948
32.5584980434 -11.6160420228 -2.4999826948
32.6289004176 -11.5762765378 -2.4999826948
34.4128855929 -10.1033765510 -2.4999826948
34.4260473704 -10.0880343269 -2.4999826948
34.4391637052 -10.0726532351 -2.4999826948
32.2830834466 -11.7883423828 -2.4999826285
32.3193676577 -11.7701902020 -2.4999826285
32.3374693315 -11.7610336896 -2.4999826285
32.3120542854 -11.8009117381 -2.4999825622
34.6810258495 -9.8509184860 -2.4999825622
34.7181237565 -9.8024056922 -2.4999825622
32.1758577728 -11.8939148570 -2.4999824960
32.5401174436 -11.7089813771 -2.4999824960
32.7356074702 -11.5981807194 -2.4999824960
32.4975724886 -11.7594135497 -2.4999824297
34.8421309461 -9.7163358667 -2.4999824297
31.7321752702 -12.1619791544 -2.4999822971
31.9224082354 -12.1904530965 -2.4999820320
29.7762508521 -7.1467370579 -2.4999994886
33.4356128074 -5.7969687121 -2.4999963505
33.4629654269 -7.1356826120 -2.4999961171
33.4668738009 -7.1222464761 -2.4999961171
33.4490185489 -7.2634721099 -2.4999960911
33.4575518231 -7.2366686132 -2.4999960911
33.4617589557 -7.2232480500 -2.4999960911
33.4700540279 -7.1963698808 -2.4999960911
33.4543999248 -7.3245983457 -2.4999960652
33.4632947481 -7.2977619412 -2.4999960652
33.4479740061 -7.4880539393 -2.4999960133
33.4464982373 -7.6259482721 -2.4999959614
33.4518569779 -7.6125587041 -2.4999959614
33.4580374181 -7.6618271305 -2.4999959355
33.4635022444 -7.6484032705 -2.4999959355
33.4580472995 -7.7247708381 -2.4999959096
33.4513218075 -7.8013776583 -2.4999958836
33.4554878558 -7.8514222562 -2.4999958577
33.4674995272 -7.8245701948 -2.4999958577
33.4652949787 -7.8882689123 -2.4999958318
27.5987267079 -10.9504478972 -2.4999954946
27.6139455062 -10.9543425488 -2.4999954946
30.3171855949 -10.9318851040 -2.4999954946
30.3474772446 -10.9235463795 -2.4999954946
30.3777190295 -10.9150285854 -2.4999954946
27.5012197521 -10.9494349410 -2.4999954687
27.5316645167 -10.9577561090 -2.4999954687
27.6385976806 -10.9854587392 -2.4999954687
30.3995119408 -10.9339311718 -2.4999954687
27.4185418286 -10.9510462437 -2.4999954427
27.4337631853 -10.9554739122 -2.4999954427
30.5276393211 -10.9206180764 -2.4999954427
30.5729498866 -10.9061756050 -2.4999954427
30.5880247059 -10.9012721603 -2.4999954427
27.3202980349 -10.9466133147 -2.4999954168
27.3355067080 -10.9513316255 -2.4999954168
27.3507292722 -10.9560049257 -2.4999954168
27.3659655942 -10.9606331743 -2.4999954168
27.4117557737 -10.9742472079 -2.4999954168
30.5652357927 -10.9340549083 -2.4999954168
30.6257775364 -10.9142631927 -2.4999954168
27.2369303996 -10.9453159622 -2.4999953909
27.2673554204 -10.9552008269 -2.4999953909
30.6939986964 -10.9165960120 -2.4999953909
27.1684499362 -10.9478842003 -2.4999953649
27.1836630332 -10.9530516997 -2.4999953649
27.1988913501 -10.9581741734 -2.4999953649
27.2446662864 -10.9732709940 -2.4999953649
30.6563057286 -10.9550211878 -2.4999953649
30.7625123769 -10.9180261571 -2.4999953649
30.7776214229 -10.9125619005 -2.4999953649
27.0996737322 -10.9495479702 -2.4999953390
27.1606414074 -10.9707613102 -2.4999953390
27.0458344901 -10.9558758796 -2.4999953131
27.0610717644 -10.9614060627 -2.4999953131
30.7636276634 -10.9689823781 -2.4999953131
30.9998806842 -10.9046366027 -2.4999952871
26.8916897906 -10.9490469854 -2.4999952612
26.9069075383 -10.9550331863 -2.4999952612
31.0543513141 -10.9083077800 -2.4999952612
26.8370623873 -10.9532209833 -2.4999952353
30.9813364611 -10.9902653214 -2.4999952093
31.1185680009 -10.9336321282 -2.4999952093
26.6565649440 -10.9556475401 -2.4999951575
31.2744556977 -10.9172839380 -2.4999951575
31.3903071525 -10.8892427871 -2.4999951315
26.0256882279 -10.6851959205 -2.4999951056
26.0545954900 -10.7022514531 -2.4999951056
26.2153527815 -10.7929787689 -2.4999951056
27.1221609155 -11.1874032480 -2.4999951056
27.1540202147 -11.1979628905 -2.4999951056
31.4008658637 -10.9109878762 -2.4999951056
31.4310149122 -10.8962381011 -2.4999951056
25.7567728707 -10.5441835205 -2.4999950797
27.1945917428 -11.2364823621 -2.4999950797
27.3721263686 -11.2898378926 -2.4999950797
25.6455330963 -10.4974247970 -2.4999950537
27.5290622183 -11.3567522914 -2.4999950537
31.5280145360 -10.9016291612 -2.4999950537
27.6057448092 -11.4002900166 -2.4999950278
27.6886045834 -11.4191595642 -2.4999950278
27.8461310968 -11.5007158374 -2.4999949759
31.6823613839 -10.9023233001 -2.4999949759
28.0452102137 -11.5592411459 -2.4999949500
31.7240926868 -10.9070950880 -2.4999949500
31.8925214352 -10.9230038756 -2.4999948462
33.1554938165 -11.1724228181 -2.4999938607
33.1713449435 -11.1598785765 -2.4999938607
33.6436154358 -10.7483376323 -2.4999938607
33.7017441812 -10.6921341000 -2.4999938607
32.8447044889 -11.4331358671 -2.4999938348
33.0256460394 -11.3025648600 -2.4999938348
33.7763123237 -10.6523240129 -2.4999938348
33.9035571813 -10.5214068676 -2.4999938348
33.9727290556 -10.4472254713 -2.4999938348
34.0000893181 -10.4172678064 -2.4999938348
34.0542757362 -10.3568694864 -2.4999938348
34.0677103764 -10.3416700536 -2.4999938348
32.6214272617 -11.6110707896 -2.4999938089
32.8082759980 -11.4876697544 -2.4999938089
32.9250502123 -11.4060022287 -2.4999938089
32.9415933177 -11.3941386589 -2.4999938089
32.9581012562 -11.3822262035 -2.4999938089
32.9910110546 -11.3582550534 -2.4999938089
33.2648801080 -11.1467424699 -2.4999938089
34.0858460608 -10.3576523011 -2.4999938089
34.1657851635 -10.2653028041 -2.4999938089
32.6171751461 -11.6424097291 -2.4999937829
32.8723535527 -11.4727952972 -2.4999937829
34.3142060661 -10.1233873273 -2.4999937829
34.4271797298 -9.9783386193 -2.4999937829
33.2474983909 -11.2228421781 -2.4999937570
34.3965390699 -10.0580013322 -2.4999937570
34.4711109758 -9.9601847985 -2.4999937570
34.5439350705 -9.8610601564 -2.4999937570
32.2710995392 -11.9028762597 -2.4999937310
34.6813791360 -9.7065829512 -2.4999937310
32.5154069844 -11.7903656287 -2.4999937051
34.8279867773 -9.7047462899 -2.4999936014
31.6988888619 -12.3417517467 -2.4999935754
35.1836077219 -9.2561664930 -2.4999935236
31.8826555120 -12.3402886098 -2.4999934976
29.7451248391 -7.1990639004 -2.5000044588
27.3754670518 -10.9525082707 -2.5000115131
27.4192858310 -10.9635839389 -2.5000115131
27.4485522109 -10.9707514907 -2.5000115131
27.4778604842 -10.9777457674 -2.5000115131
29.9097271915 -10.9539448860 -2.5000115131
29.9388929566 -10.9463783191 -2.5000115131
29.9680134450 -10.9386393301 -2.5000115131
27.2816908291 -10.9524913408 -2.5000115621
27.2962865064 -10.9565038400 -2.5000115621
27.3694394225 -10.9759177339 -2.5000115621
30.0035033732 -10.9540342753 -2.5000115621
30.0326680259 -10.9459128955 -2.5000115621
33.4528530586 -7.7733631289 -2.5000115621
27.2021079479 -10.9549831398 -2.5000116111
27.2167113446 -10.9592310486 -2.5000116111
27.2752486739 -10.9757901373 -2.5000116111
30.0245763572 -10.9732821585 -2.5000116111
30.1268319916 -10.9436632307 -2.5000116111
30.1994853744 -10.9212136672 -2.5000116111
33.4597442522 -7.8244393667 -2.5000116111
27.1660159773 -10.9695182283 -2.5000116601
27.1806625294 -10.9738728402 -2.5000116601
30.2358956567 -10.9349319207 -2.5000116601
33.4550449607 -7.9042637806 -2.5000116601
33.4605964186 -7.8900277191 -2.5000116601
30.3016489520 -10.9386771915 -2.5000117090
30.3161905510 -10.9337561688 -2.5000117090
30.3742094673 -10.9136425630 -2.5000117090
26.9612183199 -10.9547358487 -2.5000117580
27.0050731801 -10.9694876544 -2.5000117580
30.4113161999 -10.9260728871 -2.5000117580
30.4403082863 -10.9155392390 -2.5000117580
30.4547808323 -10.9102081382 -2.5000117580
26.9387531756 -10.9725860779 -2.5000118070
30.5066928800 -10.9165536122 -2.5000118070
30.5211681363 -10.9110261293 -2.5000118070
33.4639365983 -8.0741297813 -2.5000118070
33.4699905116 -8.0598666735 -2.5000118070
26.8136338359 -10.9534758692 -2.5000118560
26.8428510130 -10.9642268385 -2.5000118560
30.4861497161 -10.9501257440 -2.5000118560
30.5733515859 -10.9166791994 -2.5000118560
26.7613130803 -10.9596113464 -2.5000119050
26.7759320968 -10.9651631860 -2.5000119050
33.4580060983 -8.2075793710 -2.5000119050
33.4644548055 -8.1933332228 -2.5000119050
33.4898273669 -8.1361597379 -2.5000119050
26.6795192246 -10.9536604841 -2.5000119540
26.7087398412 -10.9652049173 -2.5000119540
30.6348383351 -10.9442020813 -2.5000119540
30.6929585450 -10.9203173555 -2.5000119540
26.6412860850 -10.9643457094 -2.5000120030
26.6559196318 -10.9702525898 -2.5000120030
26.6705705881 -10.9761161557 -2.5000120030
30.7603758217 -10.9179386448 -2.5000120030
30.7748540651 -10.9116607158 -2.5000120030
30.7893136740 -10.9053399851 -2.5000120030
33.4620837855 -8.3134301505 -2.5000120030
26.2140895762 -10.7959903831 -2.5000120520
26.2849868110 -10.8314279455 -2.5000120520
26.3707437418 -10.8725630889 -2.5000120520
30.9247764378 -10.8970377407 -2.5000121010
33.4567869403 -8.4343516392 -2.5000121010
30.9783930612 -10.8984246382 -2.5000121499
33.4639634422 -8.4737426328 -2.5000121499
33.4560088169 -8.5418079959 -2.5000121989
33.4623515398 -8.5815731062 -2.5000122479
31.1548601895 -10.8917535388 -2.5000122969
31.1948334814 -10.8982447071 -2.5000123459
31.2349710289 -10.9044326446 -2.5000123949
31.2494072426 -10.8967508363 -2.5000123949
33.4555698991 -8.7446319765 -2.5000123949
33.4716025690 -8.7161256800 -2.5000123949
31.3041543794 -10.8946708204 -2.5000124439
31.5946237299 -10.8666660738 -2.5000126888
33.4350048805 -9.0607125706 -2.5000126888
33.4439774108 -9.0465307314 -2.5000126888
31.6215744838 -10.8785329628 -2.5000127378
31.7189637021 -10.8748295535 -2.5000128358
33.4421083994 -9.2269342551 -2.5000128848
33.4430707910 -9.2688095528 -2.5000129338
33.4326753891 -9.4941614757 -2.5000131787
33.4282005464 -9.6222043793 -2.5000133257
33.4316855878 -9.7370265238 -2.5000134726
32.4742642549 -10.9030975956 -2.5000137665
32.9873718405 -11.3594865032 -2.5000151382
33.0814451475 -11.2815833413 -2.5000151382
33.7813285333 -10.6008621969 -2.5000151382
33.7948555893 -10.5856491308 -2.5000151382
33.8083375832 -10.5703961158 -2.5000151382
33.8750675042 -10.4935364908 -2.5000151382
33.9406533426 -10.4156983117 -2.5000151382
32.7606752411 -11.5662458548 -2.5000151872
32.7934136880 -11.5418014055 -2.5000151872
32.9068473709 -11.4547295563 -2.5000151872
32.9229041473 -11.4420996276 -2.5000151872
33.0657139477 -11.3263087071 -2.5000151872
33.8399572846 -10.5710318093 -2.5000151872
34.0621358684 -10.3041587846 -2.5000151872
34.1565334734 -10.2220022365 -2.5000152362
34.2058617393 -10.1564977362 -2.5000152362
34.2302343498 -10.1235277512 -2.5000152362
32.6561757312 -11.7015691505 -2.5000152852
32.6729638005 -11.6896796738 -2.5000152852
33.2218446943 -11.2566256252 -2.5000152852
34.3219076292 -10.0377247148 -2.5000152852
34.3573346763 -9.9871906425 -2.5000152852
32.3610034354 -11.9274415007 -2.5000153342
32.5683043606 -11.7918503036 -2.5000153342
32.6193673427 -11.7568094017 -2.5000153342
32.3034775255 -11.9916052536 -2.5000153832
32.5818932957 -11.8118422052 -2.5000153832
32.7682264940 -11.6807051363 -2.5000153832
34.5463591148 -9.7906808082 -2.5000153832
34.5685614702 -9.7557027288 -2.5000153832
32.8991753798 -11.6133653635 -2.5000154321
34.4522413132 -9.9771789418 -2.5000154321
32.2752321271 -12.0652809709 -2.5000154811
31.9596951788 -12.2712582452 -2.5000155301
32.0701126448 -12.2114508584 -2.5000155301
32.7087682471 -11.8123525586 -2.5000155301
35.0405413258 -9.1581859382 -2.5000156281
34.8752497441 -9.5243344718 -2.5000156771
29.6662536881 -7.3993721774 -2.5000056098
27.1439462395 -10.9614764645 -2.5000139147
27.1855574501 -10.9725195023 -2.5000139147
29.5995158518 -10.9810250350 -2.5000139147
27.0128003556 -10.9492983498 -2.5000139781
29.8001017063 -10.9508739547 -2.5000139781
29.8139182145 -10.9467386513 -2.5000139781
29.8347563486 -10.9656895188 -2.5000140415
29.9039300852 -10.9440906568 -2.5000140415
29.9177260729 -10.9396482400 -2.5000140415
29.9804916821 -10.9443799112 -2.5000141049
30.0573871697 -10.9434201463 -2.5000141683
30.0793007602 -10.9612921052 -2.5000142317
30.1069782340 -10.9513286272 -2.5000142317
30.1983069576 -10.9430279669 -2.5000142951
30.2623012400 -10.9439963664 -2.5000143585
30.3311073600 -10.9160763231 -2.5000143585
33.4503656786 -7.6081123676 -2.5000148657
33.4619693259 -7.5633215214 -2.5000148657
33.4731750226 -7.5184294632 -2.5000148657
33.4439432937 -4.9241900215 -2.5000148657
33.4399158375 -4.9093019450 -2.5000148657
33.4575755055 -7.6741120769 -2.5000149291
33.4508371771 -4.8581565632 -2.5000149291
33.4380364907 -4.8134698222 -2.5000149291
33.4507502338 -7.7852689423 -2.5000149925
33.4808743122 -7.6805541949 -2.5000149925
33.4434800098 -4.7470336352 -2.5000149925
33.4343329649 -4.7172753028 -2.5000149925
30.9679392221 -10.9038787311 -2.5000150559
33.4556419112 -7.8520153997 -2.5000150559
33.4783671378 -7.7772028259 -2.5000150559
33.4480521965 -4.6802645315 -2.5000150559
33.4433031466 -4.6653653675 -2.5000150559
33.4385100430 -4.6504803171 -2.5000150559
33.4336729278 -4.6356095108 -2.5000150559
31.0070875124 -10.9097414667 -2.5000151193
33.4547805800 -7.9340209221 -2.5000151193
33.4596567006 -7.9190876177 -2.5000151193
33.4418067972 -4.5833689741 -2.5000151193
33.4316914863 -4.5536234054 -2.5000151193
33.4577121142 -8.0014164232 -2.5000151827
33.4545543017 -4.5457731215 -2.5000151827
33.4463469743 -4.3802525784 -2.5000153094
33.4407104423 -4.3653597714 -2.5000153094
33.4438289068 -8.2501148091 -2.5000153728
33.4554072603 -8.2202931027 -2.5000153728
33.4611302230 -8.2053566919 -2.5000153728
33.4343341061 -4.2822262158 -2.5000153728
33.4545300065 -8.2888160927 -2.5000154362
33.4604556764 -8.2738819771 -2.5000154362
33.4265944548 -4.1988647605 -2.5000154362
31.4218110448 -10.8842379751 -2.5000156264
33.4463651753 -8.4958356826 -2.5000156264
33.4443122880 -8.7301970672 -2.5000158800
33.4473821365 -8.9378555668 -2.5000161336
33.4546489310 -9.0767823197 -2.5000163238
33.4460398209 -9.1900876533 -2.5000164506
33.4439138023 -9.2890806472 -2.5000165774
33.4232048000 -9.4609065096 -2.5000167676
33.4325978624 -9.4460599312 -2.5000167676
33.4246188958 -9.5035909341 -2.5000168310
32.6018146001 -10.8521601763 -2.5000174649
33.4594897870 -10.8091597092 -2.5000189864
33.1465131641 -11.2362541960 -2.5000191766
33.1611592367 -11.2222183537 -2.5000191766
33.2193264044 -11.1656435751 -2.5000191766
33.2481579345 -11.1370990743 -2.5000191766
33.2625102435 -11.1227629822 -2.5000191766
33.2910873218 -11.0939637419 -2.5000191766
33.3053118409 -11.0795008456 -2.5000191766
33.3336322167 -11.0504491338 -2.5000191766
33.6335658490 -10.7200832270 -2.5000191766
33.6597540445 -10.6890957446 -2.5000191766
33.7115781532 -10.6266586824 -2.5000191766
33.7626598496 -10.5636127843 -2.5000191766
32.9070930320 -11.4864212485 -2.5000192400
33.7942296109 -10.5628075749 -2.5000192400
33.8817912563 -10.4503853346 -2.5000192400
32.8137061539 -11.5970573890 -2.5000193034
32.9228929988 -11.5047159562 -2.5000193034
33.9744586498 -10.3669096881 -2.5000193034
32.6369084733 -11.7691830693 -2.5000193668
32.6531332757 -11.7566523980 -2.5000193668
32.7815828330 -11.6546904480 -2.5000193668
34.2378897469 -10.0265889974 -2.5000193668
34.2489526358 -10.0093299586 -2.5000193668
32.4198833868 -11.9592655691 -2.5000194302
32.5034697264 -11.8993229978 -2.5000194302
34.3562806017 -9.8826240514 -2.5000194302
32.3320121605 -12.0495468627 -2.5000194936
34.4608709281 -9.7529212024 -2.5000194936
34.4813225891 -9.7170560323 -2.5000194936
32.2595144996 -12.1271277573 -2.5000195570
34.6113991843 -9.5289013432 -2.5000195570
32.4786714428 -12.0064947350 -2.5000196204
34.3415995059 -10.0438560019 -2.5000196204
34.3966459930 -9.9557000210 -2.5000196204
34.4923635063 -9.8431563635 -2.5000196838
34.8674425063 -9.1671916323 -2.5000197472
30.9517142893 -13.0874215816 -2.5000202544
29.5483258765 -7.3040752371 -2.5000015534
29.5892300596 -7.2243167624 -2.5000015534
29.5207894153 -7.3980179447 -2.5000015591
29.5672965345 -7.3197233108 -2.5000015591
29.5423125500 -10.9637841573 -2.5000022853
29.5552954294 -10.9598564807 -2.5000022853
29.6533535892 -10.9542662586 -2.5000022911
29.6738870319 -10.9729642493 -2.5000022968
29.7388049237 -10.9509952885 -2.5000022968
29.7517491116 -10.9464864079 -2.5000022968
29.8718570532 -10.9542822188 -2.5000023084
29.9931816199 -10.9588176642 -2.5000023199
30.0672418136 -10.9544039727 -2.5000023256
30.0801946479 -10.9489235015 -2.5000023256
30.1544928691 -10.9430538346 -2.5000023314
30.2520906873 -10.9519089173 -2.5000023429
30.3400467456 -10.9369174026 -2.5000023487
31.4432506248 -10.9152096434 -2.5000024813
33.4410822078 -7.9831675685 -2.5000024813
33.4549300711 -5.2151812159 -2.5000024813
33.4468050115 -5.1842397252 -2.5000024813
33.4426738694 -5.1687871418 -2.5000024813
33.4472915941 -8.0514142772 -2.5000024870
33.4532934248 -5.1160189790 -2.5000024870
33.4489604451 -5.1005475001 -2.5000024870
33.4526135347 -8.1200044464 -2.5000024928
33.4424943747 -8.2353292352 -2.5000024985
33.4682986690 -4.9940630147 -2.5000024985
33.4492483226 -4.9320859416 -2.5000024985
33.4443712534 -4.9166272337 -2.5000024985
33.4350691851 -8.3354789060 -2.5000025043
33.4402600298 -8.3200472513 -2.5000025043
33.4524423936 -4.8628273506 -2.5000025043
33.4422327338 -4.8319067446 -2.5000025043
33.4420535977 -8.3896244972 -2.5000025101
33.4144554757 -8.5365145860 -2.5000025158
33.4429281778 -8.4594876800 -2.5000025158
33.4450585999 -4.6924694230 -2.5000025158
33.4193603098 -8.5912745939 -2.5000025216
33.4312099750 -8.5604844586 -2.5000025216
33.4621926081 -4.6687693428 -2.5000025216
33.4560499523 -4.5828695069 -2.5000025274
