12.0509234563 -3.6699152911 -2.4999851471
10.8462701668 -3.0543644685 -2.4999850808
10.8899587152 -3.0842276267 -2.4999850808
11.0972638380 -3.2184098960 -2.4999850808
11.3407478328 -3.3610976388 -2.4999850808
12.1573448774 -3.7365765094 -2.4999850808
12.1904544001 -3.7487596776 -2.4999850808
12.2236354231 -3.7607467455 -2.4999850808
12.2402523844 -3.7666666105 -2.4999850808
12.2735384793 -3.7783587434 -2.4999850808
10.6597904835 -2.9504662745 -2.4999850145
10.9057971589 -3.1240170056 -2.4999850145
11.0245148921 -3.2013586453 -2.4999850145
11.0996302332 -3.2482622838 -2.4999850145
12.2321737506 -3.7894497393 -2.4999850145
12.4337094948 -3.8569099116 -2.4999850145
10.4074351365 -2.7834147824 -2.4999849482
12.5114433903 -3.9060597326 -2.4999849482
12.5626246842 -3.9211118740 -2.4999849482
12.5968188871 -3.9308940411 -2.4999849482
12.6139375419 -3.9357092174 -2.4999849482
10.5738861057 -2.9462961297 -2.4999848820
10.0678059570 -2.5477078600 -2.4999848157
12.7742394019 -4.0279919688 -2.4999848157
9.8969968648 -2.4140610461 -2.4999847494
10.0381367409 -2.5528746763 -2.4999847494
10.1435823350 -2.6509079290 -2.4999847494
12.8910021820 -4.0805159337 -2.4999847494
12.9965328287 -4.1034014622 -2.4999847494
17.2998439259 -3.4289119977 -2.4999846831
13.3912122658 -4.2694802001 -2.4999844843
17.4744975097 -3.4373139137 -2.4999844180
17.7715980828 -3.4190069473 -2.4999840203
18.2079697978 -3.4047390256 -2.4999833576
17.9003675488 -3.8262112477 -2.4999828936
18.0005957186 -3.7602297182 -2.4999828936
18.0171858737 -3.7490602920 -2.4999828936
18.0502666977 -3.7265744545 -2.4999828936
18.6823197063 -3.2369357998 -2.4999828936
18.7422414833 -3.1839344803 -2.4999828936
18.7867689605 -3.1437202201 -2.4999828936
18.8015319292 -3.1302278488 -2.4999828936
18.8162549204 -3.1166918651 -2.4999828936
18.8309378053 -3.1031123872 -2.4999828936
18.8892657173 -3.0483619177 -2.4999828936
17.7604359742 -3.9424720331 -2.4999828273
17.9134796360 -3.8465190898 -2.4999828273
17.9303254319 -3.8356069912 -2.4999828273
17.9471388741 -3.8246451075 -2.4999828273
18.8326417273 -3.1344628482 -2.4999828273
18.9204457788 -3.0520441078 -2.4999828273
18.9924890136 -2.9821802088 -2.4999828273
19.0634910540 -2.9112584046 -2.4999828273
19.0915968486 -2.8825969371 -2.4999828273
19.1195325805 -2.8537696880 -2.4999828273
18.3230740342 -3.5904133093 -2.4999827611
18.3391604307 -3.5782906770 -2.4999827611
19.2609619708 -2.7383242817 -2.4999827611
19.2745236302 -2.7234309355 -2.4999827611
19.3416678188 -2.6483660332 -2.4999827611
17.4163235981 -4.1930542487 -2.4999826948
17.4341966829 -4.1836113113 -2.4999826948
18.1245114508 -3.7635047902 -2.4999826948
19.3996956541 -2.6186739317 -2.4999826948
19.4260645365 -2.5880284857 -2.4999826948
17.4275842194 -4.2144442859 -2.4999826285
19.5227229848 -2.5105473621 -2.4999826285
17.0546190532 -4.4231055833 -2.4999825622
17.0085208707 -4.4700325485 -2.4999824960
17.5401346098 -4.2089755359 -2.4999824960
19.9215029911 -2.1468307392 -2.4999823634
20.1468359918 -1.8512465014 -2.4999822971
16.9140085031 -4.6154691197 -2.4999822308
16.4636558561 -4.8352089750 -2.4999820983
18.4355194152 1.6629819034 -2.4999963505
18.4351577729 1.7564258186 -2.4999963505
18.4512995072 0.4112388866 -2.4999961430
18.4543884807 0.1754004622 -2.4999960652
18.4495366930 0.0871348888 -2.4999960392
18.4578245560 0.0387461159 -2.4999960133
18.4554582611 -0.0367619656 -2.4999959874
18.4634908003 -0.1484044626 -2.4999959355
18.4743012030 -0.1215085386 -2.4999959355
18.4523451439 -0.2381794193 -2.4999959096
18.4615021058 -0.3380063008 -2.4999958577
18.4591091346 -0.4016982181 -2.4999958318
18.4685285549 -0.4387601280 -2.4999958058
18.4545618992 -0.6318390559 -2.4999957280
18.4614171174 -0.6184233867 -2.4999957280
12.6139340621 -3.4543437409 -2.4999954946
12.6444058888 -3.4619978996 -2.4999954946
12.6596586506 -3.4657573396 -2.4999954946
15.3171741508 -3.4318862961 -2.4999954946
15.3474658005 -3.4235475716 -2.4999954946
15.3625929923 -3.4193110398 -2.4999954946
15.3777075854 -3.4150297775 -2.4999954946
12.5621465351 -3.4658982020 -2.4999954687
12.5774111946 -3.4699009630 -2.4999954687
12.5926876283 -3.4738585508 -2.4999954687
15.4298028108 -3.4251065333 -2.4999954687
15.4449342540 -3.4206264268 -2.4999954687
15.4600523780 -3.4161015785 -2.4999954687
15.4902481395 -3.4069178147 -2.4999954687
12.4033221923 -3.4465747591 -2.4999954427
12.4337517412 -3.4554751043 -2.4999954427
12.4489861291 -3.4598577259 -2.4999954427
12.4794934653 -3.4684876755 -2.4999954427
12.3354952639 -3.4513328176 -2.4999954168
15.6710163973 -3.3989512420 -2.4999954168
12.2521241556 -3.4502820874 -2.4999953909
12.2673439764 -3.4552020189 -2.4999953909
15.7392555733 -3.4006785450 -2.4999953909
12.1684384921 -3.4478853924 -2.4999953649
12.2141233094 -3.4632527687 -2.4999953649
12.2293816660 -3.4682850569 -2.4999953649
15.7776099788 -3.4125630926 -2.4999953649
15.8077792475 -3.4015006133 -2.4999953649
12.0996622881 -3.4495491623 -2.4999953390
15.8765755143 -3.4014109699 -2.4999953390
18.4493630228 -1.3529558204 -2.4999953390
15.9154671655 -3.4122813768 -2.4999953131
15.9606884644 -3.3943973776 -2.4999953131
15.9998692401 -3.4046377948 -2.4999952871
11.9068960942 -3.4550343783 -2.4999952612
16.0543398700 -3.4083089721 -2.4999952612
11.8522812774 -3.4593699557 -2.4999952353
16.0939314081 -3.4178577034 -2.4999952353
16.1241264655 -3.4049236677 -2.4999952353
11.7974314448 -3.4631398000 -2.4999952093
16.1941300347 -3.4005978999 -2.4999952093
11.7271018797 -3.4598670871 -2.4999951834
16.1280746116 -3.4558536245 -2.4999951834
11.6870498031 -3.4689670530 -2.4999951575
16.3046327642 -3.4032831298 -2.4999951575
11.2858031589 -3.3032906872 -2.4999951315
16.3601887590 -3.4037530360 -2.4999951315
16.3902957084 -3.3892439792 -2.4999951315
10.9395675004 -3.1330085731 -2.4999951056
10.9538545117 -3.1418126729 -2.4999951056
10.9825063538 -3.1592938895 -2.4999951056
12.1699617087 -3.7031731735 -2.4999951056
16.4460451361 -3.3887975804 -2.4999951056
10.7989192168 -3.0720958281 -2.4999950797
10.8697272972 -3.1177794466 -2.4999950797
12.2106470069 -3.7415724586 -2.4999950797
12.2428252334 -3.7516075720 -2.4999950797
12.2750622678 -3.7614521325 -2.4999950797
16.4718799944 -3.4029300355 -2.4999950797
16.4869412759 -3.3953673733 -2.4999950797
10.7433276451 -3.0642811998 -2.4999950537
12.4962454598 -3.8484099363 -2.4999950537
16.5280030919 -3.4016303533 -2.4999950537
16.5430602832 -3.3939016746 -2.4999950537
10.6876297970 -3.0558535265 -2.4999950278
12.5561546558 -3.8883819420 -2.4999950278
12.9135567456 -4.0130593541 -2.4999949759
17.1926906052 -3.4383641591 -2.4999946647
18.0596026735 -3.7466997938 -2.4999938607
18.5995732310 -3.2900379455 -2.4999938607
18.8159748959 -3.0776845771 -2.4999938607
17.8944606754 -3.8981117520 -2.4999938348
17.9767097137 -3.8387592167 -2.4999938348
18.0256345953 -3.8025660521 -2.4999938348
18.0418712742 -3.7904053542 -2.4999938348
18.1225111689 -3.7288843406 -2.4999938348
18.6603035886 -3.2658162025 -2.4999938348
18.9589711349 -2.9621446623 -2.4999938348
19.0272604180 -2.8871499854 -2.4999938348
19.0407847480 -2.8720303026 -2.4999938348
17.6214158176 -4.1110719816 -2.4999938089
17.7407852092 -4.0332468559 -2.4999938089
17.9580898121 -3.8822273956 -2.4999938089
19.0588255587 -2.8881195671 -2.4999938089
19.1920542875 -2.7342073305 -2.4999938089
17.4429728108 -4.2491256679 -2.4999937829
19.2367508827 -2.7183945705 -2.4999937829
19.3522811022 -2.5753737861 -2.4999937829
18.2794487109 -3.6971628389 -2.4999937570
19.3458535940 -2.6224715857 -2.4999937570
17.2349687343 -4.4225798319 -2.4999937310
17.6256292668 -4.1942369008 -2.4999937310
19.4220286313 -2.6039398040 -2.4999937051
19.6428867133 -2.3051747781 -2.4999937051
19.4917017806 -2.5532261989 -2.4999936792
17.1223647494 -4.5638075786 -2.4999936532
20.1099507926 -1.7394977360 -2.4999936014
16.8144066457 -4.7914550675 -2.4999935754
12.3754880327 -3.4525054097 -2.5000115131
12.4193068118 -3.4635810779 -2.5000115131
14.8951486299 -3.4576605671 -2.5000115131
14.9097481723 -3.4539420250 -2.5000115131
14.9243366507 -3.4501803109 -2.5000115131
14.9389139375 -3.4463754580 -2.5000115131
14.9534799050 -3.4425274995 -2.5000115131
14.9680344258 -3.4386364691 -2.5000115131
18.4554431318 -0.1941206117 -2.5000115131
18.4603729550 -0.1798843539 -2.5000115131
12.2963074873 -3.4565009790 -2.5000115621
15.0035243540 -3.4540314143 -2.5000115621
15.0618051003 -3.4376162488 -2.5000115621
18.4528740394 -0.2733602679 -2.5000115621
18.4631604041 -0.2448870439 -2.5000115621
12.2021289287 -3.4549802788 -2.5000116111
12.2167323255 -3.4592281876 -2.5000116111
12.2459764976 -3.4675943143 -2.5000116111
15.0684961555 -3.4608447886 -2.5000116111
15.0831043590 -3.4566134392 -2.5000116111
15.1122828951 -3.4480211921 -2.5000116111
15.1268529724 -3.4436603696 -2.5000116111
15.1559541081 -3.4348095178 -2.5000116111
18.4703536613 -0.2959216171 -2.5000116111
12.1221754889 -3.4561918375 -2.5000116601
15.1776554985 -3.4534045819 -2.5000116601
15.2213719118 -3.4396125504 -2.5000116601
12.0418720259 -3.4561127623 -2.5000117090
12.0564794739 -3.4608347351 -2.5000117090
15.3162115318 -3.4337533078 -2.5000117090
18.4605883345 -0.4558847248 -2.5000117090
18.4662924807 -0.4416321012 -2.5000117090
12.0197413268 -3.4743155032 -2.5000117580
15.4403292671 -3.4155363780 -2.5000117580
18.4537298739 -0.5362370842 -2.5000117580
18.4714290549 -0.4934866044 -2.5000117580
11.8948944110 -3.4572427364 -2.5000118070
11.9095058448 -3.4623994906 -2.5000118070
11.9241324692 -3.4675129990 -2.5000118070
11.9534307781 -3.4776100998 -2.5000118070
15.5211891171 -3.4110232683 -2.5000118070
18.4578614995 -0.5883720571 -2.5000118070
11.8428719938 -3.4642239775 -2.5000118560
15.5733725667 -3.4166763383 -2.5000118560
15.5878479029 -3.4109516664 -2.5000118560
15.6402936091 -3.4159068091 -2.5000119050
15.7074651010 -3.4142359876 -2.5000119540
15.7363819905 -3.4019505544 -2.5000119540
18.4603460116 -0.7603955980 -2.5000119540
18.4735137101 -0.7318696434 -2.5000119540
11.6413070659 -3.4643428484 -2.5000120030
18.4688665816 -0.7991686156 -2.5000120030
11.2282479474 -3.3031588637 -2.5000120520
15.8959063144 -3.4104351279 -2.5000121010
15.9247974187 -3.3970348797 -2.5000121010
15.9784140421 -3.3984217772 -2.5000121499
16.0573429080 -3.4138396306 -2.5000122479
18.4547753388 -1.0958084728 -2.5000122479
16.2494282235 -3.3967479753 -2.5000123949
16.3185823940 -3.3867815369 -2.5000124439
16.3590897522 -3.3919986116 -2.5000124929
16.5946447107 -3.3666632128 -2.5000126888
16.9575721612 -3.3624431966 -2.5000130807
17.0706489032 -3.3721681936 -2.5000132277
18.4158985593 -2.6746505928 -2.5000140115
18.1279805707 -3.7420058352 -2.5000151382
18.6014515201 -3.2949337533 -2.5000151382
18.6296119279 -3.2655286125 -2.5000151382
18.6436267694 -3.2507636931 -2.5000151382
18.6854083734 -3.2062210906 -2.5000151382
18.7813495141 -3.1008593359 -2.5000151382
18.7948765702 -3.0856462697 -2.5000151382
18.8083585640 -3.0703932547 -2.5000151382
18.8750884851 -2.9935336298 -2.5000151382
18.8882976421 -2.9780437364 -2.5000151382
18.9276493747 -2.9313405565 -2.5000151382
17.8260279213 -4.0171608313 -2.5000151872
17.9549262450 -3.9166946894 -2.5000151872
17.9708703055 -3.9039227631 -2.5000151872
18.9199236454 -2.9781181377 -2.5000151872
19.0494613231 -2.8201608847 -2.5000151872
19.0621568493 -2.8041559235 -2.5000151872
19.0999585787 -2.7559166881 -2.5000151872
19.1124638380 -2.7397626281 -2.5000151872
19.1373307234 -2.7073438832 -2.5000151872
17.6756794022 -4.1580729812 -2.5000152362
17.9217850109 -3.9737484870 -2.5000152362
18.0178966449 -3.8969917463 -2.5000152362
18.7208159853 -3.2391398110 -2.5000152362
18.9778752624 -2.9465731330 -2.5000152362
19.2544324530 -2.5904112856 -2.5000152362
19.2784132411 -2.5571552206 -2.5000152362
17.5035424187 -4.3063221010 -2.5000152852
17.5206410426 -4.2948837449 -2.5000152852
17.6056225067 -4.2369360205 -2.5000152852
18.0171692490 -3.9287019032 -2.5000152852
18.2527642336 -3.7294553004 -2.5000152852
19.2739975978 -2.6046077778 -2.5000152852
19.3219286100 -2.5377218537 -2.5000152852
19.3455964884 -2.5040673810 -2.5000152852
17.5683253414 -4.2918474426 -2.5000153342
17.3211460981 -4.4807549919 -2.5000153832
19.5905774758 -2.2205910439 -2.5000153832
17.1011632914 -4.6387164729 -2.5000154321
17.1192469586 -4.6284669728 -2.5000154321
17.4743280241 -4.4123751785 -2.5000154321
12.1162376975 -3.4539068500 -2.5000139147
12.1994265413 -3.4761157764 -2.5000139147
14.6689192499 -3.4629011708 -2.5000139147
14.6966134409 -3.4553654840 -2.5000139147
14.7104436963 -3.4515362303 -2.5000139147
14.7380699218 -3.4437550698 -2.5000139147
12.0404376510 -3.4574749053 -2.5000139781
12.0959007683 -3.4733416107 -2.5000139781
14.7724094051 -3.4590192335 -2.5000139781
14.7862501374 -3.4549657456 -2.5000139781
11.9781060973 -3.4640721027 -2.5000140415
14.8347334605 -3.4656868962 -2.5000140415
14.9389972459 -3.4581388323 -2.5000141049
14.9804687939 -3.4443772886 -2.5000141049
15.2120756255 -3.4377121121 -2.5000142951
15.2670828663 -3.4160519070 -2.5000142951
15.3036116399 -3.4273638187 -2.5000143585
15.3310844718 -3.4160737005 -2.5000143585
18.4439204055 2.5758126011 -2.5000148657
18.4398929493 2.5907006776 -2.5000148657
18.4575526173 -0.1741094543 -2.5000149291
18.4616598682 -0.1591690192 -2.5000149291
18.4697416911 -0.1292520260 -2.5000149291
18.4549929946 2.6269254518 -2.5000149291
18.4465914636 2.6567542403 -2.5000149291
18.4380136025 2.6865328004 -2.5000149291
18.4682066581 -0.2255055732 -2.5000149925
18.4479645813 2.7380696575 -2.5000149925
18.4389056068 2.7678549183 -2.5000149925
15.9679163340 -3.4038761085 -2.5000150559
18.4573950813 2.7898979433 -2.5000150559
18.4480293083 2.8197380911 -2.5000150559
18.4384871548 2.8495223055 -2.5000150559
18.4336500396 2.8643931118 -2.5000150559
18.4596338124 -0.4190849951 -2.5000151193
18.4417839090 2.9166336485 -2.5000151193
18.4367482518 2.9315139136 -2.5000151193
18.4525695705 -0.5163409923 -2.5000151827
18.4576892260 -0.5014138006 -2.5000151827
18.4677959534 -0.4715143092 -2.5000151827
18.4389583529 2.9989369283 -2.5000151827
15.9891370133 -3.4749858374 -2.5000152460
18.4650048275 -0.5541608151 -2.5000152460
18.4402736380 3.0666504986 -2.5000152460
16.1528992739 -3.4093557088 -2.5000153094
18.4553496154 -0.6520294553 -2.5000153094
18.4717800478 -0.6071727576 -2.5000153094
18.4350069911 3.1495189192 -2.5000153094
16.2063957934 -3.4055101661 -2.5000153728
18.4553843721 -0.7202904801 -2.5000153728
18.4611073348 -0.7053540693 -2.5000153728
18.4343112179 3.2177764068 -2.5000153728
18.4604327882 -0.7738793545 -2.5000154362
18.4265715666 3.3011378621 -2.5000154362
18.4649257250 -0.8277100864 -2.5000154996
18.4301693354 3.3550358235 -2.5000154996
18.4528803941 -0.9809221917 -2.5000156264
18.4593743635 -0.9659920477 -2.5000156264
18.4431795979 -1.1200503582 -2.5000157532
18.4500851760 -1.1051483022 -2.5000157532
18.4569466409 -1.0902258834 -2.5000157532
18.4637639326 -1.0752832325 -2.5000157532
18.4510931679 -1.1601182924 -2.5000158166
18.4442893998 -1.2301944446 -2.5000158800
18.4365301861 -1.3004416012 -2.5000159434
18.4278105452 -1.3708469272 -2.5000160068
18.4492871416 -1.3819415695 -2.5000160702
18.4394694817 -1.4527454807 -2.5000161336
18.4498870025 -1.5352797657 -2.5000162604
18.4295915682 -1.6214459809 -2.5000163238
18.4463252739 -1.5916931223 -2.5000163238
18.4421576102 -1.6482594734 -2.5000163872
18.4231445217 -1.7766714745 -2.5000165140
18.4285105282 -1.8610927589 -2.5000166408
18.4268508469 -2.1323979798 -2.5000170211
18.4180407678 -2.4810056478 -2.5000175283
18.4236034847 -2.5543945925 -2.5000176551
18.2193035162 -3.6656409525 -2.5000191766
18.2337403913 -3.6513900244 -2.5000191766
17.9224573034 -3.9730899370 -2.5000192400
17.9683812691 -3.9328315809 -2.5000192400
18.0890799479 -3.8234999638 -2.5000192400
18.1336698252 -3.7817688158 -2.5000192400
18.2362598158 -3.6828693937 -2.5000192400
18.3367800190 -3.5818669650 -2.5000192400
18.3932742188 -3.5232237142 -2.5000192400
18.7043360553 -3.1733900553 -2.5000192400
18.7302467748 -3.1419845543 -2.5000192400
18.8194616108 -3.0308696817 -2.5000192400
18.8320180916 -3.0148461548 -2.5000192400
17.8918693284 -4.0313270238 -2.5000193034
18.7489382847 -3.1573130488 -2.5000193034
18.8384665024 -3.0458078670 -2.5000193034
18.9501482191 -2.8997620848 -2.5000193034
18.9744357616 -2.8669070655 -2.5000193034
19.0461261841 -2.7674879233 -2.5000193034
19.1160408057 -2.6668120663 -2.5000193034
17.6043251318 -4.2940975278 -2.5000193668
17.7336744861 -4.1932795107 -2.5000193668
19.0420744001 -2.8148492855 -2.5000193668
19.1128302379 -2.7142378804 -2.5000193668
17.6025665040 -4.3257672355 -2.5000194302
17.6189588504 -4.3133378387 -2.5000194302
19.3760249649 -2.4430462358 -2.5000195570
17.7287394687 -4.3203344069 -2.5000196204
14.5423239941 -3.4637861838 -2.5000022853
14.5682780774 -3.4558924422 -2.5000022853
14.6403982617 -3.4584860600 -2.5000022911
14.6663192712 -3.4500121708 -2.5000022911
14.7258588984 -3.4554678846 -2.5000022968
14.7727442123 -3.4647335327 -2.5000023026
14.9802113416 -3.4640427184 -2.5000023199
15.1545043132 -3.4430558612 -2.5000023314
15.1902359954 -3.4535884782 -2.5000023372
15.3529581020 -3.4306320281 -2.5000023487
15.5000118238 -3.4647898789 -2.5000023717
15.6149356556 -3.4308200607 -2.5000023775
15.8286013890 -3.5039424136 -2.5000024179
18.4452422696 -0.4677216942 -2.5000024813
18.4493451715 -0.4522615886 -2.5000024813
18.4628833723 2.2538277378 -2.5000024813
18.4384649217 -0.5823104929 -2.5000024870
18.4559582196 -0.5204703661 -2.5000024870
18.4489718891 2.3994504733 -2.5000024870
18.4401687225 2.4303546394 -2.5000024870
18.4480258429 -0.6354755469 -2.5000024928
18.4571783343 -0.6045238617 -2.5000024928
18.4616858695 -0.5890278484 -2.5000024928
18.4633972534 2.4370457256 -2.5000024928
18.4589072485 2.4525468273 -2.5000024928
18.4497897721 2.4835088451 -2.5000024928
18.4404892735 2.5144163789 -2.5000024928
18.4375655755 -0.7507698968 -2.5000024985
18.4402714739 -0.8200492778 -2.5000025043
18.4454166463 -0.8046023351 -2.5000025043
18.4422441779 2.6680912289 -2.5000025043
18.4420650418 -0.8896265238 -2.5000025101
18.4316872825 -0.9903509383 -2.5000025158
18.4615532043 2.7610945564 -2.5000025158
18.4506102096 2.7920668284 -2.5000025158
18.4312214191 -1.0604864852 -2.5000025216
18.4298221882 -1.1308782498 -2.5000025274
18.4677442023 2.8861217547 -2.5000025274
18.4619257303 2.9016337506 -2.5000025274
18.4546385639 2.9877885257 -2.5000025331
18.4199639562 -1.3434672531 -2.5000025446
18.4619012124 3.0988589835 -2.5000025446
18.4424205685 3.1452827652 -2.5000025446
18.4580558511 3.1702368055 -2.5000025504
18.4463813582 3.2572939540 -2.5000025562
18.4161058133 -1.5272202723 -2.5000025619
18.4545213921 3.2981439188 -2.5000025619
18.4306493154 -1.5529673954 -2.5000025677
18.4623601938 3.3391714218 -2.5000025677
18.3479393165 3.6259653062 -2.5000025735
18.3237853874 3.6713569833 -2.5000025735
18.3156446774 3.6864396872 -2.5000025735
18.2527030060 3.8480534998 -2.5000025792
18.1088621655 4.0828446144 -2.5000025792
18.4116381361 -1.7544280216 -2.5000025850
18.8054683733 2.6434861183 -2.5000025850
18.4103581101 -1.9113019166 -2.5000026023
18.4270594781 -1.8805507572 -2.5000026023
18.4231129107 -1.9383027418 -2.5000026080
18.4133667313 -2.0542507405 -2.5000026196
18.4383042512 -2.3415081236 -2.5000026599
18.4490596647 -2.3698213111 -2.5000026657
18.4596930434 -2.3982266206 -2.5000026714
18.4501274496 -2.5461061255 -2.5000026887
18.4807614234 -2.8421445515 -2.5000027348
18.1249013717 -3.7971399292 -2.5000028155
18.1388546965 -3.7826128823 -2.5000028155
18.1666321204 -3.7534352772 -2.5000028155
18.2079733715 -3.7093620093 -2.5000028155
18.7085268851 -3.1044832344 -2.5000028155
18.7440877118 -3.0556265092 -2.5000028155
18.7675534476 -3.0228808658 -2.5000028155
18.8139016697 -2.9569759559 -2.5000028155
18.8253666229 -2.9404143976 -2.5000028155
17.8533751530 -4.0966040503 -2.5000028213
17.9563993123 -3.9996116959 -2.5000028213
17.9854637673 -3.9715097603 -2.5000028213
18.0143614531 -3.9432363615 -2.5000028213
18.0573930786 -3.9005069361 -2.5000028213
18.1702728206 -3.7847122867 -2.5000028213
18.7160155055 -3.1350679787 -2.5000028213
18.7989453354 -3.0204200937 -2.5000028213
18.9020502720 -2.8705356200 -2.5000028213
18.9355273242 -2.8199706958 -2.5000028213
18.9575954905 -2.7860965558 -2.5000028213
18.9685543227 -2.7691106728 -2.5000028213
18.9794628597 -2.7520924459 -2.5000028213
17.8097849461 -4.1690274220 -2.5000028270
18.2295465550 -3.7571171136 -2.5000028270
18.7474885457 -3.1331071778 -2.5000028270
18.9221467807 -2.8839693694 -2.5000028270
19.0323708002 -2.7136786594 -2.5000028270
19.0750418594 -2.6446619536 -2.5000028270
19.0960703985 -2.6099654669 -2.5000028270
17.7498191205 -4.2545395682 -2.5000028328
19.0743690342 -2.6919454668 -2.5000028328
19.1062544132 -2.6398583429 -2.5000028328
17.3691122632 -4.5943186606 -2.5000028386
19.1584592918 -2.5998354351 -2.5000028386
19.2207020956 -2.5414331129 -2.5000028443
19.3206641149 -2.3624617352 -2.5000028443
19.3400187640 -2.3263170038 -2.5000028443
17.1981932659 -4.7777163405 -2.5000028501
19.4552360967 -2.1546223786 -2.5000028501
19.2831150073 -2.5298253078 -2.5000028559
16.8968242770 -5.0332757369 -2.5000028616
19.2309859317 -2.6670100546 -2.5000028616
16.6091244795 -5.2841225629 -2.5000028789
14.0033847194 -3.4685170023 -2.4999967136
14.0515083130 -3.4573904364 -2.4999967136
14.0994968830 -3.4456952288 -2.4999967136
14.1654911891 -3.4536411592 -2.4999966876
14.3588966104 -3.4479407119 -2.4999966358
14.3828469062 -3.4403456408 -2.4999966358
14.3948050986 -3.4364950016 -2.4999966358
14.4262662723 -3.4516417831 -2.4999966098
14.4940219764 -3.4542314156 -2.4999965839
14.5299809700 -3.4415862958 -2.4999965839
14.5981148447 -3.4424492891 -2.4999965579
14.6186014053 -3.4605824551 -2.4999965320
14.7114229043 -3.4504401317 -2.4999965061
14.8499309828 -3.4449510654 -2.4999964542
14.9076274482 -3.4458572729 -2.4999964283
15.0582916173 -3.4554749956 -2.4999963505
15.1409721980 -3.4414054232 -2.4999963245
15.2118410651 -3.4319759404 -2.4999962986
15.3183556568 -3.4294215177 -2.4999962467
17.4156374300 -1.1805570143 -2.4999961689
17.1251750181 -1.8597110698 -2.4999961171
15.6067218386 -3.4279519309 -2.4999960911
15.7665670841 -3.4400554574 -2.4999959874
16.0188814613 -3.4714109138 -2.4999958058
18.4385060547 -0.8756648641 -2.4999952353
18.4471665028 -0.8439784726 -2.4999952353
18.4445096638 2.0617480266 -2.4999952353
18.4401738966 2.0775897248 -2.4999952353
18.4618048649 -0.8821069697 -2.4999952093
18.4590782763 2.0999032289 -2.4999952093
18.4410018093 2.1633618078 -2.4999952093
18.4363654654 2.1791926846 -2.4999952093
18.4482739245 -1.0158646950 -2.4999951834
18.4642104397 2.1701215974 -2.4999951834
18.4501001149 2.2177784336 -2.4999951834
18.4416922123 -1.1181611815 -2.4999951575
18.4436339502 2.3200822888 -2.4999951575
18.4385339873 2.3359202662 -2.4999951575
18.4222717744 -1.2523289353 -2.4999951315
18.4451023051 -1.2602726214 -2.4999951056
18.4505936732 -1.2444146347 -2.4999951056
18.4361169816 2.4938692231 -2.4999951056
18.4511062106 -1.3158941254 -2.4999950797
18.4475863776 2.5336700948 -2.4999950797
18.4267335999 -1.4509678471 -2.4999950537
18.4327891593 -1.4351633640 -2.4999950537
18.4387979396 -1.4193410366 -2.4999950537
18.4350889548 2.6370943251 -2.4999950537
18.4431655346 -1.4755033022 -2.4999950278
18.4331499545 2.7090881670 -2.4999950278
18.4406142285 -1.5477477182 -2.4999950019
18.4501655526 -1.5885305450 -2.4999949759
18.4330237016 2.8379714966 -2.4999949759
18.4461128334 -1.6612465320 -2.4999949500
18.4527903503 -1.6453838015 -2.4999949500
18.4419614662 2.8790127926 -2.4999949500
18.4479803334 -1.7183240902 -2.4999949241
18.4548266880 -1.7024555856 -2.4999949241
18.4589372880 2.9616441464 -2.4999948981
18.4378028523 3.0092230172 -2.4999948981
18.4719406468 -1.8431065634 -2.4999948462
18.4380084233 3.1244101900 -2.4999948462
18.4448102451 3.1664535568 -2.4999948203
18.4417244118 3.2827695232 -2.4999947684
18.4607843945 3.3521964918 -2.4999947166
18.4361839530 3.3997763752 -2.4999947166
18.4627313336 -2.1931779231 -2.4999946906
18.3546016484 3.5998073933 -2.4999946906
18.3278079804 3.6464352138 -2.4999946906
18.3097161032 3.6773875341 -2.4999946906
18.2636880274 3.7542953143 -2.4999946906
18.2543461903 3.7695947039 -2.4999946906
18.2355269459 3.8001102440 -2.4999946906
18.7546084051 2.8163265572 -2.4999946647
18.7480391013 2.8330822820 -2.4999946647
18.2655341130 3.7975551897 -2.4999946647
18.2560642973 3.8128598510 -2.4999946647
18.2465492491 3.8281364319 -2.4999946647
18.2177335439 3.8737963568 -2.4999946647
18.1982984482 3.9040934605 -2.4999946647
18.1489294915 3.9793285326 -2.4999946647
18.4633248290 -2.2953271817 -2.4999946388
18.8583153483 2.6047118794 -2.4999946388
18.8523715851 2.6217753140 -2.4999946388
18.8403327592 2.6558490619 -2.4999946388
18.4143991222 3.5922429872 -2.4999946388
18.0349966291 4.1856176617 -2.4999946388
17.9922707082 4.2439122968 -2.4999946388
17.9378982356 4.3160629684 -2.4999946388
17.9268960136 4.3303961548 -2.4999946388
18.9434374367 2.4230621600 -2.4999946128
18.9215032950 2.4922292784 -2.4999946128
18.9102296970 2.5267143000 -2.4999946128
17.9680983122 4.3163310269 -2.4999946128
18.1677079645 4.1236979104 -2.4999945610
19.1067321088 2.1087939908 -2.4999945350
18.4746494614 -2.6177972333 -2.4999944572
18.4666581431 -2.9920132335 -2.4999942497
18.4591507358 -3.1739254558 -2.4999941460
18.2587851164 -3.6371645700 -2.4999940163
18.2713085759 -3.6218473434 -2.4999940163
18.1623275686 -3.7891541476 -2.4999939904
18.1753010628 -3.7741215948 -2.4999939904
18.2267486525 -3.7136095825 -2.4999939904
18.2394983904 -3.6983867910 -2.4999939904
18.3522038333 -3.5597035373 -2.4999939904
18.7113717332 -3.0600585166 -2.4999939904
18.7329510121 -3.0267195296 -2.4999939904
18.7649491544 -2.9764731273 -2.4999939904
18.7860329763 -2.9428186211 -2.4999939904
18.7965001280 -2.9259447380 -2.4999939904
18.8069173179 -2.9090399650 -2.4999939904
18.8172844549 -2.8921044500 -2.4999939904
17.8970626149 -4.1126824667 -2.4999939645
17.9109943251 -4.0984332000 -2.4999939645
17.9800172575 -4.0265721206 -2.4999939645
18.8790336742 -2.8364030516 -2.4999939645
18.9093371120 -2.7848677420 -2.4999939645
18.9391820096 -2.7330655358 -2.4999939645
17.7141991393 -4.3254071155 -2.4999939385
17.7432820976 -4.2979455907 -2.4999939385
17.7577625225 -4.2841504240 -2.4999939385
17.8437823504 -4.2004853928 -2.4999939385
18.9798920163 -2.7102343319 -2.4999939385
19.0377852003 -2.6051266371 -2.4999939385
19.1152803976 -2.5101026303 -2.4999939126
19.1606795776 -2.4206034318 -2.4999939126
19.1696002830 -2.4026235612 -2.4999939126
17.6733481813 -4.4290391790 -2.4999938867
17.3671824557 -4.7228955586 -2.4999938607
19.1206987027 -2.6039083664 -2.4999938607
19.3412289560 -2.1493367463 -2.4999938607
17.5231069945 -4.6255049303 -2.4999938348
17.7507114807 -4.4235857769 -2.4999938348
17.1552585197 -4.9465014234 -2.4999938089
17.2043557767 -4.9101805586 -2.4999938089
17.2693137159 -4.8610776909 -2.4999938089
19.4716750287 -2.0282145049 -2.4999937829
19.5394829447 -1.8573219571 -2.4999937829
21.4171531626 -4.9287208160 -2.4999904633
14.5743573101 0.2201350009 -2.5000002601
14.5943449327 0.1397471289 -2.5000002457
13.8809444929 -3.4485350136 -2.4999989201
13.9028858551 -3.4433250832 -2.4999989201
13.9636021515 -3.4531494143 -2.4999989057
14.0075024814 -3.4416214653 -2.4999989057
14.0468212008 -3.4559220534 -2.4999988913
14.1195528253 -3.4601263529 -2.4999988769
14.1596489668 -3.4732509505 -2.4999988625
14.3433080067 -3.4374802020 -2.4999988481
14.3404767798 -3.4641726015 -2.4999988337
14.3514955621 -3.4602244149 -2.4999988337
14.4589154375 -3.4457471488 -2.4999988193
14.7482027872 -3.4532479714 -2.4999987472
14.8245025398 -3.4435499541 -2.4999987328
15.0004437455 -3.4621561013 -2.4999986752
15.0999160674 -3.4350916011 -2.4999986608
15.2349448300 -3.4403527840 -2.4999986176
15.5783229970 -3.4194183083 -2.4999985167
15.8528896541 -3.4279153566 -2.4999984159
18.4425860006 0.2435024644 -2.4999979548
18.4425419964 0.2917026392 -2.4999979548
18.4422750210 0.3238350520 -2.4999979548
18.4418179441 0.3559653229 -2.4999979548
18.4626790122 -1.0212589078 -2.4999978539
18.4664531775 -1.0051271903 -2.4999978539
18.4525754102 1.5887140817 -2.4999978539
18.4446347039 1.6208831557 -2.4999978539
18.4365038136 1.6530046867 -2.4999978539
18.4541627410 -1.1559931773 -2.4999978395
18.4386713741 1.7394399211 -2.4999978395
18.4690294017 -1.1944051431 -2.4999978251
18.4486196333 1.7940999752 -2.4999978251
18.4348147084 1.8422926347 -2.4999978251
18.4701423750 -1.2815472364 -2.4999978107
18.4437303812 1.8973263402 -2.4999978107
18.4339639759 1.9294376828 -2.4999978107
18.4794245533 -1.3367164285 -2.4999977963
18.4934026546 -1.2881271053 -2.4999977963
18.4470714580 1.9687295438 -2.4999977963
18.4420007651 1.9848020089 -2.4999977963
18.4579230082 -1.4891146224 -2.4999977819
18.4681916765 -1.4568600431 -2.4999977819
18.4732544047 -1.4407101122 -2.4999977819
18.4334890715 2.0886302712 -2.4999977819
18.4704316007 -1.5288451509 -2.4999977675
18.4809351093 -1.4965158712 -2.4999977675
18.4861150908 -1.4803280694 -2.4999977675
18.4963312815 -1.4479068501 -2.4999977675
18.4343195477 2.1606454315 -2.4999977675
18.4717288145 -1.6011229624 -2.4999977531
18.4400065134 2.2168843071 -2.4999977531
18.4342017647 2.2329347870 -2.4999977531
18.4283495611 2.2489680252 -2.4999977531
18.4391487364 2.2894383177 -2.4999977387
18.4714688678 -1.7465075081 -2.4999977243
18.4773884112 -1.7303466153 -2.4999977243
18.4435181413 2.3461841602 -2.4999977243
18.4310961462 2.3782863913 -2.4999977243
18.4660879481 2.3548408977 -2.4999977098
18.4545124523 -1.9251561977 -2.4999976954
18.4737136075 -1.8767647836 -2.4999976954
18.4374109524 2.4925210537 -2.4999976954
18.4307908317 2.5085626495 -2.4999976954
18.4396845915 2.5499731873 -2.4999976810
18.4260569792 2.5820491712 -2.4999976810
18.4884386016 -2.0334610524 -2.4999976522
18.4424458703 2.6655171212 -2.4999976522
18.4686235459 -2.3154579058 -2.4999975946
18.4573485207 -2.4494546745 -2.4999975658
18.4546075592 -2.5086457100 -2.4999975514
18.4709081739 -2.4763929025 -2.4999975514
18.4595929981 -2.5518961739 -2.4999975369
18.4557782689 -2.6114205065 -2.4999975225
18.4726869133 -2.5791589740 -2.4999975225
18.4550902813 -2.7148312641 -2.4999974937
18.4258772047 3.3421129408 -2.4999974793
18.4616169100 -2.8027358015 -2.4999974649
18.4307994301 3.4303615808 -2.4999974505
18.7041242844 2.9647250449 -2.4999974361
18.6880382326 2.9983582840 -2.4999974361
18.6799206573 3.0151390673 -2.4999974361
18.6717534768 3.0318957640 -2.4999974361
18.6217127203 3.1319219269 -2.4999974361
18.3552346304 3.6020807412 -2.4999974361
18.2849431959 3.7120148780 -2.4999974361
18.2437594531 3.7741733369 -2.4999974361
18.2333488204 3.7896364687 -2.4999974361
18.2123905550 3.8204700047 -2.4999974361
18.2018431056 3.8358401391 -2.4999974361
18.1806120352 3.8664864680 -2.4999974361
18.1267443773 3.9425480638 -2.4999974361
18.8550866982 2.6843979546 -2.4999974217
18.8406565136 2.7189292442 -2.4999974217
18.8111845180 2.7877326832 -2.4999974217
18.3757341943 3.6148910170 -2.4999974217
18.2742359961 3.7720904739 -2.4999974217
18.2111207448 3.8649448363 -2.4999974217
18.0911697606 4.0322096333 -2.4999974217
17.9658404338 4.1954833629 -2.4999974217
18.9467548177 2.5190841759 -2.4999974073
18.9400538899 2.5366323867 -2.4999974073
18.9264964488 2.5716689569 -2.4999974073
18.9057722173 2.6240718855 -2.4999974073
18.8987608961 2.6414984030 -2.4999974073
18.8916980548 2.6589041035 -2.4999974073
17.9258391181 4.2836397534 -2.4999974073
17.8779167837 4.3415091088 -2.4999974073
17.8047578132 4.4272398369 -2.4999974073
17.9445479590 4.2989470900 -2.4999973929
17.6972531421 4.5835825996 -2.4999973929
18.4533920050 -3.1020369256 -2.4999973785
17.8412536177 4.4589478388 -2.4999973785
17.5846788157 4.7371956900 -2.4999973785
19.1558088732 2.1314401149 -2.4999973640
19.2266857402 1.9736241434 -2.4999973496
19.2397219435 2.0169199048 -2.4999973352
18.2104608194 -3.7498479936 -2.4999972776
18.2575745189 -3.6880484693 -2.4999972776
17.9951221278 -4.0513989236 -2.4999972632
18.0458189930 -3.9921262763 -2.4999972632
18.0709035314 -3.9622660359 -2.4999972632
18.0833794419 -3.9472803930 -2.4999972632
18.0958109675 -3.9322579096 -2.4999972632
18.8037505091 -2.8833061465 -2.4999972632
18.8130314546 -2.8661573306 -2.4999972632
18.8405693490 -2.8145472061 -2.4999972632
18.8586730247 -2.7800055653 -2.4999972632
18.8676481481 -2.7626947306 -2.4999972632
18.8765720236 -2.7453574216 -2.4999972632
17.8432306668 -4.2563327636 -2.4999972488
17.8698818851 -4.2276664797 -2.4999972488
17.9747768612 -4.1114397021 -2.4999972488
18.9931870989 -2.5632687237 -2.4999972488
19.0015204869 -2.5455609203 -2.4999972488
17.7796251936 -4.3582009442 -2.4999972344
18.1080129885 -3.9932536031 -2.4999972344
19.0644363245 -2.4665923032 -2.4999972344
17.6293750894 -4.5419484537 -2.4999972200
17.6718313007 -4.5007766252 -2.4999972200
19.1495896054 -2.3320032494 -2.4999972200
19.1723739288 -2.2774273944 -2.4999972200
19.1798609625 -2.2591907746 -2.4999972200
19.1946730248 -2.2226514904 -2.4999972200
17.5161191101 -4.6810483753 -2.4999972056
19.2743879766 -2.0841189907 -2.4999972056
16.9572418910 -5.2569363735 -2.4999971479
16.8224391409 -5.3800547427 -2.4999971335
14.9154629880 -7.9730227503 -2.4999961538
14.3717226674 0.4882537544 -2.5000013698
14.4041757144 0.4726685325 -2.5000013727
14.4348899095 0.4603687601 -2.5000013756
14.5150757968 0.2835528818 -2.5000013785
14.5082656126 0.3104567109 -2.5000013785
14.5572449579 0.2020238696 -2.5000013814
14.5396668218 0.2847114888 -2.5000013814
14.5328322011 0.3120515813 -2.5000013814
14.6124435802 0.2921166979 -2.5000013900
14.7761204708 -0.1456308554 -2.5000014044
14.7770708788 -0.0771442529 -2.5000014044
14.5789855447 -3.4475161285 -2.5000016350
14.5889205890 -3.4428184466 -2.5000016350
14.6589864061 -3.4356675636 -2.5000016378
14.6797013761 -3.4523518799 -2.5000016407
14.6896502848 -3.4473562413 -2.5000016407
14.7404307258 -3.4485363153 -2.5000016436
14.8113357798 -3.4383002901 -2.5000016465
14.8743939435 -3.4588200336 -2.5000016522
15.0262715033 3.4495055560 -2.5000016782
15.4251392684 -3.4217060009 -2.5000016839
15.1239914662 3.4481266959 -2.5000016839
15.2329494297 3.4375974658 -2.5000016897
15.6016384361 -3.4094773294 -2.5000016955
15.3113398233 3.4445554194 -2.5000016955
18.4511440739 -1.4569473130 -2.5000018626
18.4591555797 -1.4246484283 -2.5000018626
18.4630896381 -1.4084813526 -2.5000018626
18.4669758541 -1.3923027101 -2.5000018626
18.4645786281 1.2289540412 -2.5000018626
18.4526877954 1.2774334587 -2.5000018626
18.4449197330 -1.5759814397 -2.5000018655
18.4493015241 -1.5598558141 -2.5000018655
18.4621604160 -1.5114021529 -2.5000018655
18.4663510945 -1.4952258088 -2.5000018655
18.4865857048 -1.4141620331 -2.5000018655
18.4509614427 1.3803439746 -2.5000018655
18.4465978622 1.3964745375 -2.5000018655
18.4421865836 1.4125921215 -2.5000018655
18.4592927921 -1.6147044469 -2.5000018684
18.4682374994 -1.5823545906 -2.5000018684
18.4855519601 -1.5174989510 -2.5000018684
18.4519151639 1.4674879564 -2.5000018684
18.4544729670 -1.7183517204 -2.5000018713
18.4592758734 -1.7021972117 -2.5000018713
18.4687382176 -1.6698459242 -2.5000018713
18.4705223158 1.4903120683 -2.5000018713
18.4514793972 1.5549796376 -2.5000018713
18.4465992105 1.5711109686 -2.5000018713
18.4416713257 1.5872277925 -2.5000018713
18.4527982845 -1.8061721983 -2.5000018741
18.4678429584 -1.7576778057 -2.5000018741
18.4727621400 -1.7414835741 -2.5000018741
18.4445041301 1.6589224230 -2.5000018741
18.4340812203 1.6911274907 -2.5000018741
18.4603139605 -1.8620004221 -2.5000018770
18.4463995333 1.7309174259 -2.5000018770
18.4409989130 1.7470329599 -2.5000018770
18.4507984251 -1.9665798368 -2.5000018799
18.4563356512 -1.9504351119 -2.5000018799
18.4780062448 -1.8856945327 -2.5000018799
18.4584365759 1.7709150811 -2.5000018799
18.4417363849 1.8193186496 -2.5000018799
18.4509318011 -2.0391387951 -2.5000018828
18.4566836691 -2.0229933583 -2.5000018828
18.4623877509 -2.0068309770 -2.5000018828
18.4680439964 -1.9906517927 -2.5000018828
18.4415224028 1.8918774151 -2.5000018828
18.4356456551 1.9079778174 -2.5000018828
18.4560759349 -2.0958196581 -2.5000018857
18.4463951332 1.9485822547 -2.5000018857
18.4606418815 -2.1527449367 -2.5000018885
18.4667297745 -2.1365702786 -2.5000018885
18.4727697934 -2.1203776821 -2.5000018885
18.4568537680 1.9893834106 -2.5000018885
18.4319065624 2.0538543093 -2.5000018885
18.4646257136 -2.2099088170 -2.5000018914
18.4351090852 2.1110672796 -2.5000018914
18.4550264594 -2.2996420373 -2.5000018943
18.4377224995 2.1685049602 -2.5000018943
18.4328774633 2.2422550614 -2.5000018972
18.4454942119 -2.4474202658 -2.5000019001
18.4593657871 -2.4151374726 -2.5000019001
18.4411671435 2.2840305407 -2.5000019001
18.4341303375 2.3001281762 -2.5000019001
18.4392452358 -2.5216074623 -2.5000019030
18.4535558368 -2.4893603417 -2.5000019030
18.4347824847 2.3582061833 -2.5000019030
18.4274017774 2.4325612735 -2.5000019058
18.4389468236 -2.6383543686 -2.5000019087
18.4464713321 -2.6222417636 -2.5000019087
18.4613771930 -2.5899501297 -2.5000019087
18.4342705354 2.4749523485 -2.5000019087
18.4608341035 -2.6486150830 -2.5000019116
18.4440773981 -2.7397462668 -2.5000019145
18.4519018197 -2.7236180411 -2.5000019145
18.4596784969 -2.7074667398 -2.5000019145
18.4289108908 2.6514537964 -2.5000019174
18.4525033973 -2.8850790438 -2.5000019231
18.4607577027 -2.8689252565 -2.5000019231
18.4222383603 2.7699693767 -2.5000019231
18.4305679018 2.8570019370 -2.5000019289
18.4396988837 -3.0641434401 -2.5000019318
18.4342437985 2.9007420833 -2.5000019318
18.4164740461 2.9328647135 -2.5000019318
18.4462256517 -3.1520479671 -2.5000019375
18.4314885523 3.0047513049 -2.5000019375
18.4432966703 3.0328298484 -2.5000019404
18.1183770813 -3.9204343967 -2.5000019548
18.1856124556 -3.8289163553 -2.5000019548
18.2833936596 -3.6894379850 -2.5000019548
18.3568582016 -3.5791842583 -2.5000019548
18.6804439909 -3.0232492378 -2.5000019548
18.6977182517 -2.9895663249 -2.5000019548
17.9256308395 -4.2031225417 -2.5000019577
17.9377864613 -4.1885215717 -2.5000019577
18.0334657419 -4.0704324031 -2.5000019577
18.0569468131 -4.0405589033 -2.5000019577
18.1033766822 -3.9803977570 -2.5000019577
18.1604076497 -3.9044306758 -2.5000019577
18.2052195434 -3.8430548626 -2.5000019577
18.2602080166 -3.7655965092 -2.5000019577
18.2710678933 -3.7500077138 -2.5000019577
18.3140448358 -3.6873333278 -2.5000019577
18.7700742858 -2.8984959683 -2.5000019577
18.7866088957 -2.8642849558 -2.5000019577
18.8029408123 -2.8299767178 -2.5000019577
18.8110305818 -2.8127865143 -2.5000019577
18.8190694641 -2.7955724551 -2.5000019577
18.8270573889 -2.7783346907 -2.5000019577
18.8349942864 -2.7610733720 -2.5000019577
18.8428800871 -2.7437886500 -2.5000019577
18.8507147219 -2.7264806761 -2.5000019577
17.8700717815 -4.3057880679 -2.5000019606
17.9441855927 -4.2186162959 -2.5000019606
17.9806593831 -4.1745405569 -2.5000019606
18.2248266312 -3.8571933700 -2.5000019606
18.2909228255 -3.7637960041 -2.5000019606
18.9338072877 -2.5966096594 -2.5000019606
18.9485529712 -2.5614352310 -2.5000019606
18.9630902929 -2.5261741777 -2.5000019606
17.7609492770 -4.4644616815 -2.5000019635
19.0069601782 -2.4820714616 -2.5000019635
18.4320118197 3.4232263034 -2.5000019635
17.6062728166 -4.6614520416 -2.5000019663
17.6197856573 -4.6477937850 -2.5000019663
19.0779062523 -2.3655762473 -2.5000019663
19.1173945890 -2.2572732181 -2.5000019663
18.7250879975 2.9728281407 -2.5000019663
18.6977110019 3.0235507614 -2.5000019663
18.6884854389 3.0404040643 -2.5000019663
18.6510858529 3.1075421587 -2.5000019663
18.6225162601 3.1576027470 -2.5000019663
18.3128363194 3.6435152262 -2.5000019663
18.2570837554 3.7217463642 -2.5000019663
18.2230789601 3.7682862183 -2.5000019663
18.2001802210 3.7991443430 -2.5000019663
18.1886624887 3.8145224664 -2.5000019663
18.1654908028 3.8451761624 -2.5000019663
18.1538370519 3.8604514668 -2.5000019663
18.1186053923 3.9060696024 -2.5000019663
17.7834830608 -4.5113520797 -2.5000019692
18.8602257316 2.7608561544 -2.5000019692
18.8517765556 2.7781913547 -2.5000019692
18.8000080014 2.8816707919 -2.5000019692
18.7644788140 2.9501395853 -2.5000019692
18.7003623429 3.0689311246 -2.5000019692
18.3215260148 3.6731689479 -2.5000019692
18.1730339788 3.8751420515 -2.5000019692
18.0291644361 4.0563856600 -2.5000019692
18.0168864858 4.0712567623 -2.5000019692
17.9044207565 4.2034438257 -2.5000019692
17.4457899576 -4.8838552437 -2.5000019721
17.5302302378 -4.8041226493 -2.5000019721
19.2760653321 -1.9235383904 -2.5000019721
18.9875037536 2.5430014225 -2.5000019721
18.9559687337 2.6137124617 -2.5000019721
18.9317695966 2.6664981609 -2.5000019721
18.9235992356 2.6840454137 -2.5000019721
18.8649583480 2.8061887187 -2.5000019721
17.8454214797 4.3061133972 -2.5000019721
17.3905264889 -4.9671093425 -2.5000019750
19.0777695165 2.3916928106 -2.5000019750
19.0704114406 2.4096731601 -2.5000019750
19.0555358829 2.4455681662 -2.5000019750
18.9536986322 2.6766693299 -2.5000019750
17.7843184504 4.4080350821 -2.5000019750
17.7307997161 4.4643789102 -2.5000019750
17.6766180420 4.5200855353 -2.5000019750
19.1291610502 2.3284128374 -2.5000019779
17.6526285652 4.5785511813 -2.5000019779
17.0165069882 -5.3405724775 -2.5000019808
19.4530088135 -1.5270146587 -2.5000019808
17.5717522358 4.6914303088 -2.5000019808
17.5434032656 4.7184188092 -2.5000019808
19.2695723695 2.0882449577 -2.5000019836
17.1758500840 5.1035793403 -2.5000019865
19.5677066960 -1.3296527328 -2.5000019894
19.3890218581 1.8784228786 -2.5000019894
17.1135088613 5.1838833141 -2.5000019894
19.4179340250 1.8665362824 -2.5000019923
19.4062657652 1.9044968546 -2.5000019923
14.6833126536 0.0395924382 -2.5000015995
14.6490785437 0.1453701060 -2.5000015995
14.6900547125 0.1002030866 -2.5000016052
14.7589274435 -0.0629341534 -2.5000016110
14.7681325129 0.0037198813 -2.5000016168
14.6987338928 0.2192375936 -2.5000016168
14.8377446464 -0.2531050095 -2.5000016225
14.8930856649 -0.3467044873 -2.5000016340
15.2552518342 -3.4166974746 -2.5000020778
14.4891147915 3.4302727332 -2.5000021758
14.4662308842 3.4387701449 -2.5000021758
14.4860938212 3.4571995216 -2.5000021816
14.6324764161 3.4258242404 -2.5000021873
14.6302007882 3.4528893752 -2.5000021931
14.7084676435 3.4462888509 -2.5000021989
14.7869976990 3.4381273996 -2.5000022046
14.8314173100 3.4444315527 -2.5000022104
15.1490386594 3.4472653304 -2.5000022450
15.2993765477 3.4459046801 -2.5000022622
18.4497518230 -1.7918552647 -2.5000025216
18.4537468231 -1.7758505054 -2.5000025216
18.4706923098 0.8388607403 -2.5000025216
18.4669050846 0.8549159348 -2.5000025216
18.4630703818 0.8709598557 -2.5000025216
18.4591882350 0.8869923627 -2.5000025216
18.4512817455 0.9190225738 -2.5000025216
18.4437814296 -1.9099210330 -2.5000025274
18.4566723107 -1.8619199864 -2.5000025274
18.4666021598 0.9570065905 -2.5000025274
18.4624654557 0.9730491687 -2.5000025274
18.4582813129 0.9890794395 -2.5000025274
18.4540497679 1.0050972627 -2.5000025274
18.4582307238 -1.9483683491 -2.5000025331
18.4599373016 1.0755259881 -2.5000025331
18.4439830342 -2.0831835667 -2.5000025389
18.4602160728 1.1623312878 -2.5000025389
18.4554720091 1.1783540763 -2.5000025389
18.4640618298 1.2334395820 -2.5000025446
18.4439598221 1.2974860794 -2.5000025446
18.4450497080 -2.3135066423 -2.5000025562
18.4526885405 1.4246795536 -2.5000025562
18.4393611438 -2.4015031962 -2.5000025619
18.4700079216 1.4485968293 -2.5000025619
18.4587786021 1.4806812243 -2.5000025619
18.4473596571 1.5126986213 -2.5000025619
18.4487000256 -2.5143612626 -2.5000025735
18.4549110058 1.6983116895 -2.5000025792
18.4422045536 1.7303023956 -2.5000025792
18.4686095411 -2.5960941560 -2.5000025850
18.4466292292 -2.7748884536 -2.5000025965
18.4406107660 -2.8485520803 -2.5000026023
18.4554792257 -2.8744491536 -2.5000026080
18.4437301778 2.0336143491 -2.5000026080
18.4360300276 2.1076649906 -2.5000026138
18.4350435911 2.1659334406 -2.5000026196
18.4447294002 2.3098846336 -2.5000026369
18.4365907339 2.3258565887 -2.5000026369
18.2596264392 -3.7456028852 -2.5000026657
18.2791314316 -3.7146722705 -2.5000026657
18.3175907283 -3.6524675578 -2.5000026657
18.3270903344 -3.6368456140 -2.5000026657
18.3553112975 -3.5898121314 -2.5000026657
18.6376552366 -3.0568652271 -2.5000026657
18.1273791386 -3.9876597864 -2.5000026714
18.2701757769 -3.7740395134 -2.5000026714
18.2800352223 -3.7585572996 -2.5000026714
17.8695968724 -4.3690048456 -2.5000026772
17.9272784034 -4.2971637901 -2.5000026772
18.1471931984 -4.0015067470 -2.5000026772
18.8744057961 -2.6189633303 -2.5000026772
18.4284306813 2.6940446513 -2.5000026772
17.8648738940 -4.4128847675 -2.5000026830
18.9288527658 -2.5405981613 -2.5000026830
18.4400251412 2.7221650927 -2.5000026830
17.8716811544 -4.4425747904 -2.5000026887
19.0842933144 -2.2202479316 -2.5000026945
18.2420654502 3.6948612334 -2.5000027752
18.2298306594 3.7102276121 -2.5000027752
18.2175504655 3.7255577308 -2.5000027752
18.7342145298 3.0311199636 -2.5000027809
18.7032450071 3.0815038698 -2.5000027809
18.6823507791 3.1149395951 -2.5000027809
18.2975621335 3.6634062559 -2.5000027809
18.0849809101 3.9224423520 -2.5000027809
18.0068788675 4.0112702352 -2.5000027809
17.9804960170 4.0405697521 -2.5000027809
18.8843218561 2.8214517638 -2.5000027867
18.8746679582 2.8387218746 -2.5000027867
18.8649630145 2.8559633519 -2.5000027867
18.8355427597 2.9075144749 -2.5000027867
18.8156755960 2.9417359633 -2.5000027867
18.8056661762 2.9588024797 -2.5000027867
17.9583688411 4.1006119029 -2.5000027867
17.9179387290 4.1440684987 -2.5000027867
17.8771245561 4.1871645887 -2.5000027867
17.8359295368 4.2298967787 -2.5000027867
17.7664336714 4.3002993012 -2.5000027867
18.9810953700 2.6935388995 -2.5000027925
18.9718194381 2.7110958435 -2.5000027925
18.8663772314 2.9023724990 -2.5000027925
17.9626574218 4.1315766027 -2.5000027925
17.6553623833 4.4419610787 -2.5000027925
19.1014276530 2.5091992943 -2.5000027982
19.0482479994 2.6162898582 -2.5000027982
17.3438844148 4.8130519668 -2.5000028098
19.4500554727 1.9381068415 -2.5000028213
17.4834040987 4.8543201701 -2.5000028386
15.5596277090 7.8128414010 -2.5000032478
14.6577258393 0.0808583540 -2.5000011921
14.5410204457 0.2616100708 -2.5000011921
14.4409760722 0.3849984903 -2.5000011921
14.7831464753 -0.1279782582 -2.5000011921
14.6987196170 0.0561826268 -2.5000011921
14.5511647757 0.2884654160 -2.5000011921
14.4863050634 0.3696797476 -2.5000011921
14.6370545937 0.2081075783 -2.5000011921
14.5673202279 0.3071930038 -2.5000011921
14.8952556555 -0.3186932397 -2.5000011921
14.8016995952 -0.0462251127 -2.5000011921
14.6056984985 0.2960378135 -2.5000011921
14.7789799481 0.1111521376 -2.5000011921
13.8243122401 3.4254850721 -2.5000011921
13.8119074910 3.4274720269 -2.5000011921
13.8904558844 3.4388037654 -2.5000011921
13.8780114469 3.4409863268 -2.5000011921
14.0939400900 3.4224690135 -2.5000011921
14.0194374761 3.4386257216 -2.5000011921
14.2110853452 3.4191883450 -2.5000011921
14.1986975307 3.4223194722 -2.5000011921
14.1490552756 3.4344771207 -2.5000011921
14.2915859527 3.4229510621 -2.5000011921
14.3353031246 3.4358837437 -2.5000011921
14.4663554136 3.4219365436 -2.5000011921
14.4539583525 3.4258227938 -2.5000011921
14.4166989518 3.4372612714 -2.5000011921
14.2415465906 3.4862490119 -2.5000011921
14.8383995126 3.4427086012 -2.5000011921
15.0036796826 3.4518049425 -2.5000011921
15.1484255852 3.4386787235 -2.5000011921
15.7108480216 3.4362382862 -2.5000011921
15.8109506965 3.4308800496 -2.5000011921
18.4325785290 -0.8011443481 -2.5000011921
18.4406538050 -2.1802797288 -2.5000011921
18.4448117236 -2.1646122731 -2.5000011921
18.4422472255 0.6405315928 -2.5000011921
18.4338278024 0.6718387938 -2.5000011921
18.4468388612 -2.2493355005 -2.5000011921
18.4396822460 0.7409233797 -2.5000011921
18.4351987217 0.7565751798 -2.5000011921
18.4612161302 -2.2873171727 -2.5000011921
18.4352147024 0.8416654005 -2.5000011921
18.4468263517 -2.4198533697 -2.5000011921
18.4583417240 0.8486993292 -2.5000011921
18.4437951613 0.8957759464 -2.5000011921
