42.1968861195 -18.9468744399 -2.4996063312
40.7636073423 -17.7341874409 -2.4996063370
40.7903968571 -17.7646565654 -2.4996063370
40.8173661686 -17.7949666608 -2.4996063370
40.8581551879 -17.8401313053 -2.4996063370
42.3034633810 -19.0434039339 -2.4996063370
40.6789919689 -17.6729627240 -2.4996063427
40.7054207386 -17.7039335329 -2.4996063427
42.7030158889 -19.3285306488 -2.4996063485
42.7280458239 -19.3689412655 -2.4996063542
40.3058053842 -17.3157333692 -2.4996063600
40.5708322355 -17.6568075829 -2.4996063600
40.3229493828 -17.3798615698 -2.4996063658
39.9790698402 -16.9627140897 -2.4996063773
41.5558529949 -14.3708767756 -2.5001755938
41.5596685879 -14.3828461966 -2.5001755938
41.5457860181 -14.4940216670 -2.5001756168
41.5544065857 -14.7234089626 -2.5001756514
41.5592650389 -14.7353811198 -2.5001756514
45.5853223186 -18.4215929539 -2.5001761125
45.6011030320 -18.4216247522 -2.5001761125
45.7588887571 -18.4193753632 -2.5001761125
45.7746621511 -18.4188937303 -2.5001761125
44.1940555419 -18.4321892728 -2.5001762047
44.2098736885 -18.4363366436 -2.5001762047
47.1342650865 -18.3989728347 -2.5001762047
47.1656656010 -18.3898260794 -2.5001762047
44.1244662830 -18.4384314070 -2.5001762162
47.1882430768 -18.4083511077 -2.5001762162
44.0070556484 -18.4298105867 -2.5001762277
44.0703858228 -18.4483318961 -2.5001762277
43.9525765197 -18.4385268280 -2.5001762393
47.4778932227 -18.3903611711 -2.5001762508
43.8427839837 -18.4543110965 -2.5001762623
47.5331390963 -18.3962418876 -2.5001762623
43.4840944810 -18.4531947209 -2.5001763199
48.0882284191 -18.4014542595 -2.5001763660
43.0729603428 -18.4863387747 -2.5001764122
43.0146901606 -18.4854605970 -2.5001764237
42.8388071724 -18.4791486235 -2.5001764583
47.9406355041 -18.6781816549 -2.5001764583
48.9361531798 -18.1484065325 -2.5001764583
49.0106485568 -18.0985685026 -2.5001764583
49.0697090391 -18.0579081652 -2.5001764583
47.6817378769 -18.8051954715 -2.5001764698
49.1423430875 -18.0362161527 -2.5001764698
49.1861250911 -18.0046201126 -2.5001764698
47.0197482865 -19.1281722539 -2.5001765274
41.2410732033 -18.1882385079 -2.5001767695
41.2713300834 -18.2139615431 -2.5001767695
41.3476334515 -18.2774820391 -2.5001767695
40.9880404892 -17.9937096459 -2.5001767810
41.0611172338 -18.0614441965 -2.5001767810
40.9569305304 -17.9975910022 -2.5001767925
42.5367343302 -19.1120281424 -2.5001767925
40.3984597064 -17.4764857777 -2.5001768156
40.2898896142 -17.3829575028 -2.5001768271
42.8878703869 -19.3573700776 -2.5001768271
40.1705687266 -17.2707540939 -2.5001768386
41.5540698197 -13.8920049734 -2.4999333465
41.5440666573 -13.9526920632 -2.4999333638
41.5497009573 -13.9746759735 -2.4999333638
41.5525668570 -13.9856553320 -2.4999333638
41.5643548644 -14.0294865475 -2.4999333638
41.5630606574 -14.1127417137 -2.4999333811
41.5465145872 -14.1416446276 -2.4999333984
41.5508660413 -14.3105050125 -2.4999334330
41.5477915886 -14.3735838697 -2.4999334503
41.5559159607 -14.3955383757 -2.4999334503
41.5683457065 -14.4283790499 -2.4999334503
41.5415748688 -14.4260346389 -2.4999334676
41.5537069705 -14.5228137933 -2.4999334849
41.5627141335 -14.5447306902 -2.4999334849
41.5542193705 -14.5869577327 -2.4999335021
41.5655906435 -14.6733172322 -2.4999335194
48.4535389272 -15.5500857512 -2.4999335367
41.5518383117 -14.9230802343 -2.4999336059
41.5284520263 -15.0340452711 -2.4999336578
41.5673852355 -15.2007619228 -2.4999336923
41.5531177757 -15.2240669241 -2.4999337096
41.5759432941 -15.6967949858 -2.4999338825
43.8763048024 -18.4625184241 -2.4999346433
43.8924363718 -18.4665956314 -2.4999346433
43.9085799317 -18.4706251008 -2.4999346433
43.9247353409 -18.4746067970 -2.4999346433
43.9570811415 -18.4824267308 -2.4999346433
46.8834661204 -18.3974562757 -2.4999346433
46.8993920666 -18.3926380407 -2.4999346433
43.7734021797 -18.4603725442 -2.4999346606
43.8056664142 -18.4690880649 -2.4999346606
46.8102490387 -18.4440877749 -2.4999346606
46.9543225522 -18.4009645719 -2.4999346606
46.9861796378 -18.3908617393 -2.4999346606
43.7185243344 -18.4702020942 -2.4999346779
47.0254879280 -18.4035469449 -2.4999346779
46.9366113774 -18.4570908221 -2.4999346951
47.0809862574 -18.4105991797 -2.4999346951
47.1447452333 -18.3887057956 -2.4999346951
43.5432115040 -18.4682535200 -2.4999347124
43.5917060551 -18.4832976832 -2.4999347124
43.5683982329 -18.5014289397 -2.4999347297
43.3828038445 -18.4662553500 -2.4999347470
43.4151097198 -18.4772816787 -2.4999347470
43.4474802652 -18.4881166820 -2.4999347470
47.3129965316 -18.4044833926 -2.4999347470
43.3587320702 -18.4835011749 -2.4999347643
47.3695670991 -18.4085934287 -2.4999347643
47.4173815238 -18.3896831818 -2.4999347643
43.2697250432 -18.4774535686 -2.4999347816
47.5471872302 -18.3884111256 -2.4999347989
43.1233068305 -18.4737805391 -2.4999348162
43.1394750099 -18.4800852013 -2.4999348162
43.1556617690 -18.4863420076 -2.4999348162
47.5885437051 -18.3969928512 -2.4999348162
47.6044651954 -18.3900888711 -2.4999348162
43.0659004466 -18.4770091878 -2.4999348335
42.9921026689 -18.4729545844 -2.4999348508
43.0244550171 -18.4862923152 -2.4999348508
42.9342462989 -18.4748274362 -2.4999348680
47.7934329728 -18.3840755805 -2.4999348680
42.8761786124 -18.4761017908 -2.4999348853
47.8515077488 -18.3831808181 -2.4999348853
42.8179056908 -18.4767740516 -2.4999349026
42.6419170350 -18.4751432249 -2.4999349545
42.6580913518 -18.4828719192 -2.4999349545
48.1127440037 -18.3864580040 -2.4999349718
48.1286320364 -18.3780033907 -2.4999349718
48.1833590642 -18.4034636878 -2.4999350064
48.2427972640 -18.3984838544 -2.4999350237
42.3612099295 -18.4686724165 -2.4999350409
42.2574872036 -18.4675096051 -2.4999350755
48.0046541833 -18.6581833612 -2.4999351101
48.2360969359 -18.5398148837 -2.4999351101
48.7298724108 -18.2442909748 -2.4999351101
48.7761751764 -18.2133152514 -2.4999351101
48.7915481187 -18.2028988463 -2.4999351101
48.8068901802 -18.1924370109 -2.4999351101
48.8679469362 -18.1501372025 -2.4999351101
48.8831325848 -18.1394495964 -2.4999351101
49.0626316072 -18.0382283779 -2.4999351274
49.1805196417 -17.9469007720 -2.4999351274
47.6325189486 -18.8763605775 -2.4999351447
49.0172331445 -18.1022941033 -2.4999351447
49.0322766115 -18.0911650909 -2.4999351447
49.0622644517 -18.0687738062 -2.4999351447
49.2101878349 -17.9541778804 -2.4999351447
49.2538970953 -17.9189510513 -2.4999351447
49.3116865452 -17.8713811951 -2.4999351447
47.5191615217 -18.9467684831 -2.4999351620
48.6436866660 -18.3862557881 -2.4999351620
41.9589914593 -18.4624457835 -2.4999351793
47.2508339435 -19.0928371068 -2.4999351966
50.2353117731 -17.1139023773 -2.4999352311
46.8751271214 -19.3029275547 -2.4999352657
41.2656181234 -18.2223971903 -2.4999353176
41.3120205259 -18.2576633986 -2.4999353176
41.3743737571 -18.3040418035 -2.4999353176
41.4214964271 -18.3383396515 -2.4999353176
41.4372713940 -18.3496791693 -2.4999353176
41.0079401529 -18.0459115573 -2.4999353349
41.0527864914 -18.0834714628 -2.4999353349
41.1282654265 -18.1451821583 -2.4999353349
41.1434702816 -18.1573899516 -2.4999353349
41.1739879976 -18.1816703354 -2.4999353349
41.2046488304 -18.2057697411 -2.4999353349
41.2663955484 -18.2534222508 -2.4999353349
42.1682982389 -18.8315194589 -2.4999353349
42.1855288534 -18.8406476441 -2.4999353349
42.2027863952 -18.8497248179 -2.4999353349
42.2200707135 -18.8587509012 -2.4999353349
42.2547190741 -18.8766494803 -2.4999353349
40.9180681983 -18.0006621945 -2.4999353522
42.1742442958 -18.8620250630 -2.4999353522
42.4722495673 -19.0098762764 -2.4999353522
40.5718418233 -17.7108573828 -2.4999353695
40.6986071835 -17.8340636815 -2.4999353695
42.5514047149 -19.0725572761 -2.4999353695
40.6819915858 -17.8516209362 -2.4999353867
40.3323594477 -17.5308244867 -2.4999354040
42.8974452273 -19.2674880919 -2.4999354040
43.1811538749 -19.4183678490 -2.4999354386
40.1853765300 -17.4756555978 -2.4999354559
43.4351848260 -19.5456131844 -2.4999354732
41.5645888153 -14.4893475192 -2.5000261466
41.5666736575 -14.6087304966 -2.5000261581
41.5497142363 -14.6291822077 -2.5000261639
41.5526523374 -14.6896319941 -2.5000261696
41.5810021355 -15.2609762819 -2.5000262330
48.4647781924 -15.3245845852 -2.5000262849
43.6238914522 -18.4707983595 -2.5000266134
46.4542473970 -18.4054062538 -2.5000266134
46.4862248155 -18.3961950169 -2.5000266134
43.5047782909 -18.4663351189 -2.5000266192
43.5371678057 -18.4745728654 -2.5000266192
43.5533806979 -18.4786198421 -2.5000266192
43.4014679690 -18.4637729719 -2.5000266249
43.4176495069 -18.4682214205 -2.5000266249
43.4500517065 -18.4769746170 -2.5000266249
43.3463546628 -18.4733814092 -2.5000266307
46.7156274104 -18.4005242128 -2.5000266307
43.1380036847 -18.4602975499 -2.5000266422
46.8913379863 -18.3902429732 -2.5000266422
43.1467748549 -18.4885374928 -2.5000266480
46.8996599699 -18.4129383443 -2.5000266480
42.9931731274 -18.4623711686 -2.5000266537
43.0093523050 -18.4680274333 -2.5000266537
47.0042129364 -18.3993755265 -2.5000266537
46.9324539920 -18.4523800386 -2.5000266595
42.8796264100 -18.4727530764 -2.5000266653
47.1180296787 -18.4061865631 -2.5000266653
42.7900952848 -18.4646088905 -2.5000266710
42.8062819705 -18.4708658864 -2.5000266710
42.8224870947 -18.4770749718 -2.5000266710
42.7488956513 -18.4744334416 -2.5000266768
42.7651115801 -18.4808122705 -2.5000266768
47.3383884078 -18.3906753547 -2.5000266826
47.3543364841 -18.3834780005 -2.5000266826
42.6010386586 -18.4662128430 -2.5000266883
42.5267989339 -18.4606223947 -2.5000266941
47.4703021930 -18.3829818883 -2.5000266941
42.4847042911 -18.4685022432 -2.5000266998
47.5126235284 -18.3895359363 -2.5000266998
42.4262327134 -18.4687411602 -2.5000267056
42.3675664107 -18.4683715451 -2.5000267114
47.6296995311 -18.3857267771 -2.5000267114
42.2925373678 -18.4596610837 -2.5000267171
47.6884944952 -18.3828974434 -2.5000267171
42.2066477485 -18.4716083428 -2.5000267287
47.7906404733 -18.3839085882 -2.5000267287
42.0279866411 -18.4617462804 -2.5000267460
41.8199344488 -18.4581500792 -2.5000267690
41.7311988414 -18.4629486189 -2.5000267805
41.1710880774 -18.1855937125 -2.5000267978
41.1864564696 -18.1966412453 -2.5000267978
41.3419117957 -18.3045977252 -2.5000267978
41.3576314759 -18.3151394099 -2.5000267978
41.3733822715 -18.3256345468 -2.5000267978
42.0104375004 -18.6977005039 -2.5000267978
41.0045150604 -18.0918170630 -2.5000268036
41.0498922866 -18.1263049678 -2.5000268036
41.0650858222 -18.1377112791 -2.5000268036
42.2044312263 -18.8190519464 -2.5000268036
40.7521852019 -17.9196338076 -2.5000268094
40.8996373287 -18.0405561559 -2.5000268094
42.3683073313 -18.9188364352 -2.5000268094
42.3858395498 -18.9263391687 -2.5000268094
42.4914919496 -18.9702634815 -2.5000268094
48.1455319930 -18.6015645117 -2.5000268151
48.7075763889 -18.2374927553 -2.5000268151
48.8000072740 -18.1693262513 -2.5000268151
48.8457653751 -18.1346304835 -2.5000268151
48.8609494289 -18.1229751559 -2.5000268151
48.8912137689 -18.0995300045 -2.5000268151
40.4072422176 -17.6734115664 -2.5000268209
47.8706677684 -18.7784754315 -2.5000268209
47.8877606985 -18.7697018018 -2.5000268209
47.9048275997 -18.7608776466 -2.5000268209
48.9363117551 -18.0948837748 -2.5000268209
48.9664085780 -18.0709932462 -2.5000268209
49.0261755620 -18.0226800971 -2.5000268209
49.0410276569 -18.0104915734 -2.5000268209
49.0706233546 -17.9859829873 -2.5000268209
47.7087052541 -18.8852540703 -2.5000268266
47.7261147633 -18.8769590878 -2.5000268266
47.7781949973 -18.8517656480 -2.5000268266
47.8644919731 -18.8087527096 -2.5000268266
49.1008943425 -17.9921895410 -2.5000268266
49.2468398365 -17.8661458879 -2.5000268266
49.3325950508 -17.7884669311 -2.5000268266
49.3608720732 -17.7622372202 -2.5000268266
47.5252692181 -18.9952453938 -2.5000268324
47.6137159807 -18.9559576311 -2.5000268324
49.5851794204 -17.5771856024 -2.5000268324
40.4273822258 -17.7925119339 -2.5000268382
47.4276350564 -19.0629888845 -2.5000268382
49.3510667857 -17.8371577095 -2.5000268382
49.5477025246 -17.6492721606 -2.5000268382
49.6430605991 -17.5523161482 -2.5000268382
49.6565185733 -17.5383048249 -2.5000268382
49.8327842408 -17.3831931127 -2.5000268439
48.4484268385 -14.2899065958 -2.4999968173
48.4429776802 -14.4547870117 -2.4999967654
48.4434306357 -14.6531821951 -2.4999966876
48.4622302665 -14.6071974976 -2.4999966876
48.4444400181 -14.8314341483 -2.4999966098
48.4394317066 -15.7993956153 -2.4999960911
43.1220641717 -18.4524229607 -2.4999951834
46.0690385219 -18.4366597581 -2.4999951834
43.0036173977 -18.4445725039 -2.4999951575
45.8660821427 -18.5139520735 -2.4999951575
45.9791166463 -18.4858730325 -2.4999951575
46.1075545307 -18.4509249353 -2.4999951575
46.1714543435 -18.4323135441 -2.4999951575
46.2103544169 -18.4458516754 -2.4999951315
46.2582509220 -18.4310519055 -2.4999951315
42.8937106665 -18.4621765691 -2.4999951056
46.3134574248 -18.4388262226 -2.4999951056
46.3453596755 -18.4283970621 -2.4999951056
42.7582334033 -18.4439943576 -2.4999950797
46.4168265139 -18.4298362596 -2.4999950797
46.4327583059 -18.4243395274 -2.4999950797
46.4486737679 -18.4187956902 -2.4999950797
46.5605939096 -18.4298875426 -2.4999950278
46.6647052796 -18.4161681396 -2.4999950019
42.4536811356 -18.4362917001 -2.4999949759
42.4696493644 -18.4425186405 -2.4999949759
41.9931888936 -18.4474229909 -2.4999947684
47.3894989063 -18.4035782185 -2.4999946906
41.7742922287 -18.4467416970 -2.4999946647
41.1775781208 -18.2100605734 -2.4999945610
40.9823104665 -18.1062553281 -2.4999945350
41.0424907865 -18.1483123347 -2.4999945350
42.1001928234 -18.7349818232 -2.4999945350
42.1508170488 -18.7566460462 -2.4999945350
42.3982971124 -18.8808436927 -2.4999945091
42.6269856612 -19.0115926085 -2.4999944572
42.8334446984 -19.0999123239 -2.4999944313
39.9112385836 -17.3597635357 -2.4999943794
48.2790706305 -18.4001953591 -2.4999941979
48.1518046044 -18.6303088455 -2.4999940682
48.9214874524 -18.0538440296 -2.4999940682
47.7751836005 -18.8823041307 -2.4999940423
47.9295337106 -18.7948213619 -2.4999940423
47.5590628480 -19.0229625244 -2.4999940163
47.5943992451 -19.0051537205 -2.4999940163
47.6472047403 -18.9780493047 -2.4999940163
47.7346727074 -18.9318373450 -2.4999940163
49.2014482802 -17.8634542342 -2.4999940163
49.3002986311 -17.7664531736 -2.4999940163
47.4986357650 -19.0796964877 -2.4999939904
49.6731257990 -17.4353147125 -2.4999939645
47.2837448177 -19.2322278181 -2.4999939385
49.5044831916 -17.6594809408 -2.4999939385
46.9777008236 -19.3835793105 -2.4999939126
49.8885873926 -17.2501137375 -2.4999939126
46.8811344616 -19.4708605523 -2.4999938607
48.4431385256 -13.8655625694 -2.4999897202
48.4452474291 -13.8531054379 -2.4999897202
48.4589766902 -13.7657384760 -2.4999897202
48.4411962285 -14.0069949621 -2.4999896540
48.4462139715 -13.9820835310 -2.4999896540
48.4534640220 -13.9446618121 -2.4999896540
48.4626136221 -13.8946689046 -2.4999896540
48.4690872710 -13.8571050903 -2.4999896540
48.4403417969 -14.1241830312 -2.4999895877
48.4674206189 -13.9993161049 -2.4999895877
48.4699250833 -13.9867865573 -2.4999895877
48.4394363515 -14.2294933859 -2.4999895214
48.4457705007 -14.2045884727 -2.4999895214
48.4549951752 -14.1671619274 -2.4999895214
48.4496630875 -14.2854927726 -2.4999894551
48.4660490452 -14.2230039313 -2.4999894551
48.4447092440 -14.3918055533 -2.4999893889
48.4483748625 -14.3793414727 -2.4999893889
48.4520035941 -14.3668666031 -2.4999893889
48.4555954069 -14.3543810537 -2.4999893889
48.4410537122 -14.4860759986 -2.4999893226
48.4527766164 -14.4486802276 -2.4999893226
48.4395147615 -14.5682888622 -2.4999892563
48.4519673193 -14.5309035111 -2.4999892563
48.4495614460 -14.6135059315 -2.4999891900
48.4447190614 -14.7672726551 -2.4999890575
48.4494953796 -14.7548069027 -2.4999890575
48.4526512041 -14.8134665091 -2.4999889912
48.4447205941 -14.8973726121 -2.4999889249
48.4445884550 -15.1359779762 -2.4999886598
48.4485308212 -15.1837930108 -2.4999885935
48.4605107682 -15.1588175898 -2.4999885935
48.4581050359 -15.2193446919 -2.4999885272
48.4485255417 -15.2925744416 -2.4999884610
48.4590767220 -15.3772567090 -2.4999883284
48.4468277286 -15.4511159140 -2.4999882621
48.4536269696 -15.4386409316 -2.4999882621
48.4476601638 -15.8743705906 -2.4999876656
42.9139100456 -18.4649045079 -2.4999864064
45.7343053603 -18.4164347273 -2.4999864064
45.7498884191 -18.4119709022 -2.4999864064
42.7349957446 -18.4424296089 -2.4999863401
42.7663548765 -18.4512003486 -2.4999863401
45.7722179806 -18.4306696335 -2.4999863401
45.8034543801 -18.4214713523 -2.4999863401
45.8190520355 -18.4168029499 -2.4999863401
45.8573078764 -18.4304339415 -2.4999862738
45.8729318091 -18.4256061914 -2.4999862738
45.8885413922 -18.4207322441 -2.4999862738
42.5801509549 -18.4468255813 -2.4999862075
42.6272540840 -18.4612860656 -2.4999862075
45.9583447710 -18.4237517644 -2.4999862075
42.4787337884 -18.4395989702 -2.4999861412
42.4943996157 -18.4447656132 -2.4999861412
45.9658560448 -18.4467281882 -2.4999861412
46.0128249851 -18.4311424430 -2.4999861412
46.0284503333 -18.4258546421 -2.4999861412
42.4240204810 -18.4466984296 -2.4999860750
46.0205398660 -18.4540513036 -2.4999860750
46.0832169769 -18.4325302004 -2.4999860750
46.1382428702 -18.4386477082 -2.4999860087
42.2824100630 -18.4477768611 -2.4999859424
46.1778420572 -18.4499791291 -2.4999859424
46.2091855990 -18.4383807017 -2.4999859424
42.2112031310 -18.4469095660 -2.4999858761
46.2803875650 -18.4371726444 -2.4999858761
46.2960295809 -18.4310933186 -2.4999858761
42.1397448062 -18.4450962545 -2.4999858099
46.3674717212 -18.4287267036 -2.4999858099
42.0680475435 -18.4423308705 -2.4999857436
42.0837232492 -18.4487123857 -2.4999857436
42.0994177640 -18.4550475015 -2.4999857436
46.5519199859 -18.4296917169 -2.4999856110
41.8829390682 -18.4422613405 -2.4999855447
46.5616348984 -18.4518266612 -2.4999855447
46.6086256239 -18.4309535121 -2.4999855447
46.6811594132 -18.4244045656 -2.4999854785
41.7689260054 -18.4435507461 -2.4999854122
41.7846066285 -18.4508171117 -2.4999854122
41.8003086781 -18.4580370593 -2.4999854122
46.7226435518 -18.4316972752 -2.4999854122
41.7116240226 -18.4432999628 -2.4999853459
46.7799436782 -18.4311722670 -2.4999853459
46.8374297275 -18.4300447837 -2.4999852796
41.1099758796 -18.1978508212 -2.4999851471
41.2152392379 -18.2614351821 -2.4999851471
41.2759736256 -18.2967861127 -2.4999851471
41.3371220500 -18.3314159309 -2.4999851471
41.3832499319 -18.3569121442 -2.4999851471
41.8401757739 -18.5819341138 -2.4999851471
42.0509234563 -18.6699168408 -2.4999851471
40.8899587152 -18.0842291764 -2.4999850808
41.0225902841 -18.1714760726 -2.4999850808
41.0523763338 -18.1903827203 -2.4999850808
42.1904544001 -18.7487612273 -2.4999850808
42.2070360466 -18.7547793002 -2.4999850808
42.2568867849 -18.7725388433 -2.4999850808
42.2735384793 -18.7783602931 -2.4999850808
40.7025643371 -17.9819899764 -2.4999850145
40.7456162476 -18.0131312933 -2.4999850145
42.2655947795 -18.8011908191 -2.4999850145
42.3158550880 -18.8184288586 -2.4999850145
42.4506100049 -18.8622094684 -2.4999850145
47.0378620188 -18.4361307176 -2.4999850145
40.3937348314 -17.7720789644 -2.4999849482
40.5744155058 -17.9162716755 -2.4999849482
40.9517322182 -18.1832946270 -2.4999849482
40.2560297849 -17.6864160621 -2.4999848820
42.5730659216 -18.9492705141 -2.4999848820
42.7108449574 -18.9869280364 -2.4999848820
40.2266348717 -17.6927669476 -2.4999848157
42.9085621583 -19.0844617577 -2.4999847494
43.0447432913 -19.1378535975 -2.4999846831
47.3589238594 -18.4222870565 -2.4999846168
43.4061071214 -19.2959028328 -2.4999844180
48.3603359054 -18.4094531283 -2.4999830925
47.9673166480 -18.7824226462 -2.4999828936
48.0337429150 -18.7378433878 -2.4999828936
48.1160263543 -18.6810191518 -2.4999828936
48.8455804554 -18.0894910839 -2.4999828936
48.8747445390 -18.0621157294 -2.4999828936
47.7946655806 -18.9215033788 -2.4999828273
47.8287705211 -18.9003310280 -2.4999828273
47.8627496020 -18.8789572715 -2.4999828273
49.0067732176 -17.9680815370 -2.4999828273
49.0210156481 -17.9539391218 -2.4999828273
49.0775651478 -17.8969500061 -2.4999828273
48.3552108959 -18.5661220609 -2.4999827611
49.3416678188 -17.6483675829 -2.4999827611
47.4341966829 -19.1836128610 -2.4999826948
49.4911894944 -17.5107385953 -2.4999826948
49.2829581141 -17.7858876010 -2.4999826285
47.3665677416 -19.2733411584 -2.4999825622
49.3007590143 -17.8022419041 -2.4999825622
49.2768968032 -17.8635426168 -2.4999824960
46.9429550762 -19.5246795414 -2.4999824297
47.5089766295 -19.2807322994 -2.4999823634
50.3161537138 -16.6152016569 -2.4999822308
50.3466975750 -16.5610815832 -2.4999822308
48.4351596802 -13.2435686978 -2.4999963505
48.4550710338 -14.5753541753 -2.4999961430
48.4525233688 -15.1752304743 -2.4999959355
48.4513122707 -15.3013733668 -2.4999958836
48.4591110419 -15.4016927345 -2.4999958318
42.6444077962 -18.4619924160 -2.4999954946
45.2716474069 -18.4440525068 -2.4999954946
42.5012102154 -18.4494306495 -2.4999954687
42.5164264437 -18.4536137488 -2.4999954687
42.3354971713 -18.4513273340 -2.4999954168
45.6106545854 -18.4192739687 -2.4999954168
45.6559499914 -18.4040947515 -2.4999954168
41.8522831848 -18.4593644721 -2.4999952353
46.1241283728 -18.4049181840 -2.4999952353
41.7669695930 -18.4504691524 -2.4999952093
46.3196977294 -18.3962097300 -2.4999951575
41.2858050662 -18.3032852036 -2.4999951315
41.6468154334 -18.4777671766 -2.4999951315
46.3902976158 -18.3892384956 -2.4999951315
40.9395694078 -18.1330030895 -2.4999951056
40.9825082612 -18.1592884059 -2.4999951056
41.2301022737 -18.3009620883 -2.4999951056
42.2589383774 -18.7565482094 -2.4999950797
47.2512670539 -18.4294079966 -2.4999946388
47.9624217243 -18.8192567043 -2.4999938607
48.0273535872 -18.7710732914 -2.4999938607
48.8018450943 -18.0921328483 -2.4999938607
48.8581145252 -18.0340678912 -2.4999938607
49.0000797814 -17.9172635149 -2.4999938348
47.6556873372 -19.0890832191 -2.4999938089
47.6898262892 -19.0668975745 -2.4999938089
47.7068463940 -19.0557291073 -2.4999938089
49.1789389082 -17.7497696154 -2.4999938089
49.4023993083 -17.5108264850 -2.4999937829
49.4587935362 -17.4765749407 -2.4999937570
49.6813695992 -17.2065786597 -2.4999937310
44.9339265420 -14.8531427058 -2.5000049487
42.3754975694 -18.4525082707 -2.5000115131
42.3900928865 -18.4562433628 -2.5000115131
42.4046991888 -18.4599352630 -2.5000115131
42.4339442378 -18.4671893587 -2.5000115131
44.8659264010 -18.4649708673 -2.5000115131
44.8951581667 -18.4576634282 -2.5000115131
44.9243461875 -18.4501831720 -2.5000115131
48.4554526685 -15.1941234727 -2.5000115131
42.3401743796 -18.4682820338 -2.5000115621
42.3548165129 -18.4721215493 -2.5000115621
45.0618146370 -18.4376191099 -2.5000115621
42.2021384655 -18.4549831398 -2.5000116111
42.2313577611 -18.4634357394 -2.5000116111
42.2459860343 -18.4675971753 -2.5000116111
42.3193085305 -18.4877542706 -2.5000116111
44.9512025110 -18.4931390546 -2.5000116111
45.0831138957 -18.4566163002 -2.5000116111
45.1122924318 -18.4480240531 -2.5000116111
45.1414196226 -18.4392593264 -2.5000116111
45.1559636449 -18.4348123788 -2.5000116111
48.4597747698 -15.3244393667 -2.5000116111
48.4650900720 -15.3101897530 -2.5000116111
42.1221850257 -18.4561946985 -2.5000116601
42.1367923563 -18.4606791188 -2.5000116601
42.1514128887 -18.4651203084 -2.5000116601
42.1806930470 -18.4738728402 -2.5000116601
45.2213814486 -18.4396154114 -2.5000116601
45.2794763335 -18.4206235818 -2.5000116601
48.4550754783 -15.4042637806 -2.5000116601
48.4606269362 -15.3900277191 -2.5000116601
42.0418815626 -18.4561156233 -2.5000117090
45.3162210686 -18.4337561688 -2.5000117090
45.3452602767 -18.4237851815 -2.5000117090
45.3968274308 -18.4312753423 -2.5000117580
45.4548113499 -18.4102081382 -2.5000117580
41.9387836931 -18.4725860779 -2.5000118070
45.4922318533 -18.4220382505 -2.5000118070
45.5067233976 -18.4165536122 -2.5000118070
45.5211986538 -18.4110261293 -2.5000118070
48.4517328436 -15.6026019594 -2.5000118070
41.8136643535 -18.4534758692 -2.5000118560
41.8282649912 -18.4588729614 -2.5000118560
41.8428815306 -18.4642268385 -2.5000118560
41.8575138437 -18.4695374540 -2.5000118560
45.4861802337 -18.4501257440 -2.5000118560
45.5733821035 -18.4166791994 -2.5000118560
48.4551611477 -15.6549786369 -2.5000118560
41.8052495974 -18.4761370069 -2.5000119050
45.6547759128 -18.4099870370 -2.5000119050
48.4708918595 -15.6790680604 -2.5000119050
45.7363915272 -18.4019534154 -2.5000119540
41.6267005935 -18.4583955662 -2.5000120030
45.7748845827 -18.4116607158 -2.5000120030
45.7893441916 -18.4053399851 -2.5000120030
48.4484642818 -15.8418871786 -2.5000120030
48.4553103378 -15.8276687594 -2.5000120030
48.4621143031 -15.8134301505 -2.5000120030
41.2141200938 -18.2959903831 -2.5000120520
41.2282574842 -18.3031617247 -2.5000120520
41.3421076585 -18.3590205787 -2.5000120520
41.3707742594 -18.3725630889 -2.5000120520
41.3995204806 -18.3859357609 -2.5000120520
41.4572477564 -18.4121697237 -2.5000120520
41.9143977014 -18.5919985210 -2.5000120520
45.8280526660 -18.4146474351 -2.5000120520
45.8959158511 -18.4104379890 -2.5000121010
48.4493954432 -16.0022079757 -2.5000121499
48.4567157529 -15.9879861005 -2.5000121499
46.0322435145 -18.3992422455 -2.5000121989
46.0138318322 -18.4350543117 -2.5000122479
46.0862608658 -18.3994870707 -2.5000122479
45.9510557861 -18.4914754679 -2.5000122969
48.4529491102 -16.1499900787 -2.5000122969
48.4684218932 -16.1215011246 -2.5000122969
46.1514763930 -18.4206774793 -2.5000123459
46.2350015465 -18.4044326446 -2.5000123949
46.2494377602 -18.3967508363 -2.5000123949
48.4556004167 -16.2446319765 -2.5000123949
46.2753011564 -18.4103156374 -2.5000124439
46.3041848969 -18.3946708204 -2.5000124439
46.3185919307 -18.3867843980 -2.5000124439
46.3734981860 -18.3839526151 -2.5000124929
46.4141747731 -18.3887396686 -2.5000125418
46.5391480870 -18.3718875784 -2.5000126398
46.5534866958 -18.3633061920 -2.5000126398
46.5946542475 -18.3666660738 -2.5000126888
46.6917499524 -18.3634389022 -2.5000127868
46.7333407444 -18.3657161368 -2.5000128358
48.4408496669 -16.6851845167 -2.5000128358
48.4610252847 -16.6984991602 -2.5000128848
46.9153474384 -18.3619251410 -2.5000130317
46.9855975222 -18.3725380652 -2.5000131297
46.9999361018 -18.3626359978 -2.5000131297
47.0849955617 -18.3620173633 -2.5000132277
48.4205427518 -17.7790770026 -2.5000141585
48.5981045781 -18.2635354640 -2.5000150892
47.9398509023 -18.8978088847 -2.5000151382
47.9557391527 -18.8850816649 -2.5000151382
47.9874023580 -18.8594865032 -2.5000151382
48.0346118517 -18.8207436383 -2.5000151382
48.1125243390 -18.7552460915 -2.5000151382
48.1434166495 -18.7287256084 -2.5000151382
48.5873157369 -18.3095765785 -2.5000151382
48.7130519947 -18.1763236465 -2.5000151382
48.7268025782 -18.1613123149 -2.5000151382
48.7677870510 -18.1160351809 -2.5000151382
48.7813590509 -18.1008621969 -2.5000151382
48.8083681008 -18.0703961158 -2.5000151382
48.8218049145 -18.0551032853 -2.5000151382
48.8750980218 -17.9935364908 -2.5000151382
47.7770930599 -19.0540478417 -2.5000151872
47.8260374580 -19.0171636923 -2.5000151872
47.8746526026 -18.9798466413 -2.5000151872
47.8907838208 -18.9673119309 -2.5000151872
47.9068778885 -18.9547295563 -2.5000151872
47.9229346649 -18.9420996276 -2.5000151872
48.1900594141 -18.7202237551 -2.5000151872
48.8801666290 -18.0247537751 -2.5000151872
48.9067236667 -17.9937044472 -2.5000151872
48.9462136286 -17.9468372147 -2.5000151872
48.9592843296 -17.9311371529 -2.5000151872
48.9982169722 -17.8838059378 -2.5000151872
49.0494708599 -17.8201637457 -2.5000151872
47.6087004269 -19.2053691464 -2.5000152362
47.6254999451 -19.1936201839 -2.5000152362
47.6422646343 -19.1818215768 -2.5000152362
47.6589943477 -19.1699734283 -2.5000152362
47.6756889390 -19.1580758422 -2.5000152362
47.6923482619 -19.1461289225 -2.5000152362
48.2520938442 -18.6977469511 -2.5000152362
49.2181029449 -17.6400307684 -2.5000152362
49.2423779176 -17.6069888290 -2.5000152362
49.2664569782 -17.5738038491 -2.5000152362
47.6056320434 -19.2369388816 -2.5000152852
49.3100296442 -17.5544992935 -2.5000152852
49.3690743782 -17.4702763311 -2.5000152852
49.4039010025 -17.4193266073 -2.5000152852
49.4268669635 -17.3851892869 -2.5000152852
47.3959163496 -19.4053553225 -2.5000153342
48.2533062536 -18.7612185412 -2.5000153342
49.2323389762 -17.7018971413 -2.5000153342
49.4924450177 -17.3297050599 -2.5000153342
49.5371079274 -17.2602537224 -2.5000153342
47.3211556349 -19.4807578529 -2.5000153832
48.2067188541 -18.8337156562 -2.5000153832
49.6446624683 -17.1322579144 -2.5000153832
49.6553204404 -17.1144952787 -2.5000153832
47.1912855953 -19.5869382379 -2.5000154321
47.0035542240 -19.7203442134 -2.5000154811
47.4172854418 -19.4776944826 -2.5000154811
46.7758532831 -19.9192052039 -2.5000156281
45.0141909953 -14.6560984055 -2.5000059902
44.9199386110 -14.9729932063 -2.5000062438
42.1162453269 -18.4538837234 -2.5000139147
42.1994341707 -18.4760926498 -2.5000139147
42.2133367355 -18.4796504358 -2.5000139147
44.7242701930 -18.4476429543 -2.5000139147
42.0681533706 -18.4654671667 -2.5000139781
44.8000864475 -18.4508482055 -2.5000139781
44.8139029557 -18.4467129021 -2.5000139781
44.9039148264 -18.4440649076 -2.5000140415
45.0573719109 -18.4433943971 -2.5000141683
48.4542624632 -15.0931678000 -2.5000148657
48.4657335603 -15.0483428241 -2.5000148657
48.4518507347 -12.4539758412 -2.5000148657
48.4358290985 -12.3944000984 -2.5000148657
48.4292673410 -12.2837167836 -2.5000149291
48.4595630232 -15.2553886734 -2.5000149925
48.4384947842 -12.1504545679 -2.5000150559
48.4692610503 -15.3891523131 -2.5000151193
48.4316762276 -12.0535976562 -2.5000151193
48.4497920512 -15.6669259405 -2.5000153094
48.4608782792 -15.6370703194 -2.5000153094
48.4553920015 -15.7202673535 -2.5000153728
48.4545147477 -15.7887903435 -2.5000154362
48.4364655052 -11.6598037065 -2.5000154996
48.4499996469 -15.9265738590 -2.5000155630
48.4442970292 -16.2301713180 -2.5000158800
48.4338019741 -16.4116924960 -2.5000160702
48.1464979053 -18.7362284468 -2.5000191766
48.2048321770 -18.6798259847 -2.5000191766
48.2193111456 -18.6656178259 -2.5000191766
48.0441291154 -18.8648106318 -2.5000192400
48.8445347465 -17.9987624271 -2.5000192400
47.7663156325 -19.1359106711 -2.5000193034
47.8763176562 -19.0445418465 -2.5000193034
48.9379392903 -17.9161124389 -2.5000193034
49.1616607273 -17.5989891726 -2.5000193034
47.5716254599 -19.3187984077 -2.5000193668
48.4315987819 -18.5880821404 -2.5000194302
49.3455768034 -17.4001753909 -2.5000194302
47.2594992408 -19.6271020081 -2.5000195570
47.1328267509 -19.7370773764 -2.5000196204
44.9857421125 -14.6405931056 -2.5000016340
45.0642008350 -15.1678533297 -2.5000017032
45.0784008632 -15.1912065813 -2.5000017090
44.5812298628 -18.4518964872 -2.5000022853
44.6663116418 -18.4500206347 -2.5000022911
44.7128806316 -18.4599085680 -2.5000022968
44.7517529263 -18.4464968983 -2.5000022968
44.7727365829 -18.4647419965 -2.5000023026
44.8977529669 -18.4444494380 -2.5000023084
44.9582833945 -18.4467699940 -2.5000023141
44.9802037122 -18.4640511823 -2.5000023199
45.0801984626 -18.4489339919 -2.5000023256
45.1156389917 -18.4600502548 -2.5000023314
45.2290258513 -18.4359493276 -2.5000023372
45.3141952203 -18.4493880770 -2.5000023487
45.5518100370 -18.4375255670 -2.5000023717
45.8176136637 -18.4261651577 -2.5000024006
46.0879056766 -18.4278466831 -2.5000024351
48.4533946922 -15.4367978774 -2.5000024813
48.4574060551 -15.4213137682 -2.5000024813
48.4628757429 -12.7461807261 -2.5000024813
48.4468088262 -12.6842502156 -2.5000024813
48.4426776841 -12.6687976322 -2.5000024813
48.4445855315 -12.5850993971 -2.5000024870
48.4291646762 -15.6972222270 -2.5000024928
48.4386827616 -15.6663810051 -2.5000024928
48.4433733373 -15.6509394119 -2.5000024928
48.4480182135 -15.6354840108 -2.5000024928
48.4588996191 -12.5474616365 -2.5000024928
48.4543637787 -12.5319738848 -2.5000024928
48.4497821427 -12.5164996188 -2.5000024928
48.4375579461 -15.7507783607 -2.5000024985
48.4424981894 -15.7353397256 -2.5000024985
48.4473927407 -15.7198865440 -2.5000024985
48.4540834556 -12.4475694995 -2.5000024985
48.4492521373 -12.4320964320 -2.5000024985
48.4350729998 -15.8354893964 -2.5000025043
48.4473642456 -12.3473699875 -2.5000025043
48.4422365485 -12.3319172350 -2.5000025043
48.4420574124 -15.8896349877 -2.5000025101
48.4547300706 -12.2932749629 -2.5000025101
48.4494423183 -12.2778006576 -2.5000025101
48.4316796531 -15.9903594021 -2.5000025158
48.4506025802 -12.2079416354 -2.5000025158
48.4312137897 -16.0604949490 -2.5000025216
48.4371127547 -16.2415676986 -2.5000025389
48.4585488697 -11.9568002742 -2.5000025389
48.4522657477 -11.9413161445 -2.5000025389
48.4216686482 -16.3993941088 -2.5000025504
48.4285276837 -16.3839996392 -2.5000025504
48.4157256091 -16.4708981304 -2.5000025562
48.4298212562 -16.4401228779 -2.5000025562
48.4532443760 -11.7581820789 -2.5000025562
48.4615052159 -11.7173563725 -2.5000025619
48.4626077504 -11.6041179413 -2.5000025735
48.3638101021 -11.4044225888 -2.5000025735
48.3156370480 -11.3135687766 -2.5000025735
48.2992219544 -11.2834759436 -2.5000025735
48.2658590919 -11.2235842589 -2.5000025735
48.4136478352 -16.6973640262 -2.5000025792
48.7403471396 -12.2325052731 -2.5000025792
48.7010541965 -12.1186188665 -2.5000025792
48.2177795539 -11.0926230108 -2.5000025792
48.1731515469 -11.0190458566 -2.5000025792
48.8105140654 -12.3730494732 -2.5000025850
48.7847592252 -12.2905654886 -2.5000025850
48.4103504807 -16.9113103805 -2.5000026023
48.4259008402 -17.2697856455 -2.5000026484
48.4447227961 -17.2389362110 -2.5000026484
48.4392766462 -17.3852806458 -2.5000026657
48.4599194527 -17.5750015970 -2.5000026945
48.4655414070 -17.7381132626 -2.5000027175
48.0686525439 -18.8548419148 -2.5000028155
48.1527573573 -18.7680530863 -2.5000028155
48.1942288042 -18.7241023061 -2.5000028155
48.2079657421 -18.7093704731 -2.5000028155
48.2353085795 -18.6797852208 -2.5000028155
48.2489142397 -18.6649320603 -2.5000028155
48.2894667588 -18.6201320024 -2.5000028155
48.3028957170 -18.6051188933 -2.5000028155
48.6604330358 -18.1691394383 -2.5000028155
48.6725262534 -18.1530309171 -2.5000028155
48.7675458182 -18.0228893297 -2.5000028155
48.7792059328 -18.0064645894 -2.5000028155
48.8253589935 -17.9404228614 -2.5000028155
48.8481416731 -17.9071983611 -2.5000028155
48.8594592003 -17.8905357099 -2.5000028155
47.8533675237 -19.0966125142 -2.5000028213
47.9271614762 -19.0275496484 -2.5000028213
48.0430837289 -18.9148009529 -2.5000028213
48.6553276604 -18.2159042736 -2.5000028213
48.9903133766 -17.7350504880 -2.5000028213
47.7946823476 -19.1825877942 -2.5000028270
47.6102719856 -19.3732690361 -2.5000028328
47.6259318311 -19.3602618126 -2.5000028328
49.1272463570 -17.6049857402 -2.5000028328
49.1376686633 -17.5874987692 -2.5000028328
49.2302042107 -17.4761496018 -2.5000028386
49.2700507655 -17.4048085780 -2.5000028386
49.2993801847 -17.3509961282 -2.5000028386
49.1475920331 -17.6649249690 -2.5000028443
49.7397020332 -16.7605220346 -2.5000028732
49.9958995803 -16.2741131242 -2.5000028904
45.0418271572 -15.3336224396 -2.4999988661
45.0440191581 -15.4364443696 -2.4999988143
44.2134178796 -18.4405968004 -2.4999966876
44.2679562023 -18.4501954968 -2.4999966617
44.2799440371 -18.4466846537 -2.4999966617
44.3828373694 -18.4403449256 -2.4999966358
44.4142535986 -18.4555847087 -2.4999966098
44.4382481541 -18.4476619368 -2.4999966098
44.4502277491 -18.4436473504 -2.4999966098
44.7565185750 -18.4582237619 -2.4999964801
44.8379362477 -18.4501472971 -2.4999964542
44.9076179115 -18.4458565577 -2.4999964283
44.9655812471 -18.4459611956 -2.4999964023
45.0822647111 -18.4437412216 -2.4999963505
45.2824640369 -18.4490627845 -2.4999962467
45.3659408504 -18.4305087708 -2.4999962208
45.4377925029 -18.4450732919 -2.4999961689
45.4497600668 -18.4381018838 -2.4999961689
45.6553859852 -18.4258175979 -2.4999960652
45.8653238994 -18.4316850102 -2.4999959355
48.4384965180 -15.8756641488 -2.4999952353
48.4428501756 -15.8598273579 -2.4999952353
48.4471569660 -15.8439777573 -2.4999952353
48.4572259897 -12.9858523379 -2.4999952353
48.4530309793 -12.9699727860 -2.4999952353
48.4401643598 -12.9224095599 -2.4999952353
48.4345733294 -15.9772627422 -2.4999952093
48.4392275511 -15.9614371122 -2.4999952093
48.4409922726 -12.8366374770 -2.4999952093
48.4363559287 -12.8208066002 -2.4999952093
48.4287222607 -16.0791860405 -2.4999951834
48.4336780156 -16.0633772731 -2.4999951834
48.4482643877 -16.0158639797 -2.4999951834
48.4314001664 -16.1498096713 -2.4999951575
48.4467536672 -16.1023131890 -2.4999951575
48.4436244135 -12.6799169959 -2.4999951575
48.4277302067 -16.2365378050 -2.4999951315
48.4438535156 -16.1890704763 -2.4999951315
48.4458753446 -12.6090094831 -2.4999951315
48.4352090374 -12.5773366079 -2.4999951315
48.4283375379 -16.3077474287 -2.4999951056
48.4416746599 -12.5219615802 -2.4999951056
48.4361074449 -12.5061300616 -2.4999951056
48.4396441454 -16.3475948509 -2.4999950797
48.4360663594 -12.4346487453 -2.4999950797
48.4623546887 -16.3558753405 -2.4999950537
48.4529115273 -12.4104450923 -2.4999950537
48.4307593068 -16.5071542547 -2.4999950278
48.4455013505 -12.3225767672 -2.4999950278
48.4393443024 -12.3067348010 -2.4999950278
48.4331404178 -12.2909111177 -2.4999950278
48.4469464828 -16.5319010350 -2.4999950019
48.4430316457 -12.2503295157 -2.4999950019
48.4501560159 -16.5885298298 -2.4999949759
48.4419519294 -12.1209864921 -2.4999949500
48.4505904109 -12.0797615724 -2.4999949241
48.4377933156 -11.9907762675 -2.4999948981
48.4713405874 -16.7854170506 -2.4999948722
48.4526732126 -11.9649823983 -2.4999948722
48.4644862941 -16.9169107512 -2.4999948203
48.4371970210 -11.8177079741 -2.4999948203
48.4575976641 -11.5890256003 -2.4999946906
48.3545921117 -11.4001918915 -2.4999946906
48.2914318815 -11.2917670098 -2.4999946906
48.7675886334 -12.2172421100 -2.4999946647
48.2749490765 -11.2177767029 -2.4999946647
48.1688010304 -11.0506770893 -2.4999946647
48.0048311449 -10.8139928366 -2.4999946647
48.8641990719 -12.4123683481 -2.4999946388
48.8403232225 -12.3441502228 -2.4999946388
48.8342282650 -12.3271402077 -2.4999946388
48.7504372566 -12.1077114745 -2.4999946388
47.9488484724 -10.6983019867 -2.4999946388
48.8870618830 -12.4045180520 -2.4999946128
48.2682210459 -11.1155317417 -2.4999946128
48.4709110256 -17.3821870500 -2.4999945869
49.0130449788 -12.7269259909 -2.4999945869
49.1067225721 -12.8912052939 -2.4999945350
48.4650857372 -17.6337196570 -2.4999944572
48.4880811091 -17.7352635838 -2.4999943794
48.4559874553 -18.0079103801 -2.4999942497
48.0435717841 -18.9227007661 -2.4999939904
48.1099810736 -18.8488978960 -2.4999939904
48.1362379206 -18.8191030756 -2.4999939904
48.2139444019 -18.7287938761 -2.4999939904
48.2774670976 -18.6524923393 -2.4999939904
48.3150365649 -18.6062633744 -2.4999939904
48.6676138000 -18.1263498517 -2.4999939904
48.6895860506 -18.0932685347 -2.4999939904
48.7113621965 -18.0600578014 -2.4999939904
48.7649396176 -17.9764724120 -2.4999939904
47.9387214485 -19.0698106260 -2.4999939645
47.9800077208 -19.0265714053 -2.4999939645
48.0073180186 -18.9975424414 -2.4999939645
48.0344560934 -18.9683524086 -2.4999939645
48.0479602501 -18.9536973105 -2.4999939645
48.1675300868 -18.8200221687 -2.4999939645
48.9093275753 -17.7848670268 -2.4999939645
48.9193269402 -17.7676290788 -2.4999939645
48.9292752684 -17.7503616264 -2.4999939645
48.9588131643 -17.6983837543 -2.4999939645
48.9782483273 -17.6635870941 -2.4999939645
47.7577529857 -19.2841497088 -2.4999939385
47.8579644939 -19.1863926394 -2.4999939385
47.8862224838 -19.1580829270 -2.4999939385
49.0090622691 -17.6578082142 -2.4999939385
49.0472427597 -17.5875087877 -2.4999939385
49.1120474809 -17.4634155199 -2.4999939385
47.5823812715 -19.4782132998 -2.4999939126
47.6866486224 -19.3840458399 -2.4999939126
49.1426692624 -17.4564828975 -2.4999939126
47.5377316125 -19.5493421431 -2.4999938867
49.2778351551 -17.2314692195 -2.4999938867
49.2861958568 -17.2131435808 -2.4999938867
47.3829120683 -19.7102103881 -2.4999938607
47.2223210889 -19.8664409805 -2.4999938348
49.3006990838 -17.3538921178 -2.4999938089
49.4874163125 -16.9246139661 -2.4999938089
49.5248196345 -16.9614332910 -2.4999937570
49.5620589955 -16.8659367233 -2.4999937570
45.0092122549 -14.6793660111 -2.5000000008
43.9247998243 -18.4379819148 -2.4999989201
44.0075062961 -18.4416179486 -2.4999989057
44.1235989647 -18.4336804635 -2.4999988913
44.2477347361 -18.4450281559 -2.4999988625
44.2805895907 -18.4339097174 -2.4999988625
45.4395071745 -11.5522819238 -2.4999988049
44.7270355873 -18.4364371518 -2.4999987616
45.0999198821 -18.4350880844 -2.4999986608
48.4396474144 -14.9171290581 -2.4999979548
48.4413946003 -14.8528860499 -2.4999979548
48.4417126109 -14.8368224189 -2.4999979548
48.4426226757 -14.7404272740 -2.4999979548
48.4418217588 -14.6440311604 -2.4999979548
48.4510742409 -16.0695825680 -2.4999978539
48.4541665557 -16.1559896607 -2.4999978395
48.4583393266 -16.1398825463 -2.4999978395
48.4624644315 -16.1237631586 -2.4999978395
48.4348185231 -13.1577038486 -2.4999978251
48.4514924498 -16.3460269154 -2.4999978107
48.4562273970 -16.3299268800 -2.4999978107
48.4701461897 -16.2815437197 -2.4999978107
48.4746903024 -16.2653887854 -2.4999978107
48.4533104487 -13.1348387050 -2.4999978107
48.4368863637 -12.9991370797 -2.4999977963
48.4343233623 -12.8393510518 -2.4999977675
48.4606103910 -16.6333924270 -2.4999977531
48.4661953775 -16.6172641618 -2.4999977531
48.4773922259 -16.7303430987 -2.4999977243
48.4310999609 -12.6217100921 -2.4999977243
48.4307946464 -12.4914338338 -2.4999976954
48.4273991024 -12.3602710171 -2.4999976666
48.4618204826 -17.1561788034 -2.4999976378
48.4356264075 -12.2603427807 -2.4999976378
48.4547956970 -17.2305683636 -2.4999976234
48.4532789314 -17.3476964966 -2.4999975946
48.4733027081 -17.4171831699 -2.4999975658
48.4333673586 -11.8212218888 -2.4999975225
48.4377246258 -11.6298671239 -2.4999974649
48.4551658803 -17.8630162875 -2.4999974505
48.7200148838 -12.0689992593 -2.4999974361
48.3552384451 -11.3979157421 -2.4999974361
48.1806158499 -11.1335100153 -2.4999974361
48.1484302112 -11.0877773805 -2.4999974361
48.4499066185 -17.9678811738 -2.4999974217
48.7498124287 -12.0757271349 -2.4999974217
48.9057760320 -12.3759245978 -2.4999974073
47.6844543364 -10.4025709580 -2.4999973929
47.5846826303 -10.2628007933 -2.4999973785
48.1746512827 -18.7958259109 -2.4999972776
48.2341128914 -18.7190144005 -2.4999972776
48.2924319239 -18.6413318319 -2.4999972776
47.9695153903 -19.0808057392 -2.4999972632
48.0458228077 -18.9921227596 -2.4999972632
48.7850404484 -17.9175175227 -2.4999972632
48.8037543238 -17.8833026299 -2.4999972632
48.8222654449 -17.8489776183 -2.4999972632
48.9848051791 -17.5809482812 -2.4999972488
49.0015243016 -17.5455574037 -2.4999972488
47.7522070839 -19.3863274379 -2.4999972344
48.9981625149 -17.6090610538 -2.4999972344
49.0963099777 -17.3947744629 -2.4999972344
49.1041444884 -17.3767623519 -2.4999972344
49.1196534898 -17.3406689965 -2.4999972344
48.4166841746 -18.6351241828 -2.4999972200
47.4745416833 -19.7833447659 -2.4999971767
49.5848514718 -16.5131408669 -2.4999971335
44.9194811748 -14.9852474262 -2.5000014217
44.9181463360 -14.9624943531 -2.5000014217
44.9169685777 -14.9454407845 -2.5000014217
44.9334876442 -14.8632571376 -2.5000014246
44.9600406151 -14.8837139368 -2.5000014275
45.0292771771 -15.3234722343 -2.5000014361
45.0007571010 -14.6728676134 -2.5000014361
44.4794721464 -18.4398250245 -2.5000016292
44.6087678441 -18.4333368275 -2.5000016350
44.6797204496 -18.4523536904 -2.5000016407
44.8113548533 -18.4383021005 -2.5000016465
44.9042649260 -18.4420187037 -2.5000016522
44.9141822794 -18.4363588671 -2.5000016522
44.9725192094 -11.5478240956 -2.5000016753
45.4493032801 -18.4340041586 -2.5000016868
45.1783990235 -11.5567421981 -2.5000016868
45.6513286723 -18.4318710590 -2.5000017012
45.7158222738 -18.4109398146 -2.5000017041
45.5468223156 -11.5711249892 -2.5000017099
48.4470857702 -16.4730806500 -2.5000018626
48.4511631474 -16.4569491235 -2.5000018626
48.4591746531 -16.4246502388 -2.5000018626
48.4631087115 -16.4084831631 -2.5000018626
48.4669949276 -16.3923045206 -2.5000018626
48.4708332673 -16.3761144527 -2.5000018626
48.4527068689 -13.7225683518 -2.5000018626
48.4486477087 -13.7064322318 -2.5000018626
48.4445408327 -13.6903081901 -2.5000018626
48.4621794895 -16.5114039634 -2.5000018655
48.4786548335 -16.4466251977 -2.5000018655
48.4905076960 -16.3979156706 -2.5000018655
48.4801868805 -13.7329233124 -2.5000018655
48.4595644310 -13.6519573334 -2.5000018655
48.4466169357 -13.6035272730 -2.5000018655
48.4593118656 -16.6147062574 -2.5000018684
48.4638081434 -16.5985379443 -2.5000018684
48.4682565729 -16.5823564011 -2.5000018684
48.4726571149 -16.5661617694 -2.5000018684
48.4770097310 -16.5499541910 -2.5000018684
48.4426437885 -13.5002615899 -2.5000018684
48.4514984707 -13.4450221729 -2.5000018713
48.4466182840 -13.4288908419 -2.5000018713
48.4416903992 -13.4127740180 -2.5000018713
48.4367148596 -13.3966718422 -2.5000018713
48.4477069031 -16.8223089007 -2.5000018741
48.4628949665 -16.7738592251 -2.5000018741
48.4678620319 -16.7576796162 -2.5000018741
48.4776524680 -16.7252766719 -2.5000018741
48.4597998591 -13.3895012020 -2.5000018741
48.4547553950 -13.3733455570 -2.5000018741
48.4445232036 -13.3410793875 -2.5000018741
48.4464186068 -13.2690843846 -2.5000018770
48.4410179865 -13.2529688506 -2.5000018770
48.4300738465 -13.2207860630 -2.5000018770
48.4508174985 -16.9665816473 -2.5000018799
48.4726795117 -16.9019054568 -2.5000018799
48.4584556494 -13.2290867294 -2.5000018799
48.4417554584 -13.1806831609 -2.5000018799
48.4360933517 -13.1645818081 -2.5000018799
48.4624068243 -17.0068327875 -2.5000018828
48.4792318548 -16.9582453921 -2.5000018828
48.4415414763 -13.1081243954 -2.5000018828
48.4560950084 -17.0958214686 -2.5000018857
48.4583600898 -13.0837019826 -2.5000018857
48.4281377934 -13.0031298446 -2.5000018857
48.4606609550 -17.1527467472 -2.5000018885
48.4667488480 -17.1365720891 -2.5000018885
48.4319256359 -12.9461475012 -2.5000018885
48.4351281587 -12.8889345309 -2.5000018914
48.4484752953 -17.3157831719 -2.5000018943
48.4439833735 -17.3895556223 -2.5000018972
48.4642055799 -17.3411166537 -2.5000018972
48.4774478894 -17.3087251311 -2.5000018972
48.4397621492 -12.7738404252 -2.5000018972
48.4328965368 -12.7577467491 -2.5000018972
48.4464434580 -17.5054962958 -2.5000019030
48.4535749103 -17.4893621522 -2.5000019030
48.4420101666 -12.6578954460 -2.5000019030
48.4539672172 -17.6061087807 -2.5000019087
48.4456002441 -17.6809042875 -2.5000019116
48.4532505886 -17.6647718708 -2.5000019116
48.4519208932 -17.7236198515 -2.5000019145
48.4392347225 -12.4236483492 -2.5000019145
48.4233840751 -12.3914906265 -2.5000019145
48.4579260974 -17.7665006441 -2.5000019174
48.4289299643 -12.3485480141 -2.5000019174
48.4392349081 -17.8579596972 -2.5000019202
48.4636141249 -17.8095444233 -2.5000019202
48.4306841671 -12.2460969465 -2.5000019231
48.4222574338 -12.2300324338 -2.5000019231
48.4265846191 -12.1865915515 -2.5000019260
48.4572383752 -18.0318859508 -2.5000019318
48.4609260127 -18.0757449775 -2.5000019346
48.4642851017 -18.1197503248 -2.5000019375
48.4223388398 -11.9791846545 -2.5000019375
48.4247643574 -11.9349980838 -2.5000019404
48.4362868354 -11.9067540666 -2.5000019433
48.4268562400 -11.8906744650 -2.5000019433
48.4173781194 -11.8746228311 -2.5000019433
48.3159449536 -18.5975274232 -2.5000019519
48.3571145168 -18.5343329313 -2.5000019519
48.1183961548 -18.9204362072 -2.5000019548
48.1297146906 -18.9052662958 -2.5000019548
48.1966790438 -18.8135497604 -2.5000019548
48.2076810476 -18.7981487418 -2.5000019548
48.2512320345 -18.7362212340 -2.5000019548
48.3568772751 -18.5791860688 -2.5000019548
48.3774462975 -18.5474078682 -2.5000019548
48.7232743136 -17.9388536151 -2.5000019548
48.7483602334 -17.8879144654 -2.5000019548
48.4117964613 -11.6799561963 -2.5000019548
47.9859945088 -19.1297618382 -2.5000019577
48.0802698053 -19.0105488149 -2.5000019577
48.7700933593 -17.8984977788 -2.5000019577
48.8029598858 -17.8299785283 -2.5000019577
48.8190885376 -17.7955742656 -2.5000019577
47.8071554144 -19.3774188779 -2.5000019606
47.8450438695 -19.3345531208 -2.5000019606
47.8575886340 -19.3201900230 -2.5000019606
47.8700908549 -19.3057898784 -2.5000019606
47.9442046661 -19.2186181064 -2.5000019606
