10.9498736652 -14.8849062859 -2.4999889249
10.9600852744 -14.8599281033 -2.4999889249
10.9627170559 -14.9786899741 -2.4999887924
10.9458493083 -15.0759405988 -2.4999887261
10.9605026620 -15.1588175898 -2.4999885935
10.9468196224 -15.4511159140 -2.4999882621
10.9528853595 -15.6361201117 -2.4999879970
10.9698276494 -15.7485746773 -2.4999877982
10.9618259374 -16.0277826972 -2.4999874005
10.9692164322 -16.1442726514 -2.4999872017
5.3197164925 -18.4406531462 -2.4999864064
5.3353839463 -18.4448110722 -2.4999864064
5.3510636314 -18.4489226327 -2.4999864064
5.3981747021 -18.4609787645 -2.4999864064
8.2030918632 -18.4252239878 -2.4999864064
8.2187010587 -18.4208524354 -2.4999864064
8.2342972541 -18.4164347273 -2.4999864064
5.2349876384 -18.4424296089 -2.4999863401
8.3190439293 -18.4168029499 -2.4999863401
5.1498984688 -18.4428528418 -2.4999862738
8.3729237029 -18.4256061914 -2.4999862738
8.3885332859 -18.4207322441 -2.4999862738
8.4041283827 -18.4158121420 -2.4999862738
5.0644705525 -18.4419125972 -2.4999862075
8.3800943249 -18.4486911966 -2.4999862075
5.0100725521 -18.4498858913 -2.4999861412
8.4658479385 -18.4467281882 -2.4999861412
4.9083411378 -18.4413235839 -2.4999860750
4.9240123748 -18.4466984296 -2.4999860750
4.8376712475 -18.4421204603 -2.4999860087
4.8533451510 -18.4477043568 -2.4999860087
8.6225710911 -18.4442602393 -2.4999860087
4.7824019567 -18.4477768611 -2.4999859424
8.6778339510 -18.4499791291 -2.4999859424
8.6935142994 -18.4442030954 -2.4999859424
4.7111950248 -18.4469095660 -2.4999858761
4.7268836487 -18.4528675811 -2.4999858761
8.8116454384 -18.4249677475 -2.4999858761
4.6397367000 -18.4450962545 -2.4999858099
8.8361744192 -18.4412617738 -2.4999858099
8.8830802652 -18.4223898040 -2.4999858099
8.9235114948 -18.4319089074 -2.4999857436
4.5117808056 -18.4452018151 -2.4999856773
4.4553014385 -18.4474895668 -2.4999856110
4.4709928978 -18.4542045589 -2.4999856110
4.3829309620 -18.4422613405 -2.4999855447
9.1811513069 -18.4244045656 -2.4999854785
4.2689178992 -18.4435507461 -2.4999854122
4.2116159163 -18.4432999628 -2.4999853459
9.2329361589 -18.4535657591 -2.4999853459
4.1278222612 -18.4564970233 -2.4999852133
9.3950873978 -18.4283114915 -2.4999852133
3.6399083355 -18.2162400047 -2.4999851471
3.7759655193 -18.2967861127 -2.4999851471
3.7912141429 -18.3055113626 -2.4999851471
3.8371139438 -18.3314159309 -2.4999851471
3.8986678436 -18.3653197884 -2.4999851471
4.4046505982 -18.6098680681 -2.4999851471
3.4486109844 -18.1234413827 -2.4999850808
3.6423902075 -18.2460407160 -2.4999850808
3.9649457710 -18.4280820859 -2.4999850808
4.6738825225 -18.7426941293 -2.4999850808
4.7568786787 -18.7725388433 -2.4999850808
9.5109331281 -18.4230144587 -2.4999850808
3.1882672176 -17.9715247854 -2.4999850145
3.2456081414 -18.0131312933 -2.4999850145
3.2889347184 -18.0438893223 -2.4999850145
3.4649191257 -18.1630405683 -2.4999850145
4.9168166249 -18.8515634826 -2.4999850145
2.9625618280 -17.8283590403 -2.4999849482
5.2281207613 -18.9914056578 -2.4999848820
2.5547962954 -17.5353683888 -2.4999848157
9.6977183079 -18.4315283196 -2.4999848157
2.3969887586 -17.4140625958 -2.4999847494
5.4261256194 -19.0883540691 -2.4999847494
9.8589157531 -18.4222870565 -2.4999846168
10.0341256952 -18.4288412957 -2.4999843517
10.7079616916 -18.4047405753 -2.4999833576
10.7839643109 -18.4075657759 -2.4999832250
10.3835415721 -18.8370363163 -2.4999828936
10.4506199176 -18.7934444042 -2.4999828936
10.4839644886 -18.7713515685 -2.4999828936
10.5171777674 -18.7490618418 -2.4999828936
10.5832058027 -18.7038948429 -2.4999828936
10.5996289430 -18.6924812637 -2.4999828936
10.6160182480 -18.6810191518 -2.4999828936
11.2273117939 -18.1972527744 -2.4999828936
11.2571155016 -18.1705752031 -2.4999828936
11.2867608543 -18.1437217699 -2.4999828936
11.3162468142 -18.1166934148 -2.4999828936
11.3309296991 -18.1031139369 -2.4999828936
11.3455723492 -18.0894910839 -2.4999828936
11.3747364328 -18.0621157294 -2.4999828936
11.4181776054 -18.0207303761 -2.4999828936
10.2260747939 -18.9632409059 -2.4999828273
10.3117256026 -18.9109424256 -2.4999828273
10.4303173257 -18.8356085409 -2.4999828273
11.5352080742 -17.9397546368 -2.4999828273
11.5493665841 -17.9255282061 -2.4999828273
11.5634829478 -17.9112599543 -2.4999828273
11.6611070669 -17.8102217322 -2.4999828273
11.6748818442 -17.7956234363 -2.4999828273
11.7023015447 -17.7663049194 -2.4999828273
10.0643256881 -19.0850918092 -2.4999827611
10.0818787482 -19.0752115034 -2.4999827611
9.9698505538 -19.1645685780 -2.4999826948
11.8731378181 -17.6491643840 -2.4999826948
11.9260564303 -17.5880300354 -2.4999826948
9.7102050800 -19.3239968633 -2.4999826285
9.7649102867 -19.2973336009 -2.4999826285
9.7830925065 -19.2883380913 -2.4999826285
12.0612356886 -17.4634348332 -2.4999826285
9.5458767558 -19.4535032433 -2.4999824960
12.4484951318 -17.0655740948 -2.4999824297
9.0150688070 -19.7922895930 -2.4999821646
10.9355558981 -13.2836150562 -2.4999963505
10.9707371662 -14.6087945459 -2.4999961171
10.9575465779 -14.7366643217 -2.4999960911
10.9543946796 -14.8245940542 -2.4999960652
10.9589600090 -14.8860503831 -2.4999960392
10.9578307549 -14.9612484005 -2.4999960133
10.9503299276 -15.0501570687 -2.4999959874
10.9513165623 -15.3013733668 -2.4999958836
10.9494172525 -15.3648172283 -2.4999958577
10.9775192306 -15.3613538924 -2.4999958318
10.9558474851 -15.4656108630 -2.4999958058
10.9682388185 -15.6049820137 -2.4999957280
10.9551753094 -15.6831796356 -2.4999957021
5.0835142521 -18.4465039510 -2.4999954946
5.1139402610 -18.4543382573 -2.4999954946
7.7412400291 -18.4519422939 -2.4999954946
7.8020161568 -18.4359829321 -2.4999954946
7.8474719994 -18.4235420880 -2.4999954946
5.0012145069 -18.4494306495 -2.4999954687
5.0164307353 -18.4536137488 -2.4999954687
7.8387480712 -18.4510399393 -2.4999954687
7.9449404529 -18.4206209432 -2.4999954687
8.0053317115 -18.4022534960 -2.4999954687
4.9033283912 -18.4465692755 -2.4999954427
4.9185365834 -18.4510419522 -2.4999954427
10.9725022716 -16.1392925540 -2.4999954427
4.8202927897 -18.4466090231 -2.4999954168
8.0652305475 -18.4340506168 -2.4999954168
8.1559542829 -18.4040947515 -2.4999954168
4.7673501752 -18.4551965353 -2.4999953909
8.2392617722 -18.4006730614 -2.4999953909
4.6836577880 -18.4530474081 -2.4999953649
4.6068755639 -18.4777215360 -2.4999953131
4.4069022931 -18.4550288947 -2.4999952612
8.5844853256 -18.3956038567 -2.4999952612
10.9454618162 -16.5284574171 -2.4999952353
4.2821963976 -18.4568242638 -2.4999952093
8.4813312159 -18.4902610298 -2.4999952093
8.7492840694 -18.4022247543 -2.4999951834
4.1565596988 -18.4556432486 -2.4999951575
8.8347441047 -18.3890972855 -2.4999951575
3.7563002740 -18.2875958725 -2.4999951315
3.7858093577 -18.3032852036 -2.4999951315
3.9197275443 -18.3717155129 -2.4999951315
4.1315358513 -18.4710115050 -2.4999951315
8.9053230600 -18.3819172344 -2.4999951315
3.5981390713 -18.2275090439 -2.4999951056
3.7153475363 -18.2929744774 -2.4999951056
3.8042525830 -18.3402433361 -2.4999951056
8.9008606185 -18.4109835847 -2.4999951056
8.9460513350 -18.3887920968 -2.4999951056
3.2427702778 -18.0347925194 -2.4999950797
3.0628110419 -17.9385144806 -2.4999950537
4.8981399240 -18.8222113660 -2.4999950537
9.0280092908 -18.4016248697 -2.4999950537
5.3003495223 -18.9672205145 -2.4999950019
9.1407797526 -18.3972326657 -2.4999950019
5.4135629445 -19.0130538704 -2.4999949759
9.3501880709 -18.4195023832 -2.4999948722
9.6926968041 -18.4383586754 -2.4999946647
9.7078597523 -18.4286635701 -2.4999946647
9.7512713454 -18.4294079966 -2.4999946388
10.2956974654 -18.4310874205 -2.4999943016
10.4461043209 -18.8311822441 -2.4999938607
10.5111784349 -18.7831911223 -2.4999938607
10.5273578787 -18.7710732914 -2.4999938607
10.5596088724 -18.7466943101 -2.4999938607
10.6236753400 -18.6973660644 -2.4999938607
10.6396004055 -18.6849158229 -2.4999938607
10.7029302814 -18.6346454050 -2.4999938607
11.1436101906 -18.2483333408 -2.4999938607
11.1727576937 -18.2203175527 -2.4999938607
11.2876749820 -18.1065447357 -2.4999938607
11.3300699850 -18.0631835977 -2.4999938607
11.3441159333 -18.0486464879 -2.4999938607
11.3581188168 -18.0340678912 -2.4999938607
10.2610687610 -18.9905212099 -2.4999938348
10.3779122254 -18.9098304278 -2.4999938348
10.4439217152 -18.8626406806 -2.4999938348
10.5418774730 -18.7903998706 -2.4999938348
11.3615248226 -18.0654174705 -2.4999938348
11.3755772415 -18.0507873018 -2.4999938348
11.5272666169 -17.8871445018 -2.4999938348
11.5407909469 -17.8720248189 -2.4999938348
10.1385730803 -19.1001002026 -2.4999938089
10.1556916287 -19.0890832191 -2.4999938089
10.1898305808 -19.0668975745 -2.4999938089
10.2577117288 -19.0219223011 -2.4999938089
11.6525707571 -17.7807884023 -2.4999938089
11.6657799183 -17.7652985125 -2.4999938089
11.6920604864 -17.7342018468 -2.4999938089
11.7181566162 -17.7029502407 -2.4999938089
9.9253879737 -19.2595072251 -2.4999937829
10.0478729792 -19.1857093202 -2.4999937829
11.6442920622 -17.8274712922 -2.4999937829
11.8014108220 -17.6393126024 -2.4999937829
11.8774409141 -17.5431715206 -2.4999937829
9.9199646115 -19.2907116866 -2.4999937570
11.0905034556 -18.4301280156 -2.4999937570
11.2104085783 -18.3182428531 -2.4999937570
11.9955757744 -17.4272827713 -2.4999937570
9.6623896788 -19.4613363089 -2.4999937310
9.8250531949 -19.3729185854 -2.4999937310
12.1813738908 -17.2065786597 -2.4999937310
9.6370601607 -19.5018508373 -2.4999937051
12.1428929121 -17.3051692945 -2.4999937051
12.3238625548 -17.0779328986 -2.4999936792
12.3789794809 -16.9902429527 -2.4999936792
12.4114249578 -16.9372410578 -2.4999936792
9.2471104733 -19.7946912356 -2.4999936014
12.6401681010 -16.6844504359 -2.4999936014
12.6796874892 -16.6106484163 -2.4999936014
7.4243333129 -18.4501831720 -2.5000115131
7.4534765671 -18.4425303605 -2.5000115131
10.9554397939 -15.1941234727 -2.5000115131
4.7817084721 -18.4524913408 -2.5000115621
4.8548036383 -18.4721215493 -2.5000115621
10.9631570663 -15.2448899050 -2.5000115621
7.6268496345 -18.4436632307 -2.5000116111
7.6704815740 -18.4303224268 -2.5000116111
10.9597618952 -15.3244393667 -2.5000116111
4.6221721511 -18.4561946985 -2.5000116601
7.5898607613 -18.4798249450 -2.5000116601
10.9550626037 -15.4042637806 -2.5000116601
4.5710974886 -18.4655163368 -2.5000117090
7.8968145562 -18.4312753423 -2.5000117580
7.9547984753 -18.4102081382 -2.5000117580
10.9578581617 -15.5883749181 -2.5000118070
4.3428686560 -18.4642268385 -2.5000118560
8.0878445650 -18.4109545274 -2.5000118560
10.9551482730 -15.6549786369 -2.5000118560
8.1692182215 -18.4040216167 -2.5000119050
4.2233932774 -18.4709122535 -2.5000119540
10.9484514072 -15.8418871786 -2.5000120030
10.9688632437 -15.7991714766 -2.5000120030
8.3569569879 -18.4016486146 -2.5000120520
8.4247940808 -18.3970377407 -2.5000121010
8.4639707249 -18.4053047302 -2.5000121499
8.5466523867 -18.3921602548 -2.5000121989
10.9484397362 -16.6293681105 -2.5000127868
10.6122314835 -18.7236673043 -2.5000150892
10.4079489264 -18.9231220453 -2.5000151382
10.5189007051 -18.8337044593 -2.5000151382
11.4145748641 -17.9469499248 -2.5000151382
11.4665817553 -17.8842928522 -2.5000151382
11.3264909148 -18.0863783584 -2.5000151872
10.1254870705 -19.1936201839 -2.5000152362
10.1422517597 -19.1818215768 -2.5000152362
11.6813121368 -17.6893229476 -2.5000152362
11.7784099032 -17.5571580816 -2.5000152362
11.9382612306 -17.3680698230 -2.5000152852
9.8610210783 -19.4274415007 -2.5000153342
9.8959034750 -19.4053553225 -2.5000153342
10.5314297261 -18.9793014612 -2.5000153832
9.6912727207 -19.5869382379 -2.5000154321
4.5542900599 -18.4614799641 -2.5000139781
7.3901024197 -18.4484664939 -2.5000140415
7.4177074762 -18.4396224908 -2.5000140415
7.6069596374 -18.4513028780 -2.5000142317
7.6844811478 -18.4482746287 -2.5000142951
7.7258556952 -18.4323349787 -2.5000142951
8.2967740534 -18.4130462227 -2.5000148657
10.9503470819 -15.1080866184 -2.5000148657
10.9542591253 -15.0931678000 -2.5000148657
10.9619507292 -15.0632957722 -2.5000148657
10.9657271962 -15.1441933729 -2.5000149291
10.9465957551 -12.3432226331 -2.5000149291
8.4152566872 -18.4051238653 -2.5000149925
10.9551677401 -15.2703224620 -2.5000149925
10.9682109496 -15.2254824466 -2.5000149925
10.9434614132 -12.2470078860 -2.5000149925
10.9389098984 -12.2321219551 -2.5000149925
8.4679206255 -18.4038529818 -2.5000150559
10.9462238114 -15.3818191906 -2.5000150559
10.9432845499 -12.1653396183 -2.5000150559
10.9336543311 -12.1355837616 -2.5000150559
10.9692577124 -15.3891523131 -2.5000151193
10.9467798171 -12.0982383212 -2.5000151193
10.9316728897 -12.0535976562 -2.5000151193
8.5463757321 -18.4152764003 -2.5000151827
10.9441977414 -12.0159270431 -2.5000151827
10.9389626445 -12.0010399451 -2.5000151827
10.9490494047 -15.5989363475 -2.5000152460
10.9292750951 -11.9035923669 -2.5000152460
10.9553539069 -15.6520063287 -2.5000153094
10.9663517681 -15.6221180432 -2.5000153094
8.7064000849 -18.4054870395 -2.5000153728
10.9496215414 -15.7351867694 -2.5000153728
10.9553886637 -15.7202673535 -2.5000153728
11.3158548058 -13.7172577984 -2.5000153728
10.9401979935 -11.7970747750 -2.5000153728
10.9283890502 -11.7673436247 -2.5000153728
8.7600434618 -18.4010551011 -2.5000154362
10.9545114098 -15.7887903435 -2.5000154362
10.9448312703 -11.7434484129 -2.5000154362
10.9327049744 -11.7136907892 -2.5000154362
10.9649300166 -15.8276869598 -2.5000154996
10.9301736270 -11.6449410499 -2.5000154996
10.9463465786 -15.9958099334 -2.5000156264
10.9593786550 -15.9659689211 -2.5000156264
10.9510974594 -16.1600951657 -2.5000158166
10.9581215311 -16.1451695247 -2.5000158166
10.9370182295 -16.2450556819 -2.5000158800
10.9439737148 -16.2855352995 -2.5000159434
10.9513688922 -16.2706301829 -2.5000159434
9.2905634748 -18.3633336353 -2.5000161336
10.9250936035 -16.6779635582 -2.5000163872
10.9376125994 -16.8462077277 -2.5000166408
10.9268551385 -17.1323748532 -2.5000170211
10.9157702051 -17.2770939574 -2.5000172113
10.9253329345 -17.9417847567 -2.5000182891
10.6464945675 -18.7362284468 -2.5000191766
10.7048288391 -18.6798259847 -2.5000191766
10.7337446828 -18.6513668978 -2.5000191766
10.7768014844 -18.6083587469 -2.5000191766
10.8617616206 -18.5212046283 -2.5000191766
11.1203845193 -18.2354929813 -2.5000191766
11.2371936557 -18.0951855390 -2.5000191766
11.2752948347 -18.0477314626 -2.5000191766
10.4836139318 -18.9192986305 -2.5000192400
10.5890842395 -18.8234768372 -2.5000192400
10.6039886598 -18.8096104433 -2.5000192400
11.3068620759 -18.0468328676 -2.5000192400
11.4185828962 -17.9016281545 -2.5000192400
11.4428821683 -17.8689598785 -2.5000192400
11.4549592191 -17.8525719723 -2.5000192400
10.2026121159 -19.1870924729 -2.5000193034
10.2979341632 -19.1100380130 -2.5000193034
10.3607159247 -19.0577337107 -2.5000193034
10.4383156117 -18.9913146989 -2.5000193034
11.5105058410 -17.8173334240 -2.5000193034
11.5224298755 -17.8007457006 -2.5000193034
11.5813111513 -17.7172819845 -2.5000193034
11.6275233322 -17.6498896708 -2.5000193034
11.7709064093 -17.4746883315 -2.5000193668
10.0366358823 -19.3749751558 -2.5000194302
11.8131965267 -17.4527158701 -2.5000194302
11.8774828621 -17.3473496535 -2.5000194302
10.2315114740 -19.2567025461 -2.5000194936
12.0015431050 -17.1810447418 -2.5000194936
10.6864469615 -18.8979790493 -2.5000195570
12.0822882591 -17.0837895835 -2.5000195570
12.0920398365 -17.0655136339 -2.5000195570
12.1209695922 -17.0105138243 -2.5000195570
7.5397989084 -14.9586932631 -2.5000016744
7.0163193714 -18.4715346981 -2.5000022853
7.1663149797 -18.4500206347 -2.5000022911
7.2128839695 -18.4599085680 -2.5000022968
7.2388120763 -18.4510057789 -2.5000022968
7.6286116239 -18.4544266026 -2.5000023314
7.6415642257 -18.4487646095 -2.5000023314
7.6545000216 -18.4430643250 -2.5000023314
7.6772645942 -18.4594028813 -2.5000023372
7.7520978399 -18.4519194077 -2.5000023429
7.7779692430 -18.4398265881 -2.5000023429
7.8400538982 -18.4369278930 -2.5000023487
7.8529538105 -18.4306404920 -2.5000023487
8.0146901757 -18.4298485413 -2.5000023660
8.0775943736 -18.4236597816 -2.5000023717
7.3892517166 -18.8849561810 -2.5000024063
8.5360375310 -18.4328088486 -2.5000024294
8.9560886472 -18.4056693512 -2.5000024813
10.9533980301 -15.4367978774 -2.5000024813
10.9508975765 -12.6997149521 -2.5000024813
10.9468121640 -12.6842502156 -2.5000024813
10.1264802111 -17.2497389509 -2.5000024870
10.9472987467 -15.5514247676 -2.5000024870
10.9516492233 -15.5359581997 -2.5000024870
10.9559539281 -15.5204788299 -2.5000024870
10.9533005774 -12.6160294694 -2.5000024870
10.9489675976 -12.6005579906 -2.5000024870
10.9445888694 -12.5850993971 -2.5000024870
10.9386860995 -15.6663810051 -2.5000024928
10.9433766752 -15.6509394119 -2.5000024928
10.9375612840 -15.7507783607 -2.5000024985
10.9473960786 -15.7198865440 -2.5000024985
10.9443784059 -12.4166377241 -2.5000024985
10.9298398661 -15.8509056282 -2.5000025043
10.9350763377 -15.8354893964 -2.5000025043
10.9202003978 -15.9512848808 -2.5000025101
10.9366640756 -15.9050716437 -2.5000025101
10.9547334084 -12.2932749629 -2.5000025101
10.9450657525 -12.1924799134 -2.5000025158
10.9621997607 -12.1687798332 -2.5000025216
10.9358826030 -16.1154693219 -2.5000025274
10.9274791842 -16.2015223904 -2.5000025331
10.9337528539 -16.1861116079 -2.5000025331
10.9485151089 -11.9967471560 -2.5000025331
10.9522690856 -11.9413161445 -2.5000025389
10.9285310215 -16.3839996392 -2.5000025504
10.9513926662 -11.8142895655 -2.5000025504
10.9227995302 -16.4555209285 -2.5000025562
10.9298245940 -16.4401228779 -2.5000025562
10.9600725752 -11.7736699048 -2.5000025562
10.9532477139 -11.7581820789 -2.5000025562
10.9463770666 -11.7427145099 -2.5000025562
10.9161015217 -16.5272287362 -2.5000025619
10.9615085538 -11.7173563725 -2.5000025619
10.9452260093 -16.5221109218 -2.5000025677
10.8716851772 -11.4196473999 -2.5000025735
10.8638134400 -11.4044225888 -2.5000025735
10.8237810959 -11.3286514806 -2.5000025735
10.8156403859 -11.3135687766 -2.5000025735
10.7658624298 -11.2235842589 -2.5000025735
11.2403504774 -12.2325052731 -2.5000025792
11.2293646876 -12.1998836295 -2.5000025792
11.2068150743 -12.1348381817 -2.5000025792
10.8450703613 -11.3172014825 -2.5000025792
10.6885987190 -10.9071616991 -2.5000025965
10.9103538186 -16.9113103805 -2.5000026023
10.9060656402 -16.9690380051 -2.5000026080
10.9146098536 -16.9536872095 -2.5000026080
10.9254483391 -17.0817042213 -2.5000026253
10.9218724667 -17.1831628482 -2.5000026369
10.9503646106 -17.5018621559 -2.5000026830
10.6109008428 -18.8116341000 -2.5000028155
10.7216623783 -18.6945980682 -2.5000028155
10.8028990549 -18.6051188933 -2.5000028155
10.8561690160 -18.5446711796 -2.5000028155
11.2558405051 -18.0392795054 -2.5000028155
11.2908207468 -17.9900054282 -2.5000028155
11.3138973782 -17.9569844198 -2.5000028155
11.3253623313 -17.9404228614 -2.5000028155
10.3533708615 -19.0966125142 -2.5000028213
10.3977698786 -19.0553057125 -2.5000028213
10.4124878732 -19.0414494194 -2.5000028213
10.4563950208 -18.9996201597 -2.5000028213
10.4709480310 -18.9855906865 -2.5000028213
10.4854594758 -18.9715182241 -2.5000028213
10.4999292282 -18.9574028959 -2.5000028213
10.5430870667 -18.9148009529 -2.5000028213
11.3794792165 -17.9040881219 -2.5000028213
11.4355230327 -17.8199791597 -2.5000028213
11.4794585682 -17.7521009098 -2.5000028213
11.5011243750 -17.7179680204 -2.5000028213
10.1724962758 -19.2893835160 -2.5000028270
10.2339069058 -19.2363471182 -2.5000028270
11.5323665087 -17.7136871232 -2.5000028270
11.5431107885 -17.6964803582 -2.5000028270
11.5538041206 -17.6792418850 -2.5000028270
11.6168890020 -17.5751536394 -2.5000028270
10.0788405421 -19.3991442249 -2.5000028328
11.5743647426 -17.6919539306 -2.5000028328
11.6167757044 -17.6224418037 -2.5000028328
11.6686279063 -17.5348539422 -2.5000028328
9.9503162862 -19.5323722521 -2.5000028386
11.7798836246 -17.3869000415 -2.5000028386
11.7993835225 -17.3509961282 -2.5000028386
11.8377443605 -17.2788453436 -2.5000028386
4.8787369095 -20.9516768415 -2.5000028443
9.6981889744 -19.7777248043 -2.5000028501
9.8486413422 -19.6698304191 -2.5000028501
9.8981472221 -19.6329802364 -2.5000028501
11.8222997127 -17.4100995372 -2.5000028501
9.9767052595 -19.6340860505 -2.5000028616
10.1713901936 -19.4795472178 -2.5000028616
12.1852117932 -16.8279878185 -2.5000028674
12.2408695007 -16.6935520689 -2.5000028674
12.2935043036 -16.6921511007 -2.5000028789
12.3893419010 -16.4375251207 -2.5000028789
7.5440786845 -14.6591903835 -2.4999990736
6.7014621731 -18.4439080127 -2.4999966876
6.7799578654 -18.4466817927 -2.4999966617
6.8108676028 -18.4627015242 -2.4999966358
6.9262705639 -18.4516382068 -2.4999966098
7.0180114167 -18.4458332111 -2.4999965839
7.0621498010 -18.4556954486 -2.4999965579
7.0981191362 -18.4424457128 -2.4999965579
7.1306227219 -18.4560307466 -2.4999965320
7.2685418495 -18.4532647668 -2.4999964801
7.5118274843 -18.4509665423 -2.4999963764
7.7237751628 -18.4256694469 -2.4999962986
10.9322702183 -15.8060718490 -2.4999952612
10.9500982048 -13.0553521859 -2.4999952612
10.9357955772 -12.9065778959 -2.4999952353
10.9438487657 -15.9455949224 -2.4999952093
10.9484092763 -15.9297420335 -2.4999952093
10.9546338669 -12.8842085669 -2.4999952093
10.9363697570 -12.8208037391 -2.4999952093
10.9314139946 -16.1498068103 -2.4999951575
10.9365786553 -16.1339898122 -2.4999951575
10.9486913308 -12.6957671297 -2.4999951575
10.9543819153 -16.1573440448 -2.4999951315
10.9511520092 -12.6248665857 -2.4999951315
10.9361212731 -12.5061272006 -2.4999951056
10.9360801877 -12.4346458842 -2.4999950797
10.9393581306 -12.3067319400 -2.4999950278
10.9657040462 -16.4842486806 -2.4999950019
10.9396131385 -12.1778488008 -2.4999949759
10.9417287033 -11.7172269006 -2.4999947684
11.1360210873 -11.9606328716 -2.4999946906
10.8809847570 -11.4470527936 -2.4999946906
10.8457207083 -11.3846200260 -2.4999946906
11.2740228091 -12.2340526129 -2.4999946647
11.2546126967 -12.1836698665 -2.4999946647
10.8214028028 -11.2948513732 -2.4999946647
11.3583196398 -12.3952845444 -2.4999946388
10.3332736131 -10.5127751052 -2.4999946128
11.5030802072 -12.6918926249 -2.4999945869
11.5287975855 -12.6080808145 -2.4999945350
10.9746537529 -17.6177936570 -2.4999944572
11.8386947072 -13.4303199207 -2.4999944054
10.6362517489 -18.8191002146 -2.4999939904
10.7395026819 -18.6983832147 -2.4999939904
11.2543369602 -17.9932498795 -2.4999939904
10.4800215490 -19.0265685443 -2.4999939645
11.4193407685 -17.7676262178 -2.4999939645
10.3152785320 -19.2285396403 -2.4999939385
10.3295533370 -19.2145318115 -2.4999939385
10.3437866420 -19.2004818165 -2.4999939385
10.0673413671 -19.4914859751 -2.4999939126
10.1422153454 -19.4246647252 -2.4999939126
11.6960470206 -17.3485231413 -2.4999939126
9.6552628112 -19.9464978472 -2.4999938089
11.9874301408 -16.9246111051 -2.4999938089
9.4659154157 -20.1388647975 -2.4999937570
7.3940608392 -15.0075881760 -2.5000000584
7.4858745051 -14.7384712094 -2.5000000152
6.4247941023 -18.4379828685 -2.4999989201
6.5797787056 -18.4465835842 -2.4999988913
6.6017050577 -18.4401973066 -2.4999988913
6.6235932427 -18.4336814171 -2.4999988913
6.6085334407 -18.4633858483 -2.4999988769
6.6415566824 -18.4535019696 -2.4999988769
6.7073335291 -18.4328569930 -2.4999988769
6.7805838686 -18.4339106710 -2.4999988625
6.8213916093 -18.4452933571 -2.4999988481
6.8625007093 -18.4562410870 -2.4999988337
7.0649018748 -18.4550591598 -2.4999987905
7.6108435925 -18.4288944200 -2.4999986608
7.9504183110 -18.4186745098 -2.4999985599
8.1498256935 -18.4281134996 -2.4999984879
10.9406103069 -14.8850110919 -2.4999979548
10.9417068889 -14.8368233726 -2.4999979548
10.9424303648 -14.6922283939 -2.4999979548
10.9422731136 -14.6761623850 -2.4999979548
10.9588552355 -16.0373768271 -2.4999978539
10.9603237471 -13.4434988461 -2.4999978539
10.9525735029 -13.4112833553 -2.4999978539
10.9446327966 -13.3791142813 -2.4999978539
10.9323652307 -13.3309501648 -2.4999978539
10.9583336046 -16.1398834999 -2.4999978395
10.9603115826 -16.2266667090 -2.4999978251
10.9690274943 -16.1944025801 -2.4999978251
10.9419988577 -13.0151954281 -2.4999977963
10.9732524973 -16.4407075492 -2.4999977819
10.9441954146 -12.9434784848 -2.4999977819
10.9651062582 -16.5449837828 -2.4999977675
10.9757053567 -16.5126857159 -2.4999977675
10.9861131834 -16.4803255064 -2.4999977675
10.9399085435 -12.8554025176 -2.4999977675
10.9343176403 -12.8393520055 -2.4999977675
10.9400046061 -12.7831131299 -2.4999977531
10.9720748101 -16.6736786463 -2.4999977387
10.9777789174 -16.6575162740 -2.4999977387
10.9834351886 -16.6413370987 -2.4999977387
10.9331274562 -12.6945114943 -2.4999977387
10.9373289775 -12.6377529746 -2.4999977243
10.9310942388 -12.6217110457 -2.4999977243
10.9574823504 -16.8518451314 -2.4999977098
10.9345449787 -12.5647072949 -2.4999977098
10.9439816829 -12.5235374923 -2.4999976954
10.9328925997 -12.4339761795 -2.4999976810
10.9482753665 -12.4084301889 -2.4999976666
10.9678443677 -17.0819744091 -2.4999976522
10.9760299573 -17.1238904668 -2.4999976378
10.9767015120 -17.1821633965 -2.4999976234
10.9693383602 -17.2567922539 -2.4999976090
10.9532732094 -17.3476974502 -2.4999975946
10.9250303368 -12.0689284021 -2.4999975946
10.9467125658 -12.0582412028 -2.4999975802
10.9573466134 -17.4494521115 -2.4999975658
10.9595910908 -17.5518936109 -2.4999975369
10.9284559238 -11.7615816339 -2.4999975081
10.9585163925 -17.7587087829 -2.4999974793
10.8445506295 -11.4264891455 -2.4999974505
11.2120907127 -12.0521245535 -2.4999974361
10.7018411983 -11.1641572979 -2.4999974361
11.3406546062 -12.2810681928 -2.4999974217
10.5348588692 -10.8930672212 -2.4999974217
10.5234647955 -10.8782235054 -2.4999974217
10.5120268613 -10.8634135603 -2.4999974217
10.5005451666 -10.8486375154 -2.4999974217
10.9514024089 -18.0124699436 -2.4999974073
11.4264945415 -12.4283284801 -2.4999974073
11.5086099277 -12.5784242451 -2.4999973929
10.3476525401 -10.5854443007 -2.4999973929
10.2606470206 -10.4861942106 -2.4999973929
10.7223058410 -18.7344478814 -2.4999972776
10.7341071693 -18.7190153542 -2.4999972776
10.7575726116 -18.6880459063 -2.4999972776
10.7808544175 -18.6569381709 -2.4999972776
11.2067198522 -18.0074540821 -2.4999972776
10.5332086772 -19.0069980495 -2.4999972632
10.5583814379 -18.9772121443 -2.4999972632
10.5709016240 -18.9622634729 -2.4999972632
10.6081960922 -18.9171961542 -2.4999972632
10.7056776531 -18.7954169730 -2.4999972632
10.7176594117 -18.7800333682 -2.4999972632
11.3037486018 -17.8833035835 -2.4999972632
11.3314390477 -17.8317751470 -2.4999972632
11.3405674416 -17.8145446431 -2.4999972632
11.3854426658 -17.7279912270 -2.4999972632
10.3298396669 -19.2706040878 -2.4999972488
10.3698799778 -19.2276639167 -2.4999972488
11.4593289112 -17.6338485363 -2.4999972488
11.4763614495 -17.5986074252 -2.4999972488
11.4847994570 -17.5809492349 -2.4999972488
11.5015185796 -17.5455583573 -2.4999972488
11.5097995483 -17.5278259798 -2.4999972488
10.1267631058 -19.5108855774 -2.4999972344
11.5399756117 -17.5202002604 -2.4999972344
10.1859000617 -19.4869665908 -2.4999972200
11.6341294630 -17.3682713282 -2.4999972200
11.6418854044 -17.3501474394 -2.4999972200
11.6872921088 -17.2409295237 -2.4999972200
9.9425053282 -19.7471327430 -2.4999972056
10.0742979058 -19.6273968719 -2.4999972056
11.7743860693 -17.0841164277 -2.4999972056
10.3454984363 -19.3943855554 -2.4999971912
11.9765706541 -16.7956506331 -2.4999971479
7.3979352415 -15.0764992191 -2.5000014188
7.3977700076 -15.0596203625 -2.5000014188
7.4667416508 -14.9652069408 -2.5000014275
7.5072457705 -15.3028352223 -2.5000014332
7.5010819349 -14.8193199217 -2.5000014332
7.4903854850 -14.6255430709 -2.5000014361
7.4862146277 -14.6078615283 -2.5000014361
7.5532698167 -15.3262684313 -2.5000014390
7.5326475468 -14.7100723204 -2.5000014390
7.5206173754 -14.6499959072 -2.5000014390
7.5166623328 -14.6320451106 -2.5000014390
6.9202450807 -18.4391518464 -2.5000016263
6.9794540266 -18.4398250245 -2.5000016292
6.9692391297 -18.4707069621 -2.5000016321
7.0389923406 -18.4394753322 -2.5000016321
7.1490731625 -18.4405743546 -2.5000016378
7.1797023298 -18.4523536904 -2.5000016407
7.2095045043 -18.4372785920 -2.5000016407
7.2304790578 -18.4536839770 -2.5000016436
7.3128641006 -18.4649470007 -2.5000016494
7.4460850097 -18.4458567719 -2.5000016551
7.4582215983 -18.4667622376 -2.5000016580
7.5601945763 -18.4339020392 -2.5000016609
7.6453804968 -18.4374308820 -2.5000016667
7.3865594137 -11.5559212346 -2.5000016695
7.4829610126 -11.5536866436 -2.5000016753
7.4725010896 -11.5478240956 -2.5000016753
7.4620238698 -11.5419925155 -2.5000016753
7.8378005310 -18.4247192265 -2.5000016782
7.5697960725 -11.5477979973 -2.5000016811
7.6344396964 -11.5581857837 -2.5000016839
7.6135265209 -11.5455953781 -2.5000016839
7.8768681886 -11.5700618257 -2.5000016984
7.9008721051 -11.5571439538 -2.5000017012
8.3160235670 -11.5636513650 -2.5000017301
10.9591565333 -16.4246502388 -2.5000018626
10.9630905917 -16.4084831631 -2.5000018626
10.9856890773 -16.3112427626 -2.5000018626
10.9645795818 -13.7710477693 -2.5000018626
10.9486295889 -13.7064322318 -2.5000018626
10.9445227129 -13.6903081901 -2.5000018626
10.9403681570 -13.6741963678 -2.5000018626
10.9493024778 -16.5598576246 -2.5000018655
10.9621613697 -16.5114039634 -2.5000018655
10.9663520482 -16.4952276193 -2.5000018655
10.9704948558 -16.4790389492 -2.5000018655
10.9509623964 -13.6196578359 -2.5000018655
10.9421875373 -13.5874096890 -2.5000018655
10.9455182168 -16.6631304021 -2.5000018684
10.9592937457 -16.6147062574 -2.5000018684
10.9610155887 -13.5648205194 -2.5000018684
10.9519161176 -13.5325138541 -2.5000018684
10.9496232474 -16.7344937611 -2.5000018713
10.9592768271 -16.7021990222 -2.5000018713
10.9640319245 -16.6860303763 -2.5000018713
10.9687391713 -16.6698477347 -2.5000018713
10.9733985263 -16.6536512391 -2.5000018713
10.9610974598 -13.4773277912 -2.5000018713
10.9514803509 -13.4450221729 -2.5000018713
10.9466001642 -13.4288908419 -2.5000018713
10.9578619407 -16.7900240698 -2.5000018741
10.9678439121 -16.7576796162 -2.5000018741
10.9597817393 -13.3895012020 -2.5000018741
10.9445050838 -13.3410793875 -2.5000018741
10.9340821739 -13.3088743198 -2.5000018741
10.9603149141 -16.8620022326 -2.5000018770
10.9655427338 -16.8458298167 -2.5000018770
10.9707226896 -16.8296420066 -2.5000018770
10.9464004869 -13.2690843846 -2.5000018770
10.9355515973 -13.2368693631 -2.5000018770
10.9618260477 -16.9342758881 -2.5000018799
10.9726613919 -16.9019054568 -2.5000018799
10.9780071985 -16.8856963432 -2.5000018799
10.9529185363 -13.2129357626 -2.5000018799
10.9473517898 -13.1968011927 -2.5000018799
10.9417373386 -13.1806831609 -2.5000018799
10.9360752319 -13.1645818081 -2.5000018799
10.9509327548 -17.0391406056 -2.5000018828
10.9623887045 -17.0068327875 -2.5000018828
10.9736533099 -16.9744577575 -2.5000018828
10.9531338400 -13.1403770011 -2.5000018828
10.9356466088 -13.0920239931 -2.5000018828
10.9440945624 -17.1280903865 -2.5000018857
10.9560768886 -17.0958214686 -2.5000018857
10.9619964064 -17.0796605664 -2.5000018857
10.9583419700 -13.0837019826 -2.5000018857
10.9606428352 -17.1527467472 -2.5000018885
10.9727707471 -17.1203794926 -2.5000018885
10.9444764776 -12.9783460512 -2.5000018885
10.9319075160 -12.9461475012 -2.5000018885
10.9455688235 -17.2583586606 -2.5000018914
10.9351100389 -12.8889345309 -2.5000018914
10.9550274131 -17.2996438478 -2.5000018943
10.9509706247 -12.8637318159 -2.5000018943
10.9443708782 -12.8476045362 -2.5000018943
10.9377234532 -12.8314968503 -2.5000018943
10.9310284078 -12.8154088992 -2.5000018943
10.9439652536 -17.3895556223 -2.5000018972
10.9507537432 -17.3734292634 -2.5000018972
10.9641874600 -17.3411166537 -2.5000018972
10.9708325698 -17.3249306857 -2.5000018972
10.9397440294 -12.7738404252 -2.5000018972
10.9328784170 -12.7577467491 -2.5000018972
10.9454951655 -17.4474220763 -2.5000019001
10.9524548278 -17.4312909383 -2.5000019001
10.9662308440 -17.3989672518 -2.5000019001
10.9481572527 -12.7320896511 -2.5000019001
10.9464253382 -17.5054962958 -2.5000019030
10.9606404838 -17.4732069830 -2.5000019030
10.9491529975 -12.6740165188 -2.5000019030
10.9275272354 -12.6257172032 -2.5000019030
10.9613121309 -17.5314799117 -2.5000019058
10.9348313276 -12.5835188477 -2.5000019058
10.9389477773 -17.6383561790 -2.5000019087
10.9464722858 -17.6222435741 -2.5000019087
10.9613781466 -17.5899519402 -2.5000019087
10.9455821243 -17.6809042875 -2.5000019116
10.9532324688 -17.6647718708 -2.5000019116
10.9608350572 -17.6486168935 -2.5000019116
10.9683898230 -17.6324394971 -2.5000019116
10.9207881876 -12.3324882424 -2.5000019174
10.9635960051 -17.8095444233 -2.5000019202
10.9306660473 -12.2460969465 -2.5000019231
10.9617649611 -17.9720192746 -2.5000019289
10.9218371428 -12.1269360994 -2.5000019289
10.9396998373 -18.0641452505 -2.5000019318
10.9164749998 -12.0671370970 -2.5000019318
10.9286016169 -12.0392892859 -2.5000019346
10.9195631182 -12.0232317850 -2.5000019346
10.9496843008 -12.0274632248 -2.5000019375
10.9397718566 -18.2123337905 -2.5000019404
10.9489942911 -18.1962162364 -2.5000019404
10.9247462376 -11.9349980838 -2.5000019404
10.9268381202 -11.8906744650 -2.5000019433
10.9173599996 -11.8746228311 -2.5000019433
10.9440454279 -18.3010962295 -2.5000019462
10.9535304190 -18.2849656450 -2.5000019462
10.9202733034 -11.7855650762 -2.5000019491
10.6183780350 -18.9204362072 -2.5000019548
10.6966609240 -18.8135497604 -2.5000019548
10.7076629277 -18.7981487418 -2.5000019548
10.7727138588 -18.7050653178 -2.5000019548
10.7833946133 -18.6894397955 -2.5000019548
10.8361024824 -18.6108420199 -2.5000019548
10.8774281777 -18.5474078682 -2.5000019548
11.0726425100 -18.2231489282 -2.5000019548
11.2316683841 -17.9218986596 -2.5000019548
10.9318388683 -11.7120578158 -2.5000019548
10.4619688160 -19.1592138864 -2.5000019577
10.5098092935 -19.1001682687 -2.5000019577
10.5569477668 -19.0405607138 -2.5000019577
10.5686219214 -19.0255719987 -2.5000019577
10.6148736197 -18.9652737677 -2.5000019577
10.6377311017 -18.9349204777 -2.5000019577
10.6829053310 -18.8738108609 -2.5000019577
11.2019215490 -18.0343456752 -2.5000019577
11.2948011802 -17.8471447255 -2.5000019577
11.3190704178 -17.7955742656 -2.5000019577
11.3349952401 -17.7610751825 -2.5000019577
11.3428810407 -17.7437904605 -2.5000019577
11.3507156755 -17.7264824866 -2.5000019577
11.4036938608 -17.6666955304 -2.5000019606
11.4113001688 -17.6492079985 -2.5000019606
10.9220253852 -11.6059237613 -2.5000019606
10.1427226403 -19.5897594606 -2.5000019635
10.1825019734 -19.5483444296 -2.5000019635
10.3378973977 -19.3792034528 -2.5000019635
11.5279822106 -17.4286343876 -2.5000019635
11.5485282213 -17.3750110572 -2.5000019635
10.9320127734 -11.5767755071 -2.5000019635
10.0791271742 -19.6886501465 -2.5000019663
10.1867415208 -19.5789080102 -2.5000019663
11.6237897757 -17.2391571198 -2.5000019663
11.6301303847 -17.2210203750 -2.5000019663
11.2520147338 -12.0781372485 -2.5000019663
11.2068876232 -11.9933315692 -2.5000019663
10.7683276934 -11.2938355663 -2.5000019663
10.7457956851 -11.2627086534 -2.5000019663
10.7344607202 -11.2471953234 -2.5000019663
10.7230799137 -11.2317155922 -2.5000019663
10.7001811746 -11.2008574675 -2.5000019663
10.6886634424 -11.1854793441 -2.5000019663
10.6654917565 -11.1548256481 -2.5000019663
10.6303951977 -11.1091034905 -2.5000019663
10.6186063460 -11.0939322081 -2.5000019663
10.6067726664 -11.0787958657 -2.5000019663
10.5948942626 -11.0636945956 -2.5000019663
9.9575508676 -19.8398213587 -2.5000019692
11.6717300440 -17.1742394732 -2.5000019692
11.6959986915 -17.1010183589 -2.5000019692
11.3261228172 -12.1699558807 -2.5000019692
11.3174691146 -12.1527218685 -2.5000019692
11.3000089551 -12.1183310186 -2.5000019692
11.2644797677 -12.0498622252 -2.5000019692
11.2281429130 -11.9818186228 -2.5000019692
10.5045655514 -10.9139103315 -2.5000019692
10.4921998336 -10.8991121300 -2.5000019692
10.4673373415 -10.8696257906 -2.5000019692
10.4170911858 -10.8110969714 -2.5000019692
10.3789540095 -10.7675927651 -2.5000019692
9.8455074138 -19.9749666628 -2.5000019721
10.3012364708 -19.5277607661 -2.5000019721
11.4559696874 -12.3862893488 -2.5000019721
11.4479553701 -12.3686702795 -2.5000019721
11.4317705503 -12.3335036496 -2.5000019721
11.4236001892 -12.3159563968 -2.5000019721
11.3987781613 -12.2634607284 -2.5000019721
10.4353390629 -10.7952429415 -2.5000019721
10.3454224334 -10.6938884133 -2.5000019721
10.3062479192 -10.6510248425 -2.5000019721
11.5777704702 -12.6083089998 -2.5000019750
11.5480194849 -12.5365193017 -2.5000019750
10.2975946232 -10.6061513259 -2.5000019750
10.2442427982 -10.5496494262 -2.5000019750
10.2308006697 -10.5356229003 -2.5000019750
10.1355522460 -10.4385591660 -2.5000019750
9.6700039529 -20.1882773927 -2.5000019779
11.6291620039 -12.6715889731 -2.5000019779
10.1110448640 -10.3803087155 -2.5000019779
9.5320323241 -20.3286576940 -2.5000019808
11.9399733047 -16.5842627393 -2.5000019808
10.3195690974 -10.5588789625 -2.5000019808
10.0148960721 -10.2547626952 -2.5000019808
9.3575059812 -20.4882644612 -2.5000019836
11.9850421915 -16.4939120859 -2.5000019836
10.0457337535 -10.2505456097 -2.5000019836
11.8773893851 -13.1664025185 -2.5000019865
11.9118272274 -13.1973625822 -2.5000019894
10.3724436373 -10.5092473137 -2.5000019894
12.0951209471 -16.3146307061 -2.5000019923
12.0265898213 -13.4335674404 -2.5000019952
9.1489573784 -9.3690373511 -2.5000020009
7.3880283726 -14.9775373715 -2.5000016456
7.4970748278 -15.1608186159 -2.5000016629
7.5082051951 -14.9601997465 -2.5000016744
7.4439168511 -14.6777064425 -2.5000016802
6.8242863441 -11.5628149294 -2.5000021643
6.8742016995 -11.5285978022 -2.5000021758
6.8510764715 -11.5207809579 -2.5000021758
7.0549138202 -11.5690528800 -2.5000021816
6.9860909602 -11.5427997929 -2.5000021816
7.0176321772 -11.5288040649 -2.5000021873
7.1875033252 -11.5710336722 -2.5000021931
7.3314144490 -11.5555677618 -2.5000022104
7.3760826304 -11.5497488277 -2.5000022161
7.5916860691 -11.5494446645 -2.5000022392
7.9628879570 -11.5681539681 -2.5000022795
8.5348472282 -11.5546510215 -2.5000023602
10.9497489619 -16.7918545792 -2.5000025216
10.9576915998 -16.7598333128 -2.5000025216
10.9512788844 -14.0809767408 -2.5000025216
10.9650264929 -16.8298558643 -2.5000025274
10.9624625947 -14.0269501459 -2.5000025274
10.9540469069 -13.9949020518 -2.5000025274
10.9454417590 -13.9629043087 -2.5000025274
10.9341247307 -17.1151173671 -2.5000025389
10.9439801732 -17.0831828813 -2.5000025389
10.9602132118 -13.8376680268 -2.5000025389
10.9621741468 -17.1062858124 -2.5000025446
10.9640589688 -13.7665597325 -2.5000025446
10.9541026959 -13.7345067510 -2.5000025446
10.9722638198 -17.2333785696 -2.5000025562
10.9471655751 -13.5593203880 -2.5000025562
10.9622683359 -17.3374938154 -2.5000025619
10.9530899470 -13.5033009469 -2.5000025619
10.9502807942 -17.4418187799 -2.5000025677
10.9584439849 -13.4470294000 -2.5000025677
10.9465973615 -13.4150152310 -2.5000025677
10.9448810226 -13.3424764523 -2.5000025735
10.9524986145 -17.5711472950 -2.5000025792
10.9422016926 -13.2696969189 -2.5000025792
10.9557162552 -17.6281646783 -2.5000025850
10.9581901407 -13.2446739099 -2.5000025850
10.9381473616 -17.7333903218 -2.5000025908
10.9542172189 -13.1714128413 -2.5000025908
10.9423336066 -13.0819534858 -2.5000025965
10.9406079049 -17.8485513948 -2.5000026023
10.9361803892 -13.0083009929 -2.5000026023
10.9409393280 -17.9064371209 -2.5000026080
10.9406668385 -17.9645181500 -2.5000026138
10.9360271665 -12.8923343239 -2.5000026138
10.9382964511 -18.0812413716 -2.5000026253
10.9334432432 -12.7756156342 -2.5000026253
10.9521100674 -18.1079064271 -2.5000026311
10.9392433492 -12.7329457987 -2.5000026311
10.9365878729 -12.6741427258 -2.5000026369
10.9346679001 -18.3008150748 -2.5000026484
10.9463418551 -12.5879764706 -2.5000026484
10.9461085527 -12.4851952713 -2.5000026599
10.9285716115 -12.4532709166 -2.5000026599
10.7596235781 -18.7456021997 -2.5000026657
10.7693989490 -18.7301513173 -2.5000026657
10.7791285706 -18.7146715851 -2.5000026657
10.7888123577 -18.6991631387 -2.5000026657
10.8270874733 -18.6368449285 -2.5000026657
10.8553084365 -18.5898114460 -2.5000026657
10.5309566546 -19.1217903065 -2.5000026714
10.5742505427 -19.0624935784 -2.5000026714
10.6273762775 -18.9876591010 -2.5000026714
10.6793893704 -18.9120470591 -2.5000026714
11.2566459362 -17.8491785136 -2.5000026714
11.2848308877 -17.7813841833 -2.5000026714
10.6046129757 -19.0616701167 -2.5000026772
11.3481335601 -17.6878282038 -2.5000026772
11.3613701064 -17.6534342793 -2.5000026772
11.3679120141 -17.6362081005 -2.5000026772
11.3935692115 -17.5671121274 -2.5000026772
10.8986696619 -18.6585984969 -2.5000026830
10.2263452720 -19.6114778922 -2.5000026887
10.0406776625 -19.8453828276 -2.5000026945
10.2194894973 -19.6553180281 -2.5000026945
11.6050106608 -17.1486201027 -2.5000026945
10.9341338072 -12.1733205407 -2.5000026945
10.9244664167 -12.1573821820 -2.5000026945
9.6790127301 -20.2819489546 -2.5000027118
11.1618863620 -11.8979306171 -2.5000027752
11.1196600174 -11.8316741495 -2.5000027752
10.7175476045 -11.2744415837 -2.5000027752
10.7052221151 -11.2591478591 -2.5000027752
11.2948032653 -12.0704617330 -2.5000027809
11.2848300218 -12.0534568988 -2.5000027809
11.1718267139 -11.8683883598 -2.5000027809
10.7854172883 -11.3210623731 -2.5000027809
10.7487164261 -11.2746867755 -2.5000027809
10.6106601895 -11.1074725797 -2.5000027809
10.5978412433 -11.0924957779 -2.5000027809
10.5849780491 -11.0775569625 -2.5000027809
10.5068760064 -10.9887290793 -2.5000027809
10.4804931560 -10.9594295624 -2.5000027809
11.4961538896 -12.3879670391 -2.5000027867
11.4688932200 -12.3352420395 -2.5000027867
11.4597024828 -12.3177210573 -2.5000027867
10.3771216951 -10.8128347259 -2.5000027867
10.3221109301 -10.7559399217 -2.5000027867
10.2664308103 -10.6997000134 -2.5000027867
10.2975409725 -10.6966402140 -2.5000027925
11.6858072385 -12.6713274434 -2.5000027982
11.5482451384 -12.3837094564 -2.5000027982
10.2864602745 -10.6514253225 -2.5000027982
9.8748458102 -10.2124939763 -2.5000028098
11.7708488945 -12.5663769247 -2.5000028270
7.3875417478 -15.0633708778 -2.5000011921
7.4243304527 -15.0909827403 -2.5000011921
7.5231368693 -15.3329691075 -2.5000011921
7.3932906618 -14.8994154167 -2.5000011921
6.3119141668 -11.5725221318 -2.5000011921
6.2870873068 -11.5686583518 -2.5000011921
6.2498052419 -11.5631382570 -2.5000011921
6.3531101505 -11.5547531952 -2.5000011921
6.6366291812 -11.5625694739 -2.5000011921
6.7915926284 -11.5770430966 -2.5000011921
6.8973403019 -11.5821540223 -2.5000011921
6.8725601815 -11.5748264961 -2.5000011921
6.8601539726 -11.5712177431 -2.5000011921
7.0357771193 -11.5750924882 -2.5000011921
6.9486849367 -11.5472237304 -2.5000011921
6.8986648716 -11.5321103255 -2.5000011921
7.2548116133 -11.5505048245 -2.5000011921
7.4690858181 -11.5594561251 -2.5000011921
7.5036863583 -11.5481892163 -2.5000011921
7.5883988995 -11.5598689078 -2.5000011921
7.7087018340 -11.5635966717 -2.5000011921
7.6588222953 -11.5394892476 -2.5000011921
7.7676018532 -11.5388508888 -2.5000011921
7.8410620922 -11.5492425319 -2.5000011921
7.9395208922 -11.5743802027 -2.5000011921
8.1238412387 -11.5679257631 -2.5000011921
10.9279088986 -17.2272014962 -2.5000011921
10.9322056933 -17.2115715566 -2.5000011921
10.9406604807 -17.1802738875 -2.5000011921
10.9448183993 -17.1646064319 -2.5000011921
10.9489299526 -17.1489267448 -2.5000011921
10.9585363454 -14.4222236630 -2.5000011921
10.9380673428 -14.3438027389 -2.5000011921
10.9555234577 -17.2179447150 -2.5000011921
10.9640155427 -17.1865089787 -2.5000011921
10.9396889217 -14.2590707790 -2.5000011921
10.9352053975 -14.2434189789 -2.5000011921
10.9428602554 -17.3500919102 -2.5000011921
10.9475205169 -17.3344172042 -2.5000011921
10.9612228060 -17.2873113315 -2.5000011921
10.9538842233 -14.2210207238 -2.5000011921
10.9492880780 -14.2053270979 -2.5000011921
10.9399566146 -14.1739809779 -2.5000011921
10.9468330274 -17.4198475285 -2.5000011921
10.9516996212 -17.4041607650 -2.5000011921
10.9535459731 -14.1355883029 -2.5000011921
10.9438018371 -14.1042182124 -2.5000011921
10.9518366081 -14.0498292584 -2.5000011921
10.9249287760 -17.6385666026 -2.5000011921
10.9359099368 -17.6073045131 -2.5000011921
10.9697104766 -14.0266311542 -2.5000011921
10.9540571463 -13.9794586140 -2.5000011921
10.9487464158 -13.9637655335 -2.5000011921
10.9250984984 -17.7092407818 -2.5000011921
10.9716323506 -13.9559829072 -2.5000011921
10.9662520978 -13.9402379387 -2.5000011921
10.9553519810 -13.9087960935 -2.5000011921
10.9670343578 -13.8692990204 -2.5000011921
10.9348620699 -17.8201193881 -2.5000011921
10.9726802624 -13.8138344215 -2.5000011921
10.9551383635 -13.7666439058 -2.5000011921
10.9326260520 -17.8915657351 -2.5000011921
10.9388881357 -17.8759189345 -2.5000011921
10.9451039059 -17.8602536780 -2.5000011921
10.9597224548 -13.7108874291 -2.5000011921
10.9359107037 -17.9476077044 -2.5000011921
10.9423385553 -17.9319509420 -2.5000011921
10.9487200632 -17.9162752333 -2.5000011921
10.9319746403 -18.0195200149 -2.5000011921
10.9452095261 -17.9882095723 -2.5000011921
10.9339282274 -18.0760119277 -2.5000011921
10.9474973041 -18.0446889383 -2.5000011921
10.9352936759 -18.1327151644 -2.5000011921
10.9422691116 -18.1170594173 -2.5000011921
10.9288773291 -18.2052608037 -2.5000011921
10.9503086008 -18.1582860862 -2.5000011921
10.9679456647 -13.3557983807 -2.5000011921
10.9358255926 -18.3040325326 -2.5000011921
10.9507436827 -18.2726943271 -2.5000011921
10.9682681782 -13.2984967567 -2.5000011921
10.9424554788 -18.3458652496 -2.5000011921
10.9754397488 -13.2567534916 -2.5000011921
10.8017650665 -18.6663520809 -2.5000011921
10.8606958189 -18.5589851843 -2.5000011921
10.6885980209 -18.9049520754 -2.5000011921
10.7792085475 -18.7544444172 -2.5000011921
10.8314239564 -18.6628764872 -2.5000011921
11.1303244851 -18.0467630539 -2.5000011921
10.9656241240 -13.1254476344 -2.5000011921
10.5443338793 -19.1682322476 -2.5000011921
10.6039302641 -19.0807677390 -2.5000011921
10.6234495892 -19.0513795435 -2.5000011921
11.2242068757 -17.8756903403 -2.5000011921
11.2547869202 -17.7929622933 -2.5000011921
11.2607559075 -17.7763629140 -2.5000011921
11.2725464400 -17.7431115467 -2.5000011921
10.9714899636 -13.0831445412 -2.5000011921
10.4398845861 -19.3544038140 -2.5000011921
10.5234349718 -19.2399705912 -2.5000011921
10.5641888071 -19.1820205443 -2.5000011921
11.3240832302 -17.6673560323 -2.5000011921
11.3407253361 -17.6168952660 -2.5000011921
11.3622169749 -17.5493882849 -2.5000011921
11.4914130350 -17.2718693621 -2.5000011921
10.9704620831 -12.9237268846 -2.5000011921
10.0722844039 -19.9060805870 -2.5000011921
10.2398638322 -19.7192890920 -2.5000011921
11.5192667033 -17.2605305867 -2.5000011921
10.9748031654 -12.8807649826 -2.5000011921
11.5600252356 -17.1966166569 -2.5000011921
10.2471826523 -19.8213105822 -2.5000011921
11.6817994993 -16.8530122637 -2.5000011921
11.7378586849 -16.6595861734 -2.5000011921
10.9707297333 -12.6758814021 -2.5000011921
10.9675357456 -12.5285997073 -2.5000011921
10.9785454777 -12.5002452275 -2.5000011921
10.9704942800 -12.3958758744 -2.5000011921
10.9475393213 -11.8087457888 -2.5000011921
11.2934493474 -12.0493702980 -2.5000011921
11.2602361878 -11.9994026188 -2.5000011921
10.7892305667 -11.3782235688 -2.5000011921
10.7631758107 -11.3478738819 -2.5000011921
10.7105299080 -11.2876396046 -2.5000011921
10.6302339452 -11.1984667017 -2.5000011921
11.4632459537 -12.2739153426 -2.5000011921
11.4320188191 -12.2224319714 -2.5000011921
11.4215083947 -12.2053326816 -2.5000011921
11.3465256000 -12.0865186611 -2.5000011921
10.7286363761 -11.2716242652 -2.5000011921
10.6208408925 -11.1526215251 -2.5000011921
10.5658946375 -11.0940850895 -2.5000011921
10.5520501487 -11.0795528886 -2.5000011921
10.5102595989 -11.0362029014 -2.5000011921
10.4962441275 -11.0218355323 -2.5000011921
10.4821862162 -11.0075096863 -2.5000011921
10.3826028983 -10.9084018977 -2.5000011921
11.5850969325 -12.4356643916 -2.5000011921
11.5452647330 -12.3656286098 -2.5000011921
11.5148482724 -12.3134137565 -2.5000011921
10.3560195230 -10.8491039370 -2.5000011921
10.2975004461 -10.7937222389 -2.5000011921
10.2827686040 -10.7799853108 -2.5000011921
10.1946061846 -10.6670145582 -2.5000011921
10.1794999685 -10.6535825643 -2.5000011921
11.7238742725 -12.5903781673 -2.5000011921
11.6954453047 -12.5365694041 -2.5000011921
