12.0334209970 -18.8177795109 -1.2999868393
11.1373223170 -19.3270590171 -1.2999868393
12.2262704605 -18.7061037060 -1.2999868393
10.8833891304 -19.4798498562 -1.2999868393
10.7808853202 -19.5589644199 -1.2999868393
11.1916485766 -19.1744384351 -1.2999868393
12.7171389033 -18.4216482400 -1.2999868393
18.2955994088 -19.0923237305 -1.2999868393
18.9840243975 -19.4686230051 -1.2999868393
17.9993384692 -18.7625288247 -1.2999868393
17.9145661475 -18.7136537054 -1.2999868393
19.2039239261 -19.6346422777 -1.2999868393
19.1463986765 -19.5811275195 -1.2999868393
17.6955425056 -18.5405233847 -1.2999868393
17.5543947571 -18.4701778898 -1.2999868393
17.3131396611 -18.3330020252 -1.2999868393
17.3045256626 -18.3029520071 -1.2999868393
17.0927603626 -18.1901869253 -1.2999868393
20.0785355627 -20.3956122444 -1.2999868393
18.4409853523 -22.9173672421 -1.2999872908
18.4359845453 -22.7947903257 -1.2999872966
18.4748207400 -22.6586546348 -1.2999873081
18.4666810009 -22.5430381779 -1.2999873139
13.5408421068 -19.0675964415 -1.2999875098
13.4701222992 -19.0619705295 -1.2999875127
13.4379773077 -19.0711160560 -1.2999875127
16.6424080947 -19.0697250389 -1.2999875156
16.5780424581 -19.0506696103 -1.2999875156
13.3829731128 -19.0620200952 -1.2999875156
13.3668943815 -19.0668268885 -1.2999875156
16.8016012167 -19.0694890771 -1.2999875213
16.6239775030 -19.0137449020 -1.2999875213
13.1196245976 -19.0705680272 -1.2999875242
16.9459011113 -19.0681320111 -1.2999875271
16.9137317413 -19.0567135551 -1.2999875271
16.8976218637 -19.0510757491 -1.2999875271
13.0473352442 -19.0704489298 -1.2999875271
17.0184563323 -19.0688804303 -1.2999875300
16.9701808694 -19.0511802519 -1.2999875300
13.0230353544 -19.0535260415 -1.2999875300
17.0912651343 -19.0705885430 -1.2999875329
12.9341170072 -19.0607615047 -1.2999875329
12.9180365167 -19.0668961011 -1.2999875329
12.8449821065 -19.0694407269 -1.2999875357
12.7236256272 -19.0929439216 -1.2999875386
17.3110865860 -19.0815311358 -1.2999875415
12.6981960453 -19.0774496843 -1.2999875415
12.5345986877 -19.0966583135 -1.2999875473
17.6334790719 -19.0959137146 -1.2999875559
11.9937969678 -19.0993623801 -1.2999875761
18.0592308946 -19.1015956617 -1.2999875790
11.8928419848 -18.8789332952 -1.2999876049
19.0151513418 -19.4563921150 -1.2999876078
12.1687011160 -18.7081394811 -1.2999876078
12.1003702177 -18.7420443450 -1.2999876078
11.1293363368 -19.3444326296 -1.2999876078
11.0686071164 -19.3905911961 -1.2999876078
11.0234209528 -19.4256799232 -1.2999876078
11.0084283171 -19.4374651075 -1.2999876078
19.2363440013 -19.6086895509 -1.2999876107
17.7483528170 -18.6417564825 -1.2999876107
12.2964432517 -18.6208048132 -1.2999876107
10.9039091931 -19.4903891453 -1.2999876107
10.8596151659 -19.5269355443 -1.2999876107
10.8156472117 -19.5638735887 -1.2999876107
10.7865181050 -19.5887150972 -1.2999876107
10.7720087934 -19.6012003696 -1.2999876107
12.4267387687 -18.5362845664 -1.2999876135
12.4526204874 -18.4989142091 -1.2999876164
10.7404205521 -19.5646008594 -1.2999876164
10.4977253132 -19.7849526204 -1.2999876164
17.4240324036 -18.4221304996 -1.2999876193
17.2795370915 -18.3664681273 -1.2999876193
19.8946592364 -20.1211789590 -1.2999876222
19.5463782586 -19.7270971944 -1.2999876251
17.2963810115 -18.3211512046 -1.2999876251
10.7822809382 -19.4340495966 -1.2999876251
12.9947293189 -18.1697927270 -1.2999876308
11.5571766023 -23.1749011021 -1.2999871975
11.5575052384 -22.5530514551 -1.2999872263
11.5557135027 -22.3506167351 -1.2999872379
16.9438225434 -19.0765548662 -1.2999873906
16.6545165347 -18.9992200108 -1.2999873906
13.7371557888 -19.0552881924 -1.2999873935
13.7624659698 -19.0226469477 -1.2999873964
13.5946084178 -19.0489000671 -1.2999873992
17.3170077267 -19.0725437607 -1.2999874050
13.2899928496 -19.0534575146 -1.2999874108
13.3782676987 -18.9950531875 -1.2999874137
13.2171980228 -19.0556829327 -1.2999874137
13.2011912496 -19.0620073822 -1.2999874137
17.7125818768 -19.1014739689 -1.2999874194
13.0294590629 -19.0543802358 -1.2999874223
17.8697560472 -19.0932992361 -1.2999874281
12.7655390718 -19.0677403330 -1.2999874338
18.2640596711 -19.1031963841 -1.2999874482
18.8866545940 -19.3441926607 -1.2999874626
18.8562675220 -19.3233414244 -1.2999874626
18.7489524940 -19.2517854725 -1.2999874626
18.7180211200 -19.2317505453 -1.2999874626
18.6869717541 -19.2118989692 -1.2999874626
17.9428199665 -18.8074330765 -1.2999874626
17.4725657052 -18.5375835748 -1.2999874713
11.2659206068 -19.2936703640 -1.2999875059
11.2506263812 -19.3057660036 -1.2999875059
11.1596184976 -19.3792851027 -1.2999875059
12.0612927993 -18.7277546821 -1.2999875087
11.0841011958 -19.4107048523 -1.2999875087
10.8619654596 -19.5737199322 -1.2999875116
10.7615486086 -19.6676388526 -1.2999875116
12.2971093129 -18.5446669542 -1.2999875145
10.1017563043 -20.2427657977 -1.2999875232
11.5815133506 -23.7522385937 -1.2999868393
11.5778733984 -23.7765209467 -1.2999868393
11.5726829954 -23.8129837919 -1.2999868393
11.5710247953 -23.8251481325 -1.2999868393
11.5678163840 -23.8494912632 -1.2999868393
11.5780876801 -23.6268138111 -1.2999868393
11.5674026186 -23.6876233957 -1.2999868393
11.5633806282 -23.7119903634 -1.2999868393
11.5683996225 -23.5492801673 -1.2999868393
11.5712155846 -23.4224362381 -1.2999868393
11.5593519272 -23.3680818411 -1.2999868393
11.5563776850 -23.3802875640 -1.2999868393
11.5476717794 -23.4169567747 -1.2999868393
11.5448421692 -23.4291968358 -1.2999868393
11.5611084839 -23.2644520773 -1.2999868393
11.5450658095 -23.3255524273 -1.2999868393
11.5618838556 -23.1725310197 -1.2999868393
11.5583311276 -23.1847301083 -1.2999868393
11.5513340104 -23.2091595474 -1.2999868393
11.5444815484 -23.2336299563 -1.2999868393
11.5111215362 -23.2641679700 -1.2999868393
11.5476488917 -21.9866415973 -1.2999868393
11.5482325284 -21.9377382821 -1.2999868393
11.5482479662 -21.7526346730 -1.2999868393
11.5416511486 -21.3343623024 -1.2999868393
17.2845107726 -19.0884055063 -1.2999868393
17.2531782057 -19.0790286362 -1.2999868393
17.2374912555 -19.0744097576 -1.2999868393
17.2217907104 -19.0698373041 -1.2999868393
14.2184593137 -19.0494132432 -1.2999868393
14.1869497165 -19.0581768455 -1.2999868393
14.1712144989 -19.0626285166 -1.2999868393
14.1015177964 -19.0577296551 -1.2999868393
17.4713052868 -19.0974844827 -1.2999868393
14.0157466610 -19.0586505188 -1.2999868393
14.0000135938 -19.0636086374 -1.2999868393
13.9685918044 -19.0736643896 -1.2999868393
17.5260617956 -19.0907262975 -1.2999868393
13.9453994052 -19.0557831191 -1.2999868393
13.9139322733 -19.0661621241 -1.2999868393
13.8982218723 -19.0714213952 -1.2999868393
17.5340127698 -19.0678983040 -1.2999868393
13.8275597685 -19.0701040112 -1.2999868393
17.6049544468 -19.0674286825 -1.2999868393
13.7880664254 -19.0584090310 -1.2999868393
13.7641533143 -19.0412938559 -1.2999868393
13.7326036311 -19.0527454272 -1.2999868393
17.9382760206 -19.0947931373 -1.2999868393
13.5174331119 -19.0581901250 -1.2999868393
18.0103976188 -19.0997165387 -1.2999868393
13.4043067867 -19.0530333412 -1.2999868393
18.1240158116 -19.0979497207 -1.2999868393
13.2903209060 -19.0502297632 -1.2999868393
13.2330206467 -19.0497194573 -1.2999868393
13.1178359307 -19.0504993437 -1.2999868393
18.7280413302 -19.2239376735 -1.2999868393
12.9910410739 -19.0321125640 -1.2999868393
19.0998356505 -19.4329729331 -1.2999868393
19.0705098889 -19.4128499608 -1.2999868393
17.8116513077 -18.7572985298 -1.2999868393
17.7783505749 -18.7448087141 -1.2999868393
19.3588929711 -19.5917607618 -1.2999868393
19.2011781649 -19.4747335679 -1.2999868393
19.5002693329 -19.6725094912 -1.2999868393
19.0233212055 -19.3229618749 -1.2999868393
17.5411563275 -18.6114315861 -1.2999868393
12.7680555463 -19.0674831892 -1.2999868393
19.6672177703 -19.7808909165 -1.2999868393
17.4627069906 -18.5614768756 -1.2999868393
17.2438758589 -18.4740192418 -1.2999868393
12.2831981515 -19.0745060419 -1.2999868393
12.1940930321 -19.0747268384 -1.2999868393
11.7981113740 -18.9062662125 -1.2999868393
12.0148892752 -18.7298019525 -1.2999868393
11.3278021261 -19.2409019961 -1.2999868393
11.2372855231 -19.3190250338 -1.2999868393
11.2223348478 -19.3322012038 -1.2999868393
12.1199167574 -18.6345009581 -1.2999868393
11.3274459211 -19.2095528720 -1.2999868393
10.9146393555 -19.5877107147 -1.2999868393
10.9261225156 -19.5423439130 -1.2999868393
10.7574415701 -19.7142501984 -1.2999868393
10.5949679788 -19.8920347998 -1.2999868393
10.7187565336 -19.6496774022 -1.2999868393
10.4086762634 -19.9981834039 -1.2999868393
10.3444502701 -20.0766859486 -1.2999868393
10.0957800661 -20.3221260118 -1.2999868393
9.1210424110 -21.4878359295 -1.2999868393
9.9084018650 -19.8092324033 -1.2999868393
9.4092474429 -20.5230024686 -1.2999868393
11.5539327101 -23.0156838455 -1.2999840919
11.5503531591 -23.0288411099 -1.2999840919
11.5537633378 -22.8442523324 -1.2999840631
11.5561559874 -22.7579481422 -1.2999840486
11.5432468299 -22.7974418331 -1.2999840486
11.5390217264 -22.8106316631 -1.2999840486
11.5510609184 -22.6975879077 -1.2999840342
11.5465403947 -22.7107550591 -1.2999840342
11.5420752675 -22.6500818683 -1.2999840198
11.5015352958 -22.7693119034 -1.2999840198
11.5482255593 -22.5627243534 -1.2999840054
11.5406601753 -22.5145948953 -1.2999839910
11.5441272839 -22.4398072013 -1.2999839766
11.5433309283 -22.3779234496 -1.2999839622
11.5501492469 -22.2401898828 -1.2999839334
11.5424384152 -22.1409939985 -1.2999839046
11.5482221563 -21.9641591144 -1.2999838613
11.5322205364 -21.8382171432 -1.2999838181
11.5469833565 -21.7606689810 -1.2999838037
17.5210257891 -19.0939603979 -1.2999836452
17.4905989574 -19.0850507681 -1.2999836452
17.4601199458 -19.0763213096 -1.2999836452
14.8252590016 -19.0038550626 -1.2999836452
14.7634757102 -19.0181198472 -1.2999836452
14.6404370919 -19.0488374668 -1.2999836452
14.6097937129 -19.0569711569 -1.2999836452
14.5944902031 -19.0611059528 -1.2999836452
11.5457234350 -21.2528947543 -1.2999836452
17.5888541661 -19.0892230358 -1.2999836308
17.5736330286 -19.0845450909 -1.2999836308
14.5574426734 -19.0462222815 -1.2999836308
14.5267852746 -19.0548470402 -1.2999836308
14.5114758445 -19.0592273993 -1.2999836308
14.4656262389 -19.0726399348 -1.2999836308
17.6874286343 -19.0952687775 -1.2999836164
17.6417738111 -19.0804950944 -1.2999836164
14.4587363828 -19.0494695838 -1.2999836164
14.4434113430 -19.0540512674 -1.2999836164
14.4280999236 -19.0586782652 -1.2999836164
14.4128022588 -19.0633505367 -1.2999836164
17.7711060311 -19.0979385521 -1.2999836020
17.7559098783 -19.0927214352 -1.2999836020
17.7406983587 -19.0875492940 -1.2999836020
14.5224683833 -18.9807028278 -1.2999835876
14.2603485768 -19.0616089652 -1.2999835876
11.5477056056 -21.0794983525 -1.2999835876
17.8937469037 -19.0903470477 -1.2999835732
17.9782805781 -19.0963630627 -1.2999835588
17.9630788581 -19.0905330929 -1.2999835588
17.9326240127 -19.0790081886 -1.2999835588
14.1219842453 -19.0587752036 -1.2999835588
14.0761459644 -19.0756442763 -1.2999835588
14.0218093642 -19.0703470180 -1.2999835444
14.0065479954 -19.0762211194 -1.2999835444
18.0872990401 -19.0874857692 -1.2999835299
18.0568239916 -19.0752259900 -1.2999835299
18.1573814561 -19.0902546930 -1.2999835155
18.1421608828 -19.0838949371 -1.2999835155
18.1269215629 -19.0775802342 -1.2999835155
18.2276892990 -19.0939648953 -1.2999835011
18.2830136319 -19.0918456936 -1.2999834867
13.7105262469 -19.0946203572 -1.2999834867
13.6549877896 -19.0931475607 -1.2999834723
13.5840489738 -19.0993816425 -1.2999834579
18.7942408426 -19.2674654328 -1.2999834435
19.0388543979 -19.3847544665 -1.2999834291
18.9812831080 -19.3491353676 -1.2999834291
18.8941460243 -19.2969901961 -1.2999834291
18.8648963532 -19.2799531725 -1.2999834291
18.7913356775 -19.2381203052 -1.2999834291
18.7022581974 -19.1893638409 -1.2999834291
18.6273754605 -19.1499463638 -1.2999834291
19.2084567612 -19.4661387406 -1.2999834147
17.6376752122 -18.6999225715 -1.2999834003
13.3895408868 -19.0868515212 -1.2999834003
19.1352437740 -19.3600690130 -1.2999833859
17.5126135133 -18.6393817488 -1.2999833859
13.3633309779 -19.0730707569 -1.2999833859
13.3480805475 -19.0808927445 -1.2999833859
17.3688786310 -18.5775999725 -1.2999833715
17.3521449824 -18.5735749936 -1.2999833715
17.3353995005 -18.5695995335 -1.2999833715
13.0107737473 -19.0445676561 -1.2999832706
12.9679416734 -19.0414698318 -1.2999832562
12.4862250397 -19.0596486814 -1.2999831121
12.1598828024 -19.0542270781 -1.2999829968
11.8729740381 -19.0615210923 -1.2999828960
11.3412657331 -19.2662364684 -1.2999827807
11.3119663006 -19.2938853593 -1.2999827807
12.0936221361 -18.6255717183 -1.2999827663
12.0440192913 -18.6604584259 -1.2999827663
12.0275540515 -18.6721849814 -1.2999827663
11.9294976223 -18.7435624663 -1.2999827663
11.1365757432 -19.4320368554 -1.2999827663
11.1082608239 -19.4608938593 -1.2999827663
11.0941675113 -19.4753850554 -1.2999827663
12.1802825470 -18.5370496684 -1.2999827519
12.1634516456 -18.5483736725 -1.2999827519
12.1466543163 -18.5597474160 -1.2999827519
12.0798036555 -18.6057377859 -1.2999827519
11.0206728149 -19.5171436534 -1.2999827519
10.9790244221 -19.5615170755 -1.2999827519
10.8699040615 -19.6816350380 -1.2999827519
10.5216653815 -20.0275675053 -1.2999827231
12.7011836873 -18.1377399137 -1.2999827087
10.5654983810 -19.9320022396 -1.2999827087
12.7440821954 -18.0873456481 -1.2999826943
11.0505555041 -19.3471316111 -1.2999826943
9.9703471642 -20.6240718065 -1.2999826510
13.1681836501 -17.7750280630 -1.2999826366
9.8458364881 -20.1421289678 -1.2999824349
11.5481232216 -22.6906428902 -1.2999943504
11.5441750484 -22.7046626694 -1.2999943504
11.5538023315 -22.5857728571 -1.2999943879
11.4697446121 -22.8965546442 -1.2999943879
17.7156575162 -19.0940230319 -1.2999946875
17.7010429055 -19.0898138660 -1.2999946875
15.2030861245 -19.0063182830 -1.2999946875
17.7663560311 -19.0837513755 -1.2999947250
14.9455374727 -19.0437356405 -1.2999947250
14.9307862232 -19.0477212107 -1.2999947250
14.9160468283 -19.0517504003 -1.2999947250
11.5524257877 -21.9635797081 -1.2999947250
17.8759108522 -19.0924655535 -1.2999947625
17.8466572239 -19.0831423874 -1.2999947625
14.8652858674 -19.0408490730 -1.2999947625
17.9126531254 -19.0789960351 -1.2999947999
14.7256820236 -19.0573579381 -1.2999947999
11.5523863431 -21.8457461879 -1.2999947999
11.5459387941 -21.8597570528 -1.2999947999
18.0374948076 -19.0961070288 -1.2999948374
17.8316200085 -19.0278007065 -1.2999948374
14.6594210425 -19.0531835381 -1.2999948374
14.6446989934 -19.0580154511 -1.2999948374
11.5435215266 -21.8075145170 -1.2999948374
18.1041342594 -19.0945000696 -1.2999948748
18.0895193600 -19.0891417171 -1.2999948748
18.0602423283 -19.0785548296 -1.2999948748
17.9129458928 -19.0282285611 -1.2999948748
14.5633958401 -19.0599851684 -1.2999948748
18.1564385598 -19.0882258601 -1.2999949123
14.5702691716 -19.0320475069 -1.2999949123
14.5112237885 -19.0526925298 -1.2999949123
14.4817937372 -19.0632766785 -1.2999949123
11.5472707496 -21.6883689240 -1.2999949123
18.2236308251 -19.0882047029 -1.2999949498
18.1943459024 -19.0768243832 -1.2999949498
18.0024112614 -19.0070975827 -1.2999949498
11.5466876641 -21.6355021715 -1.2999949498
18.2910843149 -19.0890845648 -1.2999949872
14.3471487354 -19.0623070204 -1.2999949872
18.3441603302 -19.0847599644 -1.2999950247
18.3295155677 -19.0786916140 -1.2999950247
14.3383655307 -19.0397861279 -1.2999950247
18.4121079947 -19.0872592093 -1.2999950622
14.2261609985 -19.0588385164 -1.2999950622
14.2114575736 -19.0649520662 -1.2999950622
11.5483530576 -21.4757610548 -1.2999950622
18.7116304897 -19.2000551303 -1.2999950996
18.6110545160 -19.1508553386 -1.2999950996
18.5966041077 -19.1439971777 -1.2999950996
14.0895018736 -19.0647427578 -1.2999951371
14.0748165125 -19.0712605442 -1.2999951371
14.0208425454 -19.0690822293 -1.2999951745
13.9519798542 -19.0743540780 -1.2999952120
13.9373235268 -19.0812786374 -1.2999952120
13.8975849682 -19.0734782343 -1.2999952495
13.7626110244 -19.0593114832 -1.2999953618
13.7479110269 -19.0667962956 -1.2999953618
13.7039447823 -19.0895111839 -1.2999953618
13.5116001124 -19.0836833501 -1.2999955117
13.4411715897 -19.0959064217 -1.2999955492
11.5688307984 -20.8367722245 -1.2999955492
13.3852221282 -19.1005052269 -1.2999955866
13.0200890742 -19.1006092048 -1.2999958863
12.9629279592 -19.1097456188 -1.2999959238
12.8919720201 -19.0995943982 -1.2999959987
11.5750891180 -20.1436391649 -1.2999961860
12.6326496096 -19.1066403012 -1.2999962235
12.4574526348 -19.0877595844 -1.2999964108
11.9761270570 -18.6979882228 -1.2999973473
11.9133105349 -18.7493517266 -1.2999973473
11.8977017118 -18.7623084605 -1.2999973473
11.8665993919 -18.7883601657 -1.2999973473
11.8202362663 -18.8277816039 -1.2999973473
11.7742248096 -18.8676129364 -1.2999973473
11.7589664331 -18.8809805936 -1.2999973473
11.2923249510 -19.3318908597 -1.2999973473
11.2233500677 -19.4062554563 -1.2999973473
12.0727044588 -18.5907892715 -1.2999973848
12.0566258818 -18.6032751832 -1.2999973848
12.0086127479 -18.6410175312 -1.2999973848
11.9926830357 -18.6536928180 -1.2999973848
11.1104710309 -19.4961283262 -1.2999973848
12.2212682612 -18.4490233959 -1.2999974222
12.1554887102 -18.4975037042 -1.2999974222
12.1228152047 -18.5220348894 -1.2999974222
11.1465193516 -19.4190649075 -1.2999974222
10.8827331584 -19.7309981442 -1.2999974222
12.3239276695 -18.3462339679 -1.2999974597
12.2402616992 -18.4054485764 -1.2999974597
12.0107626427 -18.5777558869 -1.2999974597
10.8383794028 -19.7480937563 -1.2999974597
10.8193791101 -19.7331497221 -1.2999974971
10.6824025221 -19.9132608090 -1.2999974971
12.6242392248 -18.0915122081 -1.2999975346
12.6066812829 -18.1023687648 -1.2999975346
12.5891555334 -18.1132772134 -1.2999975346
12.6823517736 -18.0278792831 -1.2999975721
12.6292076836 -18.0600913231 -1.2999975721
10.3319292662 -20.2999951849 -1.2999976095
10.2990414866 -20.3529764334 -1.2999976095
10.2773780718 -20.3884585100 -1.2999976095
12.9109029232 -17.8413996911 -1.2999976470
10.4047420025 -20.0986573800 -1.2999976845
9.7397507164 -21.1018300915 -1.2999978343
11.8663600521 -18.1100263089 -1.2999981715
11.5621029836 -18.2557386062 -1.2999982838
17.9227296787 -19.0878826516 -1.3000271278
17.8670439361 -19.0717553210 -1.3000271278
15.3451926502 -19.0322498105 -1.3000271278
15.2610120597 -19.0540615395 -1.3000271278
17.7329250940 -19.0108864208 -1.3000273295
15.1217204600 -19.0432310505 -1.3000275312
15.1076971438 -19.0474235493 -1.3000275312
15.0936862910 -19.0516575132 -1.3000275312
14.5370665055 -19.0474248432 -1.3000291449
11.5573496399 -22.4876096731 -1.3000291449
11.5460244924 -22.5318076846 -1.3000291449
11.5046591427 -22.7095524453 -1.3000291449
11.4569121919 -22.9636253191 -1.3000291449
11.5329872687 -24.9868427687 -1.3000291449
11.5747074971 -25.1488450789 -1.3000291449
11.5787612111 -25.1635035688 -1.3000291449
11.5911822776 -25.2074061917 -1.3000291449
11.5954091539 -25.2220156901 -1.3000291449
14.4574936641 -19.0553104830 -1.3000293467
11.5537982453 -22.4077259576 -1.3000293467
11.5497433247 -22.4224582945 -1.3000293467
11.5339599778 -22.4815056586 -1.3000293467
11.5225815817 -22.5259114806 -1.3000293467
11.5080242425 -22.5852729928 -1.3000293467
11.5851989534 -25.2727266173 -1.3000293467
14.4337354413 -19.0393587144 -1.3000295484
11.5264275256 -22.4160779500 -1.3000295484
11.5893449755 -25.3676565638 -1.3000295484
11.5953095753 -25.4629054244 -1.3000297501
11.5508654217 -22.1658309602 -1.3000299518
11.5774270159 -25.4853448420 -1.3000299518
11.5927042958 -25.5292466314 -1.3000299518
14.2911238120 -19.0247237324 -1.3000301535
11.5474850550 -22.0992579028 -1.3000301535
14.1682790986 -19.0574605252 -1.3000303552
11.5449859272 -22.0323791136 -1.3000303552
11.5398207013 -22.0471391612 -1.3000303552
11.4878092302 -25.3673138306 -1.3000303552
11.6013374816 -25.6920080246 -1.3000303552
14.1294094136 -19.0499700054 -1.3000305569
11.5487823700 -21.9504569883 -1.3000305569
14.0623499231 -19.0573029572 -1.3000307587
11.5370947615 -21.9125182639 -1.3000307587
11.5971404553 -25.8120550102 -1.3000307587
11.5545012698 -21.8005415774 -1.3000309604
11.5200498943 -21.8891951387 -1.3000309604
11.5488644433 -21.6253420628 -1.3000315655
13.7682414885 -19.0542044930 -1.3000319690
11.5643151228 -21.4730497090 -1.3000319690
11.5626856302 -21.3640672867 -1.3000323724
11.5633733863 -21.2543051150 -1.3000327758
13.4816381278 -19.0888990552 -1.3000329775
11.5688087527 -21.0883053813 -1.3000333810
11.3679534850 -21.4371634198 -1.3000335827
11.5722940972 -20.8377242365 -1.3000343895
12.9958578081 -19.1049437377 -1.3000351964
11.8402658326 -18.7844987716 -1.3000434667
11.8107583475 -18.8123439502 -1.3000434667
12.0201723719 -18.5895624877 -1.3000436684
11.9590034884 -18.6433118428 -1.3000436684
11.6917883791 -18.8939831338 -1.3000436684
11.2772752516 -19.3422142975 -1.3000436684
11.2380475135 -19.3890216733 -1.3000436684
11.2250641012 -19.4047012661 -1.3000436684
11.1608458959 -19.4836715543 -1.3000436684
11.1354868428 -19.5155241728 -1.3000436684
12.2081540781 -18.4010913583 -1.3000438702
12.1289845602 -18.4656311443 -1.3000438702
12.1132656934 -18.4786792244 -1.3000438702
12.0663416459 -18.5181016589 -1.3000438702
12.0043239725 -18.5713097203 -1.3000438702
11.0662041369 -19.5649018863 -1.3000438702
11.0537417620 -19.5810890533 -1.3000438702
11.0166427058 -19.6298707570 -1.3000438702
10.9198433091 -19.7615449774 -1.3000438702
11.5998364625 -18.9176346443 -1.3000440719
12.4893706057 -18.1273624902 -1.3000442736
12.4726495023 -18.1393459633 -1.3000442736
10.6839899067 -20.0225798961 -1.3000442736
12.5089832271 -18.0837923563 -1.3000444753
10.9339770083 -19.6192751498 -1.3000444753
12.7354073017 -17.9018073853 -1.3000446770
10.5445449505 -20.1545187283 -1.3000446770
12.6353906836 -17.9384876920 -1.3000448787
10.4601507500 -20.2491898121 -1.3000448787
12.9577704788 -17.7079907615 -1.3000450805
10.2781798973 -20.5292631386 -1.3000450805
13.2640578590 -17.4834592839 -1.3000454839
10.9698674749 -18.4559231546 -1.3000505268
15.3384170001 -19.0558056165 -1.3000667135
15.3047782572 -19.0411052939 -1.3000671342
15.2652622870 -19.0539460908 -1.3000671342
15.2180859137 -19.0442488478 -1.3000675549
15.2767205487 -18.9993451452 -1.3000679756
15.2235659428 -19.0168789907 -1.3000679756
15.1178977130 -19.0538273065 -1.3000679756
15.0700525135 -19.0456778524 -1.3000683963
14.9207937830 -19.0520043430 -1.3000692378
14.9249109415 -19.0242508728 -1.3000696585
14.8720756605 -19.0459457495 -1.3000696585
14.8363094037 -19.0347761380 -1.3000700792
14.8099234961 -19.0460694401 -1.3000700792
14.6980390735 -19.0428375970 -1.3000709207
14.6848622200 -19.0488737278 -1.3000709207
11.5470909529 -22.2450643386 -1.3000784936
11.5361562943 -22.2911263349 -1.3000784936
11.5188416185 -22.3681061452 -1.3000784936
11.5840749459 -24.8993543969 -1.3000784936
11.5966941662 -24.9449836587 -1.3000784936
11.5388800905 -22.1778375633 -1.3000789144
11.5349909566 -22.1932053408 -1.3000789144
11.5273491554 -22.2239750737 -1.3000789144
11.5566131240 -24.8903909153 -1.3000789144
11.5865072109 -24.9972521149 -1.3000789144
11.5954541905 -25.0276679849 -1.3000789144
13.6808981080 -19.0654344427 -1.3000793351
11.5614330921 -22.0028611252 -1.3000793351
11.5544901789 -24.9733993836 -1.3000793351
11.5908001082 -25.0955021271 -1.3000793351
13.6277846196 -19.0728925347 -1.3000797558
11.5657269716 -21.9041948221 -1.3000797558
11.5669100227 -21.8204832051 -1.3000801765
11.5619636473 -21.8357696285 -1.3000801765
11.5841669833 -25.2321278133 -1.3000801765
11.5694441590 -21.7364590600 -1.3000805972
11.5642492139 -21.7517383547 -1.3000805972
11.5571413330 -21.6979965231 -1.3000810180
11.5672591642 -21.5980829630 -1.3000814387
11.5675446706 -21.5284831891 -1.3000818594
11.5646789629 -21.4037972981 -1.3000827009
11.5702508153 -25.6734076640 -1.3000831216
11.5713774282 -21.2628794425 -1.3000835423
11.5928030047 -25.8451963278 -1.3000839630
11.5818760779 -21.1211153130 -1.3000843837
11.5748607803 -21.1363605241 -1.3000843837
11.5741575471 -21.0804203414 -1.3000848045
11.7830967601 -26.3713091836 -1.3000852252
11.8087709163 -26.4151142749 -1.3000852252
11.8949738476 -26.6010507237 -1.3000856459
11.5386993667 -20.9312708729 -1.3000864873
11.5824139929 -20.7408379794 -1.3000873288
11.5702943154 -20.5142403820 -1.3000894324
11.5254139065 -19.9503792610 -1.3000953225
11.7739276952 -18.8330139766 -1.3001041576
11.7464016917 -18.8624288885 -1.3001041576
11.7054401925 -18.9068553173 -1.3001041576
11.6783522577 -18.9366741319 -1.3001041576
11.2219062726 -19.4996903241 -1.3001041576
11.9400820368 -18.6286112000 -1.3001045783
11.9113438098 -18.6570466644 -1.3001045783
11.2023452638 -19.4854881335 -1.3001045783
11.1204023771 -19.6008434868 -1.3001045783
11.1088918596 -19.6174604725 -1.3001045783
12.0106563281 -18.5268003483 -1.3001049991
10.9983764663 -19.7383464808 -1.3001049991
10.9872732415 -19.7553238396 -1.3001049991
12.2663581267 -18.2641800974 -1.3001054198
10.9229590377 -19.8105990854 -1.3001054198
12.4881604067 -18.0521788564 -1.3001058405
10.7955911482 -19.9716772887 -1.3001058405
10.6182931775 -19.9876089068 -1.3001083648
16.0025289316 -19.0536742648 -1.2999733673
15.9903136200 -19.0562858476 -1.2999733673
15.9415312311 -19.0670931821 -1.2999733673
15.7038886687 -19.0530851167 -1.2999731339
15.6604517278 -19.0404877809 -1.2999730561
15.5309171873 -19.0553710718 -1.2999729783
15.5065126358 -19.0634205447 -1.2999729783
15.4866207756 -19.0445880627 -1.2999729005
15.4621532035 -19.0528997969 -1.2999729005
15.3685982011 -19.0604297085 -1.2999728226
15.3480238084 -19.0422432097 -1.2999727448
15.4884215021 -18.9675516499 -1.2999726670
15.2904706913 -19.0380788301 -1.2999726670
15.2537378393 -19.0523416578 -1.2999726670
15.4808496379 -18.9445951223 -1.2999725892
15.2326058449 -19.0346996628 -1.2999725892
15.1958452833 -19.0494761416 -1.2999725892
14.9614417087 -19.0460251307 -1.2999722780
14.9021870015 -19.0471967791 -1.2999722002
14.7829708801 -19.0520235954 -1.2999720446
14.8089807114 -19.0119290376 -1.2999719668
14.7230321388 -19.0556902322 -1.2999719668
14.6409573178 -18.9896813303 -1.2999716556
14.4936051855 -19.0437781157 -1.2999715778
14.2098519414 -19.0470621368 -1.2999711110
11.5663575556 -21.7472447670 -1.2999692436
11.5638213577 -24.6119522733 -1.2999692436
11.5723608375 -24.6433751680 -1.2999692436
11.5649547610 -21.6621661088 -1.2999691658
11.5713107662 -24.7284589107 -1.2999691658
11.5899535211 -24.7911568534 -1.2999691658
11.5696901898 -21.5610192786 -1.2999690880
11.5649114537 -21.5767330293 -1.2999690880
11.5963044474 -24.8922151104 -1.2999690880
11.6013798746 -24.9078355560 -1.2999690880
11.5612518413 -21.5066914759 -1.2999690102
11.5582897159 -24.8524961469 -1.2999690102
11.5939717639 -24.9623134025 -1.2999690102
13.0840066049 -19.0658324675 -1.2999689324
11.5585089127 -21.4363392569 -1.2999689324
11.5980525206 -25.0483358498 -1.2999689324
11.5920802036 -25.1033776908 -1.2999688546
11.5977803064 -25.1190097086 -1.2999688546
11.5670726590 -21.2632883728 -1.2999687768
11.5614131925 -21.2790111694 -1.2999687768
11.5558002617 -21.2947506390 -1.2999687768
11.5984443299 -25.1899498322 -1.2999687768
11.5616713181 -21.2077994237 -1.2999686990
11.5995715989 -25.3886356506 -1.2999685434
11.6038287943 -25.4605296649 -1.2999684656
11.6021275280 -25.5170297392 -1.2999683878
11.5499683368 -20.9109976625 -1.2999683100
11.5432668055 -20.9267725982 -1.2999683100
11.5300038845 -20.9583815973 -1.2999683100
11.5939700512 -25.5581140712 -1.2999683100
11.6010153382 -25.5737385087 -1.2999683100
11.5329985715 -20.8286042056 -1.2999681544
11.5787311478 -25.6981163730 -1.2999680766
11.5861906536 -25.7137852774 -1.2999680766
11.5172386715 -20.7454935996 -1.2999679988
11.5871296825 -25.7712747139 -1.2999679988
11.5320426088 -20.6561216688 -1.2999679210
11.5908266813 -25.8867924941 -1.2999678432
11.3272880267 -25.4255464081 -1.2999676876
11.3610441737 -25.5074169664 -1.2999676876
11.3748850723 -25.5400238870 -1.2999676876
11.6564661726 -26.1117567536 -1.2999676876
11.7092457894 -26.2039906095 -1.2999676876
11.7453380646 -26.2649531449 -1.2999676876
11.7544736471 -26.2801267157 -1.2999676876
11.8482826285 -26.4303506235 -1.2999676876
11.2285197765 -25.2353384734 -1.2999676097
11.2346118339 -25.2520453913 -1.2999676097
11.2469440813 -25.2854047974 -1.2999676097
11.2786362680 -25.3684790029 -1.2999676097
11.2851219599 -25.3850370846 -1.2999676097
11.8965369504 -26.5473484215 -1.2999676097
11.9065072477 -26.5620734832 -1.2999676097
11.9265783019 -26.5914348027 -1.2999676097
11.9981875376 -26.6932535342 -1.2999676097
12.0295197123 -26.7364320779 -1.2999676097
11.1418033542 -25.0579139848 -1.2999675319
11.1586565310 -25.1087568551 -1.2999675319
11.1643744427 -25.1256709949 -1.2999675319
11.1818280361 -25.1763108913 -1.2999675319
11.6055863926 -26.1198077327 -1.2999675319
11.7598153369 -26.3811930205 -1.2999675319
12.0418597916 -26.7937870614 -1.2999675319
12.1286265296 -26.9072449164 -1.2999675319
11.0657060414 -24.8942155973 -1.2999674541
11.0916322131 -24.9800131733 -1.2999674541
11.5167437439 -20.3105992660 -1.2999673763
11.5087823398 -20.2240103282 -1.2999672207
11.5225605690 -19.3430700361 -1.2999657424
11.8796164720 -18.6692212625 -1.2999652756
11.7871998768 -18.7737108076 -1.2999652756
11.7611944499 -18.8039142990 -1.2999652756
11.7482588608 -18.8190736090 -1.2999652756
11.6842566739 -18.8954404867 -1.2999652756
11.2578091920 -19.4719320600 -1.2999652756
12.0396000324 -18.4634596391 -1.2999651978
11.9840796223 -18.5210551536 -1.2999651978
11.8885727312 -18.6234134690 -1.2999651978
11.1617038117 -19.5762239937 -1.2999651978
11.1510554773 -19.5931533263 -1.2999651978
11.1089643313 -19.6611834273 -1.2999651978
12.1935013209 -18.2771880492 -1.2999651200
12.1790056887 -18.2910708220 -1.2999651200
12.1214357348 -18.3470288923 -1.2999651200
12.0083022506 -18.4609689343 -1.2999651200
11.0163644943 -19.7692504028 -1.2999651200
10.9862886881 -19.8214147328 -1.2999651200
10.9566769955 -19.8738439146 -1.2999651200
12.2946561410 -18.1498090537 -1.2999650422
12.2797832561 -18.1633931496 -1.2999650422
12.0473784158 -18.3866321485 -1.2999650422
10.5033802425 -20.5311845060 -1.2999647310
13.0653817802 -17.3114834119 -1.2999644198
14.0770111147 -16.5826733012 -1.2999638751
10.7375983438 -19.4344414268 -1.2999637973
12.3511393021 -17.4062432142 -1.2999633305
14.9970823444 -22.9392968029 -1.2995466277
16.0339742781 -19.0527914314 -1.2991005484
16.0227527288 -19.0555755051 -1.2991005484
15.9891381830 -19.0641267267 -1.2991005484
15.9605694117 -19.0466292023 -1.2990949724
15.9268779211 -19.0557326182 -1.2990949724
15.9044623829 -19.0619675155 -1.2990949724
15.8753998795 -19.0451044218 -1.2990893964
15.8641562845 -19.0483576210 -1.2990893964
15.8416982112 -19.0549637296 -1.2990893964
15.8304839293 -19.0583165812 -1.2990893964
15.8080853658 -19.0651217325 -1.2990893964
15.7036248252 -19.0477962009 -1.2990782444
15.6283389913 -19.0480671619 -1.2990726684
15.6058833267 -19.0560684499 -1.2990726684
15.5834753934 -19.0642024531 -1.2990726684
15.5751600892 -19.0415046345 -1.2990670924
15.5414382978 -19.0540285437 -1.2990670924
15.5302225632 -19.0582696226 -1.2990670924
15.4878678229 -19.0486708897 -1.2990615164
15.4654181887 -19.0575032418 -1.2990615164
15.3236215424 -19.0641111866 -1.2990503645
15.2802710829 -19.0567864891 -1.2990447885
15.1037335484 -19.0594789939 -1.2990280605
15.1043309408 -19.0322594089 -1.2990224845
15.0034429227 -19.0560043165 -1.2990169085
14.9246917934 -19.0429126033 -1.2990057565
14.8681215927 -19.0462183982 -1.2990001805
14.7543731608 -19.0552622974 -1.2989890285
14.7527114876 -19.0003335180 -1.2989778766
14.6735265616 -19.0470588468 -1.2989778766
14.4759627457 -19.0573637305 -1.2989555726
14.5421118091 -18.9860801123 -1.2989499966
11.5442677827 -21.3630358306 -1.2987046530
11.5270818793 -21.4273336879 -1.2987046530
11.5163951465 -24.2262055115 -1.2987046530
11.5641348358 -24.4028887822 -1.2987046530
11.5781502698 -24.4507971666 -1.2987046530
11.5435990879 -21.2762326612 -1.2986990770
11.5209519010 -21.3566557905 -1.2986990770
11.5549800038 -24.4576873065 -1.2986990770
11.5793865161 -24.5375941082 -1.2986990770
11.5844094959 -24.5535316599 -1.2986990770
11.5250721547 -21.2533958750 -1.2986935010
11.5157357694 -21.2856348707 -1.2986935010
11.5664569673 -24.5768227049 -1.2986935010
11.5767823669 -24.6087586886 -1.2986935010
11.5820158758 -24.6247036324 -1.2986935010
11.5926242828 -24.6565467264 -1.2986935010
11.5979990880 -24.6724445979 -1.2986935010
11.5361947134 -21.1337344673 -1.2986879250
11.5805557710 -24.6961700448 -1.2986879250
11.5860478419 -24.7121034437 -1.2986879250
11.5915870228 -24.7280205265 -1.2986879250
11.5391940491 -21.0459492495 -1.2986823490
11.5338882878 -21.0620209751 -1.2986823490
11.5286300928 -21.0781083259 -1.2986823490
11.5972900451 -24.8156716304 -1.2986823490
11.6031355501 -24.8315550034 -1.2986823490
11.5380402200 -20.9739385461 -1.2986767730
11.5325214431 -20.9900140001 -1.2986767730
11.5270502443 -21.0061057093 -1.2986767730
11.5863797903 -24.8558704616 -1.2986767730
11.5923442586 -24.8717859333 -1.2986767730
11.6044143066 -24.9035635967 -1.2986767730
11.5321007888 -20.9177257744 -1.2986711971
11.6003766670 -24.9599448880 -1.2986711971
11.5267330982 -20.8612606592 -1.2986656211
11.5778819715 -24.9687949685 -1.2986656211
11.6033587321 -25.0324426620 -1.2986656211
11.5219411537 -20.8045489371 -1.2986600451
11.5617121110 -24.9936516693 -1.2986600451
11.5874841197 -25.0574889520 -1.2986600451
11.5940450070 -25.0734002747 -1.2986600451
11.5365796783 -20.6992976323 -1.2986544691
11.5334586635 -20.6420801593 -1.2986488931
11.5269582095 -20.6581706183 -1.2986488931
11.5831641667 -25.1718164299 -1.2986488931
11.6040026528 -25.2195256604 -1.2986488931
11.5309270767 -20.5846388155 -1.2986433171
11.5889628218 -25.2452266032 -1.2986433171
11.5358771711 -20.5108956933 -1.2986377411
11.5289886391 -20.5269795720 -1.2986377411
11.5884607605 -25.3029162369 -1.2986377411
11.6030815882 -25.3347093309 -1.2986377411
11.5347067434 -20.4530208538 -1.2986321651
11.5960187409 -25.3767096352 -1.2986321651
11.5197218883 -20.4271423656 -1.2986265891
11.5816829337 -25.4029532376 -1.2986265891
11.5341724649 -20.3366651912 -1.2986210131
11.5267685350 -20.3527548750 -1.2986210131
11.5983820054 -25.4930425225 -1.2986210131
11.5272387042 -20.2942847011 -1.2986154371
11.5360701300 -20.2195426133 -1.2986098612
11.4977949124 -20.3001926835 -1.2986098612
11.5950470288 -25.5941949273 -1.2986098612
11.6031955564 -25.6100815293 -1.2986098612
11.5982068666 -25.6529730540 -1.2986042852
11.5435351750 -20.0425301645 -1.2985931332
11.5891924457 -25.7392198135 -1.2985931332
11.5977700087 -25.7551230998 -1.2985931332
11.5430027410 -19.9397500822 -1.2985819812
11.5903074777 -25.8419952264 -1.2985819812
11.5960772659 -25.9015590504 -1.2985764052
11.5932948895 -25.9453651104 -1.2985708292
11.3179650773 -25.4668502884 -1.2985652532
11.3493532556 -25.5335385725 -1.2985652532
11.3573234258 -25.5501522464 -1.2985652532
11.3896945162 -25.6163689926 -1.2985652532
11.6861216622 -26.1470235959 -1.2985652532
11.7057348033 -26.1782241219 -1.2985652532
11.7255321939 -26.2093080640 -1.2985652532
11.7555722300 -26.2557130031 -1.2985652532
11.7860229010 -26.3018495264 -1.2985652532
11.8168818087 -26.3477140003 -1.2985652532
11.8481465226 -26.3933028126 -1.2985652532
11.1849800201 -25.2227616697 -1.2985596772
11.1920315752 -25.2398629493 -1.2985596772
11.1991336881 -25.2569432942 -1.2985596772
11.2805756562 -25.4434027904 -1.2985596772
11.3116890103 -25.5105351250 -1.2985596772
11.8814806042 -26.4827142815 -1.2985596772
11.8922562795 -26.4977496734 -1.2985596772
11.9800531687 -26.6168718977 -1.2985596772
11.9912252752 -26.6316151072 -1.2985596772
12.0137000825 -26.6610020566 -1.2985596772
11.5358590416 -19.7042194245 -1.2985541012
11.5265842154 -19.7203068864 -1.2985541012
11.1012033229 -25.0765161421 -1.2985541012
11.1078226238 -25.0938658881 -1.2985541012
11.1212150514 -25.1285062575 -1.2985541012
11.1486135597 -25.1975462655 -1.2985541012
12.0172781700 -26.7051102571 -1.2985541012
12.1217229061 -26.8355740567 -1.2985541012
11.5336991868 -19.6598990671 -1.2985485253
12.2979170378 -27.0766956095 -1.2985485253
11.5510918100 -19.5833292694 -1.2985429493
10.9680830057 -24.8469216807 -1.2985429493
11.0170746842 -24.9883751245 -1.2985429493
12.3432998493 -27.1618140583 -1.2985429493
12.4597867403 -27.2834371400 -1.2985429493
10.9048843243 -24.7293925135 -1.2985373733
12.5357230592 -27.3931679649 -1.2985373733
10.8439893463 -24.6101003895 -1.2985317973
10.8652732429 -24.6824569523 -1.2985317973
10.8707278778 -24.7005063464 -1.2985317973
11.5483710605 -19.3590893659 -1.2985150693
11.5380752224 -19.3751413251 -1.2985150693
10.7486104150 -24.5383286269 -1.2985150693
10.5451855366 -23.9550761701 -1.2984983413
11.8800895131 -18.6207113400 -1.2984760374
11.8304316428 -18.6812275778 -1.2984760374
11.2725471674 -19.4840664797 -1.2984760374
11.2527472548 -19.5178304643 -1.2984760374
11.1945508878 -19.6198169821 -1.2984760374
11.1755554858 -19.6540400429 -1.2984760374
12.0547024556 -18.3828604924 -1.2984704614
12.0283737495 -18.4120162565 -1.2984704614
11.9633106683 -18.4855826799 -1.2984704614
11.9375913007 -18.5152773507 -1.2984704614
11.9247976111 -18.5301816180 -1.2984704614
11.2417701683 -19.4887057338 -1.2984704614
11.1543852846 -19.6423713742 -1.2984704614
11.1076152313 -19.7287298440 -1.2984704614
11.0531848042 -19.8332589719 -1.2984704614
11.0442938122 -19.8507737069 -1.2984704614
12.1715038853 -18.2226700067 -1.2984648854
12.1578435867 -18.2368835985 -1.2984648854
12.1306494272 -18.2654316999 -1.2984648854
11.9972381005 -18.4105578775 -1.2984648854
11.0770408207 -19.7347929231 -1.2984648854
11.0406214995 -19.8047332137 -1.2984648854
10.9875505461 -19.9104393869 -1.2984648854
12.3504071274 -18.0105029380 -1.2984593094
12.3361184175 -18.0241882301 -1.2984593094
12.2793702838 -18.0793502823 -1.2984593094
10.9571581576 -19.9175582081 -1.2984593094
10.9485169581 -19.9353566385 -1.2984593094
10.9229097927 -19.9889042114 -1.2984593094
12.1921552339 -18.1322599205 -1.2984537334
10.8510923716 -20.0867281630 -1.2984537334
10.8109277023 -20.1775238468 -1.2984537334
12.4779892338 -17.8267521725 -1.2984481574
10.7730037457 -20.2045227667 -1.2984481574
10.7421637707 -20.2780276813 -1.2984481574
12.7053243175 -17.6011080545 -1.2984425814
13.1666939564 -17.1410814110 -1.2984202775
10.3659816524 -20.9985527621 -1.2984202775
10.3482219300 -20.9724397309 -1.2984147015
10.1445335881 -21.2806025607 -1.2983868215
15.5388456391 -19.0583232107 -0.9947071196
15.5089308775 -19.0448323428 -0.9946728568
15.3665178543 -19.0562416580 -0.9946043312
15.1915654420 -19.0626395196 -0.9945015428
15.1946839092 -25.9667799233 -0.9944672800
15.1075754315 -19.0528942299 -0.9944330172
15.0022697020 -19.0568189490 -0.9943644916
14.9594748295 -19.0538813440 -0.9943302288
14.8876056943 -25.9598207143 -0.9942617032
14.6883094291 -19.0534878851 -0.9941246520
14.6441706643 -19.0541815627 -0.9940903892
14.6407924681 -19.0272318630 -0.9940561264
14.5655889125 -19.0498963814 -0.9940218636
14.4312326547 -19.0577991629 -0.9939190752
14.2908496916 -19.0434396628 -0.9937820240
14.1535520724 -19.0609119684 -0.9936792356
11.5292475142 -21.1928853243 -0.9920346213
11.5178607961 -21.2414855657 -0.9920346213
11.5386793354 -23.8464739077 -0.9920346213
11.5426855990 -23.8626232249 -0.9920346213
11.5549907780 -23.9109990803 -0.9920346213
11.5591878474 -23.9270998629 -0.9920346213
11.5677247810 -23.9592638291 -0.9920346213
11.5720645705 -23.9753267311 -0.9920346213
11.5426359663 -21.0414751444 -0.9920003586
11.5176049146 -21.1385609923 -0.9920003586
11.5400684862 -23.9493894242 -0.9920003586
11.5575975757 -24.0138909550 -0.9920003586
11.5620990065 -24.0299835762 -0.9920003586
11.5758886502 -24.0781805580 -0.9920003586
11.5461475896 -20.9381928406 -0.9919660958
11.5415505992 -20.9543327904 -0.9919660958
11.5324999531 -20.9866531328 -0.9919660958
11.5107112863 -21.0676833014 -0.9919660958
11.5167044449 -23.9555906890 -0.9919660958
11.5526778934 -24.0849329560 -0.9919660958
11.5573895008 -24.1010398196 -0.9919660958
11.5621487346 -24.1171326749 -0.9919660958
11.5669555531 -24.1332113811 -0.9919660958
11.5370461473 -20.8829936011 -0.9919318330
11.5047306640 -20.9964526748 -0.9919318330
11.5536034284 -24.1724207391 -0.9919318330
11.5635918604 -24.2046134510 -0.9919318330
11.5686574566 -24.2206875054 -0.9919318330
11.5435568317 -20.7790207865 -0.9918975702
11.5384889929 -20.7951690966 -0.9918975702
11.5334689459 -20.8113323276 -0.9918975702
11.5284967346 -20.8275103382 -0.9918975702
11.5235724025 -20.8437029866 -0.9918975702
11.5717634665 -24.3084689277 -0.9918975702
11.5360589376 -20.7231902288 -0.9918633074
11.5308259747 -20.7393609633 -0.9918633074
11.5205036708 -20.7717485186 -0.9918633074
11.5154144202 -20.7879650560 -0.9918633074
11.5596681016 -24.3483271570 -0.9918633074
11.5400653975 -20.6347568989 -0.9918290446
11.5291240591 -20.6670916214 -0.9918290446
11.5648260394 -24.4367008026 -0.9918290446
11.5705781865 -24.4527701907 -0.9918290446
11.5763778446 -24.4688224925 -0.9918290446
11.5397404801 -20.5621986183 -0.9917947818
11.5340312588 -20.5783591666 -0.9917947818
11.5116731749 -20.6431681252 -0.9917947818
11.5714129787 -24.5253243964 -0.9917947818
11.5403713992 -20.4893725888 -0.9917605190
11.5344467426 -20.5055315893 -0.9917605190
11.5670256023 -24.5820687949 -0.9917605190
11.5732077647 -24.5981310402 -0.9917605190
11.5297305446 -20.4486186195 -0.9917262562
11.5759686209 -24.6711775248 -0.9917262562
11.5889074741 -24.7032291877 -0.9917262562
11.5445256931 -20.3429673877 -0.9916919934
11.5255958284 -20.3914655124 -0.9916919934
11.5546842101 -20.2532958499 -0.9916577306
11.5480611331 -20.2694135434 -0.9916577306
11.5349581609 -20.3017073546 -0.9916577306
11.5284783802 -20.3178831896 -0.9916577306
11.5323389305 -20.2440750804 -0.9916234678
11.5441002590 -20.1539046262 -0.9915892050
11.5303139665 -20.1862238928 -0.9915892050
11.5895194721 -24.9495120866 -0.9915892050
11.5967884997 -24.9655061832 -0.9915892050
11.5573376379 -20.0635905923 -0.9915549422
11.5430167855 -20.0958331228 -0.9915549422
11.5821425868 -24.9915779595 -0.9915549422
11.5825933198 -25.0498529571 -0.9915206794
11.5977724282 -25.0818587985 -0.9915206794
11.5501435879 -19.9629540966 -0.9914864166
11.5426616474 -19.9790864925 -0.9914864166
11.5607215877 -25.0601467145 -0.9914864166
11.5913922277 -25.1243261085 -0.9914864166
11.5991783786 -25.1403139003 -0.9914864166
11.5932384916 -25.1829644584 -0.9914521538
11.5795760735 -25.2097549639 -0.9914178910
11.5987837682 -25.3007539674 -0.9913836282
11.5492948663 -19.7433522744 -0.9913493654
11.5940534170 -25.3439134458 -0.9913493654
11.6024891353 -25.3598924046 -0.9913493654
11.5441952081 -19.7001151733 -0.9913151026
11.5896454503 -25.3872265299 -0.9913151026
11.5982093158 -25.4032183387 -0.9913151026
11.5521388536 -19.5808921602 -0.9912465770
11.5435266960 -19.5970203255 -0.9912465770
11.5349622862 -19.6131738965 -0.9912465770
11.5994935718 -25.5063073548 -0.9912465770
11.5447236207 -19.4932980918 -0.9911780514
11.6002741851 -25.6540573805 -0.9911437886
11.6096273381 -25.6700165801 -0.9911437886
11.5478043199 -19.3889812370 -0.9911095258
11.6077107525 -25.7142281049 -0.9911095258
11.5951379955 -25.7870745127 -0.9910410002
11.5401313468 -19.2109408490 -0.9909724746
11.5584086806 -19.0888785167 -0.9909039490
11.3882805900 -25.6238764287 -0.9909039490
11.8285450111 -18.6511673459 -0.9908696862
11.8171813500 -18.6664819197 -0.9908696862
11.7833628805 -18.7126263961 -0.9908696862
11.7499552491 -18.7590691753 -0.9908696862
11.7389111250 -18.7746157597 -0.9908696862
11.7279130389 -18.7901949466 -0.9908696862
11.7169610869 -18.8058065997 -0.9908696862
11.7060553649 -18.8214505823 -0.9908696862
11.2856899717 -25.4845763353 -0.9908696862
11.4141489249 -25.7186004342 -0.9908696862
11.7104454675 -26.1853623162 -0.9908696862
11.7878826824 -26.2940942491 -0.9908696862
11.8445651866 -26.3707666606 -0.9908696862
11.8560374263 -26.3860000673 -0.9908696862
11.8675546790 -26.4011994704 -0.9908696862
11.9140717981 -26.4616543909 -0.9908696862
11.9732187785 -26.5364420883 -0.9908696862
11.9971862108 -26.5661108406 -0.9908696862
11.9856418287 -18.4102859415 -0.9908354234
11.9615319748 -18.4400234162 -0.9908354234
11.8785417945 -18.5452169088 -0.9908354234
11.8668644941 -18.5603840466 -0.9908354234
11.6536443722 -18.8549572456 -0.9908354234
11.2784780680 -19.4776749761 -0.9908354234
11.2606956227 -19.5115775880 -0.9908354234
11.2518796953 -19.5285681983 -0.9908354234
11.2257340187 -19.5796954620 -0.9908354234
11.2000430975 -19.6310527406 -0.9908354234
11.1582409422 -19.7171483553 -0.9908354234
11.1370330970 -25.2383967369 -0.9908354234
11.1533354917 -25.2730353624 -0.9908354234
11.1781726193 -25.3248109415 -0.9908354234
11.2731495547 -25.5127206897 -0.9908354234
11.9663766823 -26.5664845991 -0.9908354234
11.9784273582 -26.5813568090 -0.9908354234
12.0026604299 -26.6109939596 -0.9908354234
12.0270684208 -26.6404872204 -0.9908354234
12.0640065101 -26.6844550615 -0.9908354234
12.0764057367 -26.6990379486 -0.9908354234
12.1539652745 -18.1757942996 -0.9908011606
12.1284651433 -18.2045400202 -0.9908011606
12.0405632986 -18.3063275102 -0.9908011606
11.9669099275 -18.3950068714 -0.9908011606
11.9547878920 -18.4099132575 -0.9908011606
11.8360130333 -18.5609241091 -0.9908011606
11.1530479888 -19.6721100948 -0.9908011606
11.1199934160 -19.7414904674 -0.9908011606
11.0672792901 -25.1437493401 -0.9908011606
11.0751251917 -25.1612874677 -0.9908011606
11.1070265708 -25.2312055834 -0.9908011606
11.1564242188 -25.3353627749 -0.9908011606
12.0580129063 -26.7147235438 -0.9908011606
12.1208871325 -26.7873546149 -0.9908011606
12.1746410668 -18.1167054837 -0.9907668978
12.0345798644 -18.2760116626 -0.9907668978
10.9960122747 -19.9601748971 -0.9907668978
10.9766761832 -24.9941311012 -0.9907668978
11.0373761122 -25.1359613978 -0.9907668978
12.2850859124 -27.0023762285 -0.9907668978
12.2984246400 -27.0163037317 -0.9907668978
12.3118045093 -27.0301917155 -0.9907668978
12.3566833546 -17.8899493970 -0.9907326350
10.9587714994 -19.9864533964 -0.9907326350
10.9513616616 -20.0043350751 -0.9907326350
10.9440047534 -20.0222385952 -0.9907326350
10.9009784001 -20.1301095985 -0.9907326350
10.9323661328 -24.9496292135 -0.9907326350
10.9396383822 -24.9675672881 -0.9907326350
12.1489870388 -26.8914933017 -0.9907326350
12.3621836502 -27.1160870770 -0.9907326350
12.4587525559 -27.2111247022 -0.9907326350
12.4727080394 -27.2245375546 -0.9907326350
12.5007377337 -27.2512391179 -0.9907326350
12.5430772510 -27.2909793591 -0.9907326350
12.4784339236 -17.7371003095 -0.9906983722
10.8534815334 -24.8138820936 -0.9906983722
12.6271337183 -27.4002696506 -0.9906983722
12.6489495112 -17.5486275902 -0.9906641094
10.7560510438 -20.3874826958 -0.9906641094
10.7339241893 -24.5464656274 -0.9906641094
10.7585745969 -24.6204640331 -0.9906641094
12.6402124424 -27.4441851224 -0.9906641094
12.7883492174 -27.5709702098 -0.9906641094
12.5310263892 -17.6219540972 -0.9906298466
10.6731754894 -20.5660166253 -0.9906298466
10.6812580306 -24.4607292381 -0.9906298466
10.6870851242 -24.4794122750 -0.9906298466
10.6929674601 -24.4980779925 -0.9906298466
12.9098826982 -27.7002863696 -0.9906298466
10.6220406508 -20.6530778275 -0.9905955839
10.6112237722 -20.6908435720 -0.9905955839
10.6297622848 -24.3738810211 -0.9905955839
10.6353326909 -24.3927167717 -0.9905955839
12.8795176041 -27.7071205129 -0.9905955839
10.6581465691 -20.3752412074 -0.9905270583
10.5253766490 -24.1777678546 -0.9905270583
10.8701554277 -19.5352734652 -0.9903557443
10.5147227565 -24.5756693269 -0.9903557443
10.2463146605 -23.5412895054 -0.9903214815
15.7496874224 -25.9422585887 -0.9781000502
15.6748110336 -25.9428824294 -0.9779670253
15.6860279421 -25.9466964638 -0.9779670253
15.5883278799 -25.9379650477 -0.9778340003
15.6107453512 -25.9460716676 -0.9778340003
15.5238749494 -25.9397020098 -0.9777009754
15.6025922763 -25.9688278746 -0.9777009754
15.4702806951 -25.9448077432 -0.9775679505
15.4927407161 -25.9536126502 -0.9775679505
15.3939320076 -25.9399155162 -0.9774349256
15.3284782599 -25.9383723674 -0.9773019007
