19.0780099771 -24.5327765854 -2.5014681816
19.0666280034 -24.5605209289 -2.5014681816
19.0742000466 -24.6186976927 -2.5014681816
18.7414832903 -25.5407884913 -2.5014681816
18.7782668194 -25.5890015244 -2.5014681816
18.7906228988 -25.6049997596 -2.5014681816
18.8405188447 -25.6686250901 -2.5014681816
19.4809571845 -26.3693529463 -2.5014681816
18.5672559650 -25.3419893112 -2.5014681816
18.7715134373 -25.6198039403 -2.5014681816
19.4790030822 -26.4008264031 -2.5014681816
19.6739820424 -26.5783658806 -2.5014681816
18.4898331151 -25.2718898839 -2.5014681816
18.5127214545 -25.3055617534 -2.5014681816
19.6275075257 -26.5696307436 -2.5014681816
19.7818154754 -26.7024009489 -2.5014681816
19.7974608007 -26.7154256341 -2.5014681816
19.5506469416 -26.5331519481 -2.5014681816
19.9090023741 -26.8369062811 -2.5014681816
19.9572422462 -26.8747071980 -2.5014681816
19.9733965169 -26.8872121851 -2.5014681816
20.0058156807 -26.9120785245 -2.5014681816
20.0220802900 -26.9244396591 -2.5014681816
18.1890828699 -24.8818027614 -2.5014681816
19.6881976146 -26.6865818132 -2.5014681816
20.0731330169 -26.9928400754 -2.5014681816
20.0896362390 -27.0050017198 -2.5014681816
20.1393607507 -27.0411929931 -2.5014681816
18.1174221032 -24.8043942212 -2.5014681816
20.1419265609 -27.0728075431 -2.5014681816
20.5025131640 -27.4283000740 -2.5014681816
17.5568509684 -24.0105071215 -2.5014681816
19.0552073352 -19.8470315916 -2.4986352921
19.0383427442 -22.3812360239 -2.4986352921
22.3476948017 -25.9713714375 -2.4986352921
22.3762662014 -25.9809406542 -2.4986352921
19.0662402852 -22.5770472770 -2.4986352921
19.0581677185 -19.6590962604 -2.4986352921
19.0409071471 -19.7174305986 -2.4986352921
19.0304736866 -22.5399390429 -2.4986352921
19.0738398024 -22.6857063327 -2.4986352921
22.1746284712 -25.9610008462 -2.4986352921
19.0576794580 -19.5791351323 -2.4986352921
19.0350290875 -19.6521006163 -2.4986352921
19.0646886627 -22.7366190322 -2.4986352921
22.0289454108 -25.9560526884 -2.4986352921
22.0574317583 -25.9675080017 -2.4986352921
19.0377885153 -19.4102035787 -2.4986352921
19.0326724994 -19.4248293263 -2.4986352921
19.0775383914 -22.9929269179 -2.4986352921
19.0350505775 -19.2766503402 -2.4986352921
19.1037379196 -18.9822326317 -2.4986352921
19.1829240137 -18.7573086677 -2.4986352921
19.0435369584 -23.2948725362 -2.4986352921
21.5647167147 -25.9579389704 -2.4986352921
21.5110822715 -25.9578280703 -2.4986352921
21.5253244913 -25.9651087190 -2.4986352921
19.1002418159 -23.5329424794 -2.4986352921
19.1073213340 -23.5473654401 -2.4986352921
19.0999877300 -23.5869597879 -2.4986352921
19.1414646721 -24.1096832078 -2.4986352921
19.1368793623 -24.4582869576 -2.4986352921
20.5332914810 -25.9541181294 -2.4986352921
18.8019731740 -25.6435977032 -2.4986352921
19.3390581931 -26.1959910663 -2.4986352921
18.6013481420 -25.4404643643 -2.4986352921
18.6268440845 -25.4722075178 -2.4986352921
19.5364744551 -26.4022442514 -2.4986352921
19.6146881336 -26.4673818350 -2.4986352921
19.6620757748 -26.5059065976 -2.4986352921
19.7753793312 -26.6257455492 -2.4986352921
19.8078672478 -26.6505219954 -2.4986352921
19.6158001482 -26.5306702313 -2.4986352921
19.8260135485 -26.6944563483 -2.4986352921
19.9251257235 -26.7672974095 -2.4986352921
18.1929068702 -25.0040953875 -2.4986352921
20.1691857654 -26.9933272943 -2.4986352921
18.0513509719 -24.8744239608 -2.4986352921
20.3488776184 -27.1348650829 -2.4986352921
17.8811277420 -24.6377997384 -2.4986352921
17.7989434006 -24.5406516717 -2.4986352921
17.8191297925 -24.5771578693 -2.4986352921
19.7036522393 -26.7534851067 -2.4986352921
17.7182930462 -24.4416823888 -2.4986352921
22.4405136460 -22.4423374886 -2.5008041859
22.3931483456 -22.4337058095 -2.5008041859
19.0540358846 -19.5872019329 -2.5008041859
19.0350063997 -19.6563847871 -2.5008041859
19.0295777196 -22.1397821576 -2.5008041859
19.0406908987 -22.1813746903 -2.5008041859
19.0444772631 -22.1952167492 -2.5008041859
19.0328326478 -22.2432939305 -2.5008041859
19.0530901095 -22.3124998554 -2.5008041859
19.0341362913 -22.3333353057 -2.5008041859
19.0426491155 -22.3610442818 -2.5008041859
19.0462139113 -22.4514382016 -2.5008041859
19.0096823480 -22.4172559953 -2.5008041859
19.0372051681 -22.5006502010 -2.5008041859
19.0515205483 -22.5421608339 -2.5008041859
19.0143181284 -22.5084295772 -2.5008041859
19.0674096943 -22.7244579648 -2.5008041859
23.8660653678 -25.9024352660 -2.5008041859
23.8956096192 -25.9014944617 -2.5008041859
22.5015504711 -25.9523956316 -2.5008041859
25.0984774659 -25.9119760682 -2.5008041859
22.3912013894 -25.9494200779 -2.5008041859
22.4210494313 -25.9572042420 -2.5008041859
22.4509430046 -25.9648116788 -2.5008041859
25.1494468216 -25.9228111350 -2.5008041859
25.2086804935 -25.9055677573 -2.5008041859
19.0232982742 -23.2234207925 -2.5008041859
19.0793964405 -23.3339549544 -2.5008041859
22.2804549519 -25.9440275432 -2.5008041859
22.3102730281 -25.9524670148 -2.5008041859
25.2304189036 -25.9242962095 -2.5008041859
25.2600686132 -25.9152830490 -2.5008041859
25.2896644790 -25.9060946286 -2.5008041859
22.2140447621 -25.9497795454 -2.5008041859
22.1472976126 -25.9546617705 -2.5008041859
22.1622324498 -25.9592974151 -2.5008041859
25.3934063290 -25.9233463840 -2.5008041859
25.4378459194 -25.9083145162 -2.5008041859
19.0670507903 -23.4644665647 -2.5008041859
22.0652922130 -25.9537888263 -2.5008041859
22.0951718058 -25.9635011020 -2.5008041859
22.1251083368 -25.9730364301 -2.5008041859
25.5197942021 -25.9051322903 -2.5008041859
21.9829698308 -25.9515890469 -2.5008041859
21.9003518490 -25.9480528897 -2.5008041859
25.6105418437 -25.9232366552 -2.5008041859
25.6697482711 -25.9005373573 -2.5008041859
25.7764144410 -25.9098987300 -2.5008041859
21.6955814060 -25.9475160748 -2.5008041859
21.7703344837 -25.9769337346 -2.5008041859
25.8301029209 -25.9137459484 -2.5008041859
21.4885881200 -25.9387095648 -2.5008041859
21.4489268112 -25.9474442014 -2.5008041859
21.3391927463 -25.9500214767 -2.5008041859
19.1082760217 -24.0833787152 -2.5008041859
19.1168437582 -24.1380766742 -2.5008041859
21.2137536227 -25.9428799681 -2.5008041859
21.1433240165 -25.9343586631 -2.5008041859
20.9194090794 -25.9240898646 -2.5008041859
19.1186574139 -24.3869201637 -2.5008041859
20.7943404932 -25.9362321740 -2.5008041859
20.8092267322 -25.9448701911 -2.5008041859
20.6953545651 -25.9337993077 -2.5008041859
20.6382214848 -25.9273395697 -2.5008041859
20.5235937219 -25.9125577802 -2.5008041859
19.1369749341 -24.7963578531 -2.5008041859
20.0035103963 -25.9058044527 -2.5008041859
19.2682232142 -25.9305551088 -2.5008041859
18.7912134335 -25.6743083140 -2.5008041859
18.8194968276 -25.7033960307 -2.5008041859
18.8479518194 -25.7323159043 -2.5008041859
19.2637709782 -26.1190146304 -2.5008041859
19.4198405043 -26.2485930368 -2.5008041859
18.5665478442 -25.4669169289 -2.5008041859
18.6208480069 -25.5275973855 -2.5008041859
18.7036349689 -25.6174027787 -2.5008041859
19.2790712468 -26.1637592960 -2.5008041859
19.4205478501 -26.2801651425 -2.5008041859
19.4524046823 -26.3055189020 -2.5008041859
19.4844109583 -26.3306837420 -2.5008041859
19.5326981273 -26.3680748530 -2.5008041859
19.5975935728 -26.4172602841 -2.5008041859
19.6302584073 -26.4415641822 -2.5008041859
18.3377936260 -25.2330368793 -2.5008041859
18.4023465676 -25.3121956708 -2.5008041859
18.5080458584 -25.4368386949 -2.5008041859
18.5755944849 -25.5134570975 -2.5008041859
19.6984613195 -26.5211215486 -2.5008041859
19.8155412143 -26.6032251756 -2.5008041859
18.2177656085 -25.1191100498 -2.5008041859
18.2302459260 -25.1353736167 -2.5008041859
18.3189475470 -25.2481749303 -2.5008041859
19.8868210414 -26.6805119022 -2.5008041859
19.9726132597 -26.7366016492 -2.5008041859
19.9898707317 -26.7476669821 -2.5008041859
18.1244422887 -25.0351046380 -2.5008041859
18.0684567258 -24.9994400961 -2.5008041859
18.4128929752 -25.4374575862 -2.5008041859
17.8837680756 -24.7752158920 -2.5008041859
17.7623972571 -24.6312408942 -2.5008041859
17.6658269181 -24.5194281631 -2.5008041859
20.7557104109 -27.3316293778 -2.5008041859
21.0252544895 -27.5016264198 -2.5008041859
17.3102833706 -24.0674684429 -2.5008041859
21.1790229774 -27.6916743656 -2.5008041859
19.0313349627 -22.1872038180 -2.4996058067
19.0356902595 -22.2002004866 -2.4996058067
19.0400839838 -22.2131842146 -2.4996058067
19.0445160971 -22.2261548883 -2.4996058067
19.0489865606 -22.2391123943 -2.4996058067
19.0306792973 -22.2600418368 -2.4996058125
19.0456985406 -22.3721644968 -2.4996058183
19.0379763657 -22.4197041090 -2.4996058240
19.0481008204 -22.4456411437 -2.4996058240
19.0532205482 -22.4585870850 -2.4996058240
19.0630595228 -22.8403543314 -2.4996058586
19.0732901588 -22.9155455022 -2.4996058644
19.0517035440 -22.9264245344 -2.4996058701
19.0694892209 -23.1656365946 -2.4996058932
19.0585327624 -23.2921173756 -2.4996059105
22.1001025082 -25.9382730384 -2.4996059854
22.1619236674 -25.9536079338 -2.4996059854
22.2239219484 -25.9682102591 -2.4996059854
24.8556170349 -25.9113234870 -2.4996059854
24.9016182901 -25.8984406705 -2.4996059854
22.0167839617 -25.9414139824 -2.4996059912
22.0631640424 -25.9537230320 -2.4996059912
22.0786481188 -25.9577345217 -2.4996059912
22.1251705990 -25.9694939189 -2.4996059912
24.9236173077 -25.9172843268 -2.4996059912
21.9794830690 -25.9562782446 -2.4996059969
22.0259965306 -25.9689177334 -2.4996059969
24.9765655574 -25.9269661043 -2.4996059969
25.0227008693 -25.9130093215 -2.4996059969
25.0533881481 -25.9034775775 -2.4996059969
25.0687105058 -25.8986436633 -2.4996059969
21.8335810352 -25.9390092213 -2.4996060027
21.8490225900 -25.9436999234 -2.4996060027
21.8799469894 -25.9529441887 -2.4996060027
21.8954295634 -25.9574976710 -2.4996060027
25.1221019244 -25.9068467479 -2.4996060027
25.1374339480 -25.9018095512 -2.4996060027
21.7491836889 -25.9378837146 -2.4996060084
21.7646222834 -25.9428240843 -2.4996060084
21.7800754250 -25.9477187622 -2.4996060084
25.1757676459 -25.9145081291 -2.4996060084
25.2064611133 -25.9040707644 -2.4996060084
21.7262903115 -25.9558877459 -2.4996060142
21.5948904132 -25.9369852427 -2.4996060200
21.6103270250 -25.9423820437 -2.4996060200
25.2992946918 -25.9226730478 -2.4996060200
25.3146727572 -25.9171116136 -2.4996060200
25.3453791965 -25.9058523940 -2.4996060200
25.4152461168 -25.9053598101 -2.4996060257
25.4546712141 -25.9160240327 -2.4996060315
25.4700289307 -25.9100029958 -2.4996060315
21.3690753993 -25.9301372145 -2.4996060373
25.5956655226 -25.9111953261 -2.4996060430
21.2583943545 -25.9374345040 -2.4996060488
21.1872844202 -25.9336191930 -2.4996060546
25.7375564374 -25.9025779946 -2.4996060546
21.1159624843 -25.9288482666 -2.4996060603
21.1313771210 -25.9356618586 -2.4996060603
21.0444412419 -25.9231161895 -2.4996060661
21.0598392350 -25.9301413794 -2.4996060661
21.0752579425 -25.9371209886 -2.4996060661
25.8189126983 -25.9187935852 -2.4996060661
25.8496202638 -25.9045510834 -2.4996060661
20.9469862469 -25.9309608851 -2.4996060776
26.1598616768 -25.8028503810 -2.4996060776
26.2347191146 -25.7618740234 -2.4996060776
26.2793397825 -25.7367583346 -2.4996060776
26.2941635905 -25.7282985633 -2.4996060776
25.3247145100 -26.1956983060 -2.4996060834
25.4376571300 -26.1552303244 -2.4996060834
25.4537225365 -26.1492585716 -2.4996060834
25.5974962647 -26.0933817828 -2.4996060834
26.0955400645 -25.8641714639 -2.4996060834
26.2912901761 -25.7577707923 -2.4996060834
26.5840741560 -25.5795939062 -2.4996060834
20.8333650159 -25.9294016356 -2.4996060891
25.3813410250 -26.2014097096 -2.4996060891
26.4955542019 -25.6644602641 -2.4996060891
20.7190246710 -25.9254367378 -2.4996061007
20.5770519704 -25.9318746944 -2.4996061179
19.9848447481 -25.9708875270 -2.4996061986
19.9404729509 -25.9705669369 -2.4996062044
19.3856981395 -25.9899124389 -2.4996062851
18.7028162170 -25.6251945634 -2.4996063254
18.7173431497 -25.6391480072 -2.4996063254
18.7611707169 -25.6807496459 -2.4996063254
18.7758617362 -25.6945302235 -2.4996063254
18.7905934567 -25.7082672820 -2.4996063254
18.8053657494 -25.7219607013 -2.4996063254
18.8798312599 -25.7897690295 -2.4996063254
18.9401206892 -25.8432180666 -2.4996063254
19.4117185210 -26.2207276496 -2.4996063254
19.4443245664 -26.2443869759 -2.4996063254
19.4770700176 -26.2678529798 -2.4996063254
19.5429745479 -26.3142017417 -2.4996063254
19.5595360124 -26.3256668304 -2.4996063254
19.6094228846 -26.3597674458 -2.4996063254
19.6261188499 -26.3710357690 -2.4996063254
18.6281472439 -25.5861620092 -2.4996063312
18.6570126996 -25.6144683122 -2.4996063312
18.6715081025 -25.6285572980 -2.4996063312
18.7006236240 -25.6566063217 -2.4996063312
18.8187298111 -25.7670652081 -2.4996063312
19.7138527713 -26.4578969618 -2.4996063312
19.7478567021 -26.4797646095 -2.4996063312
19.7649070350 -26.4906228954 -2.4996063312
19.7819894141 -26.5014306959 -2.4996063312
18.2636206938 -25.2342007924 -2.4996063370
18.3855831989 -25.3700525502 -2.4996063370
18.3993567634 -25.3849455429 -2.4996063370
19.7862700554 -26.5326728646 -2.4996063370
19.8034767324 -26.5434172853 -2.4996063370
19.8726190172 -26.5858845601 -2.4996063370
19.8899827262 -26.5963733122 -2.4996063370
19.9073773869 -26.6068106534 -2.4996063370
18.1397068836 -25.1262280408 -2.4996063427
18.1658597640 -25.1574321707 -2.4996063427
18.2054340900 -25.2039468844 -2.4996063427
18.3266118410 -25.3413583215 -2.4996063427
19.9475234300 -26.6586688739 -2.4996063427
20.0180193410 -26.6994236529 -2.4996063427
18.0821158999 -25.0944402901 -2.4996063485
20.1489588637 -26.7996928486 -2.4996063485
20.2827410964 -26.8971010704 -2.4996063542
17.7105074869 -24.6815854263 -2.4996063600
18.0446979858 -25.1250546794 -2.4996063600
20.4007685975 -26.9826451334 -2.4996063600
20.6623974640 -27.1551378837 -2.4996063715
17.4680417417 -24.4451161478 -2.4996063773
20.4631172346 -27.0924712692 -2.4996063773
20.7486432207 -27.2176713806 -2.4996063773
17.4718261459 -24.5414678380 -2.4996063888
17.1320421428 -24.1069485772 -2.4996064061
22.4386232012 -22.4460868493 -2.5001745103
19.0495805913 -21.6774749392 -2.5001755707
19.0429045117 -21.7439446432 -2.5001755822
19.0520785484 -21.8588818146 -2.5001755938
19.0645099156 -21.9741454322 -2.5001756053
19.0627241354 -22.0419270861 -2.5001756168
19.0467627267 -22.2685229156 -2.5001756629
19.0567821556 -22.2924972732 -2.5001756629
19.0490679648 -22.5118084841 -2.5001757090
19.0779498951 -23.7060695628 -2.5001759972
23.0064296822 -25.9207194459 -2.5001761125
23.0695474904 -25.9215001684 -2.5001761125
23.0853280407 -25.9215786488 -2.5001761125
23.1011087541 -25.9216104471 -2.5001761125
23.1326701178 -25.9215339969 -2.5001761125
23.1484504920 -25.9214257491 -2.5001761125
23.2273437621 -25.9201843320 -2.5001761125
21.6940612640 -25.9321749677 -2.5001762047
21.8209402568 -25.9640412425 -2.5001762047
21.6561586462 -25.9470766364 -2.5001762162
21.5228732987 -25.9344968422 -2.5001762277
21.5545385244 -25.9437575374 -2.5001762277
24.8054675374 -25.8974123805 -2.5001762277
24.8211692363 -25.8923558008 -2.5001762277
24.8915399449 -25.8945743010 -2.5001762393
21.4136855566 -25.9517044181 -2.5001762508
21.4454544991 -25.9616108035 -2.5001762508
24.9464898000 -25.9013408554 -2.5001762508
21.2794047162 -25.9330819727 -2.5001762623
21.3427897057 -25.9542967914 -2.5001762623
25.0331448183 -25.8962275825 -2.5001762623
21.2398644381 -25.9450244400 -2.5001762738
21.1525413363 -25.9395783344 -2.5001762854
21.0966360463 -25.9446861524 -2.5001762969
25.2161060948 -25.9042410089 -2.5001762969
21.0246337015 -25.9430938743 -2.5001763084
20.9682353628 -25.9468859851 -2.5001763199
20.9274812478 -25.9565590853 -2.5001763315
20.9433748811 -25.9629740317 -2.5001763315
25.4326349115 -25.8923337353 -2.5001763315
25.4580998423 -25.9075277245 -2.5001763430
20.8294795651 -25.9683123877 -2.5001763545
25.7034117115 -25.8999385196 -2.5001763891
20.6150849589 -25.9792563351 -2.5001764006
25.8035950198 -25.9040184376 -2.5001764122
25.8193118933 -25.8960091875 -2.5001764122
20.4987376480 -25.9777631371 -2.5001764237
20.4562427759 -25.9839574025 -2.5001764352
20.4722195203 -25.9917662377 -2.5001764352
25.8887152489 -25.9145488196 -2.5001764352
26.2418596990 -25.7428162728 -2.5001764467
26.2570977898 -25.7335112618 -2.5001764467
20.3547758851 -25.9872905535 -2.5001764583
25.4901676351 -26.1572105106 -2.5001764583
26.5697147612 -25.5578938600 -2.5001764583
26.6861308132 -25.5046058074 -2.5001764698
27.0828133874 -25.2214625902 -2.5001764813
24.6385356616 -26.5741316875 -2.5001765159
19.8254652439 -25.9968022043 -2.5001765851
19.7201451564 -25.9886910096 -2.5001766081
19.7361391244 -25.9986773339 -2.5001766081
18.6959802765 -25.6493051338 -2.5001767695
18.7561883420 -25.7011080968 -2.5001767695
18.8170051493 -25.7521950234 -2.5001767695
19.4901433620 -26.2436391673 -2.5001767695
19.5742024525 -26.2964702820 -2.5001767695
18.4590973733 -25.4663001241 -2.5001767810
18.4880462112 -25.4936953408 -2.5001767810
18.5611229558 -25.5614298914 -2.5001767810
18.5758580794 -25.5748466824 -2.5001767810
18.3278611459 -25.3721300459 -2.5001767925
18.5006978097 -25.5386231226 -2.5001767925
20.0189304087 -26.6029140613 -2.5001767925
18.0485834163 -25.1123942654 -2.5001768041
18.2402817703 -25.3178207517 -2.5001768041
20.0616005957 -26.6516618264 -2.5001768041
20.0975343851 -26.6695553501 -2.5001768041
20.1516319910 -26.6959962366 -2.5001768041
17.9245260876 -25.0071921490 -2.5001768156
20.3323372247 -26.8330050659 -2.5001768271
19.0514733188 -21.3810390537 -2.4999333465
19.0540621904 -21.3920135564 -2.4999333465
19.0593372702 -21.4139393468 -2.4999333465
19.0620234323 -21.4248904426 -2.4999333465
19.0496933280 -21.4746845565 -2.4999333638
19.0586549810 -21.7587879609 -2.4999334157
19.0623612707 -21.7697395661 -2.4999334157
19.0437705176 -21.8625972708 -2.4999334503
19.0600191909 -21.9065060908 -2.4999334503
19.0683380771 -21.9283876330 -2.4999334503
19.0536993411 -22.0228223764 -2.4999334849
19.0627065041 -22.0447392733 -2.4999334849
19.0484972210 -22.1942315048 -2.4999335367
19.0632059887 -22.4450097645 -2.4999336059
19.0662661686 -22.7459836168 -2.4999337096
21.3762971730 -25.9625270072 -2.4999346433
21.4408948286 -25.9785492682 -2.4999346433
24.3834584910 -25.8974648588 -2.4999346433
21.2733945503 -25.9603811272 -2.4999346606
21.3056587848 -25.9690966480 -2.4999346606
21.3218100975 -25.9733827877 -2.4999346606
24.4543149228 -25.9009731550 -2.4999346606
21.2023752279 -25.9656189909 -2.4999346779
21.2994239471 -25.9924517776 -2.4999346779
21.1471789294 -25.9747385969 -2.4999346951
21.1633476254 -25.9794935240 -2.4999346951
24.4366037480 -25.9570994052 -2.4999346951
24.6288222165 -25.8942584299 -2.4999346951
21.0432038746 -25.9682621031 -2.4999347124
21.0916984257 -25.9833062663 -2.4999347124
24.6846393437 -25.9002533912 -2.4999347124
20.9151020904 -25.9772902618 -2.4999347470
20.8911327695 -25.9946782015 -2.4999347643
24.9173738944 -25.8896917649 -2.4999347643
24.9332745102 -25.8832941455 -2.4999347643
20.7535564493 -25.9715428041 -2.4999347816
20.6804745759 -25.9699738063 -2.4999347989
20.6966312188 -25.9761093502 -2.4999347989
20.7289986012 -25.9882369212 -2.4999347989
25.0153271953 -25.9018416936 -2.4999347989
25.0312633242 -25.8951542575 -2.4999347989
25.1044575660 -25.8900974542 -2.4999348162
20.5982678622 -25.9899188183 -2.4999348335
20.4920950395 -25.9729631675 -2.4999348508
20.5244473877 -25.9863008983 -2.4999348508
25.1717904232 -25.9132572847 -2.4999348508
20.3761709830 -25.9761103739 -2.4999348853
25.3938595638 -25.8894924508 -2.4999349026
20.2432691148 -25.9694203872 -2.4999349199
20.2756048576 -25.9842303178 -2.4999349199
20.1419094056 -25.9751518079 -2.4999349545
20.0828772931 -25.9733809566 -2.4999349718
25.5046465539 -26.1581919443 -2.4999351101
25.5213388723 -26.1500558914 -2.4999351101
26.2298647814 -25.7442995579 -2.4999351101
26.2607638583 -25.7236947180 -2.4999351101
26.3374734943 -25.6713859986 -2.4999351101
26.3831249554 -25.6394581795 -2.4999351101
25.3633299088 -26.2512026979 -2.4999351274
26.4878590399 -25.5938903074 -2.4999351274
26.5922980954 -25.5156670124 -2.4999351274
26.6218381622 -25.4929218967 -2.4999351274
26.6658946567 -25.4584775283 -2.4999351274
19.5644122462 -25.9690088585 -2.4999351447
25.1325113192 -26.3763691606 -2.4999351447
25.1844665602 -26.3551069435 -2.4999351447
26.9255490610 -25.2742154370 -2.4999351447
27.1085074971 -25.1410947695 -2.4999351620
27.3137239684 -24.9741187428 -2.4999351793
27.4743081308 -24.8400441092 -2.4999351966
24.6133277510 -26.6613373911 -2.4999352138
19.3402218829 -25.9744513304 -2.4999352311
19.2788603650 -25.9642346509 -2.4999352484
19.2042168821 -25.9736117340 -2.4999352830
18.9057474441 -25.8269621012 -2.4999353176
19.3920415521 -26.1478767699 -2.4999353176
19.4757763312 -26.1971127100 -2.4999353176
18.4782209082 -25.5206597378 -2.4999353349
18.5377930679 -25.5710043169 -2.4999353349
18.5527788620 -25.5834800458 -2.4999353349
18.5828608385 -25.6082982390 -2.4999353349
18.9549502453 -25.8919584788 -2.4999353349
19.4805740137 -26.2277744290 -2.4999353349
19.6167618374 -26.3038382204 -2.4999353349
19.6682906095 -26.3315280420 -2.4999353349
19.7200630841 -26.3587594843 -2.4999353349
19.7547114447 -26.3766580633 -2.4999353349
18.3301939144 -25.4227764986 -2.4999353522
18.4033203290 -25.4877968899 -2.4999353522
19.8486360534 -26.4508213384 -2.4999353522
19.9368015557 -26.4932709322 -2.4999353522
18.1137242875 -25.2523091933 -2.4999353695
18.1277691793 -25.2660407888 -2.4999353695
18.1418546302 -25.2797307769 -2.4999353695
19.9798680229 -26.5400608305 -2.4999353695
20.0513970855 -26.5725658591 -2.4999353695
20.1233057553 -26.6042222471 -2.4999353695
20.2226450563 -26.6724542984 -2.4999353867
17.8323518183 -25.0308330698 -2.4999354040
17.7216760843 -24.9437403725 -2.4999354213
20.5568736700 -26.8510731617 -2.4999354213
20.3617107185 -26.8056439593 -2.4999354386
20.4738007655 -26.8472646968 -2.4999354386
17.2901863849 -24.5223917965 -2.4999354732
20.9351771966 -27.0456217675 -2.4999354732
20.3840055404 -26.9173480003 -2.4999355078
21.3190964976 -27.2646651987 -2.4999355596
25.9662050097 -22.3446374987 -2.5000262273
25.9597492962 -22.4084578032 -2.5000262330
21.1076937595 -25.9669590469 -2.5000266134
21.1238838228 -25.9707974059 -2.5000266134
21.0533730685 -25.9786188884 -2.5000266192
21.0858344131 -25.9865688717 -2.5000266192
23.9929769526 -25.9194027004 -2.5000266192
24.0570396451 -25.9003318623 -2.5000266192
24.0730197085 -25.8954458142 -2.5000266192
20.9176418775 -25.9682204668 -2.5000266249
24.0480106616 -25.9283183512 -2.5000266249
24.1441685254 -25.8984500139 -2.5000266249
20.8139679072 -25.9640138153 -2.5000266307
24.1996240737 -25.9058311218 -2.5000266307
20.7261390598 -25.9628586333 -2.5000266365
24.3193107910 -25.8904767951 -2.5000266365
20.6379960553 -25.9602965963 -2.5000266422
20.6541684651 -25.9655244351 -2.5000266422
20.6865593253 -25.9758364760 -2.5000266422
20.7190106282 -25.9859567013 -2.5000266422
24.3593810626 -25.9018501462 -2.5000266422
24.3753642945 -25.8960697109 -2.5000266422
24.3913303569 -25.8902420195 -2.5000266422
20.5818995940 -25.9672492748 -2.5000266480
24.5042053070 -25.8993745728 -2.5000266537
24.5201805820 -25.8931657320 -2.5000266537
24.4324463626 -25.9523790849 -2.5000266595
24.5449941204 -25.9094017514 -2.5000266595
20.3472515404 -25.9606241725 -2.5000266653
24.6499924671 -25.8930471999 -2.5000266653
20.3224794653 -25.9770740182 -2.5000266710
24.7232153998 -25.8884243848 -2.5000266710
24.7647282770 -25.8968275167 -2.5000266768
24.9122155039 -25.8835314109 -2.5000266883
24.9702945636 -25.8829809347 -2.5000266941
19.8513813938 -25.9608158064 -2.5000267114
19.7925297384 -25.9596601300 -2.5000267171
19.6742914298 -25.9554978911 -2.5000267287
19.6310712204 -25.9607391443 -2.5000267344
19.5715253590 -25.9572766716 -2.5000267402
19.4681123408 -25.9572005501 -2.5000267517
25.4808466937 -25.8894522354 -2.5000267517
19.1257439409 -25.9567038426 -2.5000267921
18.9208123418 -25.8568388009 -2.5000267978
18.7969471326 -25.8033506257 -2.5000268036
19.6357111347 -26.2865903428 -2.5000268036
19.7562073737 -26.3428616771 -2.5000268036
19.7908464036 -26.3584797534 -2.5000268036
19.9561804344 -26.4558295364 -2.5000268094
19.9738217034 -26.4630721410 -2.5000268094
18.1495173934 -25.3631874052 -2.5000268151
26.2385133083 -25.7149520523 -2.5000268151
26.3305392798 -25.6462398893 -2.5000268151
17.8796397917 -25.1466691970 -2.5000268209
17.9210911952 -25.1867199808 -2.5000268209
18.0191813151 -25.2787297202 -2.5000268209
20.2608403813 -26.6237710105 -2.5000268209
25.4218606935 -26.2520020893 -2.5000268209
25.4897588259 -26.2160007510 -2.5000268209
26.5853590690 -25.4736621859 -2.5000268209
26.6000659039 -25.4612987785 -2.5000268209
18.3695871859 -25.6092882048 -2.5000268266
25.2086976247 -26.3852531166 -2.5000268266
25.2261071339 -26.3769581342 -2.5000268266
25.3472759958 -26.3174563816 -2.5000268266
26.6889019608 -25.4170800439 -2.5000268266
25.0429972747 -26.4874916134 -2.5000268324
25.1313274301 -26.4479423811 -2.5000268324
24.9634782893 -26.5480062968 -2.5000268382
24.7008970559 -26.6778400103 -2.5000268439
17.1953129499 -24.5629525941 -2.5000268497
27.4536330376 -24.7812111919 -2.5000268497
24.6807922697 -26.7367056328 -2.5000268555
24.1757298208 -26.9728823867 -2.5000268727
22.6187961296 -22.4372077732 -2.4999990736
19.0704986658 -22.6967640959 -2.4999972323
19.0771158357 -22.7873786047 -2.4999971804
25.9371772628 -21.8243060208 -2.4999968173
25.9484096724 -21.7899065958 -2.4999968173
25.9629105079 -21.7438882124 -2.4999968173
25.9406101297 -21.8893562857 -2.4999967914
25.9524196887 -21.8549238343 -2.4999967914
25.9601227657 -21.8319112282 -2.4999967914
25.9512545807 -21.9318286215 -2.4999967654
25.9868911140 -21.8279252328 -2.4999967654
25.9398253716 -22.0320444603 -2.4999967395
25.9485765741 -22.0091032665 -2.4999967395
25.9560755009 -22.1855020149 -2.4999966617
25.9497010481 -22.3199551132 -2.4999966098
25.9447973550 -22.3875827364 -2.4999965839
25.9556519543 -22.3646059042 -2.4999965839
25.9611144550 -22.4095015809 -2.4999965579
25.9373610369 -22.5121020963 -2.4999965320
25.9471106927 -22.5460628214 -2.4999965061
25.9505451391 -22.5917057874 -2.4999964801
25.9658068428 -22.6145341640 -2.4999964542
25.9577970985 -22.7299207117 -2.4999964023
25.9465483728 -23.1184402713 -2.4999961949
25.9439234380 -23.2510712265 -2.4999961171
25.9572625088 -23.7902345745 -2.4999957540
20.5900590225 -25.9437816021 -2.4999951834
20.6060466233 -25.9481259380 -2.4999951834
20.6380600291 -25.9566726326 -2.4999951834
20.7343957842 -25.9811742431 -2.4999951834
23.5210825351 -25.9497801533 -2.4999951834
23.5370750562 -25.9454539653 -2.4999951834
23.4790994802 -25.9858730325 -2.4999951575
23.5594704317 -25.9643865767 -2.4999951575
23.5755059933 -25.9599467665 -2.4999951575
23.6075373646 -25.9509249353 -2.4999951575
23.6235328939 -25.9463429934 -2.4999951575
23.6395147990 -25.9417137537 -2.4999951575
20.4167964882 -25.9439826674 -2.4999951315
20.4327854419 -25.9488395444 -2.4999951315
20.4487886931 -25.9536491019 -2.4999951315
20.4808375280 -25.9631260905 -2.4999951315
23.6462745253 -25.9649224026 -2.4999951315
23.6623112922 -25.9602258079 -2.4999951315
23.6783340955 -25.9554817940 -2.4999951315
23.6943427951 -25.9506904025 -2.4999951315
23.7103372508 -25.9458516754 -2.4999951315
23.7263173227 -25.9409656549 -2.4999951315
23.7422828709 -25.9360323839 -2.4999951315
20.3296697963 -25.9420020838 -2.4999951056
20.3616518084 -25.9521840237 -2.4999951056
23.7814768638 -25.9490664562 -2.4999951056
23.8293990969 -25.9336352356 -2.4999951056
23.8453425094 -25.9283970621 -2.4999951056
20.2582162371 -25.9439943576 -2.4999950797
20.2902112867 -25.9545990059 -2.4999950797
20.3222685169 -25.9650141751 -2.4999950797
23.9327411398 -25.9243395274 -2.4999950797
20.1864734093 -25.9450486243 -2.4999950537
20.2024665241 -25.9505868339 -2.4999950537
20.2184759518 -25.9560777088 -2.4999950537
23.9726084138 -25.9359970622 -2.4999950537
23.9885581864 -25.9303352393 -2.4999950537
20.0984768731 -25.9393597862 -2.4999950278
24.0286619076 -25.9415900750 -2.4999950278
24.0446279801 -25.9357624113 -2.4999950278
24.0765080582 -25.9239655202 -2.4999950278
24.0924217847 -25.9179963961 -2.4999950278
20.0581605699 -25.9502821721 -2.4999950019
20.0741697279 -25.9561999314 -2.4999950019
24.1646881135 -25.9161681396 -2.4999950019
19.9536639694 -25.9362917001 -2.4999949759
20.0016235676 -25.9548306747 -2.4999949759
24.2212928791 -25.9197767430 -2.4999949759
19.8968557441 -25.9397569373 -2.4999949500
19.9448483313 -25.9587999166 -2.4999949500
24.2940356254 -25.9162366657 -2.4999949500
19.8558078106 -25.9492006930 -2.4999949241
19.7825636040 -25.9449281657 -2.4999948981
19.7250915931 -25.9466267093 -2.4999948722
24.4499383976 -25.9283424011 -2.4999948722
24.4817674827 -25.9141476873 -2.4999948722
19.6674103048 -25.9477290071 -2.4999948462
19.6834136197 -25.9548026875 -2.4999948462
19.5354612297 -25.9406665894 -2.4999947944
19.5514442301 -25.9481306300 -2.4999947944
24.6395169529 -25.9209148108 -2.4999947944
19.4771910754 -25.9397865728 -2.4999947684
24.6659135234 -25.9350564499 -2.4999947684
24.7136765976 -25.9117769018 -2.4999947684
19.4187380156 -25.9382958388 -2.4999947425
19.4347145135 -25.9461051781 -2.4999947425
24.8148299764 -25.9150822864 -2.4999947166
19.3013082864 -25.9334690488 -2.4999946906
19.3172710196 -25.9416257876 -2.4999946906
24.8894817402 -25.9035782185 -2.4999946906
19.2742750626 -25.9467416970 -2.4999946647
24.9325435487 -25.9081065176 -2.4999946647
19.2311227222 -25.9515371227 -2.4999946388
19.1878162901 -25.9560103954 -2.4999946128
25.0350074407 -25.9074362006 -2.4999946128
18.6622860322 -25.7000124697 -2.4999945610
18.7543777436 -25.7596208979 -2.4999945610
18.8475128906 -25.8175854769 -2.4999945610
18.4226148314 -25.5634891843 -2.4999945350
18.5123212540 -25.6273728439 -2.4999945350
18.5879331340 -25.6793861722 -2.4999945350
18.7104881334 -25.7602648976 -2.4999945350
18.7414232656 -25.7800296407 -2.4999945350
18.7724747912 -25.7996110153 -2.4999945350
19.4995139323 -26.1903098931 -2.4999945350
19.6170290122 -26.2422531390 -2.4999945350
19.6339038032 -26.2494745677 -2.4999945350
18.2028178731 -25.4272711454 -2.4999945091
18.4233483773 -25.5938539227 -2.4999945091
19.7436000856 -26.3210515737 -2.4999945091
19.8121499077 -26.3481341723 -2.4999945091
17.9740730743 -25.2693467955 -2.4999944832
18.0586296555 -25.3412375853 -2.4999944832
18.1013831060 -25.3766173588 -2.4999944832
18.2461309528 -25.4917842437 -2.4999944832
18.3792659711 -25.5917336550 -2.4999944832
18.7939655230 -25.8698339877 -2.4999944832
19.9072157855 -26.4099184499 -2.4999944832
20.0117109448 -26.4473198236 -2.4999944832
20.0291906333 -26.4533728145 -2.4999944832
25.2540299355 -25.9212761783 -2.4999944832
17.8608593208 -25.2015386855 -2.4999944572
20.1269684950 -26.5115926085 -2.4999944572
20.1977460491 -26.5341256749 -2.4999944572
20.2154817110 -26.5396279606 -2.4999944572
17.6280575332 -25.0144897408 -2.4999944313
17.6779303709 -25.0970575944 -2.4999944054
20.3808192675 -26.6383537701 -2.4999944054
20.4892941399 -26.6673135632 -2.4999944054
25.4029894041 -25.9157373087 -2.4999944054
25.4188729862 -25.9058442489 -2.4999944054
17.3478607863 -24.7904358397 -2.4999943794
20.4469129114 -26.6812476705 -2.4999943794
17.6173071603 -25.1056315357 -2.4999943535
20.7710698103 -26.7824191457 -2.4999943535
25.7041733706 -25.8929461660 -2.4999942497
25.8702009191 -25.8953056396 -2.4999941460
25.9300422955 -25.9119549151 -2.4999940941
25.5185323240 -26.2135803590 -2.4999940682
25.5854062166 -26.1723388002 -2.4999940682
25.6020480741 -26.1619049956 -2.4999940682
25.7012444456 -26.0982725307 -2.4999940682
26.1948419168 -25.7420830679 -2.4999940682
26.2408322535 -25.7052427370 -2.4999940682
26.3318230856 -25.6303449455 -2.4999940682
26.3917389305 -25.5795209825 -2.4999940682
25.2058298532 -26.4198600895 -2.4999940423
25.2578740266 -26.3917699959 -2.4999940423
25.3096668667 -26.3632191456 -2.4999940423
25.3954186788 -26.3146166150 -2.4999940423
25.4804422609 -26.2647510983 -2.4999940423
25.5647190124 -26.2136335044 -2.4999940423
26.4224235244 -25.5849992362 -2.4999940423
26.5259209614 -25.4937277588 -2.4999940423
26.5986796214 -25.4272314682 -2.4999940423
26.6131128832 -25.4138034779 -2.4999940423
26.6275063594 -25.4003328500 -2.4999940423
26.6418599241 -25.3868197027 -2.4999940423
26.6561734517 -25.3732641540 -2.4999940423
25.0413381267 -26.5317884499 -2.4999940163
25.1647356961 -26.4689104925 -2.4999940163
26.6296045047 -25.4314772353 -2.4999940163
26.6871464080 -25.3771437062 -2.4999940163
26.7581631093 -25.3082755813 -2.4999940163
26.7722437802 -25.2943763304 -2.4999940163
26.8281534563 -25.2383646250 -2.4999940163
24.9089895565 -26.6224011963 -2.4999939904
24.9628428578 -26.5969374180 -2.4999939904
25.0342917108 -26.5622441978 -2.4999939904
26.7038459991 -25.3946210898 -2.4999939904
26.9691559677 -25.1264576012 -2.4999939904
27.0230649663 -25.0681276946 -2.4999939904
24.8468137662 -26.6776260365 -2.4999939645
24.9011596054 -26.6527118588 -2.4999939645
26.8485560935 -25.2864827880 -2.4999939645
27.1470235493 -24.9654494356 -2.4999939645
24.7102850144 -26.7639443482 -2.4999939385
24.7286807772 -26.7560967219 -2.4999939385
24.5525581546 -26.8546066527 -2.4999939126
24.5614148157 -26.8770987588 -2.4999938867
24.0690645484 -27.1253307108 -2.4999938089
27.9517961562 -24.1082705419 -2.4999938089
23.9977802922 -27.1717721442 -2.4999937829
23.8267321908 -27.2442109372 -2.4999937570
23.2747458655 -27.5371137641 -2.4999935754
25.9533028227 -21.3032133015 -2.4999897202
25.9552272498 -21.2907263410 -2.4999897202
25.9411847844 -21.5069921011 -2.4999896540
25.9462025274 -21.4820806699 -2.4999896540
25.9486561075 -21.4696139308 -2.4999896540
25.9534525779 -21.4446589510 -2.4999896540
25.9847065939 -21.2566664718 -2.4999896540
25.9403303528 -21.6241801702 -2.4999895877
25.9394249074 -21.7294905249 -2.4999895214
25.9667659487 -21.6171324653 -2.4999895214
25.9393770590 -21.8228644779 -2.4999894551
25.9446977999 -21.8918026923 -2.4999893889
25.9591388253 -21.8418820726 -2.4999893889
25.9527651723 -21.9486773666 -2.4999893226
25.9478418930 -22.0433746946 -2.4999892563
25.9407964934 -22.1384232554 -2.4999891900
25.9451916773 -22.1259696366 -2.4999891900
25.9501007105 -22.1839858423 -2.4999891237
25.9589258397 -22.2298304220 -2.4999890575
25.9575526932 -22.3009742288 -2.4999889912
25.9447091500 -22.3973697511 -2.4999889249
25.9458459705 -22.5759377378 -2.4999887261
25.9562741372 -22.6110238554 -2.4999886598
25.9485193771 -22.6837901497 -2.4999885935
25.9590652779 -22.8772538479 -2.4999883284
25.9468162845 -22.9511130530 -2.4999882621
25.9542462892 -22.9877274193 -2.4999881959
23.4913399149 -25.2713302067 -2.4999878645
25.9514027117 -23.6692795178 -2.4999872017
20.3197131547 -25.9406502852 -2.4999864064
20.3353806084 -25.9448082111 -2.4999864064
20.3510602935 -25.9489197717 -2.4999864064
20.3667520727 -25.9529849309 -2.4999864064
20.2349843005 -25.9424267478 -2.4999863401
23.3034429360 -25.9214684913 -2.4999863401
23.3190405914 -25.9168000888 -2.4999863401
23.3885299481 -25.9207293830 -2.4999862738
20.0644672146 -25.9419097362 -2.4999862075
20.1115273608 -25.9565094969 -2.4999862075
23.4427145061 -25.9288293286 -2.4999862075
23.4583333269 -25.9237489034 -2.4999862075
19.9787223443 -25.9395961092 -2.4999861412
23.5284388892 -25.9258517810 -2.4999861412
19.9396961051 -25.9520240324 -2.4999860750
19.8376679096 -25.9421175993 -2.4999860087
23.6225677533 -25.9442573783 -2.4999860087
19.7667248113 -25.9419802404 -2.4999859424
23.7248200560 -25.9325091379 -2.4999859424
23.7404485280 -25.9265941773 -2.4999859424
23.7647161897 -25.9432028107 -2.4999858761
19.6397333621 -25.9450933935 -2.4999858099
19.6554169346 -25.9512628032 -2.4999858099
19.6868384869 -25.9634623035 -2.4999858099
19.5837118051 -25.9487095247 -2.4999857436
19.6151195064 -25.9613333013 -2.4999857436
23.9235081569 -25.9319060464 -2.4999857436
24.0110266239 -25.9211231335 -2.4999856773
19.4552981007 -25.9474867058 -2.4999856110
19.4709895600 -25.9542016978 -2.4999856110
24.2486213506 -25.9461447560 -2.4999853459
18.6399049977 -25.7162371437 -2.4999851471
18.6549159467 -25.7253652278 -2.4999851471
18.6699538325 -25.7344488669 -2.4999851471
18.7607394354 -25.7880129316 -2.4999851471
18.8217851511 -25.8228234865 -2.4999851471
18.8371106059 -25.8314130699 -2.4999851471
18.8832384878 -25.8569092832 -2.4999851471
19.4694562041 -26.1370342138 -2.4999851471
18.3028369135 -25.5241134636 -2.4999850808
18.1882638798 -25.4715219244 -2.4999850145
18.2168728016 -25.4924099911 -2.4999850145
18.4946529395 -25.6822856565 -2.4999850145
17.8937233873 -25.2720761034 -2.4999849482
17.9074236924 -25.2834134711 -2.4999849482
19.9944014483 -26.4009401785 -2.4999849482
20.1310589220 -26.4404724212 -2.4999849482
17.7560183408 -25.1864132011 -2.4999848820
20.2108335133 -26.4869251754 -2.4999848820
20.9971392196 -26.8074592155 -2.4999844180
25.0057319913 -25.9180429475 -2.4999844180
25.7536892881 -25.9003260996 -2.4999832913
25.5005842745 -26.2602284069 -2.4999828936
26.2571121638 -25.6705723420 -2.4999828936
26.3601712985 -25.5758221138 -2.4999828936
26.3747330949 -25.5621128684 -2.4999828936
25.1915961167 -26.4838017602 -2.4999828273
26.6334249229 -25.3392928991 -2.4999828273
25.0643223502 -26.5850889482 -2.4999827611
25.0818754104 -26.5752086423 -2.4999827611
26.8015030369 -25.1935229044 -2.4999827611
26.8283164771 -25.1634570212 -2.4999827611
26.8549515682 -25.1332330268 -2.4999827611
24.8265320310 -26.7394722906 -2.4999826948
24.7284630761 -26.8151602039 -2.4999826285
26.8103068786 -25.2559270259 -2.4999826285
27.3819455517 -24.6190183620 -2.4999824960
27.5396311794 -24.4292292356 -2.4999824297
27.7009733746 -24.2633738536 -2.4999822971
25.9355976653 -20.8236652231 -2.4999963505
25.9353393471 -20.7569189853 -2.4999963505
25.9589652542 -22.3860522905 -2.4999960392
25.9503351728 -22.5501589761 -2.4999959874
25.9580472995 -22.7247684539 -2.4999959096
22.8777190295 -25.9150262012 -2.4999954946
20.0012197521 -25.9494325568 -2.4999954687
23.0427570621 -25.9158462212 -2.4999954427
19.7521355997 -25.9502785111 -2.4999953909
19.7978383909 -25.9649031297 -2.4999953909
19.6301261932 -25.9602424331 -2.4999953390
19.4612816337 -25.9501333721 -2.4999952871
23.3482188895 -25.9638361616 -2.4999952871
23.5694303344 -25.9019778694 -2.4999952612
18.7153527815 -25.7929763847 -2.4999951056
19.6540202147 -26.1979605063 -2.4999951056
18.2427755230 -25.5347944267 -2.4999950797
18.2567728707 -25.5441811363 -2.4999950797
19.8397196889 -26.2805646471 -2.4999950797
24.1407849978 -25.8972345730 -2.4999950019
25.5111836801 -26.2831930296 -2.4999938607
25.5596141176 -26.2466962175 -2.4999938607
25.5756853854 -26.2344352803 -2.4999938607
26.1289796549 -25.7622783520 -2.4999938607
26.3300752302 -25.5631855050 -2.4999938607
25.3280464466 -26.4447102674 -2.4999938348
25.3447044889 -26.4331334829 -2.4999938348
25.5256460394 -26.3025624758 -2.4999938348
26.5000893181 -25.4172654222 -2.4999938348
26.6209975529 -25.2804745179 -2.4999938348
26.6525760023 -25.2807903097 -2.4999938089
26.7697971589 -25.1399884956 -2.4999938089
24.9077715331 -26.7698440903 -2.4999937829
24.9429842549 -26.7491220916 -2.4999937829
24.8310970851 -26.8417821254 -2.4999937570
27.0077429464 -24.9107816647 -2.4999937570
27.2811659021 -24.5996458334 -2.4999937051
27.4641870195 -24.3963003851 -2.4999936532
22.5176128650 -22.4737488768 -2.5000052426
22.6112233920 -22.4494364690 -2.5000053406
19.8900623689 -25.9562414554 -2.5000115131
19.9339137202 -25.9671874513 -2.5000115131
22.3658958834 -25.9649689600 -2.5000115131
22.4534589242 -25.9425284532 -2.5000115131
25.9554221510 -22.6941215654 -2.5000115131
19.8987796457 -25.9833780706 -2.5000115621
22.5617841194 -25.9376172025 -2.5000115621
19.7459555167 -25.9675952680 -2.5000116111
22.6559331273 -25.9348104714 -2.5000116111
25.9597442522 -22.8244374593 -2.5000116111
25.9650595545 -22.8101878457 -2.5000116111
19.6075605072 -25.9516651794 -2.5000116601
22.7649432263 -25.9254340570 -2.5000116601
19.5710798456 -25.9655144294 -2.5000117090
22.8597271141 -25.9187333967 -2.5000117090
19.5197203460 -25.9743164569 -2.5000117580
22.8677124883 -25.9415493798 -2.5000117580
23.0211681363 -25.9110242220 -2.5000118070
19.3282344736 -25.9588710540 -2.5000118560
19.3198867901 -25.9815569849 -2.5000119050
23.1547453952 -25.9099851296 -2.5000119050
25.9552798202 -23.3276668520 -2.5000120030
18.7282269666 -25.8031598173 -2.5000120520
18.7849868110 -25.8314260382 -2.5000120520
25.9563173193 -23.3809086510 -2.5000120520
23.5862303482 -25.8994851633 -2.5000122479
25.9471150901 -23.6100251180 -2.5000122479
25.9699065692 -23.5673105596 -2.5000122479
23.7092515657 -25.8906797526 -2.5000123459
25.9504983170 -23.7043362440 -2.5000123459
25.9474903893 -23.7588475221 -2.5000123949
25.9555698991 -23.7446300692 -2.5000123949
23.8590687713 -25.8919995653 -2.5000124929
23.9428979149 -25.8722716990 -2.5000125418
25.9520003154 -23.8949115415 -2.5000125418
25.9500821339 -23.9911128487 -2.5000126398
24.1917194348 -25.8634369949 -2.5000127868
24.2750341415 -25.8676681392 -2.5000128848
24.3732052353 -25.8610727581 -2.5000129827
24.5849650442 -25.8620154559 -2.5000132277
24.9157024623 -25.8874436991 -2.5000136686
25.6275861944 -26.2104289681 -2.5000150892
25.6582130988 -26.1838199777 -2.5000150892
25.6734673815 -26.1704476490 -2.5000150892
25.6886820396 -26.1570302540 -2.5000150892
26.1120831353 -25.7488618786 -2.5000150892
26.1538490946 -25.7045990969 -2.5000150892
26.1676835866 -25.6897626842 -2.5000150892
25.3919307118 -26.4357058572 -2.5000151382
25.4398203847 -26.3978069773 -2.5000151382
25.4557086351 -26.3850797575 -2.5000151382
25.4715591666 -26.3723055931 -2.5000151382
25.4873718405 -26.3594845958 -2.5000151382
25.5188830621 -26.3337025519 -2.5000151382
25.5658625137 -26.2946810579 -2.5000151382
26.0730966535 -25.8241727267 -2.5000151382
26.2813285333 -25.6008602895 -2.5000151382
26.2948555893 -25.5856472234 -2.5000151382
26.3485120138 -25.5243968064 -2.5000151382
26.4276283939 -25.4313415102 -2.5000151382
25.2606752411 -26.5662439474 -2.5000151872
25.4068473709 -26.4547276490 -2.5000151872
26.5747839935 -25.2881144304 -2.5000151872
26.6249002750 -25.2235725995 -2.5000151872
25.1254694275 -26.6936182766 -2.5000152362
26.7544114722 -25.0904122393 -2.5000152362
26.7783922602 -25.0571561743 -2.5000152362
25.0035214379 -26.8063230546 -2.5000152852
25.1056015259 -26.7369369742 -2.5000152852
26.8573346763 -24.9871887352 -2.5000152852
26.8923118667 -24.9363422577 -2.5000152852
26.9153787116 -24.9022730242 -2.5000152852
26.9496000371 -24.8509147823 -2.5000152852
27.0590999108 -24.7253291818 -2.5000153342
24.8034775255 -26.9916033462 -2.5000153832
27.0795849472 -24.7381626759 -2.5000153832
24.7270840815 -27.0658516492 -2.5000154321
24.1998912111 -27.4557960436 -2.5000156281
24.0951714528 -27.5310126453 -2.5000156771
19.6162605857 -25.9539027968 -2.5000139147
19.7133519943 -25.9796695093 -2.5000139147
22.2104665845 -25.9515321772 -2.5000139147
19.5404605391 -25.9574708522 -2.5000139781
19.5681686294 -25.9654862402 -2.5000139781
22.3415142298 -25.9383388446 -2.5000139781
22.3762989873 -25.9528462848 -2.5000140415
22.4039300852 -25.9440839811 -2.5000140415
22.4251693469 -25.9626401067 -2.5000141049
22.4666814227 -25.9490013036 -2.5000141049
22.6207947445 -25.9462788499 -2.5000142317
22.7396341716 -25.9269593175 -2.5000142951
25.9542777220 -22.5931868735 -2.5000148657
25.9619693259 -22.5633148457 -2.5000148657
25.9518659935 -19.9539949147 -2.5000148657
25.9479266907 -19.9390832710 -2.5000148657
25.9439432937 -19.9241833457 -2.5000148657
25.9358443573 -19.8944191719 -2.5000148657
25.9616827564 -22.6591649661 -2.5000149291
25.9815550885 -22.5842841398 -2.5000149291
25.9292825997 -19.7837358570 -2.5000149291
23.3878568740 -25.9198893818 -2.5000149925
23.4015769846 -25.9125364375 -2.5000149925
25.9551863367 -22.7703415355 -2.5000149925
25.9682295463 -22.7255015200 -2.5000149925
25.9724887896 -22.7105293435 -2.5000149925
25.9434800098 -19.7470269594 -2.5000149925
25.9389284950 -19.7321410286 -2.5000149925
25.9556419112 -22.8520087240 -2.5000150559
25.9433031466 -19.6653586918 -2.5000150559
25.9385100430 -19.6504736414 -2.5000150559
25.9566493510 -19.6280915598 -2.5000151193
25.9467984138 -19.5982573947 -2.5000151193
25.9418067972 -19.5833622983 -2.5000151193
25.9316914863 -19.5536167297 -2.5000151193
25.9577121142 -23.0014097475 -2.5000151827
23.4891599015 -25.9749817843 -2.5000152460
25.9490680013 -23.0989554210 -2.5000152460
25.9544320727 -23.0840382937 -2.5000152460
25.9650277157 -23.0541567620 -2.5000152460
25.9348170987 -19.4184703072 -2.5000152460
25.9292936918 -19.4036114404 -2.5000152460
25.9611302230 -23.2053500162 -2.5000153728
25.9402165901 -19.2970938485 -2.5000153728
25.9284076468 -19.2673626982 -2.5000153728
25.9743935195 -19.3181708594 -2.5000154362
25.9388087261 -19.2285797066 -2.5000154362
25.9265944548 -19.1988580848 -2.5000154362
23.8138460837 -25.8960529397 -2.5000154996
23.8274938179 -25.8874399465 -2.5000154996
25.9649486132 -23.3277060333 -2.5000154996
25.9563481839 -23.4116715706 -2.5000155630
25.9705598795 -23.5603164271 -2.5000157532
25.9511160561 -23.6601142392 -2.5000158166
25.9415856507 -23.8968360006 -2.5000160702
24.3321125875 -25.8626358491 -2.5000161970
25.9214619080 -24.4183454945 -2.5000167042
25.2624216853 -25.8342685405 -2.5000177185
25.9253515312 -25.4418038302 -2.5000182891
25.5875155961 -26.2919557956 -2.5000191766
25.6611592367 -26.2222116779 -2.5000191766
25.7193264044 -26.1656368994 -2.5000191766
25.7625102435 -26.1227563065 -2.5000191766
25.7768200810 -26.1083778204 -2.5000191766
26.2753134313 -25.5477505360 -2.5000191766
26.3004796074 -25.5159274434 -2.5000191766
25.4531358883 -26.4462922442 -2.5000192400
25.4684041573 -26.4328275278 -2.5000192400
25.5139690443 -26.3921632075 -2.5000192400
25.6040072564 -26.3096295168 -2.5000192400
26.3445500052 -25.4987815006 -2.5000192400
26.3817912563 -25.4503786589 -2.5000192400
26.4307752886 -25.3853310604 -2.5000192400
26.4549778157 -25.3525910458 -2.5000192400
25.2504626933 -26.6487958030 -2.5000193034
25.2821609596 -26.6230168014 -2.5000193034
25.2979527599 -26.6100570865 -2.5000193034
25.3607345213 -26.5577527842 -2.5000193034
26.5343233850 -25.2841418498 -2.5000193034
26.5579254305 -25.2507909809 -2.5000193034
26.5929575024 -25.2005043175 -2.5000193034
26.6389701224 -25.1329755946 -2.5000193034
25.1369084733 -26.7691763936 -2.5000193668
25.1693209390 -26.7440671099 -2.5000193668
25.2336973743 -26.6932754576 -2.5000193668
25.2656590906 -26.6675948667 -2.5000193668
24.9534242427 -26.9354302763 -2.5000194302
25.0531927482 -26.8627596644 -2.5000194302
25.1353372449 -26.8008559516 -2.5000194302
26.8562806017 -24.8826173756 -2.5000194302
24.8830750866 -27.0144992034 -2.5000194936
26.9608709281 -24.7529145267 -2.5000194936
27.0116013307 -24.6630262989 -2.5000194936
27.3240068656 -24.2623904499 -2.5000197472
21.8725225600 -26.0113430477 -2.5000022853
22.1403849102 -25.9584916628 -2.5000022911
22.1792475107 -25.9457233569 -2.5000022911
22.2258455470 -25.9554734875 -2.5000022968
22.2388030164 -25.9510029179 -2.5000022968
22.2517472043 -25.9464940373 -2.5000022968
22.2986865163 -25.9554821339 -2.5000023026
22.3116436925 -25.9507960875 -2.5000023026
22.3933984226 -25.9719826721 -2.5000023141
22.4193948213 -25.9620116339 -2.5000023141
22.4453317730 -25.9518869668 -2.5000023141
22.4582776725 -25.9467671329 -2.5000023141
22.5152681488 -25.9759496043 -2.5000023256
22.5931293061 -25.9434123669 -2.5000023256
22.7779601831 -25.9398237271 -2.5000023429
22.7908689419 -25.9337199710 -2.5000023429
22.9152359252 -25.9266937802 -2.5000023545
22.9519619784 -25.9351579516 -2.5000023602
23.0146811158 -25.9298456802 -2.5000023660
22.9999984723 -25.9647954817 -2.5000023717
23.0518043149 -25.9375227060 -2.5000023717
23.1020206894 -25.9378880407 -2.5000023775
23.1149223042 -25.9308256636 -2.5000023775
25.9452289182 -22.9677272971 -2.5000024813
25.9574003331 -22.9213109072 -2.5000024813
25.9589220101 -20.2306774818 -2.5000024813
25.9339640078 -23.0977434466 -2.5000024870
25.9384515703 -23.0823160958 -2.5000024870
25.9428934762 -23.0668755374 -2.5000024870
25.9559448682 -23.0204759689 -2.5000024870
25.9489585377 -20.1005551295 -2.5000024870
