47.0201882114 -33.3931619173 -2.5000266537
42.9689321100 -33.4794454249 -2.5000266595
47.0929595044 -33.3902674045 -2.5000266595
42.9120648367 -33.4846845507 -2.5000266653
47.1500000965 -33.3930433852 -2.5000266653
42.7326986632 -33.4680019026 -2.5000266768
42.7488956513 -33.4744286732 -2.5000266768
47.2647359064 -33.3968237021 -2.5000266768
47.2966483910 -33.3828174930 -2.5000266768
42.6427230273 -33.4574717783 -2.5000266826
42.6912807659 -33.4774071072 -2.5000266826
47.4543550770 -33.3905175239 -2.5000266941
42.4100539758 -33.4613551508 -2.5000267056
47.7474523034 -33.3794425912 -2.5000267229
42.1904614901 -33.4635727488 -2.5000267287
42.0715329884 -33.4572728569 -2.5000267402
47.9529974791 -33.3774514798 -2.5000267460
47.9648858299 -33.3984991019 -2.5000267517
48.0848114217 -33.3851552626 -2.5000267632
48.2337866147 -33.3800568085 -2.5000267805
41.6866261070 -33.4648410135 -2.5000267863
41.2327567870 -33.2295056259 -2.5000267978
41.2637849313 -33.2511895594 -2.5000267978
41.2793469764 -33.2619625912 -2.5000267978
41.4208199712 -33.3568349862 -2.5000267978
41.9935832790 -33.6890834953 -2.5000267978
42.0781069360 -33.7316449945 -2.5000267978
48.3838942064 -33.3710733668 -2.5000267978
40.8850237867 -32.9978899226 -2.5000268036
40.9146877006 -33.0216352150 -2.5000268036
42.1528607952 -33.7947778793 -2.5000268036
42.2044312263 -33.8190471780 -2.5000268036
42.2216689812 -33.8270351233 -2.5000268036
42.2389302905 -33.8349720413 -2.5000268036
42.2562150031 -33.8428578624 -2.5000268036
42.4209701863 -33.9411841133 -2.5000268094
48.1455319930 -33.6015597433 -2.5000268151
48.7230653325 -33.2262409972 -2.5000268151
48.7693315923 -33.1922258045 -2.5000268151
48.7846863719 -33.1807963299 -2.5000268151
40.5191889444 -32.7787259055 -2.5000268209
40.5904093355 -32.8431938452 -2.5000268209
47.8535489592 -33.7871936904 -2.5000268209
47.9558706386 -33.7340980334 -2.5000268209
48.9963635299 -33.0469203045 -2.5000268209
49.0112874762 -33.0348198640 -2.5000268209
49.0706233546 -32.9859782190 -2.5000268209
49.0853666983 -32.9736583712 -2.5000268209
40.2670931891 -32.5687509255 -2.5000268266
47.6563305656 -33.9098247405 -2.5000268266
47.6912712830 -33.8934927476 -2.5000268266
47.7261147633 -33.8769543195 -2.5000268266
49.1743331736 -32.9297026232 -2.5000268266
49.2034485918 -32.9044067708 -2.5000268266
49.2324138417 -32.8789391046 -2.5000268266
47.6137159807 -33.9559528627 -2.5000268324
48.6712858259 -33.3523990966 -2.5000268324
49.3489818506 -32.8062331524 -2.5000268324
49.4754633013 -32.6864491647 -2.5000268324
49.6699350405 -32.5242489835 -2.5000268382
39.7626976503 -32.1093211186 -2.5000268439
47.3465488113 -34.1219737552 -2.5000268439
49.8457410883 -32.3686165242 -2.5000268439
49.5988762968 -32.7006508777 -2.5000268555
46.2352228869 -34.7001632339 -2.5000269016
44.9945748554 -29.8201925307 -2.4999992292
48.4629276740 -29.2438863050 -2.4999968173
48.4406272958 -29.3893543783 -2.4999967914
48.4553678077 -29.4203292180 -2.4999967654
48.4572090618 -29.4861087919 -2.4999967395
48.4534746541 -29.7525866085 -2.4999966358
48.4387550648 -29.9554502082 -2.4999965579
43.0900761887 -33.4437796947 -2.4999951834
43.1060637895 -33.4481240306 -2.4999951834
45.6012382471 -33.5455448871 -2.4999951834
46.0210997012 -33.4497782459 -2.4999951834
46.0370922224 -33.4454520580 -2.4999951834
42.9876407568 -33.4399232212 -2.4999951575
43.0196077164 -33.4491706898 -2.4999951575
46.1395319651 -33.4417118464 -2.4999951575
42.9168136543 -33.4439807601 -2.4999951315
42.9488058593 -33.4536471945 -2.4999951315
46.1783512616 -33.4554798866 -2.4999951315
46.2901081435 -33.4209475939 -2.4999951315
42.8296869625 -33.4420001765 -2.4999951056
46.2814940300 -33.4490645488 -2.4999951056
46.3294162630 -33.4336333282 -2.4999951056
42.7422595463 -33.4386191872 -2.4999950797
46.4486737679 -33.4187937828 -2.4999950797
42.6545538448 -33.4338284877 -2.4999950537
46.4885753525 -33.4303333320 -2.4999950537
46.5045083067 -33.4246243516 -2.4999950537
42.5984940392 -33.4393578788 -2.4999950278
46.6169248541 -33.4345736426 -2.4999950019
46.7372107471 -33.4133774302 -2.4999949759
46.7622146329 -33.4293187509 -2.4999949500
46.7940527915 -33.4162347584 -2.4999949500
42.3238694682 -33.4360241550 -2.4999949241
46.8670121449 -33.4117231365 -2.4999949241
42.2506518212 -33.4313183651 -2.4999948981
46.9242948022 -33.4132322065 -2.4999948981
46.9658806040 -33.4212666760 -2.4999948722
42.1994549560 -33.4618270889 -2.4999948462
42.0775975130 -33.4335978769 -2.4999948203
47.1395341190 -33.4209129035 -2.4999947944
47.1554363576 -33.4132783105 -2.4999947944
41.9772082415 -33.4397846654 -2.4999947684
47.4484237821 -33.3996032477 -2.4999946647
41.6558493502 -33.4388816760 -2.4999946128
47.5944163468 -33.4019279740 -2.4999945869
41.2082168036 -33.2300190961 -2.4999945610
41.2389730428 -33.2497979080 -2.4999945610
41.2698457618 -33.2693944095 -2.4999945610
41.3163708749 -33.2984458311 -2.4999945610
41.2105052996 -33.2602629903 -2.4999945350
42.2186112914 -33.7848293014 -2.4999945350
47.6819053931 -33.4075377754 -2.4999945350
40.8935374562 -33.0722086928 -2.4999945091
42.3465609572 -33.8613689183 -2.4999945091
40.5728630643 -32.8530710762 -2.4999944832
40.6588900751 -32.9231956404 -2.4999944832
42.3898823427 -33.9035029180 -2.4999944832
48.2041905367 -33.3929442586 -2.4999942497
48.0185494901 -33.7135784517 -2.4999940682
48.0353136403 -33.7033422918 -2.4999940682
48.0520474367 -33.6930565852 -2.4999940682
48.1683218393 -33.6196769499 -2.4999940682
48.7408494196 -33.2052408297 -2.4999940682
48.8768335811 -33.0922914763 -2.4999940682
48.9510663744 -33.0279897181 -2.4999940682
47.7578911927 -33.8917680885 -2.4999940423
47.8096840329 -33.8632172383 -2.4999940423
47.8268917555 -33.8535982854 -2.4999940423
47.5590628480 -34.0229606170 -2.4999940163
49.5230821325 -32.5681257873 -2.4999939904
47.3649707526 -34.1693730038 -2.4999939645
46.8350024505 -34.4616471183 -2.4999938867
44.9878190827 -29.8659628262 -2.4999962818
48.4386289014 -28.7373596051 -2.4999897865
48.4403585856 -28.7249163748 -2.4999897865
48.4437074884 -28.7000148362 -2.4999897865
48.4484544616 -28.6626264683 -2.4999897865
48.4411962285 -29.0069921011 -2.4999896540
48.4462139715 -28.9820806699 -2.4999896540
48.4486675516 -28.9696139308 -2.4999896540
48.4510842422 -28.9571399882 -2.4999896540
48.4516164940 -29.0743299634 -2.4999895877
48.4674206189 -28.9993132439 -2.4999895877
48.4394363515 -29.2294905249 -2.4999895214
48.4488822926 -29.1921192109 -2.4999895214
48.4833387961 -29.0418399255 -2.4999895214
48.4410067704 -29.4042558747 -2.4999893889
48.4447092440 -29.3918026923 -2.4999893889
48.4555954069 -29.3543781927 -2.4999893889
48.4591502694 -29.3418820726 -2.4999893889
48.4489058619 -29.4611541649 -2.4999893226
48.4408079375 -29.6384232554 -2.4999891900
48.4495614460 -29.6135030704 -2.4999891900
48.4666253936 -29.5635095169 -2.4999891900
48.4575641373 -29.8009742288 -2.4999889912
48.4600933806 -29.8599252422 -2.4999889249
48.4459173014 -29.9566239575 -2.4999888586
48.4627251621 -29.9786871131 -2.4999887924
48.4571993173 -30.0509800212 -2.4999887261
48.4485255417 -30.2925715805 -2.4999884610
48.4548557808 -30.2800922694 -2.4999884610
42.8353920525 -33.4448082111 -2.4999864064
42.8667635168 -33.4529849309 -2.4999864064
45.7030999695 -33.4252211268 -2.4999864064
45.7343053603 -33.4164318663 -2.4999864064
45.8034543801 -33.4214684913 -2.4999863401
42.7441578108 -33.4701149567 -2.4999862738
45.8416697306 -33.4352125910 -2.4999862738
45.8885413922 -33.4207293830 -2.4999862738
42.5644786587 -33.4419097362 -2.4999862075
42.5958377161 -33.4516893213 -2.4999862075
42.6115388049 -33.4565094969 -2.4999862075
45.9270921690 -33.4338635283 -2.4999862075
45.9427259502 -33.4288293286 -2.4999862075
42.4943996157 -33.4447627522 -2.4999861412
42.5100806583 -33.4498830303 -2.4999861412
42.5257767790 -33.4549568986 -2.4999861412
46.0284503333 -33.4258517810 -2.4999861412
42.4711286299 -33.4625416283 -2.4999860750
42.3376793537 -33.4421175993 -2.4999860087
42.3690436103 -33.4532390016 -2.4999860087
46.1225791974 -33.4442573783 -2.4999860087
46.1382428702 -33.4386448472 -2.4999860087
46.1935224057 -33.4442002344 -2.4999859424
46.2248315001 -33.4325091379 -2.4999859424
42.2112031310 -33.4469067050 -2.4999858761
46.2960295809 -33.4310904576 -2.4999858761
42.1397448062 -33.4450933935 -2.4999858099
42.1554283787 -33.4512628032 -2.4999858099
42.0837232492 -33.4487095247 -2.4999857436
46.4235196010 -33.4319060464 -2.4999857436
42.0117889118 -33.4451989541 -2.4999856773
42.0431771024 -33.4582483798 -2.4999856773
41.9710010041 -33.4542016978 -2.4999856110
41.8260330500 -33.4432005154 -2.4999854785
41.7689260054 -33.4435478851 -2.4999854122
46.7799436782 -33.4311694059 -2.4999853459
46.8374297275 -33.4300419227 -2.4999852796
46.8530482206 -33.4223147966 -2.4999852796
41.6121336281 -33.4487639994 -2.4999852133
41.1399164418 -33.2162371437 -2.4999851471
41.1549273907 -33.2253652278 -2.4999851471
41.1850299676 -33.2434879815 -2.4999851471
41.2152392379 -33.2614323211 -2.4999851471
41.2607508795 -33.2880129316 -2.4999851471
41.3064966169 -33.3141886052 -2.4999851471
42.1738906287 -33.7426912683 -2.4999850808
42.1489301560 -33.7592363487 -2.4999850145
42.3326422753 -33.8240728077 -2.4999850145
42.4675261135 -33.8674545966 -2.4999850145
42.6310703661 -33.9404724212 -2.4999849482
47.1547050069 -33.4278202543 -2.4999848820
47.5057434354 -33.4180429475 -2.4999844180
47.5938739588 -33.4197208707 -2.4999842855
47.7269903475 -33.4196968873 -2.4999840866
48.0415427002 -33.4075880018 -2.4999836227
47.9506280238 -33.7934415432 -2.4999828936
48.0502666977 -33.7265731432 -2.4999828936
48.0996370493 -33.6924784027 -2.4999828936
48.6973588806 -33.2237506891 -2.4999828936
48.8747445390 -33.0621128684 -2.4999828936
48.9181857116 -33.0207275151 -2.4999828936
47.7604359742 -33.9424707218 -2.4999828273
47.7775662858 -33.9320109342 -2.4999828273
47.7946655806 -33.9215005178 -2.4999828273
47.9303254319 -33.8356056799 -2.4999828273
49.0352161804 -32.9397517758 -2.4999828273
49.1611151731 -32.8102188711 -2.4999828273
47.5115003239 -34.1144177121 -2.4999827611
49.3015144810 -32.6935229044 -2.4999827611
49.6494886168 -32.3521833817 -2.4999826285
47.0645300183 -34.4451521302 -2.4999824960
50.1794812998 -31.7986184211 -2.4999822971
46.5659124608 -34.7489817247 -2.4999822308
50.2746837473 -31.6869331970 -2.4999822308
44.9740017532 -29.8346278996 -2.4999992033
48.4355881286 -28.3236652231 -2.4999963505
48.4513014146 -29.5887575372 -2.4999961430
48.4550710338 -29.5753560827 -2.4999961430
48.4588009927 -29.5619435356 -2.4999961430
48.4624912585 -29.5485200134 -2.4999961430
48.4509925299 -29.6759184426 -2.4999961171
48.4590077866 -29.6491047431 -2.4999961171
48.4745616876 -29.5953374293 -2.4999961171
48.4532954717 -29.7500742881 -2.4999960911
48.4575422864 -29.7366662291 -2.4999960911
48.4659168327 -29.7098127158 -2.4999960911
48.4543903880 -29.8245959615 -2.4999960652
48.4588576465 -29.8111843374 -2.4999960652
48.4632852114 -29.7977595571 -2.4999960652
48.4495386004 -29.9128615349 -2.4999960392
48.4589557174 -29.8860522905 -2.4999960392
48.4636047548 -29.8726268924 -2.4999960392
48.4675297196 -29.9343911827 -2.4999960133
48.4503256361 -30.0501589761 -2.4999959874
48.4464887005 -30.1259458879 -2.4999959614
48.4518474411 -30.1125563199 -2.4999959614
48.4571665495 -30.0991509583 -2.4999959614
48.4624459792 -30.0857299205 -2.4999959614
48.4676856838 -30.0722933240 -2.4999959614
48.4743031103 -30.1215049624 -2.4999959355
48.4636887878 -30.2113442893 -2.4999959096
48.4693000771 -30.1979034666 -2.4999959096
48.4748715814 -30.1844461036 -2.4999959096
48.4804032521 -30.1709723179 -2.4999959096
48.4513122707 -30.3013752741 -2.4999958836
48.4688261968 -30.2611095921 -2.4999958836
48.4558431936 -30.4656127703 -2.4999958058
48.4582480263 -30.5163385520 -2.4999957799
48.4601078241 -30.5672761300 -2.4999957540
48.4614190248 -30.6184198105 -2.4999957280
48.4682345270 -30.6049839211 -2.4999957280
48.4621781243 -30.6697638530 -2.4999957021
42.6139359694 -33.4543401647 -2.4999954946
42.6596605580 -33.4657537634 -2.4999954946
42.6749243741 -33.4694680665 -2.4999954946
45.2716474069 -33.4440544142 -2.4999954946
45.3474677079 -33.4235439953 -2.4999954946
45.3625948996 -33.4193074635 -2.4999954946
45.3777094928 -33.4150262012 -2.4999954946
42.5012102154 -33.4494325568 -2.4999954687
42.5621484425 -33.4658946257 -2.4999954687
45.1553126545 -33.4980512107 -2.4999954687
45.3387437797 -33.4510418467 -2.4999954687
45.4449361614 -33.4206228506 -2.4999954687
42.4185322919 -33.4510438595 -2.4999954427
42.4337536485 -33.4554715280 -2.4999954427
42.4489880364 -33.4598541497 -2.4999954427
42.4642353223 -33.4641916860 -2.4999954427
45.4973523063 -33.4300203673 -2.4999954427
45.5124980005 -33.4253404214 -2.4999954427
45.5427475253 -33.4158462212 -2.4999954427
45.5729403499 -33.4061732208 -2.4999954427
42.3507197355 -33.4560025415 -2.4999954168
42.3812060041 -33.4652139467 -2.4999954168
45.4892267105 -33.4577825266 -2.4999954168
45.5652262560 -33.4340525241 -2.4999954168
45.6106545854 -33.4192758760 -2.4999954168
48.4590457428 -31.2059440573 -2.4999954168
42.2369208629 -33.4453135780 -2.4999953909
42.2673458837 -33.4551984427 -2.4999953909
45.6939891597 -33.4165936278 -2.4999953909
45.7241837592 -33.4060258181 -2.4999953909
42.1836534964 -33.4530493155 -2.4999953649
42.2141252167 -33.4632491924 -2.4999953649
42.2446567496 -33.4732686098 -2.4999953649
45.7625028401 -33.4180237730 -2.4999953649
45.7927047017 -33.4070505883 -2.4999953649
45.8077811549 -33.4014970370 -2.4999953649
42.1148825151 -33.4549165306 -2.4999953390
42.1453664861 -33.4655232470 -2.4999953390
45.8161702074 -33.4241677027 -2.4999953390
45.8615009327 -33.4071644570 -2.4999953390
45.8765774217 -33.4014073936 -2.4999953390
42.0306041049 -33.4502982619 -2.4999953131
42.0610622277 -33.4614036785 -2.4999953131
42.0763157946 -33.4668887628 -2.4999953131
45.9154690728 -33.4122778005 -2.4999953131
48.4420984049 -31.4066728551 -2.4999953131
48.4603535416 -31.3798814851 -2.4999953131
41.9764927609 -33.4559137030 -2.4999952871
45.8482093528 -33.4638361616 -2.4999952871
45.9696799561 -33.4168331118 -2.4999952871
46.0149395461 -33.3984678421 -2.4999952871
41.9068980016 -33.4550308021 -2.4999952612
41.9679440752 -33.4785246573 -2.4999952612
46.0241279128 -33.4208264914 -2.4999952612
46.0694207977 -33.4019778694 -2.4999952612
41.8675316385 -33.4654690788 -2.4999952353
46.1241283728 -33.4049200914 -2.4999952353
46.1391970735 -33.3983861383 -2.4999952353
41.7669695930 -33.4504710598 -2.4999952093
41.7821921061 -33.4568261711 -2.4999952093
46.1790564688 -33.4072907743 -2.4999952093
41.7118725300 -33.4533454250 -2.4999951834
41.7271037870 -33.4598635108 -2.4999951834
46.1280765189 -33.4558500482 -2.4999951834
46.2341992346 -33.4090862425 -2.4999951834
46.2793796590 -33.3883738176 -2.4999951834
41.7023292772 -33.4755549186 -2.4999951575
41.2562959825 -33.2875977799 -2.4999951315
41.3748820110 -33.3493037766 -2.4999951315
41.3898069685 -33.3568191965 -2.4999951315
41.4197232528 -33.3717174203 -2.4999951315
41.4347143177 -33.3791000937 -2.4999951315
41.6315315598 -33.4710134123 -2.4999951315
41.9252006465 -33.5915794288 -2.4999951315
46.3752548712 -33.3965171968 -2.4999951315
40.9395694078 -33.1330049968 -2.4999951056
40.9825082612 -33.1592903132 -2.4999951056
41.0256786912 -33.1851935363 -2.4999951056
41.0981347797 -33.2275109513 -2.4999951056
41.2153432447 -33.2929763847 -2.4999951056
41.2745202282 -33.3246643819 -2.4999951056
41.3789671837 -33.3784255462 -2.4999951056
41.9638225884 -33.6317856915 -2.4999951056
42.0744809629 -33.6712084445 -2.4999951056
42.0903551116 -33.6766529158 -2.4999951056
42.1380732190 -33.6927042465 -2.4999951056
42.2019153715 -33.7134460905 -2.4999951056
40.7427659862 -33.0347944267 -2.4999950797
41.2483428684 -33.3381518584 -2.4999950797
42.2267306061 -33.7466102363 -2.4999950797
42.2589383774 -33.7565501168 -2.4999950797
42.3559066357 -33.7852240440 -2.4999950797
46.4416925531 -33.4179179565 -2.4999950797
46.4718819017 -33.4029264592 -2.4999950797
40.6316650192 -32.9877068404 -2.4999950537
40.6872707727 -33.0263225602 -2.4999950537
40.7715263770 -33.0830057447 -2.4999950537
40.8140281324 -33.1107843176 -2.4999950537
40.9429889867 -33.1918417958 -2.4999950537
46.5280049993 -33.4016267770 -2.4999950537
40.5623815197 -32.9680429221 -2.4999950278
42.7668815757 -33.9604819991 -2.4999950019
46.6257079724 -33.4052522907 -2.4999950019
46.6407754611 -33.3972345730 -2.4999950019
42.9135586530 -34.0130557778 -2.4999949759
46.6370317815 -33.4266089437 -2.4999949759
46.6672691301 -33.4104616018 -2.4999949759
46.7089861347 -33.4153568176 -2.4999949500
46.7240831501 -33.4070927039 -2.4999949500
46.7659670990 -33.4115482841 -2.4999949241
43.1409733310 -34.1218249713 -2.4999948981
48.4479966342 -32.0411508721 -2.4999948981
47.0354909659 -33.4223656246 -2.4999947684
47.1645696373 -33.4275873629 -2.4999946906
47.2512670539 -33.4294099040 -2.4999946388
47.2796352375 -33.4397714986 -2.4999946128
47.2948019791 -33.4298191948 -2.4999946128
47.7212639676 -33.4264322151 -2.4999943535
47.7508516761 -33.4345429981 -2.4999943275
47.7956931739 -33.4310893279 -2.4999943016
47.9787080699 -33.8072848415 -2.4999938607
48.0434971134 -33.7589095593 -2.4999938607
48.0756758486 -33.7344352803 -2.4999938607
48.1077092225 -33.7097710495 -2.4999938607
48.2343667576 -33.6092319734 -2.4999938607
48.6436058990 -33.2483352482 -2.4999938607
48.6872648695 -33.2062470209 -2.4999938607
48.7161626005 -33.1779736682 -2.4999938607
48.7448925510 -33.1495298417 -2.4999938607
48.7591942942 -33.1352443117 -2.4999938607
48.7876706904 -33.1065466431 -2.4999938607
48.8159768032 -33.0776810008 -2.4999938607
48.8300656935 -33.0631855050 -2.4999938607
48.8581145252 -33.0340697986 -2.4999938607
48.8720742213 -33.0194498426 -2.4999938607
47.9274674720 -33.8745131989 -2.4999938348
47.9930555799 -33.8267395128 -2.4999938348
48.0093639213 -33.8146750895 -2.4999938348
48.0742382637 -33.7659365556 -2.4999938348
48.7331188679 -33.1952021411 -2.4999938348
48.7763027870 -33.1523216287 -2.4999938348
48.8755729499 -33.0507892091 -2.4999938348
48.8895820286 -33.0361175349 -2.4999938348
48.9035476446 -33.0214044834 -2.4999938348
48.9313479997 -32.9918547643 -2.4999938348
48.9589730423 -32.9621410861 -2.4999938348
48.9727195189 -32.9472230871 -2.4999938348
48.9864218052 -32.9322644889 -2.4999938348
49.0000797814 -32.9172654222 -2.4999938348
49.0677008397 -32.8416676694 -2.4999938348
49.0810904584 -32.8264285611 -2.4999938348
47.6042342959 -34.1219839169 -2.4999938089
47.6214177249 -34.1110684054 -2.4999938089
47.6556873372 -34.0890851265 -2.4999938089
47.7238333860 -34.0445122479 -2.4999938089
47.7407871166 -34.0332432796 -2.4999938089
47.8418027214 -33.9645807911 -2.4999938089
48.9490030341 -33.0083664282 -2.4999938089
49.2051273718 -32.7185972504 -2.4999938089
49.2440631027 -32.6715466954 -2.4999938089
49.2697876221 -32.6399884956 -2.4999938089
47.4429747182 -34.2491220916 -2.4999937829
47.4955623896 -34.2176493830 -2.4999937829
49.1308947852 -32.8428992524 -2.4999937829
49.2367527900 -32.7183909942 -2.4999937829
49.3014065305 -32.6393145098 -2.4999937829
49.3269393498 -32.6074176111 -2.4999937829
49.3522830095 -32.5753702099 -2.4999937829
47.3845019316 -34.3112987038 -2.4999937570
47.4552962994 -34.2699190606 -2.4999937570
47.4729179990 -34.2594434873 -2.4999937570
47.5255960879 -34.2277046424 -2.4999937570
47.5953914545 -34.1846613597 -2.4999937570
49.4340325071 -32.5092561304 -2.4999937570
49.4711014391 -32.4601824143 -2.4999937570
49.4955714829 -32.4272846786 -2.4999937570
49.5439255338 -32.3610577722 -2.4999937570
47.3787398599 -34.3424894346 -2.4999937310
47.5557204307 -34.2376337476 -2.4999937310
49.2870691042 -32.7334198491 -2.4999937310
49.4781036336 -32.4911183550 -2.4999937310
47.2646206112 -34.4339729469 -2.4999937051
47.8115890896 -34.1022120161 -2.4999937051
49.8145765665 -32.0475077176 -2.4999937051
47.1849065528 -34.5041183312 -2.4999936792
47.2032222392 -34.4944415950 -2.4999936792
47.4027651363 -34.3844433047 -2.4999936792
47.5809760879 -34.2788586539 -2.4999936792
46.8983190742 -34.6734144752 -2.4999936532
47.0852977822 -34.5826236686 -2.4999936532
47.3723529299 -34.4572513506 -2.4999936273
49.7261253538 -32.3124484691 -2.4999936273
50.1288492009 -31.6545716539 -2.4999936273
49.9053396078 -32.1299939551 -2.4999935754
50.1826483034 -31.7075263308 -2.4999935495
46.3835632818 -35.0184227662 -2.4999935236
44.9258531735 -29.9595228049 -2.5000050957
44.8741380477 -30.0969455803 -2.5000052426
42.4193163486 -33.4635820316 -2.5000115131
44.9097577091 -33.4539429786 -2.5000115131
48.4554526685 -30.1941215654 -2.5000115131
48.4749189805 -30.1370899068 -2.5000115131
42.2817213467 -33.4524894334 -2.5000115621
48.4631699409 -30.2448879976 -2.5000115621
48.4682499066 -30.2306286885 -2.5000115621
48.4597747698 -30.3244374593 -2.5000116111
48.4650900720 -30.3101878457 -2.5000116111
42.1514128887 -33.4651184010 -2.5000116601
45.2725529181 -33.4483881721 -2.5000117090
45.3385982940 -33.4516530715 -2.5000117580
41.9241420060 -33.4675139527 -2.5000118070
41.8428815306 -33.4642249312 -2.5000118560
48.4739140119 -30.6122089569 -2.5000118560
45.6547759128 -33.4099851296 -2.5000119050
41.6941515128 -33.4594524034 -2.5000119540
48.4537084680 -30.7746301899 -2.5000119540
41.3707742594 -33.3725611816 -2.5000120520
45.7408467428 -33.4526123312 -2.5000120520
48.4563478369 -30.8809086510 -2.5000120520
45.8959158511 -33.4104360816 -2.5000121010
48.4710143837 -30.9058416653 -2.5000121010
45.8331259851 -33.4652929723 -2.5000121499
48.4699370867 -31.0673105596 -2.5000122479
46.4022242355 -33.3677253856 -2.5000124929
46.8732357529 -33.3610727581 -2.5000129827
48.0970194797 -33.7684357710 -2.5000151382
48.1125243390 -33.7552441842 -2.5000151382
48.1279901074 -33.7420067889 -2.5000151382
48.8218049145 -33.0551013779 -2.5000151382
48.8351964304 -33.0397688659 -2.5000151382
48.8883071789 -32.9780446901 -2.5000151382
48.9406838601 -32.9156964043 -2.5000151382
47.7607057586 -34.0662439474 -2.5000151872
47.8746526026 -33.9798447339 -2.5000151872
47.9229346649 -33.9420977203 -2.5000151872
49.0494708599 -32.8201618384 -2.5000151872
47.6589943477 -34.1699715210 -2.5000152362
47.7089721709 -34.1341308664 -2.5000152362
48.6504798655 -33.3136917744 -2.5000152362
49.0298828346 -32.8831680801 -2.5000152362
49.3022063921 -32.5237588130 -2.5000152362
47.4864195697 -34.3177107798 -2.5000152852
49.2375413334 -32.6543984238 -2.5000152852
49.4154092292 -32.4022730242 -2.5000152852
47.4825453326 -34.3492384748 -2.5000153342
49.5481450049 -32.2428067851 -2.5000153342
46.9412203333 -34.7810332923 -2.5000155301
44.8691745914 -30.0345416195 -2.5000062438
42.1439309807 -33.4614697888 -2.5000139147
42.1855421913 -33.4725128266 -2.5000139147
44.6550631860 -33.4666034849 -2.5000139147
44.7242701930 -33.4476620278 -2.5000139147
42.0681533706 -33.4654862402 -2.5000139781
42.1237093900 -33.4810245294 -2.5000139781
42.1794453763 -33.4959043663 -2.5000139781
44.7862577668 -33.4549616925 -2.5000139781
44.8414989710 -33.4383388446 -2.5000139781
41.9781137267 -33.4640680496 -2.5000140415
42.0197545250 -33.4765825202 -2.5000140415
44.9177108141 -33.4396415643 -2.5000140415
44.7859365891 -33.5054324484 -2.5000141049
44.9251540881 -33.4626401067 -2.5000141049
44.9390048752 -33.4581347792 -2.5000141049
44.9666661639 -33.4490013036 -2.5000141049
44.9804764233 -33.4443732354 -2.5000141049
45.0020555489 -33.4625902722 -2.5000141683
45.0159058521 -33.4578574564 -2.5000141683
45.0573719109 -33.4434134706 -2.5000141683
45.0792855014 -33.4612854295 -2.5000142317
45.1844844856 -33.4482937022 -2.5000142951
45.1982916988 -33.4430212912 -2.5000142951
45.2622859812 -33.4439896907 -2.5000143585
45.3310921012 -33.4160696473 -2.5000143585
45.6725486897 -33.4749845892 -2.5000148657
45.7967773913 -33.4130652962 -2.5000148657
48.4542624632 -30.0931868735 -2.5000148657
48.4619540671 -30.0633148457 -2.5000148657
48.4731597638 -30.0184227875 -2.5000148657
48.4768064092 -30.0034368874 -2.5000148657
48.4439280349 -27.4241833457 -2.5000148657
48.4358290985 -27.3944191719 -2.5000148657
48.4534088172 -30.1890336209 -2.5000149291
48.4575602467 -30.1741054012 -2.5000149291
48.4697493204 -30.1292479729 -2.5000149291
48.4591351736 -27.3880033987 -2.5000149291
48.4508219183 -27.3581498875 -2.5000149291
48.4423321851 -27.3283460828 -2.5000149291
48.4682142875 -30.2255015200 -2.5000149925
48.4389132362 -27.2321410286 -2.5000149925
48.4343177061 -27.2172686271 -2.5000149925
48.4738953975 -30.2921854242 -2.5000150559
48.4384947842 -27.1504736414 -2.5000150559
48.4336576690 -27.1356028351 -2.5000150559
48.4547653212 -30.4340142464 -2.5000151193
48.4644733656 -30.4041332784 -2.5000151193
48.4740044541 -30.3741953974 -2.5000151193
48.4566340922 -27.1280915598 -2.5000151193
48.4517306874 -27.1131671920 -2.5000151193
48.4467831550 -27.0982573947 -2.5000151193
48.4367558812 -27.0684820332 -2.5000151193
48.4316762276 -27.0536167297 -2.5000151193
46.0463790700 -33.4152954738 -2.5000151827
46.0600848973 -33.4074735671 -2.5000151827
48.4576968554 -30.5014097475 -2.5000151827
48.4678035828 -30.4715102560 -2.5000151827
48.4545390429 -27.0457664458 -2.5000151827
48.4493921146 -27.0308486357 -2.5000151827
48.4442010793 -27.0159461165 -2.5000151827
48.4389659823 -27.0010590186 -2.5000151827
48.4336868695 -26.9861874721 -2.5000151827
45.9891446427 -33.4749817843 -2.5000152460
46.1132610715 -33.4046345429 -2.5000152460
48.4805739799 -30.5092182336 -2.5000152460
48.4457166676 -26.9482367333 -2.5000152460
48.4402812674 -26.9333454482 -2.5000152460
48.4348018399 -26.9184703072 -2.5000152460
46.1665946816 -33.4012146464 -2.5000153094
48.4608782792 -30.6370893929 -2.5000153094
48.4663551060 -30.6221371167 -2.5000153094
48.4350146205 -26.8504770277 -2.5000153094
48.4553920015 -30.7202864270 -2.5000153728
48.4724282109 -30.6754267328 -2.5000153728
48.7761095085 -29.4354337897 -2.5000153728
48.4460397887 -26.8119854933 -2.5000153728
48.4402013313 -26.7970938485 -2.5000153728
48.4343188473 -26.7822195401 -2.5000153728
46.2600467996 -33.4010741746 -2.5000154362
46.2737096229 -33.3926202623 -2.5000154362
48.4485449259 -30.8037259380 -2.5000154362
48.4508316818 -26.7583730719 -2.5000154362
48.4265791960 -26.6988580848 -2.5000154362
48.4709740420 -30.8127409274 -2.5000154996
48.4301769648 -26.6449601234 -2.5000154996
48.4563329252 -30.9116715706 -2.5000155630
48.4688669232 -30.8817729684 -2.5000155630
46.4354080773 -33.3752989780 -2.5000156264
48.4463499165 -30.9958290069 -2.5000156264
48.4593819929 -30.9659879946 -2.5000156264
46.4759641071 -33.3774254153 -2.5000156898
48.4618627660 -31.0205258056 -2.5000156898
46.5166507606 -33.3792321763 -2.5000157532
48.4431872273 -31.1200463051 -2.5000157532
48.4637715620 -31.0752791794 -2.5000157532
48.4369203498 -31.1899028596 -2.5000158166
46.5984064573 -33.3818808123 -2.5000158800
48.4515284286 -31.2152845706 -2.5000158800
48.4430692833 -31.3411049385 -2.5000160068
48.4338019741 -31.4117115695 -2.5000160702
48.4367862359 -31.5088150438 -2.5000161970
46.9154840114 -33.3602060153 -2.5000163238
48.4295991976 -31.6214419278 -2.5000163238
48.4421652396 -31.6482554203 -2.5000163872
48.4287087422 -31.7198302900 -2.5000164506
48.4376159373 -31.8462268012 -2.5000166408
47.1545442345 -33.3559548685 -2.5000167042
48.4491162975 -31.8737398683 -2.5000167042
48.4325826036 -31.9460532555 -2.5000167676
48.4341229615 -31.9887333102 -2.5000168310
47.2685884709 -33.3554983622 -2.5000168944
48.4256874610 -32.0463963629 -2.5000168944
48.4264395546 -32.0893337293 -2.5000169577
48.4169142096 -32.1472227567 -2.5000170211
48.4168707988 -32.1904034020 -2.5000170845
48.4269428019 -32.1755745115 -2.5000170845
48.4203446625 -32.4370477546 -2.5000174649
48.1318103762 -33.7502399754 -2.5000191766
48.1464979053 -33.7362475203 -2.5000191766
48.1611439779 -33.7222116779 -2.5000191766
48.1903112413 -33.6940103235 -2.5000191766
48.2048321770 -33.6798450582 -2.5000191766
48.3194782551 -33.5649892582 -2.5000191766
48.3336169579 -33.5504424581 -2.5000191766
48.6857431906 -33.1579471907 -2.5000191766
48.7244032008 -33.1109472672 -2.5000191766
48.7371969936 -33.0952046124 -2.5000191766
47.9224649328 -33.9730858839 -2.5000192400
47.9531206296 -33.9462922442 -2.5000192400
47.9988056096 -33.9057628910 -2.5000192400
48.0441291154 -33.8648297053 -2.5000192400
48.0591560052 -33.8510961257 -2.5000192400
48.0741422029 -33.8373181540 -2.5000192400
48.1188553334 -33.7957190935 -2.5000192400
48.1336774546 -33.7817647627 -2.5000192400
48.6255030743 -33.2666750577 -2.5000192400
48.7302544042 -33.1419805012 -2.5000192400
48.8194692402 -33.0308656286 -2.5000192400
48.8320257210 -33.0148421017 -2.5000192400
48.9063642254 -32.9179273118 -2.5000192400
48.9428855061 -32.8689789520 -2.5000192400
48.9909021012 -32.8032139760 -2.5000192400
47.7979375011 -34.1100570865 -2.5000193034
47.8136908951 -34.0970507133 -2.5000193034
47.8450819131 -34.0708984477 -2.5000193034
47.8607192625 -34.0577527842 -2.5000193034
47.9383189495 -33.9913337724 -2.5000193034
47.9844042307 -33.9509340022 -2.5000193034
48.0149277855 -33.9237742964 -2.5000193034
48.3825304079 -33.5693957970 -2.5000193034
48.6438266279 -33.2824415623 -2.5000193034
48.6571280843 -33.2669365172 -2.5000193034
48.6967564406 -33.2201862449 -2.5000193034
48.7618767458 -33.1414935363 -2.5000193034
48.8761329182 -32.9974529050 -2.5000193034
48.9623239176 -32.8833484838 -2.5000193034
49.0105091788 -32.8173524975 -2.5000193034
49.0461338135 -32.7674838702 -2.5000193034
49.1160484351 -32.6668080132 -2.5000193034
49.1503329159 -32.6160087124 -2.5000193034
47.5716254599 -34.3188174812 -2.5000193668
47.6206314152 -34.2816590141 -2.5000193668
47.7656438318 -34.1675948667 -2.5000193668
48.6754981979 -33.2826487484 -2.5000193668
48.6888001287 -33.2670500123 -2.5000193668
49.2043801691 -32.5781620263 -2.5000193668
49.2267605922 -32.5438085590 -2.5000193668
49.2378744881 -32.5265823217 -2.5000193668
49.2489373770 -32.5093232829 -2.5000193668
49.2599491622 -32.4920315935 -2.5000193668
47.4534089839 -34.4354302763 -2.5000194302
47.4868082747 -34.4114036373 -2.5000194302
47.5531774894 -34.3627596644 -2.5000194302
47.7487670252 -34.2121640992 -2.5000194302
48.6535463121 -33.3450825430 -2.5000194302
48.6804737350 -33.3139745714 -2.5000194302
49.3240439700 -32.4352534018 -2.5000194302
49.3984981428 -32.3119951456 -2.5000194302
47.3319969017 -34.5495401869 -2.5000194936
47.3660734299 -34.5262298655 -2.5000194936
47.3830598278 -34.5144992034 -2.5000194936
49.4711080238 -32.2349970666 -2.5000194936
47.2767845595 -34.6157052438 -2.5000195570
47.1504379508 -34.7260548510 -2.5000196204
47.8425753413 -34.2296998830 -2.5000196204
49.6614971000 -31.9847557243 -2.5000196204
49.6897072703 -31.9291427309 -2.5000196204
47.0389251051 -34.8229713225 -2.5000196838
47.5265917801 -34.5019338552 -2.5000196838
49.7573882607 -31.8464241071 -2.5000196838
46.9005004878 -34.9595528135 -2.5000198106
46.7646387827 -35.0617634986 -2.5000198740
49.9703926082 -31.5516634619 -2.5000198740
50.1096212790 -31.2662999533 -2.5000199374
44.8738973277 -30.1084905121 -2.5000016571
44.5423163647 -33.4637917867 -2.5000022853
44.5682704480 -33.4558980451 -2.5000022853
44.5812298628 -33.4518936262 -2.5000022853
44.6663116418 -33.4500177736 -2.5000022911
44.7388087384 -33.4510029179 -2.5000022968
44.8375218972 -33.4413091086 -2.5000023026
44.8459109858 -33.4639797609 -2.5000023084
44.8718608679 -33.4542898482 -2.5000023084
44.9323765069 -33.4569684819 -2.5000023141
45.0931350281 -33.4434123669 -2.5000023256
45.1286082860 -33.4544237416 -2.5000023314
45.2779659051 -33.4398237271 -2.5000023429
45.4023531291 -33.4331654670 -2.5000023545
45.5017885606 -33.4366115301 -2.5000023660
45.8047249572 -33.4338242751 -2.5000024006
45.8429240889 -33.4391859113 -2.5000024063
45.9456229694 -33.4329642925 -2.5000024179
46.0360341931 -33.4328059876 -2.5000024294
48.4410860225 -30.4831751979 -2.5000024813
48.4452346402 -30.4677272971 -2.5000024813
48.4468088262 -27.6842473546 -2.5000024813
48.4426776841 -27.6687947712 -2.5000024813
48.4384572923 -30.5823160958 -2.5000024870
48.4428991983 -30.5668755374 -2.5000024870
48.4559505902 -30.5204759689 -2.5000024870
48.4445855315 -27.5850965361 -2.5000024870
48.4401610931 -27.5696509634 -2.5000024870
48.4386827616 -30.6663781441 -2.5000024928
48.4433733373 -30.6509365509 -2.5000024928
48.4526173494 -30.6200120758 -2.5000024928
48.4497821427 -27.5164967577 -2.5000024928
48.4404816441 -27.4855892239 -2.5000024928
48.4325720542 -30.7661994530 -2.5000024985
48.4375579461 -30.7507754996 -2.5000024985
48.4424981894 -30.7353368646 -2.5000024985
48.4473927407 -30.7198836830 -2.5000024985
48.4522415574 -30.7044160900 -2.5000024985
48.4540834556 -27.4475666385 -2.5000024985
48.4245544755 -30.8663034411 -2.5000025043
48.4624727528 -27.3938154486 -2.5000025043
48.4473642456 -27.3473671265 -2.5000025043
48.4366607377 -30.9050687826 -2.5000025101
48.4547300706 -27.2932721018 -2.5000025101
48.4494423183 -27.2777977966 -2.5000025101
48.4484896432 -30.9440398637 -2.5000025158
48.4450624146 -27.1924770524 -2.5000025158
48.4253117278 -31.0758959191 -2.5000025216
48.4370702584 -31.0450708650 -2.5000025216
48.4565403588 -27.1532811249 -2.5000025216
48.4508384800 -27.1378020770 -2.5000025216
48.4450908363 -27.1223399641 -2.5000025216
48.4298145588 -31.1308838527 -2.5000025274
48.4619181009 -27.0983718523 -2.5000025274
48.4560537670 -27.0828771363 -2.5000025274
48.4441877194 -27.0519400865 -2.5000025274
48.4211566162 -31.2169116859 -2.5000025331
48.4461599550 -31.1552318431 -2.5000025331
48.4176628454 -31.2877688354 -2.5000025389
48.4306750212 -31.2569853266 -2.5000025389
48.4709775619 -26.9878210935 -2.5000025389
48.4522657477 -26.9413132835 -2.5000025389
48.4199563268 -31.3434728559 -2.5000025446
48.4332980260 -31.3126748032 -2.5000025446
48.4554458213 -26.8856528389 -2.5000025446
48.4513893283 -26.8142867045 -2.5000025504
48.4446846653 -26.7988243775 -2.5000025504
48.4157256091 -31.4708952694 -2.5000025562
48.4298212562 -31.4401200169 -2.5000025562
48.4600692374 -26.7736670438 -2.5000025562
48.4305270953 -31.4964474325 -2.5000025619
48.4623525644 -26.6608341810 -2.5000025677
48.3716818393 -26.4196445389 -2.5000025735
48.3638101021 -26.4044197278 -2.5000025735
48.3479316871 -26.3740402967 -2.5000025735
48.3237777580 -26.3286486196 -2.5000025735
48.7348783699 -27.2161834658 -2.5000025792
48.6594115664 -27.0055676073 -2.5000025792
48.4010302873 -26.4238858376 -2.5000025792
48.3531968585 -26.3323683687 -2.5000025792
48.2526953766 -26.1519521030 -2.5000025792
48.2177795539 -26.0926201498 -2.5000025792
48.2089410928 -26.0778520404 -2.5000025792
48.1821641324 -26.0337054904 -2.5000025792
48.4195398656 -31.7390672960 -2.5000025850
48.8054607439 -27.3565194845 -2.5000025850
48.7900077496 -27.3070288050 -2.5000025850
48.2473712390 -26.0950927259 -2.5000025850
48.4090074670 -31.8116760893 -2.5000025908
48.4170861710 -31.7963172699 -2.5000025908
48.8534464281 -27.4325426668 -2.5000025908
48.8436421642 -27.3992483889 -2.5000025908
48.4103504807 -31.9113075194 -2.5000026023
48.4218691288 -32.1831599872 -2.5000026369
48.4575427450 -32.3105896990 -2.5000026599
48.4392766462 -32.3852777848 -2.5000026657
48.4399207307 -32.4291673937 -2.5000026714
48.4591256335 -32.6194846093 -2.5000027003
48.4672378325 -32.6932887286 -2.5000027118
48.4779242513 -32.6777537958 -2.5000027118
48.4721901337 -32.8125523103 -2.5000027291
48.0117326262 -33.9118630646 -2.5000028155
48.0260258014 -33.8976702668 -2.5000028155
48.0686525439 -33.8548390538 -2.5000028155
48.1108975049 -33.8116312390 -2.5000028155
48.1248937423 -33.7971455321 -2.5000028155
48.2216590405 -33.6945952072 -2.5000028155
48.3028957170 -33.6051160323 -2.5000028155
48.7085192558 -33.1044888372 -2.5000028155
48.7204210232 -33.0882383511 -2.5000028155
48.7322746667 -33.0719527286 -2.5000028155
48.8253589935 -32.9404200004 -2.5000028155
47.8682079055 -34.0828845196 -2.5000028213
47.8977665407 -34.0553028515 -2.5000028213
47.9124845353 -34.0414465584 -2.5000028213
47.9271614762 -34.0275467874 -2.5000028213
48.3477558156 -33.5909531853 -2.5000028213
48.8794758786 -32.9040852609 -2.5000028213
48.9355196948 -32.8199762987 -2.5000028213
48.9685466934 -32.7691162756 -2.5000028213
47.7032766989 -34.2629532884 -2.5000028270
47.7491578328 -34.2229719082 -2.5000028270
47.7643724731 -34.2095544929 -2.5000028270
47.7946823476 -34.1825849332 -2.5000028270
49.0107221444 -32.7480020655 -2.5000028270
49.0960627691 -32.6099710697 -2.5000028270
49.1064999679 -32.5925763235 -2.5000028270
49.1168856642 -32.5751507784 -2.5000028270
47.6259318311 -34.3602589516 -2.5000028328
49.0850412102 -32.6746201613 -2.5000028328
49.1167723666 -32.6224389426 -2.5000028328
49.1480391944 -32.5699781826 -2.5000028328
49.1583578596 -32.5524298557 -2.5000028328
47.4179396584 -34.5572954240 -2.5000028386
47.4503129483 -34.5323693911 -2.5000028386
47.5783144803 -34.4307631346 -2.5000028386
49.1269194085 -32.6523930269 -2.5000028386
49.2993801847 -32.3509932672 -2.5000028386
49.3303605408 -32.3444092860 -2.5000028443
49.3591516006 -32.2900639991 -2.5000028443
47.2654077520 -34.7302635830 -2.5000028501
47.1439956394 -34.8443734613 -2.5000028559
47.6878229330 -34.4345479550 -2.5000028559
49.5656244326 -31.9789549944 -2.5000028559
46.2488669462 -35.6009630201 -2.5000029077
44.8253424013 -30.1066500430 -2.4999991774
44.2014483448 -33.4439289936 -2.4999966876
44.2919214338 -33.4431564836 -2.4999966617
44.3158444935 -33.4359576877 -2.4999966617
44.5501202392 -33.4600620079 -2.4999965579
44.7353722809 -33.4407767575 -2.4999965061
44.7898432944 -33.4705979833 -2.4999964542
44.9655812471 -33.4459793154 -2.4999964023
44.9877894942 -33.4623036432 -2.4999963764
45.3420315427 -33.4439385042 -2.4999962208
45.3778656442 -33.4237680965 -2.4999962208
45.7412910167 -33.4277907337 -2.4999960133
45.9029762395 -33.4350254392 -2.4999959096
48.4405052328 -30.7744445749 -2.4999952612
48.4564404779 -30.7110044276 -2.4999952612
48.4617707888 -28.1030191922 -2.4999952612
48.4540268236 -28.0712436285 -2.4999952612
48.4500843766 -28.0553731667 -2.4999952612
48.4296487542 -30.9073168675 -2.4999952353
48.4384965180 -30.8756822686 -2.4999952353
48.4530309793 -27.9699909058 -2.4999952353
48.4345733294 -30.9772808620 -2.4999952093
48.4392275511 -30.9614552320 -2.4999952093
48.4438349375 -30.9456159032 -2.4999952093
48.4529090429 -30.9138967039 -2.4999952093
48.4546200386 -27.8842295477 -2.4999952093
48.4409922726 -27.8366555968 -2.4999952093
48.4363559287 -27.8208247200 -2.4999952093
48.4385869837 -31.0475720346 -2.4999951834
48.4434491219 -31.0317342240 -2.4999951834
48.4482643877 -31.0158820996 -2.4999951834
48.4452932203 -27.7663814178 -2.4999951834
48.4404489739 -27.7505381255 -2.4999951834
48.4314001664 -31.1498277912 -2.4999951575
48.4436244135 -27.6799351157 -2.4999951575
48.4385244506 -27.6640971383 -2.4999951575
48.4333776584 -27.6482743168 -2.4999951575
48.4395545136 -31.2761316988 -2.4999951056
48.4450927684 -31.2602900259 -2.4999951056
48.4416746599 -27.5219797000 -2.4999951056
48.4361074449 -27.5061481814 -2.4999951056
48.4453938544 -31.3317707200 -2.4999950797
48.4327796225 -31.4351807686 -2.4999950537
48.4587617223 -27.4263448588 -2.4999950537
48.4470143771 -27.3945989407 -2.4999950537
48.4410703234 -27.3787521837 -2.4999950537
48.4369810602 -31.4913557086 -2.4999950278
48.4431559978 -31.4755207068 -2.4999950278
48.4331404178 -27.2909292376 -2.4999950278
48.4616165339 -31.6865843023 -2.4999949241
48.4448850330 -27.0066331479 -2.4999948981
48.4377933156 -26.9907943873 -2.4999948981
48.4526732126 -26.9650005181 -2.4999948722
48.4573590511 -31.8749394452 -2.4999948462
48.4454313475 -26.8914470873 -2.4999948462
48.4448007083 -26.8335638478 -2.4999948203
48.4713038999 -31.9590890420 -2.4999947944
48.4761466171 -32.0598661583 -2.4999947425
48.4840031401 -32.0439128102 -2.4999947425
48.6215016274 -26.9278674406 -2.4999946906
48.3457068800 -26.3846410068 -2.4999946906
48.2543366536 -26.2304227007 -2.4999946906
48.2355174091 -26.1999071606 -2.4999946906
48.2080288655 -26.1110581228 -2.4999946647
48.0779455233 -25.9166039651 -2.4999946647
48.4718684592 -32.2794281652 -2.4999946388
48.8641990719 -27.4123864679 -2.4999946388
48.8523620484 -27.3782420906 -2.4999946388
48.8280830155 -27.3101664168 -2.4999946388
47.9922611714 -25.7561051077 -2.4999946388
48.8811453000 -27.3873876311 -2.4999946128
48.0202109694 -25.7126859505 -2.4999945869
47.7464987340 -25.3720277739 -2.4999945869
47.7226098248 -25.3445317968 -2.4999945869
48.4746399246 -32.6178146379 -2.4999944572
48.4686002379 -32.8119089483 -2.4999943535
48.0569408551 -33.9080370217 -2.4999939904
48.1099810736 -33.8489160158 -2.4999939904
48.1362379206 -33.8191211954 -2.4999939904
48.1623180319 -33.7891715522 -2.4999939904
48.1752915261 -33.7741389994 -2.4999939904
48.2139444019 -33.7288119959 -2.4999939904
48.2394888536 -33.6984041956 -2.4999939904
48.6676138000 -33.1263679715 -2.4999939904
48.7221764916 -33.0434223866 -2.4999939904
48.7649396176 -32.9764905318 -2.4999939904
48.7755064177 -32.9596788712 -2.4999939904
48.7860234396 -32.9428360257 -2.4999939904
47.9248742856 -34.0841601878 -2.4999939645
47.9662882867 -34.0410432886 -2.4999939645
47.9800077208 -34.0265895252 -2.4999939645
48.3834931031 -33.5590658799 -2.4999939645
48.8790241375 -32.8364204562 -2.4999939645
48.9292752684 -32.7503797462 -2.4999939645
48.9490184668 -32.7157569324 -2.4999939645
48.9685564796 -32.6810179173 -2.4999939645
48.9782483273 -32.6636052140 -2.4999939645
47.7287513908 -34.3117152659 -2.4999939385
47.7432725609 -34.2979629953 -2.4999939385
47.7577529857 -34.2841678286 -2.4999939385
47.8009485234 -34.2425261612 -2.4999939385
47.9561303779 -34.0865996867 -2.4999939385
48.9302193218 -32.7970453361 -2.4999939385
49.0186853347 -32.6402939087 -2.4999939385
49.0282564941 -32.6227330934 -2.4999939385
49.0660204015 -32.5522090087 -2.4999939385
49.1120474809 -32.4634336397 -2.4999939385
47.6273059206 -34.4381384358 -2.4999939126
49.1516961867 -32.4385742393 -2.4999939126
49.1695907463 -32.4026409658 -2.4999939126
47.4610411950 -34.6461109096 -2.4999938607
49.3654073284 -32.0937441730 -2.4999938607
49.4113941102 -32.0472674578 -2.4999938348
49.4647243737 -31.9813314843 -2.4999938089
47.0335504805 -35.2390456971 -2.4999936273
43.8699661636 -33.4510953889 -2.4999989201
43.9028896698 -33.4433291959 -2.4999989201
43.9526098103 -33.4559542857 -2.4999989057
44.0358202935 -33.4589730897 -2.4999988913
44.0797844277 -33.4465902599 -2.4999988913
44.1525504989 -33.4501489414 -2.4999988769
44.2073392512 -33.4328636687 -2.4999988769
44.2805895907 -33.4339173468 -2.4999988625
44.3213973313 -33.4453000328 -2.4999988481
44.3433118214 -33.4374843147 -2.4999988481
44.4369538288 -33.4542508073 -2.4999988193
44.7811146637 -33.4376919150 -2.4999987472
44.8245063545 -33.4435540668 -2.4999987328
44.8681406388 -33.4489357825 -2.4999987184
44.8791120269 -33.4434267487 -2.4999987184
44.9010056730 -33.4323114360 -2.4999987184
45.0224499162 -33.4503267117 -2.4999986752
48.4401554751 -29.9010779439 -2.4999979548
48.4426226757 -29.7404349034 -2.4999979548
48.4424360868 -29.6922350697 -2.4999979548
48.4646991214 -31.2105477661 -2.4999978251
48.4733195518 -31.1782579951 -2.4999978251
48.4440693341 -28.1898263286 -2.4999978251
48.4339677906 -28.0705664300 -2.4999978107
48.4551750858 -31.4174209474 -2.4999977963
48.4317206694 -27.9831025252 -2.4999977963
48.4579268229 -31.4891187351 -2.4999977819
48.4732582194 -31.4407142249 -2.4999977819
48.4334928862 -27.9113738415 -2.4999977819
48.4280675646 -27.8953420802 -2.4999977819
48.4809389240 -31.4965199839 -2.4999977675
48.4454576641 -27.8714761740 -2.4999977675
48.4606103910 -31.6334000564 -2.4999977531
48.4514772584 -27.8152719286 -2.4999977531
48.4457675713 -27.7991873868 -2.4999977531
48.4546816942 -31.7220702068 -2.4999977387
48.4663286385 -31.6898307497 -2.4999977387
48.4714726825 -31.7465116208 -2.4999977243
48.4435219560 -27.6538199526 -2.4999977243
48.4637192923 -31.8357318225 -2.4999977098
48.4345507008 -27.5647139706 -2.4999977098
48.4862792827 -31.8444141100 -2.4999976954
48.4374147671 -27.5074830590 -2.4999976954
48.4307946464 -27.4914414632 -2.4999976954
48.4396884062 -27.4500309254 -2.4999976810
48.4693440822 -32.2567989296 -2.4999976090
48.4609769906 -32.3315944231 -2.4999975946
48.4686273606 -32.3154620185 -2.4999975946
48.4329060551 -27.0849614873 -2.4999975946
48.4733027081 -32.4171907993 -2.4999975658
48.4412910609 -26.9400608781 -2.4999975514
48.4247171935 -26.8052028981 -2.4999975225
48.4616207247 -32.8027399142 -2.4999974649
48.4377246258 -26.6298747533 -2.4999974649
48.4401502135 -26.5856881864 -2.4999974505
48.7434702206 -27.1197733776 -2.4999974361
48.7278833769 -27.0859058986 -2.4999974361
48.6635405775 -26.9513758854 -2.4999974361
48.3153505733 -26.3349254957 -2.4999974361
48.1699324145 -26.1182417183 -2.4999974361
48.1592038370 -26.1029974622 -2.4999974361
48.1484302112 -26.0877850099 -2.4999974361
48.1267481920 -26.0574560489 -2.4999974361
48.0938896705 -26.0122044546 -2.4999974361
48.8333686868 -27.2638413901 -2.4999974217
48.8186326245 -27.2294395200 -2.4999974217
48.8036932872 -27.1951254356 -2.4999974217
47.9774566202 -25.8191943192 -2.4999974217
48.9333048952 -27.4458434145 -2.4999974073
47.8779205984 -25.6584950040 -2.4999974073
48.9957377377 -27.5429867250 -2.4999973929
47.7732076599 -25.5002688549 -2.4999973929
47.7354183365 -25.4581766757 -2.4999973929
49.1446487244 -27.8322438572 -2.4999973640
47.4396638416 -25.0858076058 -2.4999973640
48.4437763107 -33.2081928495 -2.4999973496
49.2649908895 -28.0753965397 -2.4999973352
48.2458685158 -33.7035546597 -2.4999972776
48.2575783336 -33.6880525820 -2.4999972776
48.2692422422 -33.6725159323 -2.4999972776
48.0205620451 -34.0218416983 -2.4999972632
48.0458228077 -33.9921303890 -2.4999972632
48.0583871599 -33.9772188200 -2.4999972632
48.0833832566 -33.9472845057 -2.4999972632
48.1694657901 -33.8413608571 -2.4999972632
47.8432344815 -34.2563368763 -2.4999972488
47.8698856998 -34.2276705924 -2.4999972488
47.8963668524 -34.1988471327 -2.4999972488
47.9618196276 -34.1261074735 -2.4999972488
48.9678769649 -32.6162472528 -2.4999972488
49.0563400793 -32.4844906812 -2.4999972344
49.0644401392 -32.4665964159 -2.4999972344
49.1196534898 -32.3406766259 -2.4999972344
49.1872978308 -32.2409361994 -2.4999972200
49.2674222381 -32.1026401172 -2.4999972056
47.1840304386 -35.0261094981 -2.4999971767
49.5900758134 -31.4936950487 -2.4999971335
44.9858305576 -29.8988780521 -2.5000014304
44.4202632006 -33.4391489854 -2.5000016263
44.4794721464 -33.4398221634 -2.5000016292
44.4992305868 -33.4574960228 -2.5000016321
44.5390104604 -33.4394724712 -2.5000016321
44.6087678441 -33.4333339665 -2.5000016350
44.6092906982 -33.4598974956 -2.5000016378
44.6391626186 -33.4454471246 -2.5000016378
44.7095226241 -33.4372757310 -2.5000016407
44.8113548533 -33.4382992395 -2.5000016465
44.8212616188 -33.4329142640 -2.5000016465
44.8843802077 -33.4532473803 -2.5000016522
44.9240828466 -33.4306668570 -2.5000016522
45.0080178200 -33.4373665526 -2.5000016580
45.0262905768 -26.5504933935 -2.5000016782
45.1240105397 -26.5518722536 -2.5000016839
45.4493032801 -33.4340012976 -2.5000016868
45.4789123077 -33.4120973059 -2.5000016868
45.1992451155 -26.5697132480 -2.5000016868
45.2225332749 -26.5557993837 -2.5000016897
45.7410067827 -33.4215399723 -2.5000017070
46.1547803987 -26.5656947162 -2.5000017560
48.4511631474 -31.4569462625 -2.5000018626
48.4591746531 -31.4246473778 -2.5000018626
48.4567182778 -28.7387135479 -2.5000018626
48.4486477087 -28.7064293707 -2.5000018626
48.4579409768 -31.5275649789 -2.5000018655
48.4746078760 -31.4628352337 -2.5000018655
48.4509805162 -28.6196549749 -2.5000018655
48.4466169357 -28.6035244120 -2.5000018655
48.4422056571 -28.5874068280 -2.5000018655
48.4455363366 -31.6631275411 -2.5000018684
48.4547677785 -31.6308583379 -2.5000018684
48.4593118656 -31.6147033964 -2.5000018684
48.4726571149 -31.5661589084 -2.5000018684
48.4770097310 -31.5499513300 -2.5000018684
48.4610337085 -28.5648176583 -2.5000018684
48.4473128650 -28.5163779903 -2.5000018684
48.4426437885 -28.5002587288 -2.5000018684
