10.9391610766 -31.2014455753 -1.9001666675
10.9382207699 -31.1573313600 -1.9001664451
7.4776304766 -26.5480997675 -1.9001432119
10.9611261886 -32.5098585097 -1.9001732626
10.9647266789 -32.4950821639 -1.9001731882
10.9596414777 -30.0547892583 -1.9001608876
10.9564372390 -29.9454235795 -1.9001603364
10.9484225165 -29.9159329249 -1.9001601877
10.9402334577 -29.8864902043 -1.9001600393
10.9439557321 -32.7584586533 -1.9001745157
10.9482917017 -32.7437320131 -1.9001744415
10.9508343396 -29.8356656492 -1.9001597831
10.9492726550 -32.8243705762 -1.9001748480
10.9489527616 -32.9053556437 -1.9001752562
10.9584501222 -32.8758574661 -1.9001751075
10.9548320872 -33.0388074978 -1.9001759289
11.0437813931 -29.6442987586 -1.9001588185
11.0240084484 -29.5843529673 -1.9001585164
10.9548723031 -29.3912171780 -1.9001575428
10.9429115762 -29.2940224244 -1.9001570529
10.9310431824 -29.2646231928 -1.9001569047
11.0395049517 -29.4104024502 -1.9001576396
10.8848705858 -33.5922869577 -1.9001787187
10.9483362721 -29.1188162134 -1.9001561698
10.9067546861 -33.6025544519 -1.9001787705
10.9377692431 -29.0354206697 -1.9001557494
10.9328158033 -28.5408124878 -1.9001532563
11.9831984468 -27.7479206723 -1.9001492597
11.9515689311 -27.6946772061 -1.9001489913
7.6928072749 -30.7763012028 -1.9001645245
7.4776908879 -29.9829891026 -1.9001605257
10.9439203254 -32.8110403197 -1.9001747808
10.9550862903 -32.7690178342 -1.9001745690
10.9587253511 -32.7549885228 -1.9001744982
11.0609920749 -30.8140208511 -1.9001647146
10.9423626474 -30.2468892287 -1.9001618559
10.9477217653 -32.8875080308 -1.9001751662
11.0366901668 -30.5380115744 -1.9001633234
10.9769618975 -30.2827657236 -1.9001620368
10.9656895426 -30.2405495726 -1.9001618240
10.9618488906 -30.2264999580 -1.9001617532
10.9500778037 -30.1844201421 -1.9001615411
11.0091736443 -32.7528794922 -1.9001744876
11.0253081031 -30.3759999477 -1.9001625067
10.9527808352 -30.1075661847 -1.9001611537
7.4978680236 -26.5534051156 -1.9001432386
4.8074149740 -26.5868766796 -1.9001434073
7.5924732212 -26.5536722081 -1.9001432399
7.5629966049 -26.5456060087 -1.9001431993
7.5334727821 -26.5377143440 -1.9001431595
4.7128457016 -26.5894972663 -1.9001434205
7.6727445855 -26.5514005313 -1.9001432285
7.6580051714 -26.5471081849 -1.9001432069
4.9424409985 -26.5005544337 -1.9001429722
4.6325426670 -26.5892232739 -1.9001434191
4.6179284416 -26.5939242292 -1.9001434428
7.7238844684 -26.5414012181 -1.9001431781
7.7091152508 -26.5369576345 -1.9001431557
4.5519046549 -26.5902485205 -1.9001434243
7.8343682144 -26.5507390302 -1.9001432252
7.8196261362 -26.5459685749 -1.9001432011
4.8556242601 -26.4732259915 -1.9001428344
4.4855714409 -26.5874471003 -1.9001434102
10.9486314351 -29.2348140251 -1.9001567545
10.9431050208 -29.1152794293 -1.9001561520
8.1085770176 -26.5707215006 -1.9001433259
8.0644753056 -26.5541068315 -1.9001432421
8.1907021234 -26.5768272869 -1.9001433567
8.1613520303 -26.5652213591 -1.9001432982
10.9543218158 -28.9299443723 -1.9001552178
10.9388451857 -28.9019467588 -1.9001550766
8.3358533211 -26.5582770418 -1.9001432632
8.3453376026 -26.5360423013 -1.9001431511
8.9003503588 -26.5899195163 -1.9001434227
8.8904514126 -26.5022565307 -1.9001429808
11.3381636853 -26.8657915871 -1.9001448132
10.7204309480 -26.2667960106 -1.9001417939
9.7209260050 -25.4705100154 -1.9001377802
9.1635018372 -25.0475809058 -1.9001356484
10.9683981925 -30.4174562330 -1.9001627157
10.9525332657 -30.3646752703 -1.9001624497
10.9462273488 -30.2652014200 -1.9001619482
11.0376379103 -30.4841531177 -1.9001630519
10.9648033045 -30.2444148220 -1.9001618435
10.9559252011 -30.2180251720 -1.9001617105
10.9558190553 -30.1441715893 -1.9001613382
10.9544981086 -30.0699917534 -1.9001609643
10.9481735458 -29.9207329411 -1.9001602119
10.9597149051 -29.8851996635 -1.9001600328
10.9542327686 -29.8720148969 -1.9001599664
10.9499138190 -29.4076740336 -1.9001576258
10.9621705269 -29.1782729312 -1.9001564695
10.9545971625 -29.1650839935 -1.9001564030
7.8164185274 -26.5622042521 -1.9001432830
7.8011201228 -26.5583324642 -1.9001432634
7.7858103317 -26.5545059486 -1.9001432441
7.7551571258 -26.5469888682 -1.9001432063
7.7398139794 -26.5432983691 -1.9001431877
5.2077575231 -26.5560734448 -1.9001432520
5.0704345082 -26.5923060108 -1.9001434347
5.0552371649 -26.5965572085 -1.9001434561
7.8990463685 -26.5589064942 -1.9001432663
5.0639569409 -26.5690170348 -1.9001433173
5.0029688403 -26.5863695781 -1.9001434048
4.9573648443 -26.5998569010 -1.9001434727
8.0126488205 -26.5657864241 -1.9001433010
7.9820583837 -26.5569270936 -1.9001432564
7.9667436436 -26.5525653361 -1.9001432344
7.9360757898 -26.5439778274 -1.9001431911
7.9207229445 -26.5397521514 -1.9001431698
4.9351634857 -26.5813133718 -1.9001433793
8.0960264017 -26.5656292897 -1.9001433002
8.0807369055 -26.5609303561 -1.9001432765
8.0040846039 -26.5381152414 -1.9001431615
7.7877613613 -26.4802925515 -1.9001428701
5.0202067458 -26.5311026092 -1.9001431262
4.8365616828 -26.5868955969 -1.9001434074
4.8061517217 -26.5968266950 -1.9001434575
8.2407351085 -26.5870512564 -1.9001434082
8.1950096632 -26.5718051931 -1.9001433313
8.1797380034 -26.5668134220 -1.9001433062
8.1338353607 -26.5521094708 -1.9001432321
4.7833288404 -26.5789257500 -1.9001433672
8.2484828882 -26.5641535012 -1.9001432928
8.2331883593 -26.5590035802 -1.9001432668
8.2178786630 -26.5538989257 -1.9001432411
4.7145667327 -26.5767562087 -1.9001433563
4.6536946651 -26.5982423575 -1.9001434646
8.3785645036 -26.5842689672 -1.9001433942
8.3022248116 -26.5570463144 -1.9001432570
4.5998276255 -26.5921556109 -1.9001434339
8.4717380112 -26.5674518415 -1.9001433094
8.3951393957 -26.5388529560 -1.9001431652
4.4609058405 -26.5936204294 -1.9001434413
8.5285251812 -26.5116134801 -1.9001430279
4.3115537351 -26.5765555092 -1.9001433553
4.2810917872 -26.5895929117 -1.9001434210
8.6146002384 -26.5197886006 -1.9001430692
4.2562472575 -26.5740126048 -1.9001433425
4.2409993614 -26.5806723957 -1.9001433760
8.6546198423 -26.5100454999 -1.9001430200
8.6236883879 -26.4973890287 -1.9001429562
4.1702373733 -26.5857402471 -1.9001434016
4.1144961373 -26.5846854672 -1.9001433963
4.0992804336 -26.5917645368 -1.9001434320
3.8028807102 -26.7134472995 -1.9001440453
3.7289521211 -26.7538866487 -1.9001442491
3.6995495203 -26.7703678144 -1.9001443322
3.6142821301 -26.7914560355 -1.9001444385
3.4981850864 -26.8611233108 -1.9001447897
4.7810398595 -26.2494140652 -1.9001417063
9.0887841082 -26.5755073766 -1.9001433500
9.1718171221 -26.5635544526 -1.9001432898
9.1565167811 -26.5556731446 -1.9001432500
9.2975652019 -26.5479712373 -1.9001432112
9.9038336987 -26.5440006145 -1.9001431912
10.4376761079 -26.5060734130 -1.9001430000
10.6925119937 -26.3358249464 -1.9001421419
10.6122446103 -26.2744052914 -1.9001418323
10.5473821130 -26.2261285420 -1.9001415889
10.6752322549 -26.2919388532 -1.9001419207
10.6591218478 -26.2796113598 -1.9001418585
10.4464262250 -26.1237343794 -1.9001410728
10.3294602485 -26.0432212883 -1.9001406670
10.4269722402 -26.0806330361 -1.9001408555
10.4102378385 -26.0690408652 -1.9001407971
10.2067981531 -25.9338286112 -1.9001401156
10.1680380275 -25.8806794328 -1.9001398477
9.9168000940 -25.7026975710 -1.9001389505
9.9644533736 -25.7020587971 -1.9001389473
12.0555968712 -27.5089905006 -1.9001480553
10.9406535980 -30.7711250255 -1.9001644984
10.9430319951 -30.4496730637 -1.9001628781
11.0256809489 -30.3930952889 -1.9001625929
10.9509282513 -29.8424278107 -1.9001598172
11.0317611529 -29.6293094409 -1.9001587430
10.9558346898 -29.4444356047 -1.9001578111
5.1775973674 -26.5994713583 -1.9001434708
8.3602903433 -26.5460792635 -1.9001432017
8.3445074874 -26.5415339649 -1.9001431788
5.1390894316 -26.5862121336 -1.9001434040
5.0921838748 -26.6013011731 -1.9001434800
8.4302835483 -26.5415889156 -1.9001431790
5.0533482243 -26.5886577482 -1.9001434163
8.5321685781 -26.5480723142 -1.9001432117
4.9829611086 -26.5870414822 -1.9001434081
8.7133525379 -26.5328257746 -1.9001431349
8.8322002860 -26.5506520854 -1.9001432247
4.6986955147 -26.5899221733 -1.9001434227
9.0985040089 -26.5275275246 -1.9001431082
4.1554344945 -26.5964715177 -1.9001434557
4.5089286235 -26.3541359881 -1.9001422342
9.7601060982 -26.4998214988 -1.9001429685
11.4910812443 -27.0288758454 -1.9001456353
11.4478539470 -26.9875770894 -1.9001454271
10.4612996208 -26.2140266536 -1.9001415279
11.7329071248 -27.2389157399 -1.9001466940
11.6357737581 -27.1380995701 -1.9001461858
11.7779525481 -27.2516011449 -1.9001467579
7.6518652261 -30.0090316784 -1.9001608981
10.9444913431 -30.9268049845 -1.9001657519
10.9351044273 -30.8080122524 -1.9001651560
10.9476936141 -30.7671908246 -1.9001649531
10.9405147445 -30.7447590182 -1.9001648401
10.9448764319 -30.6810933039 -1.9001645220
10.9505806257 -30.3571895942 -1.9001629038
10.9457949098 -30.3459616356 -1.9001628472
10.9361239401 -30.3235484349 -1.9001627342
10.9420353742 -29.9472632886 -1.9001608577
7.0614171572 -26.5630069961 -1.9001439316
6.9654785640 -26.5654774937 -1.9001439440
6.9015503915 -26.5680703102 -1.9001439571
6.8057268437 -26.5733773543 -1.9001439838
6.7897660625 -26.5744271785 -1.9001439891
6.7578541658 -26.5766684483 -1.9001440004
8.3412930091 -26.4964479938 -1.9001436191
5.6519243111 -26.5736630047 -1.9001440083
5.5881849501 -26.5917978322 -1.9001440998
5.5722839872 -26.5964492850 -1.9001441232
8.4437890017 -26.4948790471 -1.9001436141
5.5335654654 -26.5827432905 -1.9001440570
5.5176379565 -26.5875563572 -1.9001440813
8.5629007611 -26.4993795447 -1.9001436397
8.5305138246 -26.4911316676 -1.9001435981
8.4818433426 -26.4791194835 -1.9001435375
5.4946296912 -26.5693081800 -1.9001439922
5.3119773350 -26.6032435943 -1.9001441661
8.7860229324 -26.5113277273 -1.9001437057
8.5423064886 -26.4442459106 -1.9001433675
5.3520312138 -26.5641861317 -1.9001439721
8.8738428801 -26.5130299832 -1.9001437171
8.8576945315 -26.5079622102 -1.9001436916
5.1846323149 -26.5971103836 -1.9001441409
8.9458286840 -26.5108125465 -1.9001437088
5.1444336846 -26.5861993846 -1.9001440888
5.1126202323 -26.5981747872 -1.9001441492
5.0967402144 -26.6042330186 -1.9001441797
5.0562512081 -26.5939693358 -1.9001441309
8.9771929040 -26.4702547515 -1.9001435102
9.2118623379 -26.5279034927 -1.9001438036
9.5118341366 -26.5718470598 -1.9001440338
9.5854776744 -26.5781065439 -1.9001440682
4.6814803639 -26.5955586876 -1.9001441562
4.6497303868 -26.6102729138 -1.9001442303
4.6077095004 -26.6033335639 -1.9001441982
4.4913840599 -26.6060387988 -1.9001442176
9.8181588414 -26.5811794282 -1.9001440952
9.8608370015 -26.5754408964 -1.9001440692
9.9785991452 -26.5815420402 -1.9001441057
9.9626486339 -26.5732058986 -1.9001440637
4.2883933024 -26.6017921104 -1.9001442078
10.0058164210 -26.5685515738 -1.9001440431
4.2451808117 -26.5975729590 -1.9001441894
10.1245596889 -26.5777010812 -1.9001440950
4.1424091180 -26.5989901123 -1.9001442023
3.8195063096 -26.7357944749 -1.9001448976
4.4834072684 -26.3412396194 -1.9001429117
3.6221620616 -26.8374714383 -1.9001454130
4.7433680089 -26.1989458486 -1.9001421973
4.7263086152 -26.2060981416 -1.9001422334
3.3246504402 -27.0247885104 -1.9001463601
3.2809208630 -27.0589544288 -1.9001465323
4.9585550770 -26.0879349770 -1.9001416407
3.0651962676 -27.2051182118 -1.9001472719
11.2276645883 -26.7883046340 -1.9001452084
11.4543984466 -26.9430994870 -1.9001459915
11.3795875348 -26.8800245215 -1.9001456736
10.4146042791 -26.2136655621 -1.9001423148
10.3975636149 -26.2040412481 -1.9001422663
10.3291184941 -26.1660493426 -1.9001420748
10.2947285524 -26.1473577620 -1.9001419805
10.2542292917 -26.0983289433 -1.9001417363
10.2368481426 -26.0891795522 -1.9001416902
11.9586691033 -27.3528102764 -1.9001480625
11.9312719180 -27.3244569569 -1.9001479196
12.0441028754 -27.4079122439 -1.9001483431
12.4054628255 -27.7515279651 -1.9001500809
12.1647958029 -27.4320893789 -1.9001484736
7.5833420180 -30.0269595991 -1.9001609828
10.9417914789 -30.5386421647 -1.9001637723
10.9419136378 -30.4781211419 -1.9001634701
10.9456598565 -30.4274653267 -1.9001632177
10.9373593033 -29.9918882196 -1.9001610451
4.0510424790 -29.9635337481 -1.9001609051
10.9456420545 -29.8194535438 -1.9001601875
3.9824778823 -29.9370606407 -1.9001607803
10.9397546637 -29.6779190981 -1.9001594827
11.0074043189 -29.7365359553 -1.9001597811
4.0559720644 -29.5148171724 -1.9001586721
7.4559798337 -26.5202822808 -1.9001437249
7.4235622305 -26.5206379783 -1.9001437267
7.3425323934 -26.5223662473 -1.9001437354
7.3263299899 -26.5228557107 -1.9001437378
7.2939298810 -26.5239784152 -1.9001437435
7.2453435896 -26.5260218396 -1.9001437538
6.7612136441 -26.5701229965 -1.9001439761
8.6460726790 -26.5671833360 -1.9001439699
8.5655975430 -26.5508251116 -1.9001438875
8.3390832371 -26.5113742008 -1.9001436886
8.2740834753 -26.5018287170 -1.9001436405
6.3791468008 -26.5618789090 -1.9001439432
6.3469941436 -26.5686047844 -1.9001439771
8.5054075663 -26.5148198525 -1.9001437089
8.4404369314 -26.5033061007 -1.9001436508
8.3753346087 -26.4925619177 -1.9001435967
8.3427369122 -26.4874788887 -1.9001435710
8.1793287499 -26.4649612843 -1.9001434575
6.2292769872 -26.5701037059 -1.9001439875
8.8498096368 -26.5643640270 -1.9001439615
8.2480003790 -26.4494317728 -1.9001433821
6.2560541600 -26.5391120355 -1.9001438342
6.1593336960 -26.5620480004 -1.9001439498
6.1111299296 -26.5741588303 -1.9001440108
8.9523072177 -26.5658255305 -1.9001439717
8.9746864528 -26.5468111653 -1.9001438788
8.7313521447 -26.4867592843 -1.9001435761
6.2290292965 -26.4957087646 -1.9001436212
5.9378934453 -26.5711477303 -1.9001440014
5.9218414921 -26.5757921563 -1.9001440248
9.1262538820 -26.5648450546 -1.9001439725
9.0940706945 -26.5553180700 -1.9001439245
8.8183748240 -26.4820649861 -1.9001435553
6.1256872127 -26.4956781093 -1.9001436239
5.8989817987 -26.5572934936 -1.9001439345
5.8828890324 -26.5620530878 -1.9001439585
9.1976518860 -26.5613946480 -1.9001439580
9.1815568186 -26.5563961616 -1.9001439328
9.1654470351 -26.5514453092 -1.9001439079
5.8437190070 -26.5485858855 -1.9001438935
5.7632753394 -26.5736775895 -1.9001440199
5.7312032659 -26.5840469607 -1.9001440722
9.3496373235 -26.5856423848 -1.9001440831
9.2854455924 -26.5641343563 -1.9001439747
5.6915527999 -26.5716720587 -1.9001440127
5.6755034757 -26.5770452026 -1.9001440398
9.3735280205 -26.5682863590 -1.9001439985
5.6195407221 -26.5706073319 -1.9001440102
5.5554322187 -26.5932365918 -1.9001441243
9.4939435771 -26.5855624940 -1.9001440885
5.5794068666 -26.5590325120 -1.9001439548
9.5344292384 -26.5748210795 -1.9001440372
9.5590235834 -26.5582549030 -1.9001439566
5.3378269256 -26.5983271843 -1.9001441586
9.6962984999 -26.5861047325 -1.9001440999
5.2807956664 -26.5953656506 -1.9001441466
9.7695538320 -26.5901820610 -1.9001441233
5.2395464144 -26.5862825212 -1.9001441036
9.8430188886 -26.5952381167 -1.9001441517
9.8270211125 -26.5883303700 -1.9001441169
5.1660727620 -26.5912120886 -1.9001441314
9.9007004977 -26.5941527397 -1.9001441491
5.0924006326 -26.5971255611 -1.9001441641
9.9585851366 -26.5936672421 -1.9001441495
4.7902660313 -26.5795045959 -1.9001440925
4.7742438206 -26.5875438747 -1.9001441331
4.6992673610 -26.5987143213 -1.9001441922
10.3962991344 -26.5945564861 -1.9001441771
4.4937137828 -26.5994286692 -1.9001442074
10.7073205226 -26.6036802245 -1.9001442403
10.7516633362 -26.6020449754 -1.9001442350
10.8854691277 -26.5991644104 -1.9001442291
11.3038847873 -26.8251241000 -1.9001453738
11.2732033859 -26.8027089643 -1.9001452608
11.2578130884 -26.7915695654 -1.9001452047
11.2269339734 -26.7694275926 -1.9001450931
11.1803710295 -26.7365581465 -1.9001449274
4.4093943010 -26.3698351203 -1.9001430789
4.0337906688 -26.5929709804 -1.9001442036
3.8440835589 -26.7193918149 -1.9001448409
3.8284792998 -26.7302294605 -1.9001448955
3.7973673019 -26.7520429950 -1.9001450055
3.7509426454 -26.7851074700 -1.9001451721
3.7201566813 -26.8073787769 -1.9001452844
3.6437729439 -26.8638504808 -1.9001455690
3.6134547255 -26.8867544615 -1.9001456845
11.3793942407 -26.8511911419 -1.9001455081
11.3641468977 -26.8397373991 -1.9001454504
11.3182025106 -26.8056474966 -1.9001452785
10.4264180008 -26.2557407848 -1.9001425067
10.3582473395 -26.2215148822 -1.9001423342
10.3240113335 -26.2047050194 -1.9001422494
10.2896764739 -26.1880980025 -1.9001421657
4.6343933602 -26.2250537621 -1.9001423520
4.6002784683 -26.2421080798 -1.9001424380
3.6598268432 -26.8217099004 -1.9001453595
3.5685309120 -26.8906796604 -1.9001457072
3.5534345590 -26.9023316912 -1.9001457659
3.4784734486 -26.9612588934 -1.9001460629
3.4487344241 -26.9851391367 -1.9001461833
3.3603723137 -27.0578296608 -1.9001465497
3.3312067012 -27.0824069398 -1.9001466736
11.8508278115 -27.2101984888 -1.9001473206
10.2828688426 -26.1580476314 -1.9001420171
10.2655758535 -26.1498406418 -1.9001419758
10.2135522799 -26.1255271082 -1.9001418532
10.1961633925 -26.1175253119 -1.9001418129
4.8486268757 -26.0971029219 -1.9001417099
4.7096933198 -26.1614933515 -1.9001420345
4.6924349088 -26.1697728080 -1.9001420762
3.3009925331 -27.0763676775 -1.9001466460
3.1999500760 -27.1643648299 -1.9001470896
12.0486843541 -27.3637654056 -1.9001480975
10.0657654847 -26.0331631194 -1.9001413905
4.9796653335 -26.0137391621 -1.9001412926
4.8738215034 -26.0594114568 -1.9001415228
2.9453700730 -27.3693937001 -1.9001481259
9.9149777480 -25.9445196747 -1.9001409466
2.7796328558 -27.5033502369 -1.9001488040
12.3115267343 -27.5655217546 -1.9001491203
12.2719859698 -27.5229958071 -1.9001489059
5.1765346350 -25.8828698612 -1.9001406387
5.0863177493 -25.9179022985 -1.9001408153
12.7430664704 -27.9651978173 -1.9001511435
12.5081421707 -27.6770286201 -1.9001496910
2.7096212094 -27.4366589041 -1.9001484794
2.2997615299 -27.9098676079 -1.9001508646
7.6965666129 -30.3163943380 -1.9001622063
4.0762774328 -30.6939842092 -1.9001641096
4.0610402352 -30.6638137999 -1.9001639575
4.0520499140 -30.3511065579 -1.9001623813
4.0593143893 -30.2741275355 -1.9001619932
4.0628945517 -30.2080864952 -1.9001616604
8.2353632756 -26.5766783726 -1.9001433559
9.2711451536 -26.5783868891 -1.9001433645
9.2072511440 -26.5619155372 -1.9001432815
9.3891298821 -26.5857879090 -1.9001434018
9.3412886109 -26.5723161582 -1.9001433339
9.3093288247 -26.5635710908 -1.9001432898
6.6356468942 -26.5019606345 -1.9001429793
9.4915110608 -26.5908853915 -1.9001434275
6.6141780633 -26.4819834997 -1.9001428786
6.5331452332 -26.5008206461 -1.9001429735
9.5145508860 -26.5726770774 -1.9001433357
6.4302232193 -26.5016039879 -1.9001429775
6.4404110984 -26.4740182448 -1.9001428384
6.2301532701 -26.5321683172 -1.9001431316
6.1980104059 -26.5418304739 -1.9001431803
9.7209508806 -26.5895963742 -1.9001434210
6.2071158742 -26.5138258915 -1.9001430391
6.1909831371 -26.5187014278 -1.9001430637
5.9907173067 -26.5580509451 -1.9001432620
9.8647171228 -26.5901745747 -1.9001434239
6.0473096108 -26.5135067634 -1.9001430375
5.9507529139 -26.5463109668 -1.9001432028
5.9026967055 -26.5633544374 -1.9001432887
5.8304110272 -26.5640930197 -1.9001432925
5.7578717564 -26.5657884332 -1.9001433010
5.5961249605 -26.5787094490 -1.9001433661
5.5293468228 -26.5544527230 -1.9001432439
10.3855390361 -26.6007056352 -1.9001434770
10.6459109594 -26.5950643461 -1.9001434486
5.0576595962 -26.5902984916 -1.9001434246
10.7639489560 -26.6031050693 -1.9001434891
4.8527358740 -26.5906759629 -1.9001434265
10.5261666636 -26.3463596563 -1.9001421950
11.7851598223 -27.1124110624 -1.9001460563
11.7707734020 -27.1007831167 -1.9001459977
4.6454347245 -26.5985424089 -1.9001434661
10.1899246219 -26.1460385304 -1.9001411852
10.1208505456 -26.1187260200 -1.9001410476
12.1664364148 -27.3814506231 -1.9001474124
12.2237102187 -27.4025084658 -1.9001475186
12.1556787171 -27.3382777728 -1.9001471948
11.8886921223 -27.1035587278 -1.9001460117
12.5725185422 -27.6920236044 -1.9001489779
3.7352640106 -26.8180354614 -1.9001445725
3.7048560971 -26.8424532177 -1.9001446956
4.6635978805 -26.1704408616 -1.9001413082
4.5951994203 -26.2085167082 -1.9001415002
3.5096416560 -26.9744459538 -1.9001453609
3.4801630683 -27.0001958303 -1.9001454907
3.4071376092 -27.0653295860 -1.9001458190
3.1491069412 -27.2776406630 -1.9001468892
5.3252407736 -25.7230884901 -1.9001390533
5.4652492648 -25.6425368087 -1.9001386473
5.4278564290 -25.6567399644 -1.9001387189
3.1061759688 -27.1499659184 -1.9001462456
7.3156221033 -30.3522138288 -1.9001612204
7.8921243667 -30.0245724346 -1.9001594968
7.8537768362 -30.0310138349 -1.9001595293
7.7942914094 -30.0179298862 -1.9001594489
7.6950651415 -30.0164924836 -1.9001594273
7.6785502555 -30.0209049496 -1.9001594495
7.6620751780 -30.0254638021 -1.9001594725
7.5892271336 -30.0221341478 -1.9001594413
7.5782480809 -30.0256855837 -1.9001594592
4.0814704708 -31.2529246793 -1.9001643341
4.0778345798 -31.2772076407 -1.9001644565
4.0760705252 -31.2893570819 -1.9001645177
4.0677897696 -31.3501796383 -1.9001648243
4.0780238235 -31.1275004714 -1.9001636875
4.0736459411 -31.1518060195 -1.9001638100
4.0633310173 -31.2126794822 -1.9001641168
4.0613761402 -31.2248721099 -1.9001641783
4.0810437357 -30.9891866146 -1.9001629759
4.0733032796 -31.0256331898 -1.9001631596
4.0739650064 -30.9109615601 -1.9001625672
4.0711175466 -30.9231240506 -1.9001626285
3.9979300669 -31.1639157483 -1.9001638278
4.0779184629 -30.7042823601 -1.9001614966
4.0710366819 -30.7285959385 -1.9001616191
4.0449515684 -30.8262446147 -1.9001621113
4.0689535860 -30.6488528086 -1.9001612028
4.0512003030 -30.7098506880 -1.9001615102
4.0645527170 -30.5808557352 -1.9001608456
4.0607287857 -30.5930475134 -1.9001609071
4.0457942124 -30.6419261429 -1.9001611534
4.0453799070 -30.5613387109 -1.9001607328
4.0548807089 -30.4558947600 -1.9001601869
4.0465297866 -30.4803489847 -1.9001603102
4.0492579583 -30.3989872287 -1.9001598856
4.0405704504 -30.4234757154 -1.9001600091
4.0582176664 -30.3050723555 -1.9001593979
4.0489743697 -30.3295094773 -1.9001595210
4.0398758130 -30.3540008578 -1.9001596445
4.0595026796 -30.2352705399 -1.9001590316
4.0546564668 -30.2474787691 -1.9001590931
4.0518837023 -30.1895816966 -1.9001587869
4.0370483494 -30.2263185381 -1.9001589721
4.0499060411 -30.1313917697 -1.9001584792
4.0434035815 -30.0851605421 -1.9001582317
4.0538983835 -30.0019506242 -1.9001577979
4.0559610110 -29.8836998957 -1.9001571730
4.0550926070 -29.7767119045 -1.9001566049
3.9715671406 -29.9494635562 -1.9001574757
3.9728451898 -29.8894263717 -1.9001571587
3.9749572819 -29.8291506341 -1.9001568404
4.0477782544 -29.5845854670 -1.9001555789
4.0542266165 -29.5238268339 -1.9001552582
4.0332295982 -29.5118493341 -1.9001551834
4.0410356956 -29.0015829145 -1.9001524529
8.5331661208 -26.5806702316 -1.9001400916
8.5018096913 -26.5786972387 -1.9001400816
8.3762837139 -26.5726613575 -1.9001400512
8.3605839530 -26.5721157931 -1.9001400484
8.3448826469 -26.5716166738 -1.9001400459
8.3134759489 -26.5707577877 -1.9001400416
8.2192330620 -26.5692961827 -1.9001400342
8.1878148342 -26.5691807223 -1.9001400336
8.1721056016 -26.5691926982 -1.9001400337
9.7454955428 -26.6019459836 -1.9001400835
7.0244533666 -26.4993302474 -1.9001395663
6.9608725502 -26.5134272959 -1.9001396373
6.9450037572 -26.5170690329 -1.9001396557
6.8974629876 -26.5282756753 -1.9001397122
6.8441646161 -26.5164515191 -1.9001396382
6.8283052801 -26.5204384860 -1.9001396583
9.9003818939 -26.5994059643 -1.9001400419
9.8847545798 -26.5943517248 -1.9001400164
6.8064602322 -26.5010551692 -1.9001395462
9.8292297826 -26.5515007172 -1.9001397860
6.8324467631 -26.4695470092 -1.9001393729
6.6571496070 -26.5163831019 -1.9001396090
10.0408775463 -26.5958880791 -1.9001399954
10.0095847633 -26.5849946927 -1.9001399405
6.6664716654 -26.4886211416 -1.9001394547
6.6505307795 -26.4931338782 -1.9001394774
10.1271738366 -26.6012451625 -1.9001400080
10.0802547734 -26.5842085158 -1.9001399221
10.0645817155 -26.5786222463 -1.9001398939
9.9702025895 -26.5460804638 -1.9001397299
6.5322293113 -26.5029333956 -1.9001395124
6.5251305086 -26.4798262044 -1.9001393815
6.4613538669 -26.4998328384 -1.9001394824
10.2536881332 -26.5975978052 -1.9001399608
10.1753387132 -26.5675642113 -1.9001398094
6.4061034471 -26.4923770302 -1.9001394304
10.3251271806 -26.6000560138 -1.9001399587
10.3655423985 -26.5904691574 -1.9001398960
6.3107897897 -26.4735808271 -1.9001393068
6.2788386786 -26.4847580332 -1.9001393632
10.4218096856 -26.5877731674 -1.9001398680
6.1431257250 -26.5087546154 -1.9001394697
6.1824837771 -26.4681825013 -1.9001392508
10.5506497626 -26.5911142967 -1.9001398560
10.5349950751 -26.5841364836 -1.9001398209
6.0051975667 -26.4849222889 -1.9001393064
5.9415176226 -26.5110806542 -1.9001394382
10.6803025278 -26.5975408078 -1.9001398596
10.6646662837 -26.5901794302 -1.9001398225
10.6490083318 -26.5828643396 -1.9001397856
5.9481573944 -26.4821376951 -1.9001392779
5.9322004723 -26.4887753636 -1.9001393114
10.7950864905 -26.5993404645 -1.9001398399
10.7794550680 -26.5916395273 -1.9001398011
5.7696763539 -26.5065314055 -1.9001393721
10.8214741229 -26.5854508997 -1.9001397554
5.7278917550 -26.4989190880 -1.9001393193
5.5642858417 -26.5227783601 -1.9001394107
11.4973511125 -26.8927039189 -1.9001412610
11.4232303895 -26.8442437890 -1.9001410167
11.3484010300 -26.7968852340 -1.9001407780
11.2424806153 -26.7324535830 -1.9001404532
10.5972660825 -26.4002252450 -1.9001387786
10.5159598642 -26.3651315898 -1.9001386017
5.5377668877 -26.5088675740 -1.9001393262
5.5218908330 -26.5167191348 -1.9001393658
11.5255255789 -26.8824327280 -1.9001411948
10.3107729545 -26.2569427165 -1.9001380419
10.2607911704 -26.2382902888 -1.9001379479
5.4793328047 -26.5109748067 -1.9001393224
12.1098761672 -27.2634775392 -1.9001430867
9.9889883650 -26.0948750364 -1.9001371962
12.2875373139 -27.3878710030 -1.9001436993
9.9617958918 -26.0611794247 -1.9001370120
9.8409393597 -26.0256162919 -1.9001368327
12.0997491244 -27.1917146539 -1.9001426961
9.7429501361 -25.9737583909 -1.9001365569
5.2756862184 -26.5082931277 -1.9001392513
9.5252683179 -25.8710036346 -1.9001360101
5.0623724457 -26.5732253053 -1.9001395497
9.5840140546 -25.8595984516 -1.9001359382
9.3874160269 -25.8172371380 -1.9001357247
4.9151116096 -26.5772682411 -1.9001395269
4.7378800036 -26.5750219366 -1.9001394579
4.3480435322 -26.5787078406 -1.9001393468
3.9188338632 -26.6964166082 -1.9001398393
3.8426389415 -26.7600671487 -1.9001401601
3.8124259765 -26.7858417501 -1.9001402901
4.5642843720 -26.1980688746 -1.9001373129
4.4806480929 -26.2522274636 -1.9001375859
4.4474194116 -26.2742362767 -1.9001376969
3.7365012086 -26.8197687524 -1.9001404467
3.6326865189 -26.9129427955 -1.9001409163
3.6180141273 -26.9264281606 -1.9001409843
3.5887893412 -26.9535288063 -1.9001411209
3.5742372024 -26.9671438497 -1.9001411895
3.5597254031 -26.9808018813 -1.9001412584
3.5452540702 -26.9945027817 -1.9001413274
3.5164333099 -27.0220327089 -1.9001414662
3.5020841346 -27.0358614948 -1.9001415359
4.6701376775 -26.1036859881 -1.9001368228
4.6530668187 -26.1141059259 -1.9001368753
3.5723003580 -26.9358525874 -1.9001410174
3.3997479027 -27.1026401981 -1.9001418581
3.3575433559 -27.1452859384 -1.9001420731
4.7610081189 -26.0213596231 -1.9001363934
5.0129816620 -25.8538960179 -1.9001355349
4.6450102603 -26.0623827917 -1.9001365858
3.0495960599 -27.4071996095 -1.9001433644
5.1457097208 -25.7588942926 -1.9001350416
4.9660032550 -25.8514375732 -1.9001355081
4.6324465517 -26.0417311935 -1.9001364673
3.1663754060 -27.2408834827 -1.9001425117
5.2261432286 -25.6928174472 -1.9001346941
5.3634636501 -25.6025077064 -1.9001342245
3.4306414379 -26.9033671738 -1.9001407816
5.6945797664 -25.3862599051 -1.9001330913
7.4700131317 -30.1045211154 -1.9001630857
4.0398937686 -30.5682944310 -1.9001683022
4.0569452848 -30.4169447536 -1.9001675652
4.0530737570 -30.4300936424 -1.9001676315
4.0454474761 -30.4564254904 -1.9001677642
4.0379771167 -30.4828019971 -1.9001678972
4.0538108228 -30.3441712555 -1.9001672243
4.0518621258 -30.2710188634 -1.9001668815
4.0556692626 -30.1843531258 -1.9001664706
4.0245711922 -30.2767068975 -1.9001669361
4.0515637101 -30.1236545436 -1.9001661906
4.0482755185 -30.0626432278 -1.9001659090
3.9963120284 -30.2083583288 -1.9001666435
4.0509514198 -29.9881615643 -1.9001655595
4.0458115000 -30.0013300601 -1.9001656259
4.0495004861 -29.9265529822 -1.9001652749
4.0441783233 -29.9397260397 -1.9001653413
4.0388951521 -29.9529147836 -1.9001654078
4.0321693108 -29.8420896662 -1.9001649010
3.9662132589 -29.9394514007 -1.9001654177
3.9708803229 -29.8633714387 -1.9001650602
4.0521818461 -29.5646242542 -1.9001636062
4.0434174651 -29.5276292902 -1.9001634456
4.0482773759 -29.4640779888 -1.9001631512
3.9587449901 -29.5356875050 -1.9001635640
4.0470403645 -29.2605878445 -1.9001622293
3.9485241227 -29.4470688528 -1.9001631692
9.9536133511 -26.5995503468 -1.9001490754
9.7398581669 -26.5437647008 -1.9001487942
7.2537843851 -26.5452514443 -1.9001488017
7.1924964181 -26.5603594663 -1.9001488779
7.1772026941 -26.5642497020 -1.9001488975
4.0397300570 -28.8057201695 -1.9001601958
10.0362997088 -26.5984541795 -1.9001490958
10.0211062330 -26.5939317640 -1.9001490730
9.9754464682 -26.5806344630 -1.9001490060
9.8224282398 -26.5392460305 -1.9001487974
7.1405179325 -26.5487835171 -1.9001488454
7.1098744820 -26.5569169379 -1.9001488864
7.0792796879 -26.5652315132 -1.9001489283
10.0889346517 -26.5891949980 -1.9001490751
10.0737135553 -26.5845169194 -1.9001490515
10.0584786869 -26.5798838880 -1.9001490281
7.0115565938 -26.5591723162 -1.9001489237
6.9962601497 -26.5635978099 -1.9001489460
6.9809768640 -26.5680685337 -1.9001489686
6.9657068704 -26.5725844488 -1.9001489913
6.9128829719 -26.5632945865 -1.9001489705
6.8975991540 -26.5680119565 -1.9001489942
6.8670737169 -26.5775822297 -1.9001490425
4.0505568423 -28.6597894924 -1.9001595380
6.8291694239 -26.5643320425 -1.9001490016
10.3399677199 -26.5964733976 -1.9001491896
10.3247670559 -26.5910526859 -1.9001491622
10.3095504231 -26.5856769643 -1.9001491351
10.3786082819 -26.5847416781 -1.9001491564
10.3328528824 -26.5682721088 -1.9001490733
6.6987892480 -26.5315083438 -1.9001489140
10.5479489088 -26.5976549239 -1.9001492733
10.4870503926 -26.5737811924 -1.9001491530
6.6908785788 -26.5086663519 -1.9001488248
6.5439487200 -26.5360519524 -1.9001489887
6.5285859277 -26.5418608158 -1.9001490180
10.6574619325 -26.5902316517 -1.9001492878
10.6270021508 -26.5775569253 -1.9001492239
6.5045907568 -26.5251425680 -1.9001489597
10.7277697428 -26.5939424719 -1.9001493324
6.4804794995 -26.5085210612 -1.9001489018
6.4188110575 -26.5327817573 -1.9001490241
6.4034391389 -26.5389608149 -1.9001490553
6.3880855663 -26.5451853183 -1.9001490866
10.7830940944 -26.5918237564 -1.9001493477
6.3635691267 -26.5290936805 -1.9001490315
6.3481865398 -26.5354361699 -1.9001490634
10.8081680944 -26.5765374628 -1.9001492966
6.2773347524 -26.5390370425 -1.9001491075
10.8943737356 -26.5893269338 -1.9001493870
10.8791495053 -26.5822662202 -1.9001493514
6.2370063528 -26.5301108841 -1.9001490885
10.7197569501 -26.4853234866 -1.9001488886
6.1503427548 -26.5421277462 -1.9001491750
11.5245791186 -26.8757704450 -1.9001508827
11.4524187758 -26.8315658442 -1.9001506598
11.4233728951 -26.8141836623 -1.9001505722
11.2914148545 -26.7381028354 -1.9001501887
11.1874080984 -26.6813734235 -1.9001499028
11.1574782670 -26.6655617624 -1.9001498231
11.1424784020 -26.6577224044 -1.9001497836
11.1274554124 -26.6499274530 -1.9001497443
11.0822490115 -26.6268097186 -1.9001496278
10.4455773687 -26.3518833125 -1.9001482420
10.4296527010 -26.3461512586 -1.9001482131
10.3817779352 -26.3292380941 -1.9001481278
11.7085339342 -26.9661249366 -1.9001513640
10.3253952584 -26.2844288679 -1.9001479279
10.2608060861 -26.2632104223 -1.9001478209
6.0378803513 -26.5409636594 -1.9001492210
11.9721984908 -27.1243436966 -1.9001521875
10.1213861891 -26.1950741559 -1.9001475034
9.9899040002 -26.1582555420 -1.9001473178
5.8260339701 -26.5378421958 -1.9001493090
5.6575893316 -26.5176704830 -1.9001493110
5.6460202756 -26.4964456808 -1.9001492300
5.6305442496 -26.5049109523 -1.9001492727
5.2854632782 -26.4815935356 -1.9001493626
5.2544547758 -26.5007032586 -1.9001494589
4.9900424483 -26.4987262276 -1.9001496046
4.9610525973 -26.4890957277 -1.9001495820
4.4949600407 -26.5273289797 -1.9001500340
4.4278184161 -26.2749235022 -1.9001490211
4.0968706668 -26.5382546143 -1.9001503485
4.6103096391 -26.1139646217 -1.9001482357
4.5112076205 -26.1838831356 -1.9001485881
4.4784513142 -26.2075788255 -1.9001487076
4.4458357727 -26.2314678980 -1.9001488280
4.4133621379 -26.2555495169 -1.9001489494
4.3488451299 -26.3042870154 -1.9001491951
4.3008382962 -26.3413392556 -1.9001493818
3.7202417295 -26.8149494785 -1.9001517950
3.7057163215 -26.8291101576 -1.9001518664
4.8376273723 -25.9060271658 -1.9001472395
4.7518555955 -25.9608312404 -1.9001475157
3.5595367639 -26.9416442267 -1.9001524596
5.0169270248 -25.7690879034 -1.9001465751
4.9291102508 -25.8212550459 -1.9001468381
5.0936240518 -25.6971739415 -1.9001462386
5.0224524620 -25.7379013548 -1.9001464439
5.2441714861 -25.5872750325 -1.9001457106
5.1897663166 -25.6164099884 -1.9001458574
5.0817423383 -25.6761225718 -1.9001461584
5.4432093862 -25.4321004033 -1.9001449803
5.5076760907 -25.3745012545 -1.9001447159
5.4701137695 -25.3923156678 -1.9001448057
6.1408943789 -24.9852018058 -1.9001428832
7.3367901912 -30.2998813905 -1.9001691403
4.0484649697 -30.2811622656 -1.9001804804
4.0411454712 -30.3092100904 -1.9001806217
4.0304776802 -30.3513617961 -1.9001808342
4.0481589909 -30.1906985995 -1.9001801166
4.0442108924 -30.2047183998 -1.9001801872
4.0370529580 -30.1419171033 -1.9001799629
10.2156741286 -26.5940458911 -1.9001628172
10.2010594954 -26.5898368030 -1.9001627960
10.1717931952 -26.5815484167 -1.9001627542
10.1278030816 -26.5694408531 -1.9001626932
7.5549194750 -26.5405682947 -1.9001625477
7.4959406277 -26.5554786236 -1.9001626228
4.0446689195 -29.5432177766 -1.9001776828
10.2956240666 -26.5926218754 -1.9001629023
10.2810048711 -26.5881762872 -1.9001628799
10.1930193590 -26.5624126720 -1.9001627500
7.6980130158 -26.4827233004 -1.9001623483
7.4308025890 -26.5477589030 -1.9001626761
7.4160632156 -26.5517881711 -1.9001626964
4.0524576844 -29.4636353945 -1.9001773739
3.9544516676 -29.7041713885 -1.9001785863
7.3653021966 -26.5408871142 -1.9001627337
7.3505427817 -26.5451101744 -1.9001627550
7.3357959240 -26.5493768771 -1.9001627765
7.3063403961 -26.5580410604 -1.9001628202
4.0364770052 -29.4398966084 -1.9001773464
4.0303079498 -29.4539542511 -1.9001774173
3.9595400978 -29.6240292628 -1.9001782746
10.4419467140 -26.5887313816 -1.9001630671
10.4273153695 -26.5838529615 -1.9001630425
10.4126696577 -26.5790178450 -1.9001630181
10.1020189221 -26.4875550703 -1.9001625571
7.6276026755 -26.4488058258 -1.9001623618
7.5675329638 -26.4628625572 -1.9001624326
7.5076337831 -26.4776290773 -1.9001625071
7.3438587156 -26.5218796225 -1.9001627301
7.2699097201 -26.5437502100 -1.9001628404
7.2404220560 -26.5528042968 -1.9001628860
4.0524176122 -29.3458018745 -1.9001769644
4.0459701378 -29.3598127738 -1.9001770350
3.9659472340 -29.5436396569 -1.9001779616
10.5229015495 -26.5909670236 -1.9001631706
7.2480638788 -26.5251471831 -1.9001628388
7.2036883683 -26.5389882980 -1.9001629086
7.1889240435 -26.5436894495 -1.9001629323
7.1741736902 -26.5484342559 -1.9001629562
7.1594374374 -26.5532226757 -1.9001629803
7.1447154141 -26.5580546671 -1.9001630047
4.0567980861 -29.2795541977 -1.9001767226
4.0435525920 -29.3075702508 -1.9001768639
4.0304730822 -29.3356641783 -1.9001770055
3.9736814808 -29.4630241192 -1.9001776474
10.5895359464 -26.5891625850 -1.9001632537
10.5309196478 -26.5681625201 -1.9001631478
7.3005975857 -26.4841153846 -1.9001627242
7.0928603142 -26.5499233551 -1.9001630559
7.0781288222 -26.5549523081 -1.9001630812
7.0634122712 -26.5600248175 -1.9001631068
4.0484479528 -29.2410914249 -1.9001766210
6.9818101859 -26.5633167622 -1.9001632156
6.9524433264 -26.5740750001 -1.9001632698
4.0473011805 -29.1884246379 -1.9001764477
4.0335166995 -29.2164984728 -1.9001765892
3.9670987731 -29.3580638293 -1.9001773028
6.9735622376 -26.5405943805 -1.9001631933
6.9588036708 -26.5459762796 -1.9001632204
6.9440610892 -26.5514018137 -1.9001632478
6.9293346218 -26.5568709353 -1.9001632753
10.7471534547 -26.5715004895 -1.9001634413
4.0467013028 -29.0824970437 -1.9001760982
10.8588036730 -26.5908910437 -1.9001636312
10.8441768933 -26.5847794759 -1.9001636004
10.8148694165 -26.5726862796 -1.9001635395
6.8236216088 -26.5456087661 -1.9001634030
6.8088785315 -26.5514341948 -1.9001634324
6.7941527514 -26.5573032106 -1.9001634619
6.7354251777 -26.5812141132 -1.9001635825
5.4675246784 -27.3243140365 -1.9001673281
4.0546803792 -29.0152423641 -1.9001758514
10.9121245711 -26.5872783589 -1.9001637052
6.6967887885 -26.5711506865 -1.9001636240
6.6674732655 -26.5835950696 -1.9001636867
11.2259317806 -26.7072707929 -1.9001644023
11.1686684416 -26.6787323286 -1.9001642584
11.0821503172 -26.6372000378 -1.9001640491
6.5992919939 -26.5868939966 -1.9001637955
6.5748330037 -26.5713027956 -1.9001638091
6.5601670226 -26.5778640736 -1.9001638422
6.5455205150 -26.5844687075 -1.9001638755
6.4915345951 -26.5826100463 -1.9001639584
6.4519963619 -26.5743969837 -1.9001640092
6.3536887451 -26.5949080166 -1.9001642048
6.3430080857 -26.5732225653 -1.9001641877
6.3283487979 -26.5804696149 -1.9001642242
6.2443135970 -26.5958611046 -1.9001643940
6.2185943254 -26.5819403609 -1.9001644160
6.1893510069 -26.5972137142 -1.9001644930
6.1488180363 -26.5913333297 -1.9001645556
6.1081250094 -26.5857605591 -1.9001646197
6.0935038390 -26.5937023805 -1.9001646598
5.9823875536 -26.6002264727 -1.9001648771
5.9558033942 -26.5875596397 -1.9001649054
5.8876485473 -26.5711200448 -1.9001650070
5.8754564976 -26.5502468752 -1.9001649940
5.8460316753 -26.5675509018 -1.9001650812
5.8042715672 -26.5643012664 -1.9001651570
5.7623705512 -26.5613727059 -1.9001652345
5.4934149882 -26.5603464567 -1.9001657826
5.3498920163 -26.5699538494 -1.9001661077
5.1912046206 -26.5638129602 -1.9001664456
4.0478027524 -27.1250064035 -1.9001705653
4.5431221737 -26.0526138589 -1.9001669118
4.5269307065 -26.0651875744 -1.9001669752
4.4465351852 -26.1287715708 -1.9001672957
4.7120538252 -25.8662459625 -1.9001661569
4.6953103088 -25.8783207631 -1.9001662177
4.9023092776 -25.7051298852 -1.9001654370
5.4042459171 -25.3726482183 -1.9001638533
5.3315982571 -25.4130880774 -1.9001640571
4.9583654419 -25.6393170872 -1.9001651974
5.4844026483 -25.3019517854 -1.9001635891
5.6219496758 -25.2039595896 -1.9001631874
5.4915935634 -25.2708203431 -1.9001635244
5.8861013533 -25.0256988372 -1.9001624733
5.7901827206 -25.0692938775 -1.9001626930
10.0718445006 -26.4979180988 -1.9001457600
10.4714694558 -26.5772449096 -1.9001461743
7.7547768658 -26.5306830311 -1.9001459396
7.7266663682 -26.5383228732 -1.9001459781
7.6077326323 -26.5473914195 -1.9001460382
7.3351192246 -26.4326874222 -1.9001455753
7.0371019940 -26.5473959048 -1.9001461535
4.0535858247 -30.0023189022 -1.9001635684
4.0870684947 -32.6927718136 -1.9001771298
4.0538525268 -29.9077137035 -1.9001631059
4.0457864490 -29.9371903531 -1.9001632545
3.9942259228 -30.1447906778 -1.9001643009
6.8498602416 -26.5773181381 -1.9001463331
4.0430395682 -29.8569338451 -1.9001628644
4.0941168264 -32.8822583169 -1.9001781138
6.8257118968 -26.5618920219 -1.9001462698
4.0505990122 -29.7468037922 -1.9001623236
3.9610573818 -30.0740244500 -1.9001639730
4.0711160357 -32.8896946404 -1.9001781657
4.0904413903 -32.9482821188 -1.9001784610
4.0475376113 -29.5992456840 -1.9001616087
4.0964292324 -33.1104790776 -1.9001793074
6.6683146433 -26.5574336493 -1.9001462905
4.0554992718 -29.5028929168 -1.9001611374
4.0450381095 -29.5323669087 -1.9001612860
3.9632014729 -29.7852692000 -1.9001625608
4.1014101308 -33.1919955046 -1.9001797327
6.6434649406 -26.5428568064 -1.9001462315
3.9628745998 -29.7032598058 -1.9001621618
4.0845497407 -33.2153561408 -1.9001798648
4.0960522492 -33.2445932861 -1.9001800122
4.0596615942 -29.3535355379 -1.9001604134
4.0972137759 -33.3120425138 -1.9001803666
4.0604467151 -29.2858137455 -1.9001600864
4.0499936767 -29.2472809398 -1.9001599066
4.0380203245 -29.2767919783 -1.9001600554
4.0584542918 -29.1643335846 -1.9001595029
4.0617836117 -29.0958859013 -1.9001591723
4.0593799311 -29.0419215010 -1.9001589147
4.0461914392 -29.0713806015 -1.9001590632
6.2124838008 -26.5872130277 -1.9001465559
4.0440353517 -29.0172136585 -1.9001588046
6.1721741508 -26.5833231123 -1.9001465507
3.9667282563 -29.0718738016 -1.9001591089
6.0772061745 -26.5852048498 -1.9001465890
4.0627862773 -28.8092683721 -1.9001577996
4.0418826723 -28.7433189125 -1.9001574960
6.0104909562 -26.5416018497 -1.9001464125
4.0664526483 -28.6437990333 -1.9001570088
4.0586588668 -28.6584996496 -1.9001570829
4.0263780931 -28.5652062969 -1.9001566559
4.0292787873 -28.4113899926 -1.9001559238
5.6083644658 -26.6116386625 -1.9001468663
4.0366909840 -28.2562075916 -1.9001551848
5.4682618860 -26.6259262733 -1.9001469816
5.1838540349 -26.6360291002 -1.9001471334
4.0024305479 -26.8771138666 -1.9001487376
3.7536567732 -26.7953518765 -1.9001484696
3.4904743706 -27.0843556079 -1.9001499407
3.2978963261 -27.3512497392 -1.9001512860
2.8993754280 -27.9055221827 -1.9001541087
2.8681982558 -27.9120723040 -1.9001541561
2.8287102820 -27.9852417282 -1.9001545249
8.0363263866 -26.5485699822 -1.8999786742
7.9244997586 -26.5549189045 -1.8999778302
7.8385783125 -26.5557585090 -1.8999769584
7.5089053614 -26.5430516643 -1.8999725142
7.4473043192 -26.5413097720 -1.8999716294
7.3364712542 -26.5347161935 -1.8999698441
7.2246080101 -26.5308196013 -1.8999680725
6.8061447707 -26.5496993330 -1.8999620355
4.0434800375 -29.7602633980 -1.8999685824
4.0327698497 -32.2981750244 -1.8999804989
4.0571118264 -29.5180191663 -1.8999656093
4.0870405391 -32.6635162440 -1.8999805884
4.0670006555 -29.3203396718 -1.8999628608
4.0983849864 -32.8463834051 -1.8999797582
4.0866993887 -32.8850379401 -1.8999790770
4.0506772598 -29.1438475044 -1.8999593431
4.0925669531 -32.9695820482 -1.8999786271
4.0937606195 -33.0391721711 -1.8999781019
4.0295666036 -28.7992019306 -1.8999523498
4.0790078132 -33.3146072373 -1.8999751101
4.0204730961 -28.7589109361 -1.8999512707
3.9688958835 -28.8828598707 -1.8999518955
4.1665030099 -33.6077065110 -1.8999748355
4.0031742182 -28.6777781105 -1.8999491097
3.8481700553 -32.9363670552 -1.8999705755
4.3523931078 -33.9874746747 -1.8999758737
4.4152929541 -34.0878700968 -1.8999763797
4.4336448783 -34.1163132033 -1.8999765231
3.9949725546 -28.6369404748 -1.8999480278
3.7863232884 -32.8321833461 -1.8999691743
4.0285708102 -27.9898869173 -1.8999351300
4.0042955027 -27.6578661116 -1.8999264483
4.1650385444 -26.4515024809 -1.8998984670
4.0933929809 -26.4958410540 -1.8998978144
4.3944628430 -26.1397786883 -1.8998951437
3.4763632843 -27.2721753363 -1.8999008516
3.4544077023 -27.3062927521 -1.8999010236
7.4957292140 -30.0157524510 -1.8997579046
7.3869163475 -30.2144093697 -1.8997490161
7.3539764789 -30.2507041591 -1.8997442541
8.4659301968 -26.5616326580 -1.8992855621
8.4050541597 -26.5755931290 -1.8992856324
8.3929041036 -26.5784931867 -1.8992856470
8.8193414829 -26.4745697751 -1.8992801783
8.4484399288 -26.5407675385 -1.8992805120
8.3384666427 -26.5670167081 -1.8992806443
8.3019689882 -26.5764159083 -1.8992806917
8.2836203098 -26.5562569056 -1.8992756451
8.2470293279 -26.5661432600 -1.8992756950
8.2105275227 -26.5763539496 -1.8992757464
8.1237493210 -26.5514867200 -1.8992657313
8.0187326963 -26.5593986547 -1.8992608262
8.0065364244 -26.5634415920 -1.8992608466
7.9744044480 -26.5487472847 -1.8992558276
7.9499616760 -26.5571316677 -1.8992558699
7.9094772174 -26.5200710696 -1.8992457933
7.8848659237 -26.5288400858 -1.8992458375
7.8725798397 -26.5332791590 -1.8992458599
7.7904941673 -26.5381025822 -1.8992409393
7.7415455777 -26.5571926703 -1.8992410355
7.8065361946 -26.5061518288 -1.8992358333
7.6132375284 -26.5578074913 -1.8992311488
7.5547609539 -26.5568844683 -1.8992261992
7.5204694832 -26.5457005568 -1.8992211979
7.1514685400 -26.5389385708 -1.8991865495
7.0908799770 -26.5444339612 -1.8991816323
7.0786434966 -26.5512217202 -1.8991816665
6.9936287495 -26.5438118423 -1.8991717393
6.9569781227 -26.5651466383 -1.8991718468
6.9569819992 -26.5371256794 -1.8991667607
6.9202734795 -26.5587859580 -1.8991668699
7.4365425833 -26.1075761144 -1.8991299811
7.3287861601 -26.1548303429 -1.8991302193
6.4834008924 -26.5538256884 -1.8991173958
4.0300443815 -29.3892568647 -1.8990377347
4.0262367942 -29.4050866817 -1.8990378145
4.0946162572 -32.2217764570 -1.8990520123
4.0991874926 -32.2374028652 -1.8990520911
4.0143397036 -29.3518045442 -1.8990326010
3.9807690842 -29.4950955736 -1.8990333233
4.0448344747 -32.1340798926 -1.8990466253
4.0853186688 -32.2755731279 -1.8990473386
4.0996487333 -32.3224918355 -1.8990475751
4.0154811032 -29.2505533598 -1.8990271458
4.0070924110 -29.2823127768 -1.8990273058
3.9754209420 -29.4098300471 -1.8990279486
4.1014768989 -32.4079053617 -1.8990430607
4.0342938713 -32.2736852136 -1.8990374392
4.0993524666 -32.4780102728 -1.8990384691
4.0235115538 -29.0469552100 -1.8990162297
4.0139181661 -29.0786706795 -1.8990163895
3.9730767301 -29.2220697260 -1.8990171124
4.0872150994 -32.5171278503 -1.8990337214
4.0865256443 -32.5877988688 -1.8990291327
4.0921796756 -32.6034476090 -1.8990292116
4.0043979567 -32.4220297834 -1.8990233522
4.0867708387 -32.6587416749 -1.8990245454
3.9792849704 -28.9456947876 -1.8990008845
4.0940315200 -32.7455878915 -1.8990200382
4.0216592511 -28.7469181355 -1.8989949377
4.0963761692 -32.8170307546 -1.8990154535
4.0839396564 -32.9136936112 -1.8990060509
4.0076156833 -28.5785132397 -1.8989792541
4.0817377578 -32.9701763894 -1.8990013907
4.0953544451 -33.0014787101 -1.8990015485
4.1022321775 -33.0170995231 -1.8990016272
4.0300514755 -28.4584523797 -1.8989737040
3.9977153483 -28.5378137305 -1.8989741040
4.0277806056 -28.4015838880 -1.8989684724
4.0143689097 -28.4332853954 -1.8989686322
4.0809821034 -33.3133538440 -1.8989734510
4.0887824818 -33.3290158084 -1.8989735300
4.0102327697 -28.1458602795 -1.8989424589
4.0909359593 -33.3868624117 -1.8989688766
4.0189148585 -28.0719183365 -1.8989371413
4.0112103943 -28.0877868406 -1.8989372213
4.1776645929 -33.6000062834 -1.8989650061
4.1863125180 -33.6153809892 -1.8989650836
4.0285980821 -27.9978279241 -1.8989318229
3.8340460369 -32.9420334618 -1.8989567446
3.8543004577 -32.9911558289 -1.8989569922
3.8611487079 -33.0074897683 -1.8989570746
4.1827640167 -33.6580595439 -1.8989603538
4.3483987047 -33.9304173073 -1.8989617267
4.3580232984 -33.9452855051 -1.8989618016
4.4469411727 -34.1207423077 -1.8989577411
4.5507404390 -34.2651267070 -1.8989584689
4.0260369308 -27.8966529682 -1.8989214231
3.6363846787 -32.5410089970 -1.8989448334
3.6474700620 -32.5749536873 -1.8989450045
4.6287485692 -34.4073080812 -1.8989542407
3.5658029064 -32.3942921088 -1.8989391490
4.8154219975 -34.6707699931 -1.8989506237
3.5178584851 -32.3145982969 -1.8989338023
4.0231929748 -27.6488236639 -1.8988954493
3.3725618751 -32.0337890585 -1.8989175522
3.1303945125 -31.4967468979 -1.8988851757
3.0929366450 -31.3884023552 -1.8988796847
4.3930135222 -26.1545174759 -1.8987692393
4.3530105348 -26.1989466030 -1.8987694633
4.3265616050 -26.2287624907 -1.8987696136
4.3134034063 -26.2437289846 -1.8987696890
4.2482796698 -26.3191417055 -1.8987700691
4.1969882099 -26.3801602497 -1.8987703767
3.7798997867 -26.9388126271 -1.8987731926
3.6928370523 -27.0723622322 -1.8987738658
3.6715670968 -27.1060686417 -1.8987740357
4.5958136906 -25.9065888549 -1.8987630447
4.5396163842 -25.9635240963 -1.8987633317
4.5256726302 -25.9778614962 -1.8987634040
4.5117713498 -25.9922400814 -1.8987634764
4.4840966962 -26.0211203046 -1.8987636220
4.4021046768 -26.1087362643 -1.8987640636
3.5677133172 -27.2297834039 -1.8987697144
3.5575196397 -27.2469903284 -1.8987698011
4.7080518009 -25.7634105710 -1.8987573781
3.4083969854 -27.4618818047 -1.8987659394
4.8696313143 -25.5826121146 -1.8987515218
4.8245342192 -25.6228340470 -1.8987517246
3.4454639923 -27.3445598549 -1.8987604031
4.8839912526 -25.5378147179 -1.8987463511
4.1097130347 -26.3339515690 -1.8987503641
3.3091989279 -27.5461600470 -1.8987564744
5.1016261875 -25.3245820246 -1.8987403314
5.0699911211 -25.3499841535 -1.8987404594
