-223.2943600555 23.7968555902 49.5699588461
-223.3374069744 23.4122699694 49.5699527024
-223.3532592614 23.2842504749 49.5699503555
-223.3683699596 22.6338514355 49.5699665163
-223.4099563889 22.3783245206 49.5699598616
-223.0374615858 26.7646337245 49.5700215820
-223.5043834575 21.4724111130 49.5699618923
-223.5434858299 20.9478458589 49.5699725193
-223.5953178233 20.4226044145 49.5699806285
-222.8010455052 29.2873693410 49.5701435043
-222.7824400345 29.1561021162 49.5701480046
-222.7646049791 29.0247279992 49.5701523528
-222.7449522552 29.4299001782 49.5701688550
-222.7255115752 29.2983014230 49.5701735228
-222.6897641768 29.5732001892 49.5701940217
-222.7035121060 30.1132258725 49.5702030701
-222.6800633256 29.9813722446 49.5702085336
-222.6573884840 29.8493833208 49.5702138445
-222.6777903638 30.3909728848 49.5702215649
-222.6527125892 30.2589635777 49.5702273521
-222.6284096949 30.1268094206 49.5702329867
-222.6555040721 30.6698808253 49.5702393719
-222.6028524987 30.4054366768 49.5702514435
-222.6366769083 30.9499071937 49.5702564866
-222.6083207849 30.8176470711 49.5702629249
-222.6213320239 31.2310090943 49.5702729047
-222.5913270459 31.0986541117 49.5702796703
-222.5778320898 31.3807139438 49.5702957159
-222.5469495986 31.2481011875 49.5703026569
-222.5168456278 31.1153095376 49.5703094448
-222.5678582544 31.6637830305 49.5703110577
-222.5035512175 31.3982421161 49.5703254453
-222.5614273362 31.9478174560 49.5703256915
-222.4937881540 31.6821815361 49.5703407399
-222.5585605843 32.2327729324 49.5703396135
-222.5226797167 32.1000324547 49.5703475456
-222.4875782047 31.9670837620 49.5703553246
-222.5217209474 32.3858636226 49.5703610842
-222.4849425886 32.2529043863 49.5703691954
-222.4489448842 32.1197316736 49.5703771534
-222.4859019699 32.5395986367 49.5703823486
-222.4904764534 32.8271213826 49.5703947803
-222.4576275420 32.9823202114 49.5704154472
-223.2049906041 25.0833602852 49.5490395694
-223.3130874931 23.6687590531 49.5490201262
-223.3274366454 23.5405623805 49.5490169899
-223.0425918620 26.7648157268 49.5491189889
-222.8061755130 29.2875512497 49.5493050548
-222.7363786223 28.7618590922 49.5493310218
-222.7500822542 29.4300820765 49.5493436940
-222.7306415921 29.2984833223 49.5493507884
-222.7119733048 29.1667727819 49.5493576508
-222.6948941667 29.5733820771 49.5493820528
-222.7328639258 30.2451215416 49.5493873678
-222.7086420318 30.1134077482 49.5493959065
-222.6625184464 29.8495651978 49.5494122874
-222.6829202614 30.3911547503 49.5494241181
-222.5858709469 30.6854047163 49.5494967419
-222.6264618341 31.2311909315 49.5495024396
-222.6146218188 31.5133250708 49.5495264204
-222.5829618892 31.3808957719 49.5495372108
-222.5729880236 31.6639648502 49.5495606196
-222.5404450639 31.5312887094 49.5495716788
-222.5665570747 31.9479992677 49.5495829499
-222.5323479032 31.8152805111 49.5495945125
-222.5636902917 32.2329547364 49.5496041959
-222.4900723038 32.2530861810 49.5496492655
-222.5294919030 32.6727290997 49.5496564925
