147.8507320309 37.8815895285 15.6099794599
147.4503532576 43.3444339856 15.6099781574
147.1362068209 44.8133902616 15.6099778072
147.4678626336 36.0435156702 15.6099798981
146.6052137494 42.0314395872 15.6099784705
145.9144246824 42.4743669461 15.6099783649
144.0064071603 42.4701787900 15.6099783659
143.6779157757 35.9603561211 15.6099799179
143.3817622137 47.1994473351 15.6099772383
143.4025333192 47.3616897464 15.6099771996
143.4240165900 47.5238393930 15.6099771610
142.8637645915 42.9613737901 15.6099782487
143.7413029531 34.1294222039 15.6099803544
143.6682085700 33.7728052499 15.6099804395
143.4585030047 33.0347489168 15.6099806154
142.2337498732 32.0016155086 15.6099808618
140.4193342187 42.4623050567 15.6099783677
140.3592070498 43.6913967985 15.6099780747
143.3268517761 47.3715478206 15.6099771973
143.4171618222 48.5189725930 15.6099769237
140.8772584860 42.6365949401 15.6099783262
114.3686982675 76.3185169759 69.7318481418
113.3594495565 77.9246391382 69.4870271269
111.6246947227 79.1663160037 69.2850618344
111.0353418829 74.3041512769 69.8068078492
110.5536624874 74.7658192096 69.7236498496
110.6654739553 74.4509594765 69.7684526877
109.5606199433 76.2598227586 69.5031678560
109.9931687708 75.3774710883 69.6226973802
109.9085809514 75.5172842770 69.6024586355
109.9278687624 75.3379923992 69.6241878622
109.3468425851 76.3264513431 69.4866844963
108.2080997227 78.1407668552 69.2606897470
108.0664636871 78.2548314812 69.2453914910
107.9251612681 78.3697906427 69.2302510184
-67.1291374303 110.0901512391 106.4884546522
-67.4400009095 109.3081312665 106.4012413478
-69.1503673162 106.0429114826 105.7699450301
-72.3231790041 106.6045142730 103.8170761960
-70.0230032379 104.3769830215 105.4478550721
-70.0579086748 104.3103458830 105.4349714738
-157.0180983186 12.6845586970 -16.1753536125
-152.8997082349 11.8663445909 -7.0000614410
-152.5260480321 11.7137677300 -6.6180917106
-156.2293492401 12.2878582059 -16.3186172500
-151.2391600543 11.6125105782 3.7393801923
-153.2560009678 11.2394879213 -13.7992639123
-150.7206258860 10.7451018664 -7.2461240356
-154.0326858747 11.2659927568 -16.1647902164
-149.5047229625 10.7092319547 2.8731167205
-150.3145533828 10.5621277382 -7.0081525873
-150.3917268293 10.5713420570 -7.3313008399
-149.1956489163 10.5673663432 3.7210470677
-149.0764071601 10.3377058772 -1.2935282010
-150.1435369560 10.4075771473 -7.7420966460
-149.5024329923 10.2252475328 -6.1652611822
-148.7519673365 10.1618415737 -1.4881215756
-149.4400950745 10.1629291776 -6.5263269935
-149.6283782434 10.1842766322 -7.3537179681
-149.6681489045 10.1890704762 -7.5186898095
-151.0584543004 10.3448854327 -12.4244409690
-79.9135472242 -68.6434790258 -114.4058715244
-79.4316762649 -67.5851022343 -114.2213869656
-79.4090600305 -67.5175431073 -114.1940162893
-79.4601030034 -67.4731222339 -114.0494008556
-79.4151698999 -67.3380980182 -113.9941829977
-79.2449032692 -67.2243529042 -114.2028173531
-79.3253036929 -67.0680495870 -113.8837472817
-82.9069318550 -68.0261409182 -108.7944163766
-78.9944874341 -66.4806925311 -113.9043678974
-79.0432220187 -66.0123661829 -113.3198571600
-78.9209057612 -65.8528316465 -113.3867865598
-78.2442091219 -65.4646178731 -114.3027652791
-78.6074811434 -65.3313992271 -113.4431278294
-78.7411733471 -65.3127347841 -113.1659151278
